ply
format ascii 1.0
comment File generated
element vertex 2249
property float x
property float y
property float z
end_header
-1378.83 949.084 3557
-1376.1 953.086 3572
-1370.62 955.221 3580
-1362.06 955.221 3580
-1353.5 955.221 3580
-1344.94 955.221 3580
-1336.38 955.221 3580
-1327.82 955.221 3580
-1313.73 951.219 3565
-1302.27 949.084 3557
-1288.31 945.082 3542
-1279.84 945.082 3542
-1271.37 945.082 3542
-1262.9 945.082 3542
-1254.43 945.082 3542
-1245.96 945.082 3542
-1237.49 945.082 3542
-1221.39 939.212 3520
-1207.8 935.209 3505
-1184.36 923.469 3461
-1185.94 931.207 3490
-1177.6 931.207 3490
-1171.6 933.075 3497
-1163.23 933.075 3497
-1154.87 933.075 3497
-592.434 482.146 1807
-587.137 481.346 1804
-578.3 477.611 1790
-572.095 476.01 1784
-566.556 474.942 1780
-562.3 474.942 1780
-556.476 473.608 1775
-546.942 469.072 1758
-541.503 468.005 1754
-537.309 468.005 1754
-532.507 467.471 1752
-527.412 466.671 1749
-522.632 466.137 1747
-518.454 466.137 1747
-513.099 465.07 1743
-508.055 464.269 1740
-502.736 463.202 1736
-498.584 463.202 1736
-493.864 462.668 1734
-489.717 462.668 1734
-485.01 462.135 1732
-480.869 462.135 1732
-476.727 462.135 1732
-473.677 463.202 1736
-469.525 463.202 1736
-465.91 463.736 1738
-461.754 463.736 1738
-457.598 463.736 1738
-454.225 464.536 1741
-450.578 465.07 1743
-446.41 465.07 1743
-442.242 465.07 1743
-440.839 468.005 1754
-437.142 468.539 1756
-433.93 469.606 1760
-429.721 469.606 1760
-426.721 470.94 1765
-424.894 473.608 1775
-420.65 473.608 1775
-417.343 474.675 1779
-413.786 475.476 1782
-409.984 476.01 1784
-405.718 476.01 1784
-401.452 476.01 1784
-397.186 476.01 1784
-392.039 474.942 1780
-387.782 474.942 1780
-382.018 473.075 1773
-377.352 472.541 1771
-372.274 471.474 1767
-368.048 471.474 1767
-362.794 470.139 1762
-356.952 468.005 1754
-351.752 466.671 1749
-347.57 466.671 1749
-342.209 465.07 1743
-336.296 462.668 1734
-331.192 461.334 1729
-327.057 461.334 1729
-321.802 459.733 1723
-317.497 459.467 1722
-312.287 457.866 1716
-308.184 457.866 1716
-303.903 457.599 1715
-299.453 457.065 1713
-295.701 457.599 1715
-291.77 457.866 1716
-288.337 458.933 1720
-284.224 458.933 1720
-280.6 459.733 1723
-276.479 459.733 1723
-272.991 460.801 1727
-268.862 460.801 1727
-265.345 461.868 1731
-261.658 462.668 1734
-258.403 464.269 1740
-254.242 464.269 1740
-250.225 464.536 1741
-246.627 465.604 1745
-242.732 466.137 1747
-238.554 466.137 1747
-235.048 467.471 1752
-231.649 469.072 1758
-228.092 470.406 1763
-223.876 470.406 1763
-219.909 470.94 1765
-216.422 472.541 1771
-212.666 473.608 1775
-208.421 473.608 1775
-204.637 474.675 1779
-200.721 475.476 1782
-197.341 477.611 1790
-193.061 477.611 1790
-188.991 478.144 1792
-185.119 479.211 1796
-181.227 480.279 1800
-176.922 480.279 1800
-173.001 481.346 1804
-168.968 482.146 1807
-165.011 483.214 1811
-160.681 483.214 1811
-156.695 484.281 1815
-153.027 486.416 1823
-148.994 487.483 1827
-144.625 487.483 1827
-140.716 489.084 1833
-136.333 489.084 1833
-131.95 489.084 1833
-265.049 1052.34 3944
-255.618 1052.34 3944
-246.187 1052.34 3944
-236.755 1052.34 3944
-227.324 1052.34 3944
-217.893 1052.34 3944
-206.03 1040.07 3898
-199.03 1052.34 3944
-189.599 1052.34 3944
-180.168 1052.34 3944
-170.736 1052.34 3944
-160.937 1049.94 3935
-151.142 1047.27 3925
-141.756 1047.27 3925
-131.46 1040.07 3898
-121.856 1037.67 3889
-110.502 1018.72 3818
-101.372 1018.72 3818
-90.768 1002.45 3757
-81.4138 997.912 3740
-71.8309 989.107 3707
-62.9663 989.107 3707
-53.7515 982.704 3683
-44.444 971.764 3642
-35.6662 969.896 3635
-26.9738 969.896 3635
-18.2009 965.627 3619
-9.44391 955.221 3580
-0.883048 955.221 3580
7.66066 953.086 3572
16.2024 953.086 3572
24.6956 951.219 3565
33.2206 951.219 3565
41.652 949.084 3557
50.1578 949.084 3557
58.5317 946.95 3549
66.8863 945.082 3542
75.0372 941.079 3527
83.4713 941.079 3527
91.723 939.212 3520
100.14 939.212 3520
108.558 939.212 3520
116.975 939.212 3520
125.393 939.212 3520
133.81 939.212 3520
142.227 939.212 3520
150.645 939.212 3520
159.062 939.212 3520
167.479 939.212 3520
175.897 939.212 3520
184.314 939.212 3520
192.732 939.212 3520
200.692 937.077 3512
209.09 937.077 3512
217.488 937.077 3512
225.887 937.077 3512
234.285 937.077 3512
242.683 937.077 3512
252.154 941.079 3527
260.588 941.079 3527
269.022 941.079 3527
278.007 942.947 3534
287.674 946.95 3549
296.828 949.084 3557
305.334 949.084 3557
313.84 949.084 3557
322.345 949.084 3557
330.851 949.084 3557
339.357 949.084 3557
347.863 949.084 3557
356.369 949.084 3557
364.875 949.084 3557
373.381 949.084 3557
381.028 946.95 3549
388.746 945.082 3542
397.216 945.082 3542
402.25 937.077 3512
407.257 929.339 3483
413.797 925.337 3468
419.534 919.734 3447
427.776 919.734 3447
434.248 915.998 3433
439.751 910.395 3412
445.154 904.792 3391
453.262 904.792 3391
457.562 897.321 3363
463.804 893.852 3350
468.012 886.648 3323
475.958 886.648 3323
483.031 885.047 3317
489.927 883.179 3310
497.842 883.179 3310
505.757 883.179 3310
513.672 883.179 3310
521.588 883.179 3310
528.383 881.311 3303
537.418 883.179 3310
546.487 885.047 3317
554.419 885.047 3317
562.35 885.047 3317
570.282 885.047 3317
578.214 885.047 3317
586.146 885.047 3317
596.407 888.516 3330
605.64 890.383 3337
613.62 890.383 3337
621.6 890.383 3337
629.579 890.383 3337
637.559 890.383 3337
645.539 890.383 3337
652.148 888.516 3330
660.111 888.516 3330
670.682 891.984 3343
678.676 891.984 3343
686.67 891.984 3343
694.664 891.984 3343
702.659 891.984 3343
710.653 891.984 3343
718.647 891.984 3343
725.337 890.383 3337
733.317 890.383 3337
739.741 888.516 3330
747.704 888.516 3330
755.667 888.516 3330
763.63 888.516 3330
771.593 888.516 3330
779.556 888.516 3330
787.52 888.516 3330
792.377 885.047 3317
800.309 885.047 3317
811.409 888.516 3330
819.372 888.516 3330
829.074 890.383 3337
838.559 891.984 3343
848.325 893.852 3350
856.336 893.852 3350
871.314 901.056 3377
881.212 902.924 3384
896.662 910.395 3412
904.821 910.395 3412
922.346 919.734 3447
936.258 925.337 3468
950.543 931.207 3490
958.889 931.207 3490
975.549 939.212 3520
990.116 945.082 3542
1002.81 949.084 3557
1011.32 949.084 3557
1022.12 951.219 3565
1039.32 959.223 3595
1050.25 961.358 3603
1063.56 965.627 3619
1072.22 965.627 3619
1087.74 971.764 3642
1101.27 976.033 3658
1110.02 976.033 3658
1118.76 976.033 3658
1127.51 976.033 3658
1139.05 978.434 3667
1147.82 978.434 3667
1156.59 978.434 3667
1167.9 980.569 3675
1176.69 980.569 3675
1185.48 980.569 3675
1191.67 978.434 3667
1200.44 978.434 3667
1209.2 978.434 3667
1217.97 978.434 3667
1226.74 978.434 3667
1235.51 978.434 3667
1244.28 978.434 3667
1253.05 978.434 3667
1261.82 978.434 3667
1267.47 976.033 3658
1276.22 976.033 3658
1284.96 976.033 3658
1293.71 976.033 3658
1302.46 976.033 3658
1314.43 978.434 3667
1323.2 978.434 3667
1331.97 978.434 3667
1340.74 978.434 3667
1343.25 973.898 3650
1346.42 969.896 3635
1355.12 969.896 3635
1363.81 969.896 3635
1366.46 965.627 3619
1372.07 963.492 3611
1380.71 963.492 3611
1386.27 961.358 3603
1389.07 957.356 3588
1394.54 955.221 3580
1403.1 955.221 3580
1405.74 951.219 3565
1414.27 951.219 3565
1416.41 946.95 3549
1418.87 942.947 3534
1427.32 942.947 3534
1423.99 935.209 3505
1429.11 933.075 3497
1434.59 931.207 3490
1442.94 931.207 3490
1448.37 929.339 3483
1450.43 925.337 3468
1455.78 923.469 3461
1464.05 923.469 3461
1469.35 921.602 3454
1477.61 921.602 3454
1507.81 935.209 3505
1528.73 942.947 3534
1537.19 942.947 3534
1555.7 949.084 3557
1577.83 957.356 3588
1607.19 969.896 3635
1615.89 969.896 3635
1634.86 976.033 3658
1662.03 986.973 3699
1728.24 1020.86 3826
1737.39 1020.86 3826
1758.86 1028.06 3853
1776.34 1032.87 3871
1798.05 1040.07 3898
1807.37 1040.07 3898
1829.28 1047.27 3925
1843.35 1049.94 3935
1852.76 1049.94 3935
1862.17 1049.94 3935
1871.58 1049.94 3935
1876.2 1047.27 3925
1876.94 1042.47 3907
1886.29 1042.47 3907
1878.16 1032.87 3871
1865.48 1020.86 3826
1870.71 1018.72 3818
1879.84 1018.72 3818
1863.24 1004.85 3766
1863.79 1000.31 3749
1839.79 982.704 3683
1848.6 982.704 3683
1833.2 969.896 3635
1829.73 963.492 3611
1826.65 957.356 3588
1835.23 957.356 3588
1843.81 957.356 3588
1848.26 955.221 3580
1856.82 955.221 3580
1861.22 953.086 3572
1869.76 953.086 3572
1878.3 953.086 3572
1891.07 955.221 3580
1907.59 959.223 3595
1933.24 967.762 3627
1941.91 967.762 3627
1962.96 973.898 3650
1980.87 978.434 3667
2002.66 984.838 3691
2029.47 993.643 3724
2038.38 993.643 3724
2108.3 1023.26 3835
2182.63 1054.75 3953
2192.08 1054.75 3953
2238.85 1072.62 4020
2270.27 1083.03 4059
2279.98 1083.03 4059
2289.69 1083.03 4059
2299.39 1083.03 4059
2309.1 1083.03 4059
2313.09 1080.36 4049
2322.77 1080.36 4049
2332.46 1080.36 4049
2342.14 1080.36 4049
2346.01 1077.69 4039
2355.67 1077.69 4039
2360.06 1075.29 4030
2369.7 1075.29 4030
2379.33 1075.29 4030
2418.02 1088.36 4079
2427.77 1088.36 4079
2443.5 1091.03 4089
2453.28 1091.03 4089
2463.06 1091.03 4089
2472.84 1091.03 4089
2590.17 1091.03 4089
2599.95 1091.03 4089
2609.73 1091.03 4089
2613.1 1088.36 4079
2622.85 1088.36 4079
2626.15 1085.7 4069
2629.41 1083.03 4059
2632.61 1080.36 4049
2642.29 1080.36 4049
2645.43 1077.69 4039
2642.59 1072.62 4020
2652.21 1072.62 4020
2655.2 1069.95 4010
2664.79 1069.95 4010
2661.71 1064.88 3991
2671.25 1064.88 3991
2643.18 1049.94 3935
2652.59 1049.94 3935
2655.23 1047.27 3925
2652.4 1042.47 3907
2655.61 1040.07 3898
2664.93 1040.07 3898
2649.55 1030.46 3862
2640.2 1023.26 3835
2619.67 1011.79 3792
543.534 190.777 715
545.244 190.777 715
546.954 190.777 715
-2370.46 852.341 3166
-2362.89 852.341 3166
-2346.39 849.11 3154
-2329.95 845.88 3142
-2309.13 841.034 3124
-2301.66 841.034 3124
-2285.38 837.803 3112
-2274.28 836.457 3107
-2266.85 836.457 3107
-2263.06 837.803 3112
-2255.61 837.803 3112
-2261.18 842.649 3130
-2266.65 847.495 3148
-2263.43 849.11 3154
-2255.89 849.11 3154
-2261.18 853.956 3172
-2279.17 863.648 3208
-2280.7 867.148 3221
-2273 867.148 3221
-2273.74 870.379 3233
-2292.64 880.609 3271
-2312.06 891.108 3310
-2304.14 891.108 3310
-2333 905.377 3363
-2329.79 907.261 3370
-2321.73 907.261 3370
-2313.68 907.261 3370
-2310.41 909.146 3377
-2302.33 909.146 3377
-2299.01 911.03 3384
-2290.92 911.03 3384
-2282.83 911.03 3384
-2270.03 909.146 3377
-2271.33 912.915 3391
-2263.22 912.915 3391
-2259.77 914.799 3398
-2260.92 918.568 3412
-2252.76 918.568 3412
-2244.6 918.568 3412
-2241.03 920.453 3419
-2232.85 920.453 3419
-2224.68 920.453 3419
-2216.5 920.453 3419
-2226.41 927.991 3447
-2218.17 927.991 3447
-2214.41 929.876 3454
-2206.15 929.876 3454
-2202.35 931.76 3461
-2198.51 933.645 3468
-2199.69 937.683 3483
-2191.36 937.683 3483
-2187.42 939.567 3490
-2197.81 947.644 3520
-2193.74 949.528 3527
-2185.31 949.528 3527
-2190.45 955.451 3549
-2186.88 957.605 3557
-2183.28 959.759 3565
-2174.75 959.759 3565
-2166.23 959.759 3565
-2161.94 961.643 3572
-2163.04 965.951 3588
-2154.46 965.951 3588
-2154.85 969.989 3603
-2151 972.143 3611
-2142.37 972.143 3611
-2133.73 972.143 3611
-2125.1 972.143 3611
-2111.78 969.989 3603
-2103.16 969.989 3603
-2094.54 969.989 3603
-2085.93 969.989 3603
-2077.31 969.989 3603
-2073.29 972.143 3611
-2064.65 972.143 3611
-2056.02 972.143 3611
-2047.38 972.143 3611
-2038.75 972.143 3611
-2030.11 972.143 3611
-2021.48 972.143 3611
-2008.39 969.989 3603
-1999.77 969.989 3603
-1991.15 969.989 3603
-1982.54 969.989 3603
-1973.92 969.989 3603
-1969.67 972.143 3611
-1961.03 972.143 3611
-1956.73 974.296 3619
-1956.68 978.604 3635
-1947.99 978.604 3635
-1939.3 978.604 3635
-1938.57 982.642 3650
-1938.83 987.219 3667
-1938.49 991.526 3683
-1929.68 991.526 3683
-1925.04 993.68 3691
-1916.22 993.68 3691
-1907.39 993.68 3691
-1898.56 993.68 3691
-1889.74 993.68 3691
-1884.99 995.834 3699
-1888.82 1002.56 3724
-1879.92 1002.56 3724
-1871.01 1002.56 3724
-1853.61 997.987 3707
-1844.74 997.987 3707
-1835.88 997.987 3707
-1827.01 997.987 3707
-1818.15 997.987 3707
-1809.28 997.987 3707
-1796.53 995.834 3699
-1776.09 989.373 3675
-1755.28 982.642 3650
-1746.55 982.642 3650
-1734.01 980.488 3642
-1721.99 978.604 3635
-1694.44 967.835 3595
-1682.56 965.951 3588
-1673.98 965.951 3588
-1657.98 961.643 3572
-1646.2 959.759 3565
-1634 957.605 3557
-1625.5 957.605 3557
-1610.17 953.567 3542
-1598.09 951.413 3534
-1586.49 949.528 3527
-1578.05 949.528 3527
-1566.5 947.644 3520
-1554.54 945.49 3512
-1543.06 943.606 3505
-1534.68 943.606 3505
-1522.82 941.452 3497
-1514.45 941.452 3497
-1509.54 943.606 3505
-1501.16 943.606 3505
-1492.77 943.606 3505
-1487.36 945.49 3512
-1478.96 945.49 3512
-1473.91 947.644 3520
-1465.49 947.644 3520
-1457.08 947.644 3520
-1448.66 947.644 3520
-1440.24 947.644 3520
-1431.82 947.644 3520
-1423.41 947.644 3520
-1414.99 947.644 3520
-1406.57 947.644 3520
-1398.15 947.644 3520
-1389.74 947.644 3520
-1386.81 951.413 3534
-1387.33 957.605 3557
-1378.83 957.605 3557
-1373.4 959.759 3565
-1367.56 961.643 3572
-1359.02 961.643 3572
-1350.48 961.643 3572
-1341.93 961.643 3572
-1333.39 961.643 3572
-1324.85 961.643 3572
-1310.78 957.605 3557
-1302.27 957.605 3557
-1288.31 953.567 3542
-1279.84 953.567 3542
-1268.5 951.413 3534
-1260.05 951.413 3534
-1251.6 951.413 3534
-1243.15 951.413 3534
-1234.7 951.413 3534
-1221.39 947.644 3520
-1207.8 943.606 3505
-1189.5 935.798 3476
-1185.94 939.567 3490
-1177.6 939.567 3490
-1171.6 941.452 3497
-1163.23 941.452 3497
-1154.87 941.452 3497
-594.401 488.09 1813
-587.137 485.668 1804
-578.3 481.898 1790
-572.737 480.822 1786
-566.556 479.206 1780
-562.3 479.206 1780
-556.476 477.86 1775
-546.942 473.284 1758
-541.503 472.207 1754
-537.309 472.207 1754
-532.507 471.668 1752
-527.412 470.861 1749
-522.632 470.322 1747
-518.454 470.322 1747
-513.099 469.245 1743
-508.055 468.438 1740
-502.736 467.361 1736
-498.584 467.361 1736
-493.864 466.822 1734
-489.717 466.822 1734
-485.01 466.284 1732
-480.869 466.284 1732
-476.727 466.284 1732
-473.677 467.361 1736
-469.525 467.361 1736
-465.91 467.899 1738
-461.754 467.899 1738
-457.598 467.899 1738
-454.746 469.245 1743
-450.578 469.245 1743
-446.41 469.245 1743
-442.75 469.784 1745
-440.839 472.207 1754
-437.142 472.745 1756
-433.436 473.284 1758
-429.233 473.284 1758
-426.237 474.63 1763
-424.894 477.86 1775
-420.65 477.86 1775
-417.343 478.937 1779
-413.786 479.745 1782
-409.525 479.745 1782
-405.263 479.745 1782
-401.002 479.745 1782
-396.295 479.206 1780
-392.039 479.206 1780
-387.782 479.206 1780
-382.018 477.322 1773
-375.647 474.63 1763
-371.431 474.63 1763
-367.215 474.63 1763
-361.558 472.745 1756
-356.952 472.207 1754
-350.948 469.784 1745
-346.775 469.784 1745
-341.228 467.899 1738
-335.714 466.015 1731
-330.808 464.938 1727
-326.679 464.938 1727
-321.802 463.861 1723
-317.497 463.592 1722
-312.287 461.976 1716
-308.184 461.976 1716
-303.903 461.707 1715
-299.453 461.169 1713
-295.701 461.707 1715
-292.11 462.515 1718
-288.672 463.592 1722
-284.555 463.592 1722
-280.6 463.861 1723
-276.8 464.399 1725
-273.308 465.476 1729
-269.173 465.476 1729
-265.805 466.822 1734
-262.262 467.899 1738
-258.551 468.707 1741
-254.388 468.707 1741
-250.512 469.245 1743
-246.627 469.784 1745
-243.01 470.861 1749
-238.828 470.861 1749
-235.048 471.668 1752
-232.176 474.36 1762
-228.35 475.168 1765
-224.13 475.168 1765
-220.408 476.245 1769
-216.666 477.322 1773
-213.145 478.937 1779
-208.891 478.937 1779
-204.752 479.206 1780
-201.171 480.822 1786
-197.341 481.898 1790
-193.061 481.898 1790
-188.991 482.437 1792
-185.119 483.514 1796
-181.227 484.591 1800
-176.922 484.591 1800
-173.001 485.668 1804
-168.968 486.475 1807
-165.011 487.552 1811
-160.681 487.552 1811
-156.695 488.629 1815
-153.027 490.783 1823
-148.994 491.859 1827
-144.625 491.859 1827
-140.716 493.475 1833
-136.333 493.475 1833
-131.95 493.475 1833
-246.187 1061.79 3944
-236.755 1061.79 3944
-227.324 1061.79 3944
-216.843 1056.68 3925
-206.03 1049.41 3898
-199.03 1061.79 3944
-189.599 1061.79 3944
-180.168 1061.79 3944
-170.736 1061.79 3944
-160.937 1059.37 3935
-151.142 1056.68 3925
-141.756 1056.68 3925
-131.46 1049.41 3898
-121.856 1046.98 3889
-110.502 1027.87 3818
-101.372 1027.87 3818
-90.768 1011.45 3757
-81.4138 1006.87 3740
-71.8309 997.987 3707
-62.9663 997.987 3707
-53.7515 991.526 3683
-44.444 980.488 3642
-35.6662 978.604 3635
-26.9738 978.604 3635
-18.2009 974.296 3619
-9.44391 963.797 3580
-0.883048 963.797 3580
7.66066 961.643 3572
16.2024 961.643 3572
24.6956 959.759 3565
33.2206 959.759 3565
41.652 957.605 3557
50.1578 957.605 3557
58.5317 955.451 3549
66.8863 953.567 3542
75.0372 949.528 3527
83.4713 949.528 3527
91.723 947.644 3520
100.14 947.644 3520
108.558 947.644 3520
116.975 947.644 3520
125.393 947.644 3520
133.81 947.644 3520
142.227 947.644 3520
150.645 947.644 3520
159.062 947.644 3520
167.479 947.644 3520
175.897 947.644 3520
184.314 947.644 3520
192.732 947.644 3520
200.692 945.49 3512
209.09 945.49 3512
217.488 945.49 3512
225.887 945.49 3512
234.285 945.49 3512
242.683 945.49 3512
252.154 949.528 3527
260.588 949.528 3527
269.022 949.528 3527
278.007 951.413 3534
287.674 955.451 3549
296.828 957.605 3557
305.334 957.605 3557
313.84 957.605 3557
322.345 957.605 3557
330.851 957.605 3557
339.357 957.605 3557
347.863 957.605 3557
356.369 957.605 3557
364.875 957.605 3557
373.381 957.605 3557
381.028 955.451 3549
388.746 953.567 3542
397.216 953.567 3542
402.25 945.49 3512
407.257 937.683 3483
413.797 933.645 3468
419.534 927.991 3447
427.776 927.991 3447
434.248 924.222 3433
439.751 918.568 3412
445.154 912.915 3391
453.262 912.915 3391
457.562 905.377 3363
463.804 901.877 3350
468.012 894.608 3323
475.958 894.608 3323
483.031 892.993 3317
489.927 891.108 3310
497.842 891.108 3310
505.757 891.108 3310
513.672 891.108 3310
521.588 891.108 3310
528.383 889.224 3303
537.418 891.108 3310
546.487 892.993 3317
554.419 892.993 3317
562.35 892.993 3317
570.282 892.993 3317
578.214 892.993 3317
586.146 892.993 3317
596.407 896.493 3330
605.64 898.377 3337
613.62 898.377 3337
621.6 898.377 3337
629.579 898.377 3337
636.222 896.493 3330
644.185 896.493 3330
652.148 896.493 3330
660.111 896.493 3330
670.682 899.992 3343
678.676 899.992 3343
686.67 899.992 3343
694.664 899.992 3343
702.659 899.992 3343
710.653 899.992 3343
718.647 899.992 3343
725.337 898.377 3337
733.317 898.377 3337
739.741 896.493 3330
747.704 896.493 3330
755.667 896.493 3330
763.63 896.493 3330
771.593 896.493 3330
779.556 896.493 3330
787.52 896.493 3330
792.377 892.993 3317
800.309 892.993 3317
811.409 896.493 3330
819.372 896.493 3330
829.074 898.377 3337
838.559 899.992 3343
848.325 901.877 3350
856.336 901.877 3350
871.314 909.146 3377
881.212 911.03 3384
896.662 918.568 3412
904.821 918.568 3412
922.346 927.991 3447
936.258 933.645 3468
950.543 939.567 3490
958.889 939.567 3490
975.549 947.644 3520
990.116 953.567 3542
1002.81 957.605 3557
1011.32 957.605 3557
1022.12 959.759 3565
1039.32 967.835 3595
1050.25 969.989 3603
1063.56 974.296 3619
1072.22 974.296 3619
1087.74 980.488 3642
1101.27 984.796 3658
1110.02 984.796 3658
1118.76 984.796 3658
1127.51 984.796 3658
1139.05 987.219 3667
1147.82 987.219 3667
1156.59 987.219 3667
1167.9 989.373 3675
1176.69 989.373 3675
1185.48 989.373 3675
1191.67 987.219 3667
1200.44 987.219 3667
1209.2 987.219 3667
1217.97 987.219 3667
1226.74 987.219 3667
1235.51 987.219 3667
1244.28 987.219 3667
1253.05 987.219 3667
1261.82 987.219 3667
1267.47 984.796 3658
1276.22 984.796 3658
1284.96 984.796 3658
1293.71 984.796 3658
1302.46 984.796 3658
1314.43 987.219 3667
1323.2 987.219 3667
1331.97 987.219 3667
1340.74 987.219 3667
1343.25 982.642 3650
1349.02 980.488 3642
1357.73 980.488 3642
1363.81 978.604 3635
1369.48 976.45 3627
1375.11 974.296 3619
1383.77 974.296 3619
1389.34 972.143 3611
1391.78 967.835 3595
1394.54 963.797 3580
1403.1 963.797 3580
1408.51 961.643 3572
1414.27 959.759 3565
1416.41 955.451 3549
1418.87 951.413 3534
1427.32 951.413 3534
1426.84 945.49 3512
1432.37 943.606 3505
1437.47 941.452 3497
1445.83 941.452 3497
1448.37 937.683 3483
1453.77 935.798 3476
1458.72 933.645 3468
1467.01 933.645 3468
1469.35 929.876 3454
1477.61 929.876 3454
1507.81 943.606 3505
1528.73 951.413 3534
1537.19 951.413 3534
1555.7 957.605 3557
1577.83 965.951 3588
1607.19 978.604 3635
1615.89 978.604 3635
1634.86 984.796 3658
1662.03 995.834 3699
1728.24 1030.02 3826
1737.39 1030.02 3826
1758.86 1037.29 3853
1776.34 1042.14 3871
1798.05 1049.41 3898
1807.37 1049.41 3898
1829.28 1056.68 3925
1843.35 1059.37 3935
1852.76 1059.37 3935
1862.17 1059.37 3935
1871.58 1059.37 3935
1876.2 1056.68 3925
1876.94 1051.83 3907
1886.29 1051.83 3907
1878.16 1042.14 3871
1865.48 1030.02 3826
1870.71 1027.87 3818
1879.84 1027.87 3818
1863.24 1013.87 3766
1863.79 1009.29 3749
1839.79 991.526 3683
1848.6 991.526 3683
1833.2 978.604 3635
1829.73 972.143 3611
1826.65 965.951 3588
1835.23 965.951 3588
1843.81 965.951 3588
1848.26 963.797 3580
1856.82 963.797 3580
1861.22 961.643 3572
1869.76 961.643 3572
1878.3 961.643 3572
1891.07 963.797 3580
1907.59 967.835 3595
1933.24 976.45 3627
1941.91 976.45 3627
1962.96 982.642 3650
1980.87 987.219 3667
2002.66 993.68 3691
2029.47 1002.56 3724
2038.38 1002.56 3724
2108.3 1032.45 3835
2182.63 1064.21 3953
2192.08 1064.21 3953
2238.85 1082.25 4020
2270.27 1092.75 4059
2279.98 1092.75 4059
2289.69 1092.75 4059
2299.39 1092.75 4059
2309.1 1092.75 4059
2313.09 1090.06 4049
2322.77 1090.06 4049
2332.46 1090.06 4049
2342.14 1090.06 4049
2351.82 1090.06 4049
2361.5 1090.06 4049
2365.33 1087.37 4039
2369.7 1084.94 4030
2379.33 1084.94 4030
2418.02 1098.14 4079
2427.77 1098.14 4079
2443.5 1100.83 4089
2453.28 1100.83 4089
2463.06 1100.83 4089
2472.84 1100.83 4089
2590.17 1100.83 4089
2599.95 1100.83 4089
2609.73 1100.83 4089
2619.51 1100.83 4089
2629.28 1100.83 4089
2626.15 1095.44 4069
2629.41 1092.75 4059
2639.11 1092.75 4059
2648.82 1092.75 4059
2651.98 1090.06 4049
2649.17 1084.94 4030
2652.21 1082.25 4020
2661.82 1082.25 4020
2671.43 1082.25 4020
2681.05 1082.25 4020
2671.25 1074.45 3991
2674.75 1072.02 3982
2684.27 1072.02 3982
2655.23 1056.68 3925
2652.4 1051.83 3907
2655.61 1049.41 3898
2664.93 1049.41 3898
2649.55 1039.72 3862
2640.2 1032.45 3835
2619.67 1020.87 3792
543.534 192.49 715
545.244 192.49 715
546.954 192.49 715
-2374.95 861.555 3172
-2367.37 861.555 3172
-2346.39 856.666 3154
-2334.4 855.036 3148
-2313.57 850.147 3130
-2306.08 850.147 3130
-2294.19 848.518 3124
-2274.28 843.9 3107
-2266.85 843.9 3107
-2276.14 850.147 3130
-2268.66 850.147 3130
-2265.51 851.777 3136
-2270.97 856.666 3154
-2272.04 859.925 3166
-2264.47 859.925 3166
-2265.45 863.185 3178
-2279.17 871.333 3208
-2284.95 876.494 3227
-2277.23 876.494 3227
-2282.88 881.654 3246
-2301.75 891.976 3284
-2316.95 900.939 3317
-2309.02 900.939 3317
-2333 913.433 3363
-2329.79 915.334 3370
-2321.73 915.334 3370
-2313.68 915.334 3370
-2315.2 919.137 3384
-2307.1 919.137 3384
-2299.01 919.137 3384
-2290.92 919.137 3384
-2282.83 919.137 3384
-2270.03 917.235 3377
-2271.33 921.038 3391
-2263.22 921.038 3391
-2259.77 922.939 3398
-2260.92 926.742 3412
-2252.76 926.742 3412
-2244.6 926.742 3412
-2241.03 928.643 3419
-2232.85 928.643 3419
-2224.68 928.643 3419
-2216.5 928.643 3419
-2226.41 936.248 3447
-2218.17 936.248 3447
-2214.41 938.15 3454
-2206.15 938.15 3454
-2202.35 940.051 3461
-2198.51 941.952 3468
-2199.69 946.026 3483
-2191.36 946.026 3483
-2187.42 947.928 3490
-2197.81 956.076 3520
-2198.1 959.879 3534
-2189.65 959.879 3534
-2190.45 963.953 3549
-2186.88 966.126 3557
-2183.28 968.299 3565
-2174.75 968.299 3565
-2170.48 970.2 3572
-2166.78 972.373 3580
-2163.04 974.546 3588
-2154.46 974.546 3588
-2154.85 978.62 3603
-2151 980.793 3611
-2142.37 980.793 3611
-2133.73 980.793 3611
-2125.1 980.793 3611
-2111.78 978.62 3603
-2103.16 978.62 3603
-2094.54 978.62 3603
-2085.93 978.62 3603
-2077.31 978.62 3603
-2073.29 980.793 3611
-2064.65 980.793 3611
-2056.02 980.793 3611
-2047.38 980.793 3611
-2038.75 980.793 3611
-2030.11 980.793 3611
-2021.48 980.793 3611
-2008.39 978.62 3603
-1999.77 978.62 3603
-1991.15 978.62 3603
-1982.54 978.62 3603
-1973.92 978.62 3603
-1969.67 980.793 3611
-1961.03 980.793 3611
-1956.73 982.966 3619
-1956.68 987.312 3635
-1947.99 987.312 3635
-1939.3 987.312 3635
-1930.61 987.312 3635
-1938.83 996.003 3667
-1934.28 998.176 3675
-1925.49 998.176 3675
-1920.87 1000.35 3683
-1912.06 1000.35 3683
-1903.26 1000.35 3683
-1894.45 1000.35 3683
-1885.64 1000.35 3683
-1884.99 1004.69 3699
-1880.2 1006.87 3707
-1871.34 1006.87 3707
-1862.47 1006.87 3707
-1853.61 1006.87 3707
-1844.74 1006.87 3707
-1835.88 1006.87 3707
-1831.45 1009.31 3716
-1822.56 1009.31 3716
-1813.68 1009.31 3716
-1800.42 1006.87 3707
-1776.09 998.176 3675
-1759.13 993.559 3658
-1750.38 993.559 3658
-1737.82 991.386 3650
-1721.99 987.312 3635
-1698.21 978.62 3603
-1682.56 974.546 3588
-1673.98 974.546 3588
-1657.98 970.2 3572
-1646.2 968.299 3565
-1634 966.126 3557
-1625.5 966.126 3557
-1610.17 962.052 3542
-1594.92 957.977 3527
-1586.49 957.977 3527
-1578.05 957.977 3527
-1562.94 953.903 3512
-1551.45 952.002 3505
-1539.54 949.829 3497
-1531.18 949.829 3497
-1519.77 947.928 3490
-1508.39 946.026 3483
-1506.09 949.829 3497
-1501.16 952.002 3505
-1492.77 952.002 3505
-1484.39 952.002 3505
-1476.01 952.002 3505
-1473.91 956.076 3520
-1465.49 956.076 3520
-1457.08 956.076 3520
-1448.66 956.076 3520
-1440.24 956.076 3520
-1431.82 956.076 3520
-1423.41 956.076 3520
-1414.99 956.076 3520
-1406.57 956.076 3520
-1398.15 956.076 3520
-1389.74 956.076 3520
-1386.81 959.879 3534
-1384.21 963.953 3549
-1375.73 963.953 3549
-1370.32 966.126 3557
-1367.56 970.2 3572
-1359.02 970.2 3572
-1350.48 970.2 3572
-1341.93 970.2 3572
-1330.78 968.299 3565
-1322.25 968.299 3565
-1310.78 966.126 3557
-1296.78 962.052 3542
-1285.4 959.879 3534
-1271.89 956.076 3520
-1263.48 956.076 3520
-1255.06 956.076 3520
-1246.64 956.076 3520
-1238.22 956.076 3520
-1229.81 956.076 3520
-1218.61 953.903 3512
-1205.05 949.829 3497
-1189.5 944.125 3476
-1181.19 944.125 3476
-1156 930.544 3426
-1171.6 949.829 3497
-1163.23 949.829 3497
-1154.87 949.829 3497
-594.401 492.434 1813
-582.58 486.186 1790
-577.008 485.1 1786
-572.737 485.1 1786
-566.556 483.47 1780
-562.3 483.47 1780
-556.476 482.112 1775
-546.942 477.495 1758
-540.886 475.865 1752
-536.696 475.865 1752
-532.203 475.594 1751
-527.412 475.05 1749
-522.632 474.507 1747
-518.454 474.507 1747
-513.099 473.421 1743
-508.347 472.877 1741
-502.736 471.519 1736
-498.584 471.519 1736
-493.864 470.976 1734
-489.717 470.976 1734
-485.01 470.433 1732
-480.869 470.433 1732
-476.727 470.433 1732
-473.677 471.519 1736
-469.525 471.519 1736
-465.91 472.063 1738
-461.754 472.063 1738
-457.598 472.063 1738
-454.746 473.421 1743
-450.578 473.421 1743
-446.41 473.421 1743
-442.75 473.964 1745
-441.342 476.952 1756
-437.64 477.495 1758
-433.93 478.038 1760
-429.721 478.038 1760
-427.205 479.939 1767
-425.373 482.655 1777
-421.124 482.655 1777
-418.047 484.014 1782
-413.786 484.014 1782
-409.525 484.014 1782
-405.263 484.014 1782
-401.002 484.014 1782
-396.295 483.47 1780
-392.039 483.47 1780
-387.782 483.47 1780
-380.294 479.396 1765
-376.073 479.396 1765
-371.431 478.853 1763
-367.215 478.853 1763
-361.97 477.495 1758
-355.527 474.507 1747
-350.948 473.964 1745
-346.775 473.964 1745
-341.228 472.063 1738
-335.714 470.161 1731
-330.808 469.075 1727
-326.679 469.075 1727
-321.615 467.717 1722
-317.497 467.717 1722
-312.105 465.815 1715
-308.004 465.815 1715
-303.903 465.815 1715
-299.453 465.272 1713
-295.874 466.087 1716
-292.11 466.63 1718
-288.672 467.717 1722
-284.555 467.717 1722
-280.6 467.988 1723
-277.121 469.075 1727
-273.308 469.618 1729
-269.173 469.618 1729
-265.805 470.976 1734
-262.564 472.606 1740
-258.551 472.877 1741
-254.388 472.877 1741
-250.512 473.421 1743
-246.627 473.964 1745
-243.427 475.865 1752
-239.237 475.865 1752
-235.316 476.408 1754
-232.308 478.853 1763
-228.35 479.396 1765
-224.13 479.396 1765
-220.906 481.569 1773
-216.911 482.112 1775
-213.265 483.47 1780
-209.009 483.47 1780
-204.982 484.014 1782
-201.397 485.643 1788
-197.562 486.73 1792
-193.277 486.73 1792
-189.202 487.273 1794
-185.119 487.816 1796
-181.227 488.903 1800
-176.922 488.903 1800
-173.097 490.261 1805
-169.342 491.89 1811
-165.376 492.977 1815
-161.036 492.977 1815
-157.041 494.063 1819
-153.195 495.693 1825
-149.483 497.866 1833
-145.1 497.866 1833
-141.177 499.495 1839
-136.779 499.495 1839
-132.382 499.495 1839
-245.001 1066.08 3925
-235.615 1066.08 3925
-226.229 1066.08 3925
-215.351 1058.75 3898
-206.03 1058.75 3898
-198.071 1066.08 3925
-189.599 1071.24 3944
-180.168 1071.24 3944
-170.736 1071.24 3944
-160.528 1066.08 3925
-150.449 1061.19 3907
-141.106 1061.19 3907
-131.46 1058.75 3898
-121.856 1056.3 3889
-110.502 1037.02 3818
-101.372 1037.02 3818
-90.768 1020.45 3757
-81.4138 1015.83 3740
-71.8309 1006.87 3707
-62.9663 1006.87 3707
-53.7515 1000.35 3683
-44.444 989.213 3642
-35.6662 987.312 3635
-26.9738 987.312 3635
-18.2009 982.966 3619
-9.46502 974.546 3588
-0.885022 974.546 3588
7.69497 974.546 3588
16.275 974.546 3588
24.6956 968.299 3565
33.2206 968.299 3565
41.7456 968.299 3565
50.2706 968.299 3565
58.6637 966.126 3557
67.0185 963.953 3549
75.1861 959.879 3534
83.6369 959.879 3534
91.9054 957.977 3527
100.14 956.076 3520
108.558 956.076 3520
116.975 956.076 3520
125.393 956.076 3520
133.81 956.076 3520
142.227 956.076 3520
150.645 956.076 3520
159.062 956.076 3520
167.479 956.076 3520
175.897 956.076 3520
184.314 956.076 3520
192.732 956.076 3520
200.692 953.903 3512
209.09 953.903 3512
217.488 953.903 3512
225.887 953.903 3512
234.285 953.903 3512
243.236 956.076 3520
252.154 957.977 3527
260.588 957.977 3527
269.022 957.977 3527
278.636 962.052 3542
288.322 966.126 3557
296.828 966.126 3557
305.334 966.126 3557
314.545 968.299 3565
323.07 968.299 3565
331.595 968.299 3565
340.12 968.299 3565
348.645 968.299 3565
357.17 968.299 3565
365.695 968.299 3565
374.22 968.299 3565
381.887 966.126 3557
388.746 962.052 3542
397.216 962.052 3542
402.25 953.903 3512
408.076 947.928 3490
413.797 941.952 3468
419.534 936.248 3447
427.776 936.248 3447
434.248 932.446 3433
439.751 926.742 3412
446.072 922.939 3398
454.198 922.939 3398
457.562 913.433 3363
464.773 911.803 3357
468.012 902.568 3323
475.958 902.568 3323
483.031 900.939 3317
490.963 900.939 3317
497.842 899.037 3310
505.757 899.037 3310
513.672 899.037 3310
521.588 899.037 3310
528.383 897.136 3303
537.418 899.037 3310
546.487 900.939 3317
554.419 900.939 3317
562.35 900.939 3317
570.282 900.939 3317
578.214 900.939 3317
586.146 900.939 3317
596.407 904.47 3330
605.64 906.371 3337
613.62 906.371 3337
621.6 906.371 3337
629.579 906.371 3337
636.222 904.47 3330
644.185 904.47 3330
652.148 904.47 3330
660.111 904.47 3330
670.682 908.001 3343
678.676 908.001 3343
686.67 908.001 3343
694.664 908.001 3343
702.659 908.001 3343
710.653 908.001 3343
718.647 908.001 3343
726.641 908.001 3343
734.635 908.001 3343
741.296 906.371 3337
749.276 906.371 3337
757.256 906.371 3337
765.236 906.371 3337
773.215 906.371 3337
781.195 906.371 3337
787.52 904.47 3330
792.377 900.939 3317
800.309 900.939 3317
811.409 904.47 3330
819.372 904.47 3330
829.074 906.371 3337
838.559 908.001 3343
848.325 909.902 3350
856.336 909.902 3350
869.507 915.334 3370
881.212 919.137 3384
894.823 924.841 3405
902.965 924.841 3405
922.346 936.248 3447
936.258 941.952 3468
950.543 947.928 3490
958.889 947.928 3490
975.549 956.076 3520
990.116 962.052 3542
1002.81 966.126 3557
1011.32 966.126 3557
1022.12 968.299 3565
1039.32 976.447 3595
1050.25 978.62 3603
1063.56 982.966 3619
1072.22 982.966 3619
1087.74 989.213 3642
1101.27 993.559 3658
1110.02 993.559 3658
1118.76 993.559 3658
1127.51 993.559 3658
1139.05 996.003 3667
1147.82 996.003 3667
1156.59 996.003 3667
1165.36 996.003 3667
1174.13 996.003 3667
1182.9 996.003 3667
1191.67 996.003 3667
1200.44 996.003 3667
1209.2 996.003 3667
1217.97 996.003 3667
1226.74 996.003 3667
1235.51 996.003 3667
1241.23 993.559 3658
1249.97 993.559 3658
1258.72 993.559 3658
1267.47 993.559 3658
1276.22 993.559 3658
1284.96 993.559 3658
1293.71 993.559 3658
1302.46 993.559 3658
1314.43 996.003 3667
1323.2 996.003 3667
1331.97 996.003 3667
1340.74 996.003 3667
1343.25 991.386 3650
1349.02 989.213 3642
1357.73 989.213 3642
1363.81 987.312 3635
1369.48 985.139 3627
1375.11 982.966 3619
1383.77 982.966 3619
1389.34 980.793 3611
1391.78 976.447 3595
1394.54 972.373 3580
1403.1 972.373 3580
1408.51 970.2 3572
1414.27 968.299 3565
1416.41 963.953 3549
1418.87 959.879 3534
1427.32 959.879 3534
1426.84 953.903 3512
1432.37 952.002 3505
1437.47 949.829 3497
1445.83 949.829 3497
1448.37 946.026 3483
1453.77 944.125 3476
1458.72 941.952 3468
1467.01 941.952 3468
1469.35 938.15 3454
1477.61 938.15 3454
1501.36 947.928 3490
1522.68 956.076 3520
1531.1 956.076 3520
1552.2 963.953 3549
1574.32 972.373 3580
1603.66 985.139 3627
1612.33 985.139 3627
1634.86 993.559 3658
1658.43 1002.52 3691
1728.24 1039.19 3826
1737.39 1039.19 3826
1754.76 1044.08 3844
1772.21 1048.97 3862
1785.59 1051.41 3871
1807.37 1058.75 3898
1816.69 1058.75 3898
1838.66 1066.08 3925
1848.05 1066.08 3925
1857.43 1066.08 3925
1866.82 1066.08 3925
1876.2 1066.08 3925
1872.62 1058.75 3898
1881.94 1058.75 3898
1878.16 1051.41 3871
1865.48 1039.19 3826
1866.3 1034.57 3809
1875.41 1034.57 3809
1863.24 1022.89 3766
1847.39 1009.31 3716
1839.79 1000.35 3683
1848.6 1000.35 3683
1833.2 987.312 3635
1821.62 976.447 3595
1822.58 972.373 3580
1831.14 972.373 3580
1839.7 972.373 3580
1844.13 970.2 3572
1852.68 970.2 3572
1845.59 962.052 3542
1854.06 962.052 3542
1862.53 962.052 3542
1883.14 968.299 3565
1895.38 970.2 3572
1916.19 976.447 3595
1924.78 976.447 3595
1950.59 985.139 3627
1971.69 991.386 3650
1980.41 991.386 3650
2011.49 1002.52 3691
2020.31 1002.52 3691
2094.01 1034.57 3809
2177.66 1071.24 3944
2187.09 1071.24 3944
2238.85 1091.88 4020
2264.68 1099.76 4049
2279.98 1102.48 4059
2289.69 1102.48 4059
2299.39 1102.48 4059
2309.1 1102.48 4059
2313.09 1099.76 4049
2322.77 1099.76 4049
2332.46 1099.76 4049
2342.14 1099.76 4049
2351.82 1099.76 4049
2361.5 1099.76 4049
2365.33 1097.04 4039
2369.7 1094.6 4030
2379.33 1094.6 4030
2418.02 1107.91 4079
2427.77 1107.91 4079
2443.5 1110.62 4089
2453.28 1110.62 4089
2463.06 1110.62 4089
2609.73 1110.62 4089
2619.51 1110.62 4089
2629.28 1110.62 4089
2632.61 1107.91 4079
2635.88 1105.19 4069
2639.11 1102.48 4059
2648.82 1102.48 4059
2651.98 1099.76 4049
2649.17 1094.6 4030
2658.8 1094.6 4030
2661.82 1091.88 4020
2671.43 1091.88 4020
2681.05 1091.88 4020
2690.66 1091.88 4020
2680.79 1084.01 3991
2690.34 1084.01 3991
2693.79 1081.56 3982
2652.4 1061.19 3907
2649.48 1056.3 3889
2658.78 1056.3 3889
2631.03 1041.63 3835
2616.1 1032.13 3800
542.774 193.931 714
544.481 193.931 714
546.189 193.931 714
-2374.95 869.154 3172
-2367.37 869.154 3172
-2346.39 864.221 3154
-2334.4 862.577 3148
-2313.57 857.645 3130
-2306.08 857.645 3130
-2294.19 856.001 3124
-2274.28 851.343 3107
-2266.85 851.343 3107
-2276.14 857.645 3130
-2268.66 857.645 3130
-2265.51 859.289 3136
-2270.97 864.221 3154
-2272.04 867.509 3166
-2264.47 867.509 3166
-2265.45 870.798 3178
-2279.17 879.018 3208
-2284.95 884.224 3227
-2277.23 884.224 3227
-2282.88 889.43 3246
-2301.75 899.842 3284
-2316.95 908.885 3317
-2309.02 908.885 3317
-2333 921.489 3363
-2329.79 923.407 3370
-2321.73 923.407 3370
-2313.68 923.407 3370
-2315.2 927.243 3384
-2307.1 927.243 3384
-2299.01 927.243 3384
-2290.92 927.243 3384
-2282.83 927.243 3384
-2270.03 925.325 3377
-2266.64 927.243 3384
-2258.55 927.243 3384
-2255.11 929.161 3391
-2256.28 932.997 3405
-2248.14 932.997 3405
-2240 932.997 3405
-2231.85 932.997 3405
-2223.71 932.997 3405
-2224.68 936.833 3419
-2216.5 936.833 3419
-2217.37 940.67 3433
-2218.17 944.506 3447
-2214.41 946.424 3454
-2206.15 946.424 3454
-2197.9 946.424 3454
-2198.51 950.26 3468
-2195.27 952.452 3476
-2186.96 952.452 3476
-2187.42 956.288 3490
-2183.45 958.206 3497
-2198.1 968.344 3534
-2189.65 968.344 3534
-2186.13 970.536 3542
-2186.88 974.647 3557
-2183.28 976.839 3565
-2174.75 976.839 3565
-2170.48 978.757 3572
-2166.78 980.949 3580
-2163.04 983.141 3588
-2154.46 983.141 3588
-2154.85 987.251 3603
-2151 989.443 3611
-2142.37 989.443 3611
-2133.73 989.443 3611
-2125.1 989.443 3611
-2111.78 987.251 3603
-2103.16 987.251 3603
-2094.54 987.251 3603
-2085.93 987.251 3603
-2077.31 987.251 3603
-2068.7 987.251 3603
-2060.08 987.251 3603
-2051.46 987.251 3603
-2042.85 987.251 3603
-2034.23 987.251 3603
-2025.62 987.251 3603
-2017 987.251 3603
-2003.93 985.059 3595
-1995.33 985.059 3595
-1986.73 985.059 3595
-1982.54 987.251 3603
-1973.92 987.251 3603
-1965.31 987.251 3603
-1956.69 987.251 3603
-1948.07 987.251 3603
-1943.76 989.443 3611
-1943.7 993.827 3627
-1935.03 993.827 3627
-1930.61 996.019 3635
-1938.83 1004.79 3667
-1934.28 1006.98 3675
-1925.49 1006.98 3675
-1920.87 1009.17 3683
-1912.06 1009.17 3683
-1903.26 1009.17 3683
-1894.45 1009.17 3683
-1885.64 1009.17 3683
-1889.07 1015.75 3707
-1880.2 1015.75 3707
-1871.34 1015.75 3707
-1862.47 1015.75 3707
-1858.11 1018.21 3716
-1849.22 1018.21 3716
-1840.34 1018.21 3716
-1835.39 1020.41 3724
-1826.49 1020.41 3724
-1817.58 1020.41 3724
-1800.42 1015.75 3707
-1776.09 1006.98 3675
-1767.3 1006.98 3675
-1758.51 1006.98 3675
-1741.63 1002.32 3658
-1725.31 997.937 3642
-1698.21 987.251 3603
-1682.56 983.141 3588
-1673.98 983.141 3588
-1657.98 978.757 3572
-1646.2 976.839 3565
-1634 974.647 3557
-1625.5 974.647 3557
-1610.17 970.536 3542
-1594.92 966.426 3527
-1586.49 966.426 3527
-1578.05 966.426 3527
-1562.94 962.316 3512
-1551.45 960.398 3505
-1539.54 958.206 3497
-1531.18 958.206 3497
-1519.77 956.288 3490
-1508.39 954.37 3483
-1506.09 958.206 3497
-1501.16 960.398 3505
-1492.77 960.398 3505
-1484.39 960.398 3505
-1476.01 960.398 3505
-1473.91 964.508 3520
-1465.49 964.508 3520
-1457.08 964.508 3520
-1448.66 964.508 3520
-1440.24 964.508 3520
-1431.82 964.508 3520
-1423.41 964.508 3520
-1414.99 964.508 3520
-1406.57 964.508 3520
-1398.15 964.508 3520
-1389.74 964.508 3520
-1386.81 968.344 3534
-1384.21 972.455 3549
-1375.73 972.455 3549
-1370.32 974.647 3557
-1367.56 978.757 3572
-1359.02 978.757 3572
-1350.48 978.757 3572
-1341.93 978.757 3572
-1330.78 976.839 3565
-1322.25 976.839 3565
-1310.78 974.647 3557
-1296.78 970.536 3542
-1285.4 968.344 3534
-1271.89 964.508 3520
-1263.48 964.508 3520
-1255.06 964.508 3520
-1246.64 964.508 3520
-1238.22 964.508 3520
-1229.81 964.508 3520
-1218.61 962.316 3512
-1205.05 958.206 3497
-1189.5 952.452 3476
-1181.19 952.452 3476
-1156 938.752 3426
-1171.6 958.206 3497
-1163.23 958.206 3497
-1154.87 958.206 3497
-594.401 496.777 1813
-582.58 490.474 1790
-577.008 489.378 1786
-572.737 489.378 1786
-566.556 487.734 1780
-562.3 487.734 1780
-556.476 486.364 1775
-546.942 481.706 1758
-540.886 480.062 1752
-536.696 480.062 1752
-532.203 479.788 1751
-527.412 479.24 1749
-522.632 478.692 1747
-518.454 478.692 1747
-513.099 477.596 1743
-508.347 477.048 1741
-502.736 475.678 1736
-498.584 475.678 1736
-493.864 475.13 1734
-489.717 475.13 1734
-485.01 474.582 1732
-480.869 474.582 1732
-476.727 474.582 1732
-473.677 475.678 1736
-469.525 475.678 1736
-465.91 476.226 1738
-461.754 476.226 1738
-457.598 476.226 1738
-454.746 477.596 1743
-450.578 477.596 1743
-446.41 477.596 1743
-442.75 478.144 1745
-441.342 481.158 1756
-437.64 481.706 1758
-433.93 482.254 1760
-429.721 482.254 1760
-427.205 484.172 1767
-425.373 486.912 1777
-421.124 486.912 1777
-418.047 488.282 1782
-413.786 488.282 1782
-409.525 488.282 1782
-405.263 488.282 1782
-401.002 488.282 1782
-396.295 487.734 1780
-392.039 487.734 1780
-387.782 487.734 1780
-380.294 483.624 1765
-376.073 483.624 1765
-371.431 483.076 1763
-367.215 483.076 1763
-361.97 481.706 1758
-355.527 478.692 1747
-350.948 478.144 1745
-346.775 478.144 1745
-341.228 476.226 1738
-335.714 474.308 1731
-330.808 473.212 1727
-326.679 473.212 1727
-321.615 471.842 1722
-317.497 471.842 1722
-312.105 469.924 1715
-308.004 469.924 1715
-303.903 469.924 1715
-299.453 469.376 1713
-295.874 470.198 1716
-292.11 470.746 1718
-288.672 471.842 1722
-284.555 471.842 1722
-280.6 472.116 1723
-277.121 473.212 1727
-273.308 473.76 1729
-269.173 473.76 1729
-265.805 475.13 1734
-262.564 476.774 1740
-258.551 477.048 1741
-254.388 477.048 1741
-250.512 477.596 1743
-246.627 478.144 1745
-243.427 480.062 1752
-239.237 480.062 1752
-235.316 480.61 1754
-232.571 483.624 1765
-228.609 484.172 1767
-224.384 484.172 1767
-221.155 486.364 1775
-217.155 486.912 1777
-213.265 487.734 1780
-209.009 487.734 1780
-205.212 488.83 1784
-201.622 490.474 1790
-197.782 491.57 1794
-193.492 491.57 1794
-189.413 492.118 1796
-185.325 492.666 1798
-181.428 493.762 1802
-177.119 493.762 1802
-173.097 494.585 1805
-169.716 497.325 1815
-165.376 497.325 1815
-161.036 497.325 1815
-157.386 499.517 1823
-153.363 500.613 1827
-150.298 504.997 1843
-145.891 504.997 1843
-141.484 504.997 1843
-137.077 504.997 1843
-132.67 504.997 1843
-230.212 1050.82 3835
-221.041 1050.82 3835
-213.86 1060.69 3871
-204.603 1060.69 3871
-197.617 1073.02 3916
-188.685 1075.48 3925
-179.3 1075.48 3925
-169.914 1075.48 3925
-159.792 1070.55 3907
-150.449 1070.55 3907
-141.106 1070.55 3907
-131.46 1068.08 3898
-121.856 1065.62 3889
-110.502 1046.16 3818
-101.372 1046.16 3818
-90.768 1029.45 3757
-81.2396 1022.6 3732
-71.8309 1015.75 3707
-62.9663 1015.75 3707
-53.7515 1009.17 3683
-44.444 997.937 3642
-35.6662 996.019 3635
-26.9738 996.019 3635
-18.2009 991.635 3619
-9.46502 983.141 3588
-0.885022 983.141 3588
7.69497 983.141 3588
16.275 983.141 3588
24.7441 978.757 3572
33.2859 978.757 3572
41.7456 976.839 3565
50.2706 976.839 3565
58.6637 974.647 3557
67.1695 974.647 3557
75.3563 970.536 3542
83.8263 970.536 3542
91.9054 966.426 3527
100.34 966.426 3527
108.774 966.426 3527
117.208 966.426 3527
125.393 964.508 3520
134.076 966.426 3527
142.51 966.426 3527
150.944 966.426 3527
159.378 966.426 3527
167.813 966.426 3527
175.897 964.508 3520
184.314 964.508 3520
192.732 964.508 3520
200.692 962.316 3512
209.09 962.316 3512
217.488 962.316 3512
225.887 962.316 3512
234.285 962.316 3512
243.236 964.508 3520
252.154 966.426 3527
260.588 966.426 3527
269.022 966.426 3527
278.636 970.536 3542
288.322 974.647 3557
296.828 974.647 3557
305.334 974.647 3557
314.545 976.839 3565
323.07 976.839 3565
331.595 976.839 3565
340.12 976.839 3565
348.645 976.839 3565
357.17 976.839 3565
365.695 976.839 3565
374.22 976.839 3565
381.887 974.647 3557
388.746 970.536 3542
397.216 970.536 3542
402.25 962.316 3512
408.076 956.288 3490
413.797 950.26 3468
419.534 944.506 3447
427.776 944.506 3447
434.248 940.67 3433
439.751 934.915 3412
446.072 931.079 3398
454.198 931.079 3398
457.562 921.489 3363
464.773 919.845 3357
468.012 910.529 3323
475.958 910.529 3323
483.031 908.885 3317
490.963 908.885 3317
497.842 906.967 3310
505.757 906.967 3310
513.672 906.967 3310
521.588 906.967 3310
528.383 905.049 3303
537.418 906.967 3310
546.487 908.885 3317
554.419 908.885 3317
562.35 908.885 3317
570.282 908.885 3317
578.214 908.885 3317
586.146 908.885 3317
596.407 912.447 3330
605.64 914.365 3337
613.62 914.365 3337
621.6 914.365 3337
629.579 914.365 3337
636.222 912.447 3330
644.185 912.447 3330
652.148 912.447 3330
660.111 912.447 3330
670.682 916.009 3343
678.676 916.009 3343
686.67 916.009 3343
694.664 916.009 3343
704.13 917.927 3350
712.141 917.927 3350
720.152 917.927 3350
726.641 916.009 3343
734.635 916.009 3343
741.296 914.365 3337
749.276 914.365 3337
757.256 914.365 3337
765.236 914.365 3337
773.215 914.365 3337
781.195 914.365 3337
787.52 912.447 3330
792.377 908.885 3317
800.309 908.885 3317
811.409 912.447 3330
819.372 912.447 3330
827.335 912.447 3330
837.054 914.365 3337
848.325 917.927 3350
856.336 917.927 3350
867.701 921.489 3363
881.212 927.243 3384
894.823 932.997 3405
902.965 932.997 3405
916.727 938.752 3426
932.478 946.424 3454
946.73 952.452 3476
955.042 952.452 3476
969.174 958.206 3497
985.923 966.426 3527
1000.56 972.455 3549
1009.05 972.455 3549
1022.12 976.839 3565
1034.98 980.949 3580
1050.25 987.251 3603
1061.21 989.443 3611
1069.85 989.443 3611
1087.74 997.937 3642
1101.27 1002.32 3658
1110.02 1002.32 3658
1118.76 1002.32 3658
1130.28 1004.79 3667
1139.05 1004.79 3667
1147.82 1004.79 3667
1156.59 1004.79 3667
1167.9 1006.98 3675
1176.69 1006.98 3675
1185.48 1006.98 3675
1191.67 1004.79 3667
1200.44 1004.79 3667
1209.2 1004.79 3667
1217.97 1004.79 3667
1223.73 1002.32 3658
1232.48 1002.32 3658
1241.23 1002.32 3658
1249.97 1002.32 3658
1258.72 1002.32 3658
1267.47 1002.32 3658
1276.22 1002.32 3658
1284.96 1002.32 3658
1293.71 1002.32 3658
1302.46 1002.32 3658
1314.43 1004.79 3667
1323.2 1004.79 3667
1331.97 1004.79 3667
1337.45 1002.32 3658
1343.25 1000.13 3650
1349.02 997.937 3642
1357.73 997.937 3642
1366.43 997.937 3642
1372.5 996.019 3635
1378.15 993.827 3627
1386.83 993.827 3627
1392.42 991.635 3619
1397.98 989.443 3611
1400.38 985.059 3595
1408.98 985.059 3595
1411.66 980.949 3580
1414.27 976.839 3565
1422.79 976.839 3565
1422.09 970.536 3542
1430.56 970.536 3542
1430.09 964.508 3520
1435.24 962.316 3512
1437.47 958.206 3497
1445.83 958.206 3497
1451.28 956.288 3490
1456.7 954.37 3483
1458.72 950.26 3468
1467.01 950.26 3468
1469.35 946.424 3454
1477.61 946.424 3454
1498.34 954.37 3483
1519.22 962.316 3512
1527.62 962.316 3512
1545.64 968.344 3534
1564.2 974.647 3557
1600.12 991.635 3619
1608.77 991.635 3619
1634.86 1002.32 3658
1654.84 1009.17 3683
1704.75 1034.11 3774
1713.78 1034.11 3774
1742.89 1046.16 3818
1763.95 1053.29 3844
1773.14 1053.29 3844
1794.85 1060.69 3871
1804.11 1060.69 3871
1826.01 1068.08 3898
1843.81 1073.02 3916
1853.17 1073.02 3916
1862.54 1073.02 3916
1863.3 1068.08 3898
1859.65 1060.69 3871
1868.91 1060.69 3871
1856.33 1048.35 3826
1857.19 1043.7 3809
1845.23 1031.91 3766
1854.23 1031.91 3766
1838.5 1018.21 3716
1830.98 1009.17 3683
1815.81 996.019 3635
1808.44 987.251 3603
1817.06 987.251 3603
1814.02 980.949 3580
1810.87 974.647 3557
1819.38 974.647 3557
1827.88 974.647 3557
1828.65 970.536 3542
1837.12 970.536 3542
1834.12 964.508 3520
1846.2 966.426 3527
1854.64 966.426 3527
1871 970.536 3542
1879.47 970.536 3542
1900.19 976.839 3565
1921.03 983.141 3588
1929.61 983.141 3588
1941.98 985.059 3595
1950.57 985.059 3595
1989.14 1000.13 3650
1997.87 1000.13 3650
2006.6 1000.13 3650
2217.68 1091.1 3982
2254.05 1104.25 4030
2274.36 1109.46 4049
2289.69 1112.2 4059
2299.39 1112.2 4059
2309.1 1112.2 4059
2318.8 1112.2 4059
2328.51 1112.2 4059
2338.22 1112.2 4059
2347.92 1112.2 4059
2357.63 1112.2 4059
2367.34 1112.2 4059
2371.19 1109.46 4049
2380.87 1109.46 4049
2373.43 1101.51 4020
2423.94 1120.42 4089
2433.72 1120.42 4089
2443.5 1120.42 4089
2453.28 1120.42 4089
2463.06 1120.42 4089
2609.73 1120.42 4089
2619.51 1120.42 4089
2629.28 1120.42 4089
2632.61 1117.68 4079
2635.88 1114.94 4069
2639.11 1112.2 4059
2648.82 1112.2 4059
2651.98 1109.46 4049
2649.17 1104.25 4030
2658.8 1104.25 4030
2661.82 1101.51 4020
2671.43 1101.51 4020
2681.05 1101.51 4020
2690.66 1101.51 4020
2680.79 1093.57 3991
2690.34 1093.57 3991
2693.79 1091.1 3982
2652.4 1070.55 3907
2631.08 1058.22 3862
2640.32 1058.22 3862
542.774 195.642 714
544.481 195.642 714
546.189 195.642 714
-2374.95 876.752 3172
-2367.37 876.752 3172
-2350.86 873.435 3160
-2338.85 871.777 3154
-2318 866.802 3136
-2310.5 866.802 3136
-2294.19 863.485 3124
-2274.28 858.786 3107
-2274.87 861.826 3118
-2276.14 865.143 3130
-2268.66 865.143 3130
-2278.51 871.777 3154
-2275.29 873.435 3160
-2280.65 878.41 3178
-2273.05 878.41 3178
-2269.73 880.069 3184
-2292.67 891.954 3227
-2289.2 893.613 3233
-2281.47 893.613 3233
-2282.88 897.206 3246
-2305.96 909.368 3290
-2321.14 918.489 3323
-2313.19 918.489 3323
-2337.85 931.48 3370
-2339.47 935.35 3384
-2331.38 935.35 3384
-2323.29 935.35 3384
-2319.98 937.284 3391
-2311.88 937.284 3391
-2303.77 937.284 3391
-2295.66 937.284 3391
-2282.83 935.35 3384
-2274.73 935.35 3384
-2271.33 937.284 3391
-2263.22 937.284 3391
-2259.77 939.219 3398
-2256.28 941.154 3405
-2248.14 941.154 3405
-2240 941.154 3405
-2227.27 939.219 3398
-2219.14 939.219 3398
-2224.68 945.024 3419
-2216.5 945.024 3419
