ply
format ascii 1.0
comment File generated
element vertex 2153
property float x
property float y
property float z
end_header
-614.443 -225.16 1821
-610.088 -225.16 1821
-605.733 -225.16 1821
-596.095 -223.182 1805
-591.779 -223.182 1805
-585.835 -222.564 1800
-579.592 -221.822 1794
-574.661 -221.574 1792
-570.376 -221.574 1792
-566.09 -221.574 1792
-557.73 -219.967 1779
-551.609 -219.225 1773
-544.282 -217.989 1763
-540.066 -217.989 1763
-534.33 -217.37 1758
-527.412 -216.258 1749
-522.033 -215.763 1745
-517.861 -215.763 1745
-512.216 -215.145 1740
-506.303 -214.403 1734
-501.577 -214.156 1732
-497.436 -214.156 1732
-492.439 -213.785 1729
-487.74 -213.537 1727
-483.05 -213.29 1725
-478.37 -213.043 1723
-474.25 -213.043 1723
-469.857 -212.919 1722
-464.657 -212.425 1718
-460.013 -212.177 1716
-455.909 -212.177 1716
-451.542 -212.054 1715
-446.919 -211.806 1713
-442.306 -211.559 1711
-438.215 -211.559 1711
-433.616 -211.312 1709
-428.775 -210.941 1706
-424.197 -210.694 1704
-420.123 -210.694 1704
-415.56 -210.446 1702
-411.49 -210.446 1702
-407.18 -210.323 1701
-403.113 -210.323 1701
-398.576 -210.075 1699
-393.584 -209.581 1695
-388.841 -209.21 1692
-384.795 -209.21 1692
-380.299 -208.962 1690
-375.59 -208.592 1687
-370.675 -208.097 1683
-366.65 -208.097 1683
-362.626 -208.097 1683
-357.962 -207.726 1680
-353.313 -207.355 1677
-349.302 -207.355 1677
-345.292 -207.355 1677
-340.468 -206.86 1673
-336.467 -206.86 1673
-332.467 -206.86 1673
-328.466 -206.86 1673
-324.465 -206.86 1673
-320.273 -206.737 1672
-316.275 -206.737 1672
-312.277 -206.737 1672
-307.91 -206.49 1670
-303.916 -206.49 1670
-299.923 -206.49 1670
-295.929 -206.49 1670
-291.936 -206.49 1670
-287.597 -206.242 1668
-283.609 -206.242 1668
-279.62 -206.242 1668
-275.631 -206.242 1668
-271.968 -206.49 1670
-268.296 -206.737 1672
-265.088 -207.355 1677
-261.078 -207.355 1677
-257.067 -207.355 1677
-253.51 -207.726 1680
-249.938 -208.097 1683
-245.913 -208.097 1683
-242.176 -208.344 1685
-238.43 -208.592 1687
-235.09 -209.21 1692
-231.044 -209.21 1692
-227.266 -209.457 1694
-223.611 -209.828 1697
-220.07 -210.323 1701
-216.003 -210.323 1701
-212.309 -210.694 1704
-208.479 -210.941 1706
-204.639 -211.188 1708
-200.554 -211.188 1708
-196.815 -211.559 1711
-193.287 -212.177 1716
-189.404 -212.425 1718
-185.295 -212.425 1718
-181.187 -212.425 1718
-177.079 -212.425 1718
-172.971 -212.425 1718
-169.059 -212.672 1720
-164.946 -212.672 1720
-160.833 -212.672 1720
-156.72 -212.672 1720
-152.607 -212.672 1720
-148.494 -212.672 1720
-144.381 -212.672 1720
-140.105 -212.425 1718
-135.996 -212.425 1718
-131.888 -212.425 1718
-127.631 -212.177 1716
-123.528 -212.177 1716
-119.424 -212.177 1716
-115.253 -212.054 1715
-111.152 -212.054 1715
-107.051 -212.054 1715
-102.95 -212.054 1715
-98.7338 -211.806 1713
-94.6375 -211.806 1713
-90.5412 -211.806 1713
-86.4449 -211.806 1713
-82.3486 -211.806 1713
-78.2523 -211.806 1713
-74.156 -211.806 1713
-70.0597 -211.806 1713
-65.9634 -211.806 1713
-61.8671 -211.806 1713
-57.7033 -211.559 1711
-53.6118 -211.559 1711
-49.5203 -211.559 1711
-45.3757 -211.312 1709
-41.3372 -211.559 1711
-37.2457 -211.559 1711
-33.1929 -211.806 1713
-29.0966 -211.806 1713
-25.1317 -212.919 1722
-21.0139 -212.919 1722
-16.9844 -214.032 1731
-12.845 -214.032 1731
-8.71069 -214.156 1732
-4.56895 -214.156 1732
-0.920541 -461.448 3732
8.0038 -461.448 3732
16.9281 -461.448 3732
25.8525 -461.448 3732
34.8514 -462.438 3740
43.7949 -462.438 3740
52.7383 -462.438 3740
61.6818 -462.438 3740
70.4742 -461.448 3732
79.2283 -460.459 3724
88.1336 -460.459 3724
96.8303 -459.47 3716
105.46 -458.357 3707
114.078 -457.368 3699
122.924 -457.368 3699
131.769 -457.368 3699
140.006 -455.39 3683
148.49 -454.401 3675
157.278 -454.401 3675
164.575 -450.32 3642
172.57 -448.466 3627
181.993 -450.32 3642
190.702 -450.32 3642
199.412 -450.32 3642
208.121 -450.32 3642
216.83 -450.32 3642
225.539 -450.32 3642
234.248 -450.32 3642
242.49 -449.455 3635
250.63 -448.466 3627
258.159 -446.487 3611
266.794 -446.487 3611
275.429 -446.487 3611
284.693 -447.476 3619
293.996 -448.466 3627
303.337 -449.455 3635
312.029 -449.455 3635
321.339 -450.32 3642
331.498 -452.299 3658
340.246 -452.299 3658
348.993 -452.299 3658
357.741 -452.299 3658
365.686 -451.309 3650
374.415 -451.309 3650
383.143 -451.309 3650
391.012 -450.32 3642
398.953 -449.455 3635
408.431 -450.32 3642
417.14 -450.32 3642
425.849 -450.32 3642
436.467 -452.299 3658
446.31 -453.411 3667
457.064 -455.39 3683
465.872 -455.39 3683
475.71 -456.379 3691
485.586 -457.368 3699
495.501 -458.357 3707
504.366 -458.357 3707
515.584 -460.459 3724
525.616 -461.448 3732
534.54 -461.448 3732
543.464 -461.448 3732
552.389 -461.448 3732
1117.28 -490.011 3963
1126.75 -490.011 3963
1136.23 -490.011 3963
1144.11 -485.312 3925
1153.49 -485.312 3925
1162.88 -485.312 3925
1172.26 -485.312 3925
1181.65 -485.312 3925
1191.04 -485.312 3925
1192.16 -481.974 3898
1201.49 -481.974 3898
1210.81 -481.974 3898
1217.31 -480.861 3889
1204.22 -472.082 3818
1196.82 -465.652 3766
1233.68 -476.41 3853
1254.51 -480.861 3889
1263.81 -480.861 3889
1303.55 -492.36 3982
1322.31 -495.822 4010
1335.22 -497.059 4020
1344.83 -497.059 4020
1357.82 -498.295 4030
1373.9 -500.644 4049
1387 -501.881 4059
1396.71 -501.881 4059
1406.41 -501.881 4059
1416.12 -501.881 4059
1425.82 -501.881 4059
1428.46 -499.408 4039
1431.35 -497.059 4020
1427.34 -492.36 3982
1436.87 -492.36 3982
1446.39 -492.36 3982
1466.15 -495.822 4010
1483.1 -498.295 4030
1496.07 -499.408 4039
1516.91 -503.117 4069
1526.64 -503.117 4069
1536.37 -503.117 4069
1546.1 -503.117 4069
1555.83 -503.117 4069
1764.49 -504.354 4079
1774.24 -504.354 4079
1784 -504.354 4079
1784.96 -501.881 4059
1794.66 -501.881 4059
1799.93 -500.644 4049
1801.12 -498.295 4030
1810.75 -498.295 4030
1820.39 -498.295 4030
1825.49 -497.059 4020
1835.1 -497.059 4020
1867.2 -503.117 4069
1876.93 -503.117 4069
1886.66 -503.117 4069
1896.39 -503.117 4069
1901.43 -501.881 4059
1915.85 -503.117 4069
1925.58 -503.117 4069
1935.31 -503.117 4069
2483.81 -501.881 4059
2493.52 -501.881 4059
2503.22 -501.881 4059
2494.98 -498.295 4030
2445.57 -486.549 3935
2514.25 -498.295 4030
2523.89 -498.295 4030
2533.52 -498.295 4030
2512.87 -492.36 3982
2522.39 -492.36 3982
2531.91 -492.36 3982
2511.44 -486.549 3935
2508.68 -484.199 3916
2518.04 -484.199 3916
2492.55 -477.523 3862
2501.79 -477.523 3862
2534.43 -481.974 3898
2543.75 -481.974 3898
2553.07 -481.974 3898
2562.4 -481.974 3898
2478.69 -464.54 3757
2516.15 -469.856 3800
2548.49 -474.184 3835
2557.66 -474.184 3835
2566.84 -474.184 3835
2564.59 -472.082 3818
2573.72 -472.082 3818
2613.91 -461.448 3732
2634.78 -463.55 3749
2667.73 -467.754 3783
2676.77 -467.754 3783
2735.52 -476.41 3853
2744.73 -476.41 3853
2753.94 -476.41 3853
2742.6 -466.642 3774
2751.63 -466.642 3774
2792.84 -472.082 3818
2847.47 -479.748 3880
2870 -481.974 3898
2879.32 -481.974 3898
2888.64 -481.974 3898
2897.96 -481.974 3898
2907.28 -481.974 3898
2909.87 -480.861 3889
2878.64 -474.184 3835
2887.81 -474.184 3835
2896.98 -474.184 3835
2899.33 -473.071 3826
2895.55 -470.969 3809
2891.7 -468.867 3792
2893.88 -467.754 3783
-2392.51 -424.014 3497
-2384.14 -424.014 3497
-2400.92 -428.501 3534
-2392.47 -428.501 3534
-2394.13 -430.32 3549
-2385.65 -430.32 3549
-2377.16 -430.32 3549
-2368.67 -430.32 3549
-2380.8 -434.078 3580
-2382.18 -435.897 3595
-2378.87 -436.867 3603
-2370.25 -436.867 3603
-2361.64 -436.867 3603
-2347.8 -435.897 3595
-2339.2 -435.897 3595
-2326.06 -435.048 3588
-1402.15 -435.897 3595
-1393.56 -435.897 3595
-1384.96 -435.897 3595
-1361.82 -431.29 3557
-1353.31 -431.29 3557
-1333.46 -427.652 3527
-1313.76 -424.014 3497
-1302.78 -423.166 3490
-1281.08 -418.801 3454
-1272.82 -418.801 3454
-1259.44 -417.103 3440
-1241.03 -413.708 3412
-1207.12 -407.767 3363
-1199.08 -407.767 3363
-1191.04 -407.767 3363
-1183 -407.767 3363
-1174.95 -407.767 3363
-1162.4 -406.191 3350
-1154.39 -406.191 3350
-620.836 -221.525 1827
-616.467 -221.525 1827
-612.098 -221.525 1827
-605.733 -220.798 1821
-598.737 -219.828 1813
-594.401 -219.828 1813
-587.462 -218.858 1805
-580.885 -218.009 1798
-575.302 -217.524 1794
-570.376 -217.282 1792
-566.09 -217.282 1792
-557.73 -215.705 1779
-551.609 -214.978 1773
-545.517 -214.25 1767
-541.291 -214.25 1767
-534.33 -213.159 1758
-527.412 -212.068 1749
-522.033 -211.583 1745
-517.861 -211.583 1745
-512.216 -210.977 1740
-506.303 -210.249 1734
-501.577 -210.007 1732
-497.436 -210.007 1732
-492.439 -209.643 1729
-487.74 -209.4 1727
-483.05 -209.158 1725
-478.925 -209.158 1725
-474.25 -208.915 1723
-469.857 -208.794 1722
-464.657 -208.309 1718
-460.013 -208.067 1716
-455.909 -208.067 1716
-451.542 -207.945 1715
-446.919 -207.703 1713
-442.306 -207.46 1711
-438.215 -207.46 1711
-433.616 -207.218 1709
-428.775 -206.854 1706
-424.197 -206.612 1704
-420.123 -206.612 1704
-415.56 -206.369 1702
-411.49 -206.369 1702
-407.18 -206.248 1701
-403.113 -206.248 1701
-398.576 -206.005 1699
-393.584 -205.52 1695
-388.841 -205.157 1692
-384.795 -205.157 1692
-380.299 -204.914 1690
-375.59 -204.55 1687
-370.675 -204.065 1683
-366.65 -204.065 1683
-362.626 -204.065 1683
-357.962 -203.702 1680
-353.313 -203.338 1677
-349.302 -203.338 1677
-345.292 -203.338 1677
-340.468 -202.853 1673
-336.467 -202.853 1673
-332.467 -202.853 1673
-328.466 -202.853 1673
-324.465 -202.853 1673
-320.273 -202.732 1672
-316.275 -202.732 1672
-312.277 -202.732 1672
-307.91 -202.489 1670
-303.916 -202.489 1670
-299.923 -202.489 1670
-295.929 -202.489 1670
-291.936 -202.489 1670
-287.597 -202.247 1668
-283.609 -202.247 1668
-279.62 -202.247 1668
-275.631 -202.247 1668
-271.968 -202.489 1670
-268.296 -202.732 1672
-265.088 -203.338 1677
-261.078 -203.338 1677
-257.067 -203.338 1677
-253.51 -203.702 1680
-249.938 -204.065 1683
-245.913 -204.065 1683
-242.176 -204.308 1685
-238.43 -204.55 1687
-235.09 -205.157 1692
-231.044 -205.157 1692
-227.266 -205.399 1694
-223.611 -205.763 1697
-220.07 -206.248 1701
-216.003 -206.248 1701
-212.309 -206.612 1704
-208.479 -206.854 1706
-204.639 -207.097 1708
-200.554 -207.097 1708
-196.815 -207.46 1711
-193.287 -208.067 1716
-189.404 -208.309 1718
-185.295 -208.309 1718
-181.187 -208.309 1718
-177.079 -208.309 1718
-172.971 -208.309 1718
-169.059 -208.552 1720
-164.946 -208.552 1720
-160.833 -208.552 1720
-156.72 -208.552 1720
-152.607 -208.552 1720
-148.494 -208.552 1720
-144.381 -208.552 1720
-140.105 -208.309 1718
-135.996 -208.309 1718
-131.888 -208.309 1718
-127.631 -208.067 1716
-123.528 -208.067 1716
-119.424 -208.067 1716
-115.253 -207.945 1715
-111.152 -207.945 1715
-107.051 -207.945 1715
-102.95 -207.945 1715
-98.7338 -207.703 1713
-94.6375 -207.703 1713
-90.5412 -207.703 1713
-86.4449 -207.703 1713
-82.3486 -207.703 1713
-78.2523 -207.703 1713
-74.156 -207.703 1713
-70.0597 -207.703 1713
-65.9634 -207.703 1713
-61.8671 -207.703 1713
-57.7033 -207.46 1711
-53.6118 -207.46 1711
-49.5203 -207.46 1711
-45.3757 -207.218 1709
-41.3372 -207.46 1711
-37.2892 -207.703 1713
-33.2317 -207.945 1715
-29.1306 -207.945 1715
-25.1317 -208.794 1722
-21.0139 -208.794 1722
-16.9844 -209.885 1731
-12.845 -209.885 1731
-18.7692 -452.508 3732
-9.84488 -452.508 3732
-0.920541 -452.508 3732
8.0038 -452.508 3732
16.9281 -452.508 3732
25.8525 -452.508 3732
34.8514 -453.478 3740
43.7949 -453.478 3740
52.7383 -453.478 3740
61.6818 -453.478 3740
70.4742 -452.508 3732
79.2283 -451.538 3724
88.1336 -451.538 3724
96.8303 -450.568 3716
105.46 -449.477 3707
114.325 -449.477 3707
123.189 -449.477 3707
131.769 -448.507 3699
140.31 -447.537 3691
148.49 -445.597 3675
157.278 -445.597 3675
164.937 -442.566 3650
173.284 -441.596 3642
181.993 -441.596 3642
191.121 -442.566 3650
199.85 -442.566 3650
208.578 -442.566 3650
217.306 -442.566 3650
226.034 -442.566 3650
234.763 -442.566 3650
242.957 -441.596 3642
250.63 -439.777 3627
259.303 -439.777 3627
267.976 -439.777 3627
276.039 -438.807 3619
285.323 -439.777 3627
293.996 -439.777 3627
303.337 -440.747 3635
312.029 -440.747 3635
321.339 -441.596 3642
331.498 -443.536 3658
340.246 -443.536 3658
348.993 -443.536 3658
357.741 -443.536 3658
365.686 -442.566 3650
374.415 -442.566 3650
383.143 -442.566 3650
391.012 -441.596 3642
398.953 -440.747 3635
408.431 -441.596 3642
417.14 -441.596 3642
425.849 -441.596 3642
436.467 -443.536 3658
446.31 -444.627 3667
457.064 -446.567 3683
465.872 -446.567 3683
475.71 -447.537 3691
485.586 -448.507 3699
495.501 -449.477 3707
504.366 -449.477 3707
515.584 -451.538 3724
525.616 -452.508 3732
534.54 -452.508 3732
543.464 -452.508 3732
558.605 -457.601 3774
567.63 -457.601 3774
576.655 -457.601 3774
1118.42 -485.125 4001
1127.99 -485.125 4001
1137.56 -485.125 4001
1147.13 -485.125 4001
1145.71 -480.517 3963
1155.18 -480.517 3963
1164.66 -480.517 3963
1174.14 -480.517 3963
1186.3 -481.609 3972
1195.8 -481.609 3972
1205.3 -481.609 3972
1212.04 -480.517 3963
1221.52 -480.517 3963
1231 -480.517 3963
1220.13 -472.636 3898
1226.61 -471.545 3889
1210.49 -461.845 3809
1239.45 -469.362 3871
1257.41 -472.636 3898
1266.74 -472.636 3898
1303.55 -482.821 3982
1322.31 -486.216 4010
1335.22 -487.429 4020
1344.83 -487.429 4020
1357.82 -488.641 4030
1373.9 -490.945 4049
1387 -492.158 4059
1396.71 -492.158 4059
1406.41 -492.158 4059
1416.12 -492.158 4059
1425.82 -492.158 4059
1428.46 -489.732 4039
1431.35 -487.429 4020
1427.34 -482.821 3982
1436.87 -482.821 3982
1446.39 -482.821 3982
1466.15 -486.216 4010
1483.1 -488.641 4030
1496.07 -489.732 4039
1516.91 -493.37 4069
1526.64 -493.37 4069
1536.37 -493.37 4069
1546.1 -493.37 4069
1555.83 -493.37 4069
1542.86 -486.216 4010
1764.49 -494.583 4079
1774.24 -494.583 4079
1784 -494.583 4079
1789.36 -493.37 4069
1799.09 -493.37 4069
1804.37 -492.158 4059
1801.12 -488.641 4030
1810.75 -488.641 4030
1820.39 -488.641 4030
1825.49 -487.429 4020
1843.77 -489.732 4039
1871.79 -494.583 4079
1881.54 -494.583 4079
1891.29 -494.583 4079
1901.05 -494.583 4079
1910.8 -494.583 4079
1920.56 -494.583 4079
1925.58 -493.37 4069
1935.31 -493.37 4069
2468.01 -490.945 4049
2483.81 -492.158 4059
2493.52 -492.158 4059
2503.22 -492.158 4059
2500.55 -489.732 4039
2492.18 -486.216 4010
2514.25 -488.641 4030
2523.89 -488.641 4030
2533.52 -488.641 4030
2512.87 -482.821 3982
2534.43 -485.125 4001
2544 -485.125 4001
2553.56 -485.125 4001
2508.68 -474.819 3916
2518.04 -474.819 3916
2521.6 -473.727 3907
2501.79 -468.271 3862
2534.43 -472.636 3898
2543.75 -472.636 3898
2553.07 -472.636 3898
2562.4 -472.636 3898
2478.69 -455.54 3757
2516.15 -460.754 3800
2548.49 -464.997 3835
2557.66 -464.997 3835
2566.84 -464.997 3835
2576.01 -464.997 3835
2585.18 -464.997 3835
2594.35 -464.997 3835
2601.63 -453.478 3740
2610.57 -453.478 3740
2625.82 -454.57 3749
2640.41 -455.54 3757
2686.06 -461.845 3809
2695.17 -461.845 3809
2754.69 -470.454 3880
2763.96 -470.454 3880
2773.24 -470.454 3880
2782.52 -470.454 3880
2742.6 -457.601 3774
2751.63 -457.601 3774
2798.69 -463.906 3826
2847.47 -470.454 3880
2870 -472.636 3898
2879.32 -472.636 3898
2888.64 -472.636 3898
2897.96 -472.636 3898
2907.28 -472.636 3898
2909.87 -471.545 3889
2878.64 -464.997 3835
2887.81 -464.997 3835
2896.98 -464.997 3835
2899.33 -463.906 3826
2895.55 -461.845 3809
2891.7 -459.784 3792
2893.88 -458.692 3783
-2392.51 -415.637 3497
-2384.14 -415.637 3497
-2411.11 -421.818 3549
-2402.62 -421.818 3549
-2399.53 -422.769 3557
-2391.03 -422.769 3557
-2387.88 -423.72 3565
-2379.35 -423.72 3565
-2386.12 -426.453 3588
-2387.48 -428.236 3603
-2389.43 -430.138 3619
-2380.78 -430.138 3619
-2372.12 -430.138 3619
-2347.8 -427.285 3595
-2339.2 -427.285 3595
-2326.06 -426.453 3588
-2325.33 -431.089 3627
-2316.65 -431.089 3627
-2307.98 -431.089 3627
-2304.38 -432.039 3635
-2295.69 -432.039 3635
-2286.99 -432.039 3635
-2278.3 -432.039 3635
-1402.15 -427.285 3595
-1393.56 -427.285 3595
-1384.96 -427.285 3595
-1361.82 -422.769 3557
-1353.31 -422.769 3557
-1333.46 -419.203 3527
-1313.76 -415.637 3497
-1302.78 -414.805 3490
-1281.08 -410.527 3454
-1272.82 -410.527 3454
-1259.44 -408.863 3440
-1241.03 -405.535 3412
-1198.54 -394.243 3317
-1190.61 -394.243 3317
-1164.14 -388.063 3265
-1176.87 -394.957 3323
-1168.93 -394.957 3323
-1167.97 -397.334 3343
-1159.97 -397.334 3343
-1151.98 -397.334 3343
-1114.9 -387.231 3258
-1107.11 -387.231 3258
-617.142 -217.387 1829
-612.768 -217.387 1829
-607.729 -217.149 1827
-598.737 -215.485 1813
-594.401 -215.485 1813
-588.113 -214.772 1807
-580.885 -213.702 1798
-575.302 -213.227 1794
-571.012 -213.227 1794
-566.722 -213.227 1794
-557.73 -211.444 1779
-551.609 -210.731 1773
-545.517 -210.018 1767
-541.291 -210.018 1767
-534.33 -208.948 1758
-527.412 -207.878 1749
-522.033 -207.403 1745
-517.861 -207.403 1745
-512.216 -206.808 1740
-506.303 -206.095 1734
-501.577 -205.858 1732
-497.436 -205.858 1732
-492.439 -205.501 1729
-487.74 -205.263 1727
-483.05 -205.026 1725
-478.925 -205.026 1725
-474.25 -204.788 1723
-469.311 -204.431 1720
-464.657 -204.194 1718
-460.013 -203.956 1716
-455.909 -203.956 1716
-451.542 -203.837 1715
-446.919 -203.599 1713
-442.306 -203.362 1711
-438.215 -203.362 1711
-433.362 -203.005 1708
-428.775 -202.767 1706
-424.197 -202.53 1704
-420.123 -202.53 1704
-415.56 -202.292 1702
-411.248 -202.173 1701
-406.701 -201.935 1699
-402.639 -201.935 1699
-398.107 -201.698 1697
-393.352 -201.341 1694
-388.841 -201.103 1692
-384.795 -201.103 1692
-380.074 -200.747 1689
-375.59 -200.509 1687
-370.675 -200.034 1683
-366.65 -200.034 1683
-362.41 -199.915 1682
-357.962 -199.677 1680
-353.313 -199.321 1677
-349.302 -199.321 1677
-345.292 -199.321 1677
-340.468 -198.845 1673
-336.467 -198.845 1673
-332.467 -198.845 1673
-328.466 -198.845 1673
-324.465 -198.845 1673
-320.273 -198.726 1672
-316.275 -198.726 1672
-312.277 -198.726 1672
-307.91 -198.489 1670
-303.916 -198.489 1670
-299.923 -198.489 1670
-295.929 -198.489 1670
-291.936 -198.489 1670
-287.597 -198.251 1668
-283.609 -198.251 1668
-279.62 -198.251 1668
-275.631 -198.251 1668
-271.968 -198.489 1670
-267.975 -198.489 1670
-264.772 -199.083 1675
-260.766 -199.083 1675
-257.067 -199.321 1677
-253.208 -199.439 1678
-249.938 -200.034 1683
-245.913 -200.034 1683
-242.176 -200.271 1685
-238.43 -200.509 1687
-235.09 -201.103 1692
-231.044 -201.103 1692
-227.266 -201.341 1694
-223.611 -201.698 1697
-220.07 -202.173 1701
-216.003 -202.173 1701
-212.309 -202.53 1704
-208.479 -202.767 1706
-204.639 -203.005 1708
-200.554 -203.005 1708
-196.815 -203.362 1711
-193.287 -203.956 1716
-189.404 -204.194 1718
-185.295 -204.194 1718
-181.187 -204.194 1718
-177.079 -204.194 1718
-172.971 -204.194 1718
-169.059 -204.431 1720
-164.946 -204.431 1720
-160.833 -204.431 1720
-156.72 -204.431 1720
-152.607 -204.431 1720
-148.494 -204.431 1720
-144.381 -204.431 1720
-140.105 -204.194 1718
-135.996 -204.194 1718
-131.888 -204.194 1718
-127.631 -203.956 1716
-123.456 -203.837 1715
-119.354 -203.837 1715
-115.253 -203.837 1715
-111.152 -203.837 1715
-106.926 -203.599 1713
-102.83 -203.599 1713
-98.7338 -203.599 1713
-94.527 -203.362 1711
-90.4355 -203.362 1711
-86.3439 -203.362 1711
-82.2524 -203.362 1711
-78.1609 -203.362 1711
-74.0694 -203.362 1711
-69.9779 -203.362 1711
-65.8864 -203.362 1711
-61.7948 -203.362 1711
-57.7033 -203.362 1711
-53.5491 -203.124 1709
-49.4624 -203.124 1709
-45.3757 -203.124 1709
-41.3372 -203.362 1711
-37.2892 -203.599 1713
-33.2317 -203.837 1715
-29.1306 -203.837 1715
-25.1025 -204.431 1720
-21.0139 -204.669 1722
-16.9844 -205.739 1731
-12.845 -205.739 1731
-18.7692 -443.568 3732
-9.84488 -443.568 3732
-0.920541 -443.568 3732
8.0038 -443.568 3732
16.9281 -443.568 3732
25.8525 -443.568 3732
34.7768 -443.568 3732
43.7012 -443.568 3732
52.6255 -443.568 3732
61.5499 -443.568 3732
70.4742 -443.568 3732
79.2283 -442.618 3724
88.1336 -442.618 3724
96.8303 -441.667 3716
105.46 -440.597 3707
114.325 -440.597 3707
123.189 -440.597 3707
131.769 -439.646 3699
140.31 -438.695 3691
148.49 -436.794 3675
157.278 -436.794 3675
164.937 -433.822 3650
173.284 -432.871 3642
181.993 -432.871 3642
191.121 -433.822 3650
199.85 -433.822 3650
208.578 -433.822 3650
217.306 -433.822 3650
226.034 -433.822 3650
234.763 -433.822 3650
242.957 -432.871 3642
250.63 -431.089 3627
259.303 -431.089 3627
267.976 -431.089 3627
276.039 -430.138 3619
285.323 -431.089 3627
293.996 -431.089 3627
303.337 -432.039 3635
312.029 -432.039 3635
321.339 -432.871 3642
330.048 -432.871 3642
339.502 -433.822 3650
348.23 -433.822 3650
356.958 -433.822 3650
365.686 -433.822 3650
374.415 -433.822 3650
382.303 -432.871 3642
390.261 -432.039 3635
398.953 -432.039 3635
407.646 -432.039 3635
417.14 -432.871 3642
425.849 -432.871 3642
434.558 -432.871 3642
446.31 -435.843 3667
455.079 -435.843 3667
463.848 -435.843 3667
473.648 -436.794 3675
484.536 -438.695 3691
494.432 -439.646 3699
503.277 -439.646 3699
514.476 -441.667 3716
524.489 -442.618 3724
534.54 -443.568 3732
543.464 -443.568 3732
558.605 -448.56 3774
567.63 -448.56 3774
576.655 -448.56 3774
1118.42 -475.54 4001
1127.99 -475.54 4001
1137.56 -475.54 4001
1147.13 -475.54 4001
1145.71 -471.024 3963
1155.18 -471.024 3963
1164.66 -471.024 3963
1174.14 -471.024 3963
1186.3 -472.094 3972
1195.8 -472.094 3972
1205.3 -472.094 3972
1212.04 -471.024 3963
1221.52 -471.024 3963
1231 -471.024 3963
1220.13 -463.298 3898
1226.61 -462.229 3889
1210.49 -452.72 3809
1239.45 -460.089 3871
1257.41 -463.298 3898
1266.74 -463.298 3898
1303.55 -473.282 3982
1322.31 -476.61 4010
1335.22 -477.799 4020
1344.83 -477.799 4020
1354.45 -477.799 4020
1370.51 -480.057 4039
1380.17 -480.057 4039
1389.82 -480.057 4039
1399.48 -480.057 4039
1406 -478.987 4030
1415.64 -478.987 4030
1415.02 -475.54 4001
1404.29 -468.766 3944
1413.72 -468.766 3944
1436.87 -473.282 3982
1446.39 -473.282 3982
1466.15 -476.61 4010
1483.1 -478.987 4030
1496.07 -480.057 4039
1516.91 -483.623 4069
1526.64 -483.623 4069
1536.37 -483.623 4069
1546.1 -483.623 4069
1555.83 -483.623 4069
1542.86 -476.61 4010
1779.63 -483.623 4069
1789.36 -483.623 4069
1799.09 -483.623 4069
1804.37 -482.434 4059
1801.12 -478.987 4030
1810.75 -478.987 4030
1820.39 -478.987 4030
1825.49 -477.799 4020
1843.77 -480.057 4039
1871.79 -484.811 4079
1881.54 -484.811 4079
1891.29 -484.811 4079
1901.05 -484.811 4079
1910.8 -484.811 4079
1920.56 -484.811 4079
1925.58 -483.623 4069
1935.31 -483.623 4069
2468.01 -481.246 4049
2483.81 -482.434 4059
2493.52 -482.434 4059
2503.22 -482.434 4059
2500.55 -480.057 4039
2492.18 -476.61 4010
2514.25 -478.987 4030
2523.89 -478.987 4030
2533.52 -478.987 4030
2534.43 -475.54 4001
2544 -475.54 4001
2553.56 -475.54 4001
2508.68 -465.438 3916
2518.04 -465.438 3916
2521.6 -464.368 3907
2501.79 -459.02 3862
2534.43 -463.298 3898
2543.75 -463.298 3898
2553.07 -463.298 3898
2562.4 -463.298 3898
2478.69 -446.54 3757
2516.15 -451.651 3800
2548.49 -455.811 3835
2557.66 -455.811 3835
2566.84 -455.811 3835
2576.01 -455.811 3835
2585.18 -455.811 3835
2594.35 -455.811 3835
2601.63 -444.519 3740
2610.57 -444.519 3740
2625.82 -445.589 3749
2640.41 -446.54 3757
2686.06 -452.72 3809
2695.17 -452.72 3809
2754.69 -461.159 3880
2763.96 -461.159 3880
2773.24 -461.159 3880
2782.52 -461.159 3880
2742.6 -448.56 3774
2751.63 -448.56 3774
2798.69 -454.741 3826
2827.65 -457.95 3853
2856.75 -461.159 3880
2866.02 -461.159 3880
2875.3 -461.159 3880
2884.58 -461.159 3880
2893.86 -461.159 3880
2889.67 -459.02 3862
2865.88 -453.79 3818
2875.01 -453.79 3818
2884.14 -453.79 3818
2873.56 -450.7 3792
2882.63 -450.7 3792
2891.7 -450.7 3792
2880.88 -447.609 3766
-2392.51 -407.26 3497
-2384.14 -407.26 3497
-2411.11 -413.316 3549
-2402.62 -413.316 3549
-2399.53 -414.248 3557
-2391.03 -414.248 3557
-2387.88 -415.18 3565
-2379.35 -415.18 3565
-2386.12 -417.858 3588
-2387.48 -419.605 3603
-2389.43 -421.468 3619
-2380.78 -421.468 3619
-2372.12 -421.468 3619
-2347.8 -418.673 3595
-2339.2 -418.673 3595
-2326.06 -417.858 3588
-2325.33 -422.4 3627
-2316.65 -422.4 3627
-2307.98 -422.4 3627
-2304.38 -423.332 3635
-2295.69 -423.332 3635
-2286.99 -423.332 3635
-2278.3 -423.332 3635
-1387.33 -414.248 3557
-1378.83 -414.248 3557
-1370.32 -414.248 3557
-1361.82 -414.248 3557
-1353.31 -414.248 3557
-1330.82 -409.939 3520
-1311.13 -406.445 3490
-1289.34 -402.253 3454
-1275.89 -400.622 3440
-1267.67 -400.622 3440
-1249.19 -397.361 3412
-1233.39 -394.916 3391
-1198.54 -386.298 3317
-1190.61 -386.298 3317
-1164.14 -380.242 3265
-1169.79 -384.667 3303
-1161.89 -384.667 3303
-1153.99 -384.667 3303
-1146.09 -384.667 3303
-1136.13 -383.968 3297
-1114.9 -379.426 3258
-1107.11 -379.426 3258
-617.142 -213.005 1829
-612.768 -213.005 1829
-607.729 -212.772 1827
-598.737 -211.142 1813
-594.401 -211.142 1813
-588.113 -210.443 1807
-580.885 -209.395 1798
-575.302 -208.929 1794
-571.012 -208.929 1794
-566.722 -208.929 1794
-557.73 -207.182 1779
-551.609 -206.483 1773
-545.517 -205.785 1767
-541.291 -205.785 1767
-534.33 -204.737 1758
-527.412 -203.688 1749
-522.033 -203.223 1745
-517.861 -203.223 1745
-512.216 -202.64 1740
-505.719 -201.709 1732
-501.288 -201.592 1731
-497.148 -201.592 1731
-491.87 -201.126 1727
-487.74 -201.126 1727
-483.05 -200.893 1725
-478.925 -200.893 1725
-473.975 -200.544 1722
-469.311 -200.311 1720
-464.657 -200.078 1718
-460.013 -199.845 1716
-455.909 -199.845 1716
-451.542 -199.729 1715
-446.919 -199.496 1713
-441.789 -199.03 1709
-437.702 -199.03 1709
-433.362 -198.914 1708
-428.272 -198.448 1704
-424.197 -198.448 1704
-420.123 -198.448 1704
-415.315 -198.098 1701
-410.764 -197.865 1699
-406.223 -197.632 1697
-402.165 -197.632 1697
-397.637 -197.4 1695
-392.888 -197.05 1692
-388.382 -196.817 1690
-384.341 -196.817 1690
-379.624 -196.468 1687
-375.145 -196.235 1685
-370.675 -196.002 1683
-366.65 -196.002 1683
-361.979 -195.653 1680
-357.536 -195.42 1678
-353.313 -195.303 1677
-348.886 -195.07 1675
-344.88 -195.07 1675
-340.468 -194.837 1673
-336.467 -194.837 1673
-332.467 -194.837 1673
-328.466 -194.837 1673
-324.465 -194.837 1673
-320.273 -194.721 1672
-316.275 -194.721 1672
-312.277 -194.721 1672
-307.91 -194.488 1670
-303.916 -194.488 1670
-299.923 -194.488 1670
-295.929 -194.488 1670
-291.936 -194.488 1670
-287.597 -194.255 1668
-283.609 -194.255 1668
-279.62 -194.255 1668
-275.631 -194.255 1668
-271.968 -194.488 1670
-268.296 -194.721 1672
-264.772 -195.07 1675
-260.766 -195.07 1675
-257.067 -195.303 1677
-253.057 -195.303 1677
-249.938 -196.002 1683
-245.913 -196.002 1683
-242.176 -196.235 1685
-238.147 -196.235 1685
-235.09 -197.05 1692
-231.044 -197.05 1692
-227.266 -197.283 1694
-223.611 -197.632 1697
-220.07 -198.098 1701
-216.003 -198.098 1701
-212.309 -198.448 1704
-208.234 -198.448 1704
-204.639 -198.914 1708
-200.554 -198.914 1708
-196.815 -199.263 1711
-193.287 -199.845 1716
-189.404 -200.078 1718
-185.295 -200.078 1718
-181.187 -200.078 1718
-177.079 -200.078 1718
-172.971 -200.078 1718
-169.059 -200.311 1720
-164.946 -200.311 1720
-160.833 -200.311 1720
-156.72 -200.311 1720
-152.607 -200.311 1720
-148.494 -200.311 1720
-144.381 -200.311 1720
-140.105 -200.078 1718
-135.996 -200.078 1718
-131.888 -200.078 1718
-127.631 -199.845 1716
-123.456 -199.729 1715
-119.354 -199.729 1715
-115.119 -199.496 1713
-111.023 -199.496 1713
-106.926 -199.496 1713
-102.83 -199.496 1713
-98.6185 -199.263 1711
-94.527 -199.263 1711
-90.4355 -199.263 1711
-86.3439 -199.263 1711
-82.2524 -199.263 1711
-78.1609 -199.263 1711
-74.0694 -199.263 1711
-69.9779 -199.263 1711
-65.8864 -199.263 1711
-61.7948 -199.263 1711
-57.7033 -199.263 1711
-53.5491 -199.03 1709
-49.4624 -199.03 1709
-45.3757 -199.03 1709
-41.3372 -199.263 1711
-37.2892 -199.496 1713
-33.2317 -199.729 1715
-29.1306 -199.729 1715
-25.1025 -200.311 1720
-21.0139 -200.544 1722
-16.896 -200.544 1722
-12.7782 -200.544 1722
-18.7692 -434.628 3732
-9.84488 -434.628 3732
-0.920541 -434.628 3732
8.0038 -434.628 3732
16.9281 -434.628 3732
25.8525 -434.628 3732
34.7768 -434.628 3732
43.7012 -434.628 3732
52.6255 -434.628 3732
61.5499 -434.628 3732
70.3231 -433.697 3724
79.2283 -433.697 3724
88.1336 -433.697 3724
96.8303 -432.765 3716
105.46 -431.717 3707
114.325 -431.717 3707
123.189 -431.717 3707
131.769 -430.785 3699
140.31 -429.854 3691
148.813 -428.922 3683
157.621 -428.922 3683
165.298 -426.01 3658
173.665 -425.079 3650
182.393 -425.079 3650
191.54 -426.01 3658
200.288 -426.01 3658
209.035 -426.01 3658
217.782 -426.01 3658
226.034 -425.079 3650
234.763 -425.079 3650
243.491 -425.079 3650
251.183 -423.332 3635
259.875 -423.332 3635
268.567 -423.332 3635
276.65 -422.4 3627
285.323 -422.4 3627
294.645 -423.332 3635
303.921 -424.147 3642
312.63 -424.147 3642
321.339 -424.147 3642
330.773 -425.079 3650
339.502 -425.079 3650
348.23 -425.079 3650
356.958 -425.079 3650
365.686 -425.079 3650
374.415 -425.079 3650
382.303 -424.147 3642
390.261 -423.332 3635
398.953 -423.332 3635
407.646 -423.332 3635
417.14 -424.147 3642
425.849 -424.147 3642
434.558 -424.147 3642
445.214 -426.01 3658
455.079 -427.058 3667
463.848 -427.058 3667
472.617 -427.058 3667
484.536 -429.854 3691
494.432 -430.785 3699
503.277 -430.785 3699
514.476 -432.765 3716
524.489 -433.697 3724
534.54 -434.628 3732
543.464 -434.628 3732
561.27 -441.616 3792
570.337 -441.616 3792
579.405 -441.616 3792
1118.42 -465.956 4001
1127.99 -465.956 4001
1137.56 -465.956 4001
1147.13 -465.956 4001
1151.2 -463.743 3982
1160.72 -463.743 3982
1167.31 -462.579 3972
1174.14 -461.531 3963
1186.3 -462.579 3972
1195.8 -462.579 3972
1205.3 -462.579 3972
1212.04 -461.531 3963
1221.52 -461.531 3963
1231 -461.531 3963
1231.71 -458.27 3935
1229.45 -453.961 3898
1224.47 -448.72 3853
1245.21 -452.913 3889
1260.32 -455.009 3907
1269.66 -455.009 3907
1288.17 -458.27 3935
1309.78 -462.579 3972
1319.28 -462.579 3972
1328.78 -462.579 3972
1331.87 -460.366 3953
1347.77 -462.579 3972
1357.27 -462.579 3972
1366.77 -462.579 3972
1376.27 -462.579 3972
1376 -459.318 3944
1385.43 -459.318 3944
1384.96 -456.057 3916
1365.48 -446.624 3835
1397.23 -453.961 3898
1419.91 -458.27 3935
1432.58 -459.318 3944
1442.02 -459.318 3944
1472.42 -465.956 4001
1492.73 -469.333 4030
1502.37 -469.333 4030
1512.01 -469.333 4030
1536.37 -473.875 4069
1546.1 -473.875 4069
1555.83 -473.875 4069
1542.86 -467.004 4010
1571.42 -472.711 4059
1581.13 -472.711 4059
1590.83 -472.711 4059
1784 -475.04 4079
1793.75 -475.04 4079
1803.51 -475.04 4079
1808.82 -473.875 4069
1805.14 -470.382 4039
1814.8 -470.382 4039
1828.97 -471.546 4049
1838.65 -471.546 4049
1852.9 -472.711 4059
1871.79 -475.04 4079
1881.54 -475.04 4079
1891.29 -475.04 4079
1901.05 -475.04 4079
1910.8 -475.04 4079
1920.56 -475.04 4079
1930.31 -475.04 4079
1940.06 -475.04 4079
2444.99 -472.711 4059
2454.69 -472.711 4059
2464.4 -472.711 4059
2468.01 -471.546 4049
2483.81 -472.711 4059
2493.52 -472.711 4059
2503.22 -472.711 4059
2500.55 -470.382 4039
2492.18 -467.004 4010
2514.25 -469.333 4030
2523.89 -469.333 4030
2533.52 -469.333 4030
2534.43 -465.956 4001
2544 -465.956 4001
2553.56 -465.956 4001
2508.68 -456.057 3916
2518.04 -456.057 3916
2521.6 -455.009 3907
2501.79 -449.768 3862
2522.73 -451.864 3880
2532.01 -451.864 3880
2541.29 -451.864 3880
2515.07 -445.576 3826
2462.2 -434.628 3732
2493.64 -438.588 3766
2542.51 -445.576 3826
2551.66 -445.576 3826
2560.81 -445.576 3826
2576.01 -446.624 3835
2664.72 -460.366 3953
2674.17 -460.366 3953
2683.63 -460.366 3953
2693.08 -460.366 3953
2702.53 -460.366 3953
2661.9 -451.864 3880
2598.21 -439.52 3774
2601.7 -438.588 3766
2646.76 -444.644 3818
2655.89 -444.644 3818
2665.02 -444.644 3818
2655.94 -441.616 3792
2676.95 -443.596 3809
2736.13 -451.864 3880
2745.41 -451.864 3880
2773.85 -455.009 3907
2783.2 -455.009 3907
2792.54 -455.009 3907
2782.52 -451.864 3880
2791.8 -451.864 3880
2794.58 -450.816 3871
2803.84 -450.816 3871
2813.09 -450.816 3871
2822.35 -450.816 3871
2798.69 -445.576 3826
2827.65 -448.72 3853
2856.75 -451.864 3880
2866.02 -451.864 3880
2875.3 -451.864 3880
2884.58 -451.864 3880
2893.86 -451.864 3880
2896.4 -450.816 3871
2878.64 -446.624 3835
2887.81 -446.624 3835
2896.98 -446.624 3835
2906.15 -446.624 3835
2895.55 -443.596 3809
2897.8 -442.548 3800
2906.89 -442.548 3800
-2392.51 -398.883 3497
-2384.14 -398.883 3497
-2411.11 -404.815 3549
-2402.62 -404.815 3549
-2399.53 -405.727 3557
-2391.03 -405.727 3557
-2387.88 -406.64 3565
-2379.35 -406.64 3565
-2390.78 -410.061 3595
-2398.09 -412.799 3619
-2394.71 -413.712 3627
-2386.04 -413.712 3627
-2377.37 -413.712 3627
-2363.47 -412.799 3619
-2354.81 -412.799 3619
-2346.16 -412.799 3619
-2337.51 -412.799 3619
-2359.74 -418.274 3667
-2350.97 -418.274 3667
-2342.2 -418.274 3667
-2317.53 -415.423 3642
-2308.82 -415.423 3642
-2305.16 -416.335 3650
-2296.43 -416.335 3650
-2303.37 -419.187 3675
-2294.58 -419.187 3675
-2285.8 -419.187 3675
-1372.9 -401.507 3520
-1364.48 -401.507 3520
-1356.07 -401.507 3520
-1347.65 -401.507 3520
-1311.46 -393.18 3447
-1303.22 -393.18 3447
-1292.34 -392.382 3440
-1276.28 -389.986 3419
-1257.72 -386.792 3391
-1249.61 -386.792 3391
-1223.93 -381.317 3343
-1213.75 -380.633 3337
-1198.54 -378.352 3317
-1190.61 -378.352 3317
-1164.14 -372.42 3265
-1163.06 -374.587 3284
-1155.21 -374.587 3284
-1147.35 -374.587 3284
-1139.5 -374.587 3284
-1131.65 -374.587 3284
-1114.9 -371.622 3258
-1107.11 -371.622 3258
-617.142 -208.624 1829
-612.768 -208.624 1829
-607.729 -208.396 1827
-600.718 -207.483 1819
-596.369 -207.483 1819
-588.764 -206.342 1809
-580.885 -205.088 1798
-575.944 -204.86 1796
-571.012 -204.632 1794
-566.722 -204.632 1794
-558.043 -203.035 1780
-551.609 -202.236 1773
-543.356 -200.753 1760
-539.147 -200.753 1760
-532.507 -199.841 1752
-526.809 -199.27 1747
-521.435 -198.814 1743
-517.267 -198.814 1743
-511.627 -198.244 1738
-505.719 -197.56 1732
-501.288 -197.445 1731
-497.148 -197.445 1731
-491.87 -196.989 1727
-487.74 -196.989 1727
-483.05 -196.761 1725
-478.925 -196.761 1725
-474.25 -196.533 1723
-469.311 -196.191 1720
-464.657 -195.963 1718
-460.013 -195.734 1716
-455.909 -195.734 1716
-451.542 -195.62 1715
-446.919 -195.392 1713
-442.306 -195.164 1711
-438.215 -195.164 1711
-433.362 -194.822 1708
-428.272 -194.366 1704
-424.197 -194.366 1704
-420.123 -194.366 1704
-415.315 -194.024 1701
-410.764 -193.795 1699
-406.223 -193.567 1697
-402.165 -193.567 1697
-397.637 -193.339 1695
-392.888 -192.997 1692
-388.382 -192.769 1690
-384.341 -192.769 1690
-379.624 -192.427 1687
-375.145 -192.199 1685
-370.455 -191.856 1682
-366.433 -191.856 1682
-361.979 -191.628 1680
-357.536 -191.4 1678
-353.313 -191.286 1677
-348.886 -191.058 1675
-344.88 -191.058 1675
-340.468 -190.83 1673
-336.467 -190.83 1673
-332.467 -190.83 1673
-328.466 -190.83 1673
-324.271 -190.716 1672
-320.273 -190.716 1672
-316.275 -190.716 1672
-312.277 -190.716 1672
-307.91 -190.488 1670
-303.916 -190.488 1670
-299.563 -190.259 1668
-295.575 -190.259 1668
-291.586 -190.259 1668
-287.597 -190.259 1668
-283.609 -190.259 1668
-279.62 -190.259 1668
-275.631 -190.259 1668
-271.643 -190.259 1668
-268.296 -190.716 1672
-264.772 -191.058 1675
-260.766 -191.058 1675
-257.067 -191.286 1677
-253.057 -191.286 1677
-249.938 -191.97 1683
-245.913 -191.97 1683
-242.176 -192.199 1685
-238.147 -192.199 1685
-235.09 -192.997 1692
-231.044 -192.997 1692
-226.998 -192.997 1692
-223.874 -193.795 1699
-220.07 -194.024 1701
-216.003 -194.024 1701
-212.309 -194.366 1704
-208.479 -194.594 1706
-204.639 -194.822 1708
-200.554 -194.822 1708
-196.815 -195.164 1711
-193.174 -195.62 1715
-189.404 -195.963 1718
-185.295 -195.963 1718
-181.187 -195.963 1718
-177.079 -195.963 1718
-173.172 -196.191 1720
-169.059 -196.191 1720
-164.946 -196.191 1720
-160.833 -196.191 1720
-156.72 -196.191 1720
-152.607 -196.191 1720
-148.494 -196.191 1720
-144.381 -196.191 1720
-140.105 -195.963 1718
-135.996 -195.963 1718
-131.735 -195.734 1716
-127.557 -195.62 1715
-123.456 -195.62 1715
-119.354 -195.62 1715
-115.119 -195.392 1713
-111.023 -195.392 1713
-106.802 -195.164 1711
-102.71 -195.164 1711
-98.6185 -195.164 1711
-94.527 -195.164 1711
-90.3298 -194.936 1709
-86.243 -194.936 1709
-82.1563 -194.936 1709
-78.1609 -195.164 1711
-74.0694 -195.164 1711
-69.9779 -195.164 1711
-65.8864 -195.164 1711
-61.7948 -195.164 1711
-57.6359 -194.936 1709
-53.5491 -194.936 1709
-49.4624 -194.936 1709
-45.3757 -194.936 1709
-41.3372 -195.164 1711
-37.2892 -195.392 1713
-33.2317 -195.62 1715
-29.1306 -195.62 1715
-25.1025 -196.191 1720
-20.9895 -196.191 1720
-16.8764 -196.191 1720
-12.7634 -196.191 1720
-18.7692 -425.688 3732
-9.84488 -425.688 3732
-0.920541 -425.688 3732
8.0038 -425.688 3732
16.9281 -425.688 3732
25.8525 -425.688 3732
34.7023 -424.776 3724
43.6075 -424.776 3724
52.5127 -424.776 3724
61.4179 -424.776 3724
70.3231 -424.776 3724
79.0581 -423.863 3716
87.9442 -423.863 3716
96.5958 -422.837 3707
105.233 -421.924 3699
114.078 -421.924 3699
122.924 -421.924 3699
131.769 -421.924 3699
140.31 -421.012 3691
148.813 -420.099 3683
157.621 -420.099 3683
165.298 -417.248 3658
173.665 -416.335 3650
182.393 -416.335 3650
191.54 -417.248 3658
200.288 -417.248 3658
209.035 -417.248 3658
217.782 -417.248 3658
226.53 -417.248 3658
235.277 -417.248 3658
243.491 -416.335 3650
251.666 -415.423 3642
259.875 -414.624 3635
268.567 -414.624 3635
277.26 -414.624 3635
285.952 -414.624 3635
295.212 -415.423 3642
303.921 -415.423 3642
312.63 -415.423 3642
321.339 -415.423 3642
330.773 -416.335 3650
339.502 -416.335 3650
348.23 -416.335 3650
356.958 -416.335 3650
365.686 -416.335 3650
374.415 -416.335 3650
381.568 -414.624 3635
390.261 -414.624 3635
398.075 -413.712 3627
407.646 -414.624 3635
416.338 -414.624 3635
425.03 -414.624 3635
434.558 -415.423 3642
444.241 -416.335 3650
453.962 -417.248 3658
462.709 -417.248 3658
472.617 -418.274 3667
484.536 -421.012 3691
494.432 -421.924 3699
503.277 -421.924 3699
514.476 -423.863 3716
524.489 -424.776 3724
540.556 -430.479 3774
549.581 -430.479 3774
563.786 -434.471 3809
572.894 -434.471 3809
582.003 -434.471 3809
1118.42 -456.372 4001
1141.52 -461.847 4049
1151.21 -461.847 4049
1160.89 -461.847 4049
1165.08 -459.68 4030
1174.71 -459.68 4030
1181.41 -458.539 4020
1182.43 -455.231 3991
1191.98 -455.231 3991
1201.52 -455.231 3991
1211.06 -455.231 3991
1217.86 -454.204 3982
1224.3 -453.064 3972
1233.79 -453.064 3972
1243.29 -453.064 3972
1243.96 -449.87 3944
1230.19 -441.543 3871
1245.21 -443.596 3889
1266.12 -447.703 3925
1275.51 -447.703 3925
1284.9 -447.703 3925
1294.28 -447.703 3925
1303.67 -447.703 3925
1313.05 -447.703 3925
1316.37 -445.65 3907
1325.72 -445.65 3907
1335.06 -445.65 3907
1344.4 -445.65 3907
1353.75 -445.65 3907
1344.25 -439.49 3853
1353.46 -439.49 3853
1347.11 -434.471 3809
1350.17 -432.532 3792
1362.11 -433.445 3800
1377.69 -435.498 3818
1412.61 -443.596 3889
1421.91 -443.596 3889
1444.45 -447.703 3925
1474.95 -454.204 3982
1494.91 -457.398 4010
1504.5 -457.398 4010
1514.09 -457.398 4010
1513.04 -454.204 3982
1522.56 -454.204 3982
1532.09 -454.204 3982
1575.29 -464.128 4069
1585.02 -464.128 4069
1594.75 -464.128 4069
1788.37 -466.409 4089
1798.15 -466.409 4089
1807.93 -466.409 4089
1808.82 -464.128 4069
1814.08 -462.987 4059
1819.29 -461.847 4049
1833.49 -462.987 4059
1843.2 -462.987 4059
1862.03 -465.269 4079
1871.79 -465.269 4079
1881.54 -465.269 4079
1891.29 -465.269 4079
1901.05 -465.269 4079
1910.8 -465.269 4079
1920.56 -465.269 4079
1930.31 -465.269 4079
1940.06 -465.269 4079
2444.99 -462.987 4059
2454.69 -462.987 4059
2464.4 -462.987 4059
2468.01 -461.847 4049
2477.69 -461.847 4049
2487.37 -461.847 4049
2497.06 -461.847 4049
2500.55 -460.706 4039
2492.18 -457.398 4010
2501.77 -457.398 4010
2505.73 -456.372 4001
2520.95 -457.398 4010
2536.85 -458.539 4020
2546.46 -458.539 4020
2556.08 -458.539 4020
2553.56 -456.372 4001
2508.68 -446.676 3916
2518.04 -446.676 3916
2504.17 -442.57 3880
2501.79 -440.517 3862
2511.03 -440.517 3862
2496.77 -436.41 3826
2505.92 -436.41 3826
2492.72 -432.532 3792
2462.2 -425.688 3732
2487.68 -428.54 3757
2542.51 -436.41 3826
2551.66 -436.41 3826
2560.81 -436.41 3826
2576.01 -437.437 3835
2664.72 -450.897 3953
2674.17 -450.897 3953
2683.63 -450.897 3953
2693.08 -450.897 3953
2702.53 -450.897 3953
2668.08 -443.596 3889
2646.4 -438.464 3844
2655.59 -438.464 3844
2664.78 -438.464 3844
2673.97 -438.464 3844
2683.17 -438.464 3844
2674.15 -435.498 3818
2701.55 -438.464 3844
2761.52 -446.676 3916
2770.88 -446.676 3916
2800.12 -449.87 3944
2809.55 -449.87 3944
2818.99 -449.87 3944
2821.96 -448.843 3935
2811.23 -445.65 3907
2820.57 -445.65 3907
2829.91 -445.65 3907
2839.25 -445.65 3907
2842.03 -444.623 3898
2818.44 -439.49 3853
2834.26 -440.517 3862
2870 -444.623 3898
2879.32 -444.623 3898
2888.64 -444.623 3898
2897.96 -444.623 3898
2907.28 -444.623 3898
2903.14 -442.57 3880
2885.39 -438.464 3844
2894.59 -438.464 3844
2903.78 -438.464 3844
2906.15 -437.437 3835
2908.48 -436.41 3826
2904.66 -434.471 3809
2906.89 -433.445 3800
-2399.58 -388.943 3483
-2391.26 -388.943 3483
-2392.51 -390.506 3497
-2384.14 -390.506 3497
-2411.11 -396.313 3549
-2402.62 -396.313 3549
-2399.53 -397.206 3557
-2391.03 -397.206 3557
-2387.88 -398.1 3565
-2379.35 -398.1 3565
-2390.78 -401.45 3595
-2403.39 -405.023 3627
-2394.71 -405.023 3627
-2395.91 -406.698 3642
-2392.44 -407.591 3650
-2383.71 -407.591 3650
-2374.99 -407.591 3650
-2366.26 -407.591 3650
-2384.01 -412.17 3691
-2385.48 -413.957 3707
-2376.62 -413.957 3707
-2367.75 -413.957 3707
-2333.43 -409.49 3667
-2329.74 -410.383 3675
-2326 -411.277 3683
-2317.19 -411.277 3683
-2308.39 -411.277 3683
-2299.58 -411.277 3683
-2290.77 -411.277 3683
-1361.2 -389.724 3490
-1352.86 -389.724 3490
-1344.51 -389.724 3490
-1285.24 -374.872 3357
-1277.22 -374.872 3357
-1269.19 -374.872 3357
-1248.39 -371.076 3323
-1238.2 -370.406 3317
-1222.85 -368.172 3297
-1214.97 -368.172 3297
-1207.08 -368.172 3297
-1194.47 -366.721 3284
-1186.62 -366.721 3284
-1178.77 -366.721 3284
-1164.14 -364.599 3265
-1156.33 -364.599 3265
-1148.52 -364.599 3265
-1142.81 -365.269 3271
-1134.99 -365.269 3271
-1127.17 -365.269 3271
-1110.79 -362.477 3246
-1103.03 -362.477 3246
-619.166 -204.912 1835
-614.778 -204.912 1835
-609.06 -204.466 1831
-600.718 -203.126 1819
-596.369 -203.126 1819
-588.764 -202.009 1809
-580.885 -200.781 1798
-576.585 -200.781 1798
-571.649 -200.557 1796
-567.354 -200.557 1796
-560.551 -199.664 1788
-553.787 -198.771 1780
-547.369 -197.989 1773
-543.129 -197.989 1773
-534.938 -196.537 1760
-528.317 -195.644 1752
-522.632 -195.086 1747
-518.454 -195.086 1747
-512.51 -194.416 1741
-506.303 -193.634 1734
-501.577 -193.411 1732
-497.436 -193.411 1732
-492.439 -193.076 1729
-487.74 -192.852 1727
-483.61 -192.852 1727
-479.481 -192.852 1727
-474.25 -192.405 1723
-469.311 -192.07 1720
-464.657 -191.847 1718
-460.013 -191.624 1716
-455.909 -191.624 1716
-451.542 -191.512 1715
-446.919 -191.289 1713
-442.306 -191.065 1711
-438.215 -191.065 1711
-433.362 -190.73 1708
-428.272 -190.284 1704
-424.197 -190.284 1704
-420.123 -190.284 1704
-415.315 -189.949 1701
-410.764 -189.725 1699
-406.223 -189.502 1697
-402.165 -189.502 1697
-397.403 -189.167 1694
-392.888 -188.944 1692
-388.152 -188.609 1689
-384.113 -188.609 1689
-379.624 -188.385 1687
-374.699 -187.939 1683
-370.455 -187.827 1682
-366.433 -187.827 1682
-361.979 -187.604 1680
-357.536 -187.38 1678
-353.313 -187.269 1677
-349.302 -187.269 1677
-345.292 -187.269 1677
-340.468 -186.822 1673
-336.467 -186.822 1673
-332.467 -186.822 1673
-328.466 -186.822 1673
-324.271 -186.71 1672
-320.273 -186.71 1672
-316.275 -186.71 1672
-312.277 -186.71 1672
-307.91 -186.487 1670
-303.916 -186.487 1670
-299.563 -186.264 1668
-295.575 -186.264 1668
-291.586 -186.264 1668
-287.597 -186.264 1668
-283.609 -186.264 1668
-279.62 -186.264 1668
-275.631 -186.264 1668
-271.643 -186.264 1668
-268.296 -186.71 1672
-264.772 -187.045 1675
-260.766 -187.045 1675
-257.067 -187.269 1677
-253.057 -187.269 1677
-249.938 -187.939 1683
-245.913 -187.939 1683
-242.176 -188.162 1685
-238.147 -188.162 1685
-235.09 -188.944 1692
-231.044 -188.944 1692
-227.266 -189.167 1694
-223.874 -189.725 1699
-220.2 -190.06 1702
-216.13 -190.06 1702
-212.309 -190.284 1704
-208.479 -190.507 1706
-204.639 -190.73 1708
-200.554 -190.73 1708
-196.815 -191.065 1711
-193.174 -191.512 1715
-189.404 -191.847 1718
-185.295 -191.847 1718
-181.187 -191.847 1718
-177.285 -192.07 1720
-173.172 -192.07 1720
-169.059 -192.07 1720
-164.946 -192.07 1720
-160.833 -192.07 1720
-156.72 -192.07 1720
-152.607 -192.07 1720
-148.494 -192.07 1720
-144.381 -192.07 1720
-140.105 -191.847 1718
-135.996 -191.847 1718
-131.735 -191.624 1716
-127.557 -191.512 1715
-123.456 -191.512 1715
-119.354 -191.512 1715
-115.119 -191.289 1713
-111.023 -191.289 1713
-106.802 -191.065 1711
-102.71 -191.065 1711
-98.6185 -191.065 1711
-94.527 -191.065 1711
-90.3298 -190.842 1709
-86.243 -190.842 1709
-82.1563 -190.842 1709
-78.1609 -191.065 1711
-74.0694 -191.065 1711
-69.9779 -191.065 1711
-65.8864 -191.065 1711
-61.7948 -191.065 1711
-57.6359 -190.842 1709
-53.5491 -190.842 1709
-49.4624 -190.842 1709
-45.3757 -190.842 1709
-41.3372 -191.065 1711
-37.2892 -191.289 1713
-33.2317 -191.512 1715
-29.1306 -191.512 1715
-25.1025 -192.07 1720
-20.9895 -192.07 1720
-16.8764 -192.07 1720
-12.7634 -192.07 1720
-18.7692 -416.748 3732
-9.84488 -416.748 3732
-0.920541 -416.748 3732
8.0038 -416.748 3732
16.9281 -416.748 3732
25.8525 -416.748 3732
34.7023 -415.855 3724
43.6075 -415.855 3724
52.5127 -415.855 3724
61.4179 -415.855 3724
70.3231 -415.855 3724
79.0581 -414.962 3716
87.9442 -414.962 3716
96.5958 -413.957 3707
105.233 -413.063 3699
114.078 -413.063 3699
122.924 -413.063 3699
131.769 -413.063 3699
140.31 -412.17 3691
148.813 -411.277 3683
157.621 -411.277 3683
165.298 -408.485 3658
173.665 -407.591 3650
182.393 -407.591 3650
191.54 -408.485 3658
200.288 -408.485 3658
209.035 -408.485 3658
217.782 -408.485 3658
226.53 -408.485 3658
235.277 -408.485 3658
243.491 -407.591 3650
251.666 -406.698 3642
259.875 -405.916 3635
268.567 -405.916 3635
277.26 -405.916 3635
286.503 -406.698 3642
295.212 -406.698 3642
303.921 -406.698 3642
312.63 -406.698 3642
321.339 -406.698 3642
330.773 -407.591 3650
339.502 -407.591 3650
348.23 -407.591 3650
356.958 -407.591 3650
365.686 -407.591 3650
374.415 -407.591 3650
381.568 -405.916 3635
390.261 -405.916 3635
398.075 -405.023 3627
407.646 -405.916 3635
416.338 -405.916 3635
425.03 -405.916 3635
434.558 -406.698 3642
444.241 -407.591 3650
453.962 -408.485 3658
462.709 -408.485 3658
472.617 -409.49 3667
484.536 -412.17 3691
494.432 -413.063 3699
503.277 -413.063 3699
514.476 -414.962 3716
524.489 -415.855 3724
541.845 -422.443 3783
550.891 -422.443 3783
563.786 -425.347 3809
572.894 -425.347 3809
582.003 -425.347 3809
1118.42 -446.787 4001
1147.16 -454.381 4069
1156.89 -454.381 4069
1166.62 -454.381 4069
1170.57 -452.147 4049
1180.25 -452.147 4049
1187 -451.031 4039
1191.03 -448.909 4020
1200.64 -448.909 4020
1210.25 -448.909 4020
1219.86 -448.909 4020
1223.67 -446.787 4001
1233.23 -446.787 4001
1242.8 -446.787 4001
1249.24 -445.671 3991
1243.96 -440.422 3944
1241.63 -436.29 3907
1248.09 -435.285 3898
1266.12 -438.3 3925
1275.51 -438.3 3925
1284.9 -438.3 3925
1294.28 -438.3 3925
1303.67 -438.3 3925
1313.05 -438.3 3925
1316.37 -436.29 3907
1325.72 -436.29 3907
1335.06 -436.29 3907
1344.4 -436.29 3907
1353.75 -436.29 3907
1344.25 -430.26 3853
1353.46 -430.26 3853
1347.11 -425.347 3809
1350.17 -423.448 3792
1362.11 -424.342 3800
1377.69 -426.352 3818
1412.61 -434.28 3889
1421.91 -434.28 3889
1444.45 -438.3 3925
1474.95 -444.665 3982
1494.91 -447.792 4010
1504.5 -447.792 4010
1514.09 -447.792 4010
1513.04 -444.665 3982
1522.56 -444.665 3982
1532.09 -444.665 3982
1575.29 -454.381 4069
1585.02 -454.381 4069
1594.75 -454.381 4069
1788.37 -456.614 4089
1798.15 -456.614 4089
1807.93 -456.614 4089
1808.82 -454.381 4069
1814.08 -453.264 4059
1819.29 -452.147 4049
1838.01 -454.381 4069
1847.74 -454.381 4069
1862.03 -455.497 4079
1871.79 -455.497 4079
1881.54 -455.497 4079
1891.29 -455.497 4079
1901.05 -455.497 4079
1910.8 -455.497 4079
1920.56 -455.497 4079
1930.31 -455.497 4079
1940.06 -455.497 4079
2463.06 -456.614 4089
2472.84 -456.614 4089
2482.61 -456.614 4089
2492.39 -456.614 4089
2502.17 -456.614 4089
2493.52 -453.264 4059
2503.22 -453.264 4059
2500.55 -451.031 4039
2492.18 -447.792 4010
2501.77 -447.792 4010
2505.73 -446.787 4001
2520.95 -447.792 4010
