ply
format ascii 1.0
comment File generated
element vertex 2257
property float x
property float y
property float z
end_header
165.218 660.043 4089
174.996 660.043 4089
183.418 655.2 4059
193.125 655.2 4059
202.831 655.2 4059
212.537 655.2 4059
220.656 650.519 4030
229.15 647.291 4010
235.941 639.704 3963
245.418 639.704 3963
252.45 633.57 3925
261.836 633.57 3925
269.356 629.212 3898
278.677 629.212 3898
285.339 623.401 3862
294.574 623.401 3862
305.225 626.306 3880
314.504 626.306 3880
323.782 626.306 3880
333.06 626.306 3880
339.956 621.948 3853
349.17 621.948 3853
358.384 621.948 3853
366.739 620.495 3844
374.17 617.59 3826
380.715 613.393 3800
389.802 613.393 3800
396.159 609.196 3774
397.991 598.381 3707
401.478 590.471 3658
410.225 590.471 3658
414.505 584.176 3619
422.224 582.884 3611
428.95 580.302 3595
432.922 574.168 3557
441.428 574.168 3557
446.139 569.325 3527
451.737 565.774 3505
456.312 561.093 3476
464.624 561.093 3476
468.038 555.282 3440
475.295 554.152 3433
482.519 553.022 3426
490.711 553.022 3426
498.904 553.022 3426
506.06 551.892 3419
516.342 554.152 3433
527.76 557.542 3454
536.019 557.542 3454
546.485 559.802 3468
560.697 565.774 3505
573.787 570.455 3534
582.238 570.455 3534
594.533 574.168 3557
606.938 577.88 3580
620.829 582.884 3611
629.464 582.884 3611
643.577 587.888 3642
656.764 591.924 3667
666.984 593.215 3675
680.186 597.089 3699
689.031 597.089 3699
701.084 599.833 3716
709.97 599.833 3716
718.856 599.833 3716
727.742 599.833 3716
736.628 599.833 3716
745.514 599.833 3716
754.4 599.833 3716
759.795 597.089 3699
768.64 597.089 3699
775.804 595.798 3691
784.63 595.798 3691
793.457 595.798 3691
800.544 594.507 3683
803.857 590.471 3658
814.604 591.924 3667
823.373 591.924 3667
835.773 594.507 3683
844.58 594.507 3683
855.241 595.798 3691
864.067 595.798 3691
872.893 595.798 3691
881.72 595.798 3691
890.546 595.798 3691
897.423 594.507 3683
906.23 594.507 3683
915.037 594.507 3683
921.838 593.215 3675
932.651 594.507 3683
941.459 594.507 3683
952.33 595.798 3691
963.24 597.089 3699
974.187 598.381 3707
983.052 598.381 3707
996.465 601.125 3724
1005.37 601.125 3724
1016.45 602.416 3732
1025.38 602.416 3732
1034.3 602.416 3732
1043.23 602.416 3732
1054.41 603.708 3740
1063.35 603.708 3740
1072.29 603.708 3740
1081.24 603.708 3740
1090.18 603.708 3740
1099.12 603.708 3740
1108.07 603.708 3740
1119.7 605.16 3749
1128.66 605.16 3749
1140.06 606.452 3757
1149.04 606.452 3757
1160.8 607.904 3766
1169.81 607.904 3766
1184.13 610.649 3783
1193.18 610.649 3783
1202.22 610.649 3783
1216.71 613.393 3800
1228.7 614.845 3809
1237.81 614.845 3809
1246.92 614.845 3809
1256.03 614.845 3809
1270.78 617.59 3826
1279.93 617.59 3826
1289.08 617.59 3826
1301.29 619.042 3835
1310.46 619.042 3835
1319.63 619.042 3835
1328.8 619.042 3835
1337.97 619.042 3835
1356.62 623.401 3862
1365.86 623.401 3862
1375.09 623.401 3862
1387.56 624.853 3871
1396.81 624.853 3871
1406.07 624.853 3871
1408.74 621.948 3853
1411.33 619.042 3835
1414.21 616.298 3818
1423.34 616.298 3818
1419.34 610.649 3783
1428.38 610.649 3783
1437.43 610.649 3783
1446.47 610.649 3783
1452.06 609.196 3774
1461.08 609.196 3774
1477.12 612.101 3792
1489.32 613.393 3800
1498.41 613.393 3800
1511.07 614.845 3809
1520.18 614.845 3809
1529.28 614.845 3809
1531.53 612.101 3792
1536.94 610.649 3783
1535.36 606.452 3757
1548.04 607.904 3766
1560.36 609.196 3774
1569.38 609.196 3774
1582.17 610.649 3783
1598.37 613.393 3800
1618.45 617.59 3826
1627.6 617.59 3826
1636.75 617.59 3826
1638.59 614.845 3809
1647.69 614.845 3809
1652.89 613.393 3800
1658.48 612.101 3792
1667.54 612.101 3792
1676.61 612.101 3792
1685.68 612.101 3792
1702.34 614.845 3809
1715.5 616.298 3818
1724.63 616.298 3818
1733.76 616.298 3818
1742.89 616.298 3818
1755.69 617.59 3826
1764.84 617.59 3826
1773.99 617.59 3826
1779.41 616.298 3818
1776.36 612.101 3792
1781.19 610.649 3783
1802.54 614.845 3809
1811.65 614.845 3809
1820.76 614.845 3809
1813.05 609.196 3774
1822.07 609.196 3774
1822.85 606.452 3757
1827.93 605.16 3749
1832.49 603.708 3740
1841.43 603.708 3740
1830.09 597.089 3699
1814.58 589.18 3650
1807.82 584.176 3619
1804.43 580.302 3595
1813.02 580.302 3595
1814.02 577.88 3580
1810.87 574.168 3557
1811.71 571.747 3542
1827.88 574.168 3557
1836.39 574.168 3557
1849.04 575.459 3565
1877.37 581.593 3603
1890.17 582.884 3611
1898.81 582.884 3611
1911.67 584.176 3619
1924.57 585.467 3627
1941.24 587.888 3642
1949.95 587.888 3642
1967.26 590.471 3658
1985.19 593.215 3675
2002.66 595.798 3691
2047.45 606.452 3757
2070.67 610.649 3783
2079.72 610.649 3783
2182.63 638.09 3953
2192.08 638.09 3953
2217.68 642.771 3982
2242.87 647.291 4010
2252.46 647.291 4010
2262.04 647.291 4010
2271.63 647.291 4010
2281.22 647.291 4010
2290.81 647.291 4010
2300.4 647.291 4010
2309.99 647.291 4010
2319.58 647.291 4010
2318.13 644.224 3991
2327.68 644.224 3991
2337.22 644.224 3991
2346.76 644.224 3991
2362.21 645.838 4001
2377.11 647.291 4010
2386.7 647.291 4010
2408.24 650.519 4030
2417.88 650.519 4030
2427.52 650.519 4030
2437.15 650.519 4030
2446.79 650.519 4030
2456.43 650.519 4030
2466.07 650.519 4030
2469.56 648.905 4020
2479.17 648.905 4020
2482.59 647.291 4010
2492.18 647.291 4010
2501.77 647.291 4010
2505.73 645.838 4001
2515.29 645.838 4001
2518.55 644.224 3991
2528.09 644.224 3991
2537.64 644.224 3991
2572.07 650.519 4030
2581.71 650.519 4030
2591.35 650.519 4030
2600.98 650.519 4030
2616.45 651.972 4039
2626.11 651.972 4039
2635.77 651.972 4039
2645.43 651.972 4039
2642.59 648.905 4020
523.248 118.966 737
525.011 118.966 737
527.488 119.127 738
529.252 119.127 738
531.017 119.127 738
532.782 119.127 738
533.098 118.804 736
535.585 118.966 737
537.347 118.966 737
539.11 118.966 737
540.872 118.966 737
542.634 118.966 737
543.658 118.804 736
545.418 118.804 736
547.178 118.804 736
548.938 118.804 736
550.698 118.804 736
552.458 118.804 736
554.218 118.804 736
555.978 118.804 736
557.738 118.804 736
559.498 118.804 736
561.258 118.804 736
563.018 118.804 736
-2356.98 515.688 3148
-2349.46 515.688 3148
-2328.54 512.74 3130
-2312.15 510.774 3118
-2304.7 510.774 3118
-2297.24 510.774 3118
-2289.79 510.774 3118
-2282.33 510.774 3118
-2283.63 512.74 3130
-2284.87 514.706 3142
-2277.36 514.706 3142
-2278.51 516.671 3154
-2279.61 518.637 3166
-2311.51 527.647 3221
-2303.81 527.647 3221
-2322.48 533.708 3258
-2448.97 564.669 3447
-2440.73 564.669 3447
-2432.48 564.669 3447
-2545.21 592.845 3619
-2552.67 596.613 3642
-2543.96 596.613 3642
-2563.79 603.329 3683
-2560.54 604.64 3691
-2551.71 604.64 3691
-2542.88 604.64 3691
-2534.06 604.64 3691
-2525.23 604.64 3691
-2516.41 604.64 3691
-2496.71 602.019 3675
-2493.34 603.329 3683
-2484.53 603.329 3683
-2475.72 603.329 3683
-2466.92 603.329 3683
-2452.77 602.019 3675
-2443.98 602.019 3675
-2435.19 602.019 3675
-2426.41 602.019 3675
-2417.62 602.019 3675
-2403.59 600.708 3667
-2394.82 600.708 3667
-2374.99 597.923 3650
-2361.07 596.613 3642
-2352.36 596.613 3642
-2343.65 596.613 3642
-2330.46 595.466 3635
-2301.32 590.224 3603
-2287.62 588.914 3595
-2274.58 587.767 3588
-2266 587.767 3588
-2257.42 587.767 3588
-2258.25 590.224 3603
-2249.63 590.224 3603
-2241.01 590.224 3603
-1841.99 618.236 3774
-1832.96 618.236 3774
-1832.64 621.185 3792
-1823.57 621.185 3792
-1822.63 623.97 3809
-1813.53 623.97 3809
-1816.73 628.229 3835
-1811.81 629.703 3844
-1815.27 634.126 3871
-1806.02 634.126 3871
-1805.12 637.075 3889
-1812.44 642.972 3925
-1815.92 647.559 3953
-1806.46 647.559 3953
-1797.01 647.559 3953
-1783.49 646.085 3944
-1774.06 646.085 3944
-1760.6 644.611 3935
-1722.71 634.126 3871
-1713.45 634.126 3871
-1704.19 634.126 3871
-1694.94 634.126 3871
-1681.76 632.652 3862
-1684.22 637.075 3889
-1678.8 638.549 3898
-1669.47 638.549 3898
-1663.99 640.024 3907
-1654.64 640.024 3907
-1645.3 640.024 3907
-1639.73 641.498 3916
-1630.36 641.498 3916
-1628.86 644.611 3935
-1623.16 646.085 3944
-1613.72 646.085 3944
-1604.29 646.085 3944
-1594.86 646.085 3944
-1593.07 649.197 3963
-1587.19 650.672 3972
-1577.69 650.672 3972
-1568.19 650.672 3972
-1558.69 650.672 3972
-1549.2 650.672 3972
-1532.33 647.559 3953
-1508.63 641.498 3916
-1499.26 641.498 3916
-1489.9 641.498 3916
-1480.53 641.498 3916
-1471.17 641.498 3916
-1461.8 641.498 3916
-1452.44 641.498 3916
-1436.44 638.549 3898
-1427.12 638.549 3898
-1407.98 634.126 3871
-1398.72 634.126 3871
-1386.23 632.652 3862
-1377 632.652 3862
-1367.76 632.652 3862
-1358.53 632.652 3862
-1349.29 632.652 3862
-1336.94 631.178 3853
-1324.62 629.703 3844
-1315.43 629.703 3844
-604.403 297.651 1817
-600.718 297.979 1819
-597.68 298.634 1823
-593.321 298.634 1823
-589.607 298.962 1825
-585.243 298.962 1825
-580.879 298.962 1825
-575.251 298.306 1821
-570.27 297.979 1819
-563.431 296.668 1811
-559.101 296.668 1811
-554.77 296.668 1811
-549.223 296.013 1807
-544.902 296.013 1807
-539.684 295.522 1804
-535.37 295.522 1804
-529.29 294.539 1798
-520.902 292.245 1784
-512.292 289.788 1769
-508.062 289.788 1769
-500.699 287.986 1758
-492.824 285.857 1745
-487.251 285.037 1740
-483.09 285.037 1740
-474.8 282.58 1725
-470.13 282.253 1723
-464.116 281.106 1716
-458.672 280.287 1711
-454.581 280.287 1711
-448.646 279.14 1704
-443.789 278.649 1701
-438.687 277.993 1697
-434.629 277.993 1697
-428.795 276.847 1690
-424 276.355 1687
-418.97 275.7 1683
-414.945 275.7 1683
-410.188 275.209 1680
-405.687 274.881 1678
-400.956 274.389 1675
-396.951 274.389 1675
-392.476 274.062 1673
-387.315 273.243 1668
-383.326 273.243 1668
-379.337 273.243 1668
-374.674 272.751 1665
-369.579 271.932 1660
-364.949 271.441 1657
-360.986 271.441 1657
-356.593 271.113 1655
-352.209 270.786 1653
-347.203 269.967 1648
-343.262 269.967 1648
-339.321 269.967 1648
-335.177 269.803 1647
-330.635 269.311 1644
-326.306 268.984 1642
-322.38 268.984 1642
-318.453 268.984 1642
-314.143 268.656 1640
-310.222 268.656 1640
-306.3 268.656 1640
-302.378 268.656 1640
-298.457 268.656 1640
-294.355 268.492 1639
-290.436 268.492 1639
-286.517 268.492 1639
-282.252 268.165 1637
-278.338 268.165 1637
-274.423 268.165 1637
-270.509 268.165 1637
-266.594 268.165 1637
-262.68 268.165 1637
-259.081 268.492 1639
-255.162 268.492 1639
-251.702 268.984 1642
-247.776 268.984 1642
-244.592 269.803 1647
-240.653 269.803 1647
-236.715 269.803 1647
-232.776 269.803 1647
-228.977 269.967 1648
-225.582 270.622 1652
-221.632 270.622 1652
-218.34 271.441 1657
-215.413 272.751 1665
-211.812 273.243 1668
-207.824 273.243 1668
-204.935 274.717 1677
-201.044 274.881 1678
-197.501 275.536 1682
-193.479 275.536 1682
-190.02 276.355 1687
-186.758 277.502 1694
-183.246 278.321 1699
-179.183 278.321 1699
-175.121 278.321 1699
-171.561 279.14 1704
-167.879 279.795 1708
-163.795 279.795 1708
-159.711 279.795 1708
-155.718 279.959 1709
-151.631 279.959 1709
-147.544 279.959 1709
-143.793 280.614 1713
-139.86 280.942 1715
-135.838 281.106 1716
-131.735 281.106 1716
-127.631 281.106 1716
-242.753 637.075 3889
-236.755 646.085 3944
-227.843 647.559 3953
-218.39 647.559 3953
-208.937 647.559 3953
-200.443 650.672 3972
-191.426 652.31 3982
-182.315 653.784 3991
-172.771 653.784 3991
-163.636 655.422 4001
-154.415 656.897 4010
-146.235 663.285 4049
-136.552 663.285 4049
-127.183 664.924 4059
-118.056 668.2 4079
-108.302 668.2 4079
-98.5474 668.2 4079
135.219 666.562 4069
144.95 666.562 4069
155.44 669.838 4089
165.218 669.838 4089
174.996 669.838 4089
183.418 664.924 4059
191.745 660.173 4030
201.382 660.173 4030
211.019 660.173 4030
219.068 655.422 4001
226.464 649.197 3963
232.071 638.549 3898
241.392 638.549 3898
247.819 631.178 3853
256.433 629.703 3844
263.828 625.444 3818
272.958 625.444 3818
282.088 625.444 3818
291.218 625.444 3818
300.348 625.444 3818
309.478 625.444 3818
318.608 625.444 3818
327.738 625.444 3818
336.074 623.97 3809
345.182 623.97 3809
354.291 623.97 3809
363.399 623.97 3809
371.628 622.496 3800
378.11 618.236 3774
387.135 618.236 3774
393.535 614.141 3749
397.132 605.95 3699
401.478 599.234 3658
410.225 599.234 3658
413.589 591.535 3611
420.353 588.914 3595
427.16 586.456 3580
431.948 581.378 3549
440.435 581.378 3549
446.139 577.774 3527
451.737 574.17 3505
456.312 569.42 3476
464.624 569.42 3476
468.038 563.522 3440
474.326 561.229 3426
481.533 560.082 3419
489.709 560.082 3419
496.865 558.935 3412
505.024 558.935 3412
515.289 561.229 3426
524.551 562.376 3433
532.761 562.376 3433
545.382 566.962 3461
557.178 570.566 3483
570.215 575.317 3512
578.613 575.317 3512
590.689 578.921 3534
601.683 581.378 3549
615.499 586.456 3580
624.06 586.456 3580
638.099 591.535 3611
648.167 592.845 3619
658.273 594.156 3627
669.704 596.613 3642
678.413 596.613 3642
688.632 597.923 3650
697.36 597.923 3650
709.377 600.708 3667
718.146 600.708 3667
728.501 602.019 3675
737.289 602.019 3675
746.077 602.019 3675
754.865 602.019 3675
758.458 597.923 3650
765.505 596.613 3642
774.214 596.613 3642
781.418 595.466 3635
790.111 595.466 3635
795.287 592.845 3619
805.718 594.156 3627
814.391 594.156 3627
823.065 594.156 3627
833.573 595.466 3635
845.741 597.923 3650
854.469 597.923 3650
863.197 597.923 3650
871.925 597.923 3650
880.654 597.923 3650
887.432 596.613 3642
896.142 596.613 3642
904.851 596.613 3642
915.567 597.923 3650
926.321 599.234 3658
935.068 599.234 3658
950.266 603.329 3683
959.073 603.329 3683
972.085 605.95 3699
980.93 605.95 3699
989.776 605.95 3699
1000.78 607.261 3707
1012.1 608.735 3716
1020.98 608.735 3716
1032.09 610.046 3724
1040.99 610.046 3724
1049.9 610.046 3724
1058.8 610.046 3724
1067.71 610.046 3724
1078.92 611.356 3732
1087.85 611.356 3732
1096.77 611.356 3732
1105.7 611.356 3732
1114.62 611.356 3732
1125.96 612.667 3740
1137.63 614.141 3749
1146.59 614.141 3749
1155.56 614.141 3749
1167.01 615.452 3757
1178.81 616.926 3766
1187.82 616.926 3766
1196.82 616.926 3766
1211.27 619.711 3783
1223.22 621.185 3792
1232.29 621.185 3792
1243.98 622.496 3800
1253.06 622.496 3800
1262.15 622.496 3800
1271.24 622.496 3800
1280.32 622.496 3800
1286.7 621.185 3792
1295.76 621.185 3792
1304.83 621.185 3792
1319.79 623.97 3809
1328.9 623.97 3809
1347.14 628.229 3835
1356.31 628.229 3835
1365.48 628.229 3835
1374.65 628.229 3835
1383.82 628.229 3835
1392.99 628.229 3835
1395.95 625.444 3818
1395.51 621.185 3792
1394.95 616.926 3766
1403.95 616.926 3766
1409.58 615.452 3757
1418.57 615.452 3757
1427.55 615.452 3757
1436.53 615.452 3757
1445.52 615.452 3757
1454.5 615.452 3757
1463.49 615.452 3757
1472.47 615.452 3757
1481.45 615.452 3757
1494.01 616.926 3766
1503.01 616.926 3766
1512.02 616.926 3766
1517.39 615.452 3757
1523.12 614.141 3749
1525.14 611.356 3732
1537.35 612.667 3740
1553.33 615.452 3757
1562.31 615.452 3757
1578.41 618.236 3774
1591.22 619.711 3783
1604.07 621.185 3792
1613.14 621.185 3792
1622.2 621.185 3792
1631.27 621.185 3792
1640.34 621.185 3792
1641.58 618.236 3774
1650.6 618.236 3774
1663.59 619.711 3783
1672.63 619.711 3783
1681.68 619.711 3783
1690.72 619.711 3783
1711.45 623.97 3809
1724.63 625.444 3818
1733.76 625.444 3818
1742.89 625.444 3818
1755.69 626.755 3826
1764.84 626.755 3826
1773.99 626.755 3826
1779.41 625.444 3818
1776.36 621.185 3792
1781.19 619.711 3783
1790.23 619.711 3783
1799.28 619.711 3783
1808.33 619.711 3783
1813.05 618.236 3774
1822.07 618.236 3774
1822.85 615.452 3757
1827.93 614.141 3749
1828.57 611.356 3732
1837.49 611.356 3732
1830.09 605.95 3699
1814.58 597.923 3650
1815.81 595.466 3635
1804.43 588.914 3595
1813.02 588.914 3595
1809.97 585.146 3572
1810.87 582.689 3557
1811.71 580.231 3542
1823.77 581.378 3549
1832.26 581.378 3549
1844.9 582.689 3557
1873.2 588.914 3595
1885.99 590.224 3603
1894.6 590.224 3603
1903.22 590.224 3603
1920.32 592.845 3619
1933.24 594.156 3627
1941.91 594.156 3627
1958.66 596.613 3642
1976.01 599.234 3658
1998.32 603.329 3683
2047.45 615.452 3757
2056.44 615.452 3757
2084.66 621.185 3792
2162.2 641.498 3916
2171.56 641.498 3916
2207.1 649.197 3963
2227.21 652.31 3982
2236.73 652.31 3982
2251.33 653.784 3991
2260.87 653.784 3991
2270.41 653.784 3991
2279.96 653.784 3991
2289.5 653.784 3991
2299.04 653.784 3991
2308.59 653.784 3991
2312.9 652.31 3982
2327.68 653.784 3991
2337.22 653.784 3991
2346.76 653.784 3991
2362.21 655.422 4001
2377.11 656.897 4010
2386.7 656.897 4010
2408.24 660.173 4030
2417.88 660.173 4030
2427.52 660.173 4030
2437.15 660.173 4030
2446.79 660.173 4030
2456.43 660.173 4030
2466.07 660.173 4030
2475.7 660.173 4030
2479.17 658.535 4020
2488.79 658.535 4020
2492.18 656.897 4010
2501.77 656.897 4010
2511.36 656.897 4010
2520.95 656.897 4010
2530.54 656.897 4010
2540.13 656.897 4010
2537.64 653.784 3991
2565.69 658.535 4020
2575.3 658.535 4020
2584.92 658.535 4020
2594.53 658.535 4020
2616.45 661.647 4039
2626.11 661.647 4039
2635.77 661.647 4039
2645.43 661.647 4039
2636.02 656.897 4010
2627.14 652.31 3982
527.101 120.404 735
528.859 120.404 735
531.338 120.568 736
533.098 120.568 736
534.858 120.568 736
536.618 120.568 736
538.378 120.568 736
540.138 120.568 736
541.898 120.568 736
543.658 120.568 736
545.418 120.568 736
547.178 120.568 736
548.192 120.404 735
549.95 120.404 735
551.708 120.404 735
553.465 120.404 735
555.223 120.404 735
556.98 120.404 735
558.738 120.404 735
560.496 120.404 735
562.253 120.404 735
-2356.98 523.229 3148
-2349.46 523.229 3148
-2328.54 520.238 3130
-2312.15 518.243 3118
-2304.7 518.243 3118
-2297.24 518.243 3118
-2289.79 518.243 3118
-2282.33 518.243 3118
-2283.63 520.238 3130
-2284.87 522.232 3142
-2277.36 522.232 3142
-2278.51 524.227 3154
-2279.61 526.221 3166
-2311.51 535.363 3221
-2303.81 535.363 3221
-2322.48 541.513 3258
-2448.97 572.926 3447
-2440.73 572.926 3447
-2432.48 572.926 3447
-2528.33 597.525 3595
-2536.55 601.514 3619
-2527.9 601.514 3619
-2563.79 612.152 3683
-2560.54 613.482 3691
-2551.71 613.482 3691
-2542.88 613.482 3691
-2534.06 613.482 3691
-2525.23 613.482 3691
-2516.41 613.482 3691
-2496.71 610.822 3675
-2493.34 612.152 3683
-2484.53 612.152 3683
-2475.72 612.152 3683
-2466.92 612.152 3683
-2452.77 610.822 3675
-2443.98 610.822 3675
-2435.19 610.822 3675
-2426.41 610.822 3675
-2417.62 610.822 3675
-2403.59 609.493 3667
-2394.82 609.493 3667
-2374.99 606.667 3650
-2361.07 605.337 3642
-2352.36 605.337 3642
-2343.65 605.337 3642
-2330.46 604.174 3635
-2301.32 598.855 3603
-2287.62 597.525 3595
-2274.58 596.362 3588
-2266 596.362 3588
-2257.42 596.362 3588
-2258.25 598.855 3603
-2249.63 598.855 3603
-2241.01 598.855 3603
-1898.11 646.391 3889
-1888.81 646.391 3889
-1879.51 646.391 3889
-1870.21 646.391 3889
-1860.91 646.391 3889
-1843.04 643.399 3871
-1838.05 644.895 3880
-1833.02 646.391 3889
-1827.94 647.887 3898
-1818.61 647.887 3898
-1821.83 652.375 3925
-1821.21 655.533 3944
-1824.64 660.187 3972
-1815.15 660.187 3972
-1805.65 660.187 3972
-1783.49 655.533 3944
-1774.06 655.533 3944
-1760.6 654.037 3935
-1734.72 647.887 3898
-1721.42 646.391 3889
-1712.12 646.391 3889
-1702.82 646.391 3889
-1693.52 646.391 3889
-1684.22 646.391 3889
-1686.55 650.879 3916
-1677.18 650.879 3916
-1675.91 654.037 3935
-1666.5 654.037 3935
-1657.09 654.037 3935
-1647.68 654.037 3935
-1638.27 654.037 3935
-1636.31 657.029 3953
-1638.8 661.849 3982
-1629.27 661.849 3982
-1619.75 661.849 3982
-1602.55 658.691 3963
-1596.69 660.187 3972
-1598.78 665.007 4001
-1589.21 665.007 4001
-1579.64 665.007 4001
-1570.07 665.007 4001
-1560.51 665.007 4001
-1536.21 658.691 3963
-1519.41 655.533 3944
-1506.54 654.037 3935
-1497.13 654.037 3935
-1487.72 654.037 3935
-1485.07 657.029 3953
-1475.62 657.029 3953
-1466.16 657.029 3953
-1453.39 655.533 3944
-1430.42 649.383 3907
-1417.8 647.887 3898
-1408.48 647.887 3898
-1389.46 643.399 3871
-1377 641.904 3862
-1367.76 641.904 3862
-1358.53 641.904 3862
-1349.29 641.904 3862
-1336.94 640.408 3853
-1324.62 638.912 3844
-1315.43 638.912 3844
-604.403 302.004 1817
-601.379 302.669 1821
-598.336 303.333 1825
-593.972 303.333 1825
-589.607 303.333 1825
-585.243 303.333 1825
-580.879 303.333 1825
-576.515 303.333 1825
-570.897 302.669 1821
-564.676 301.671 1815
-560.335 301.671 1815
-555.383 301.339 1813
-550.439 301.007 1811
-544.902 300.342 1807
-539.983 300.009 1805
-535.667 300.009 1805
-530.467 299.511 1802
-522.07 297.184 1788
-514.03 295.023 1775
-509.785 295.023 1775
-502.123 293.028 1763
-492.824 290.037 1745
-487.251 289.206 1740
-483.09 289.206 1740
-475.351 287.045 1727
-470.675 286.712 1725
-464.116 285.217 1716
-458.672 284.386 1711
-454.581 284.386 1711
-449.699 283.887 1708
-444.05 282.89 1702
-439.204 282.391 1699
-435.141 282.391 1699
-430.571 282.059 1697
-424 280.397 1687
-419.965 280.397 1687
-415.931 280.397 1687
-410.188 279.233 1680
-406.171 279.233 1680
-400.956 278.402 1675
-396.951 278.402 1675
-392.476 278.07 1673
-387.315 277.238 1668
-383.326 277.238 1668
-379.337 277.238 1668
-375.124 277.072 1667
-369.579 275.909 1660
-364.949 275.41 1657
-360.986 275.41 1657
-356.593 275.078 1655
-352.209 274.745 1653
-347.203 273.914 1648
-343.262 273.914 1648
-339.321 273.914 1648
-335.177 273.748 1647
-330.635 273.249 1644
-326.704 273.249 1644
-322.772 273.249 1644
-318.841 273.249 1644
-314.143 272.585 1640
-310.222 272.585 1640
-306.3 272.585 1640
-302.378 272.585 1640
-298.457 272.585 1640
-294.535 272.585 1640
-290.613 272.585 1640
-286.691 272.585 1640
-282.597 272.418 1639
-278.848 272.585 1640
-274.926 272.585 1640
-271.004 272.585 1640
-267.083 272.585 1640
-263.482 272.917 1642
-259.555 272.917 1642
-255.629 272.917 1642
-252.469 273.748 1647
-248.53 273.748 1647
-245.037 274.247 1650
-241.092 274.247 1650
-237.577 274.745 1653
-233.624 274.745 1653
-230.227 275.41 1657
-226.401 275.576 1658
-222.437 275.576 1658
-219.131 276.407 1663
-215.801 277.238 1668
-212.447 278.07 1673
-208.446 278.07 1673
-205.057 278.901 1678
-201.523 279.565 1682
-197.619 279.732 1683
-193.594 279.732 1683
-190.02 280.397 1687
-186.758 281.56 1694
-183.246 282.391 1699
-179.183 282.391 1699
-175.121 282.391 1699
-171.561 283.222 1704
-167.879 283.887 1708
-163.795 283.887 1708
-159.711 283.887 1708
-155.718 284.053 1709
-151.631 284.053 1709
-147.544 284.053 1709
-143.793 284.718 1713
-139.86 285.05 1715
-135.838 285.217 1716
-131.735 285.217 1716
-127.631 285.217 1716
-261.353 646.391 3889
-252.053 646.391 3889
-242.753 646.391 3889
-236.755 655.533 3944
-227.843 657.029 3953
-218.39 657.029 3953
-208.937 657.029 3953
-200.443 660.187 3972
-191.426 661.849 3982
-182.315 663.345 3991
-172.771 663.345 3991
-163.636 665.007 4001
-155.185 669.827 4030
-146.235 672.985 4049
-136.552 672.985 4049
-127.183 674.647 4059
-118.056 677.971 4079
-108.302 677.971 4079
-98.5474 677.971 4079
125.489 676.309 4069
135.219 676.309 4069
144.95 676.309 4069
155.44 679.633 4089
165.218 679.633 4089
174.996 679.633 4089
183.418 674.647 4059
191.745 669.827 4030
201.382 669.827 4030
211.019 669.827 4030
219.068 665.007 4001
226.464 658.691 3963
232.071 647.887 3898
241.392 647.887 3898
247.819 640.408 3853
256.433 638.912 3844
263.828 634.59 3818
272.958 634.59 3818
282.088 634.59 3818
291.218 634.59 3818
300.348 634.59 3818
309.478 634.59 3818
318.608 634.59 3818
327.738 634.59 3818
336.074 633.094 3809
345.182 633.094 3809
354.291 633.094 3809
363.399 633.094 3809
371.628 631.599 3800
378.11 627.277 3774
387.135 627.277 3774
390.911 618.967 3724
394.555 610.822 3675
398.075 602.844 3627
406.748 602.844 3627
411.757 597.525 3595
419.535 596.362 3588
425.37 592.539 3565
431.096 588.716 3542
439.566 588.716 3542
444.241 583.73 3512
449.804 580.073 3490
453.424 574.09 3454
461.683 574.09 3454
467.086 570.599 3433
472.388 567.109 3412
480.547 567.109 3412
488.706 567.109 3412
495.846 565.945 3405
503.988 565.945 3405
514.236 568.272 3419
523.482 569.436 3426
531.674 569.436 3426
544.279 574.09 3454
557.178 578.91 3483
569.079 582.567 3505
577.46 582.567 3505
587.012 583.73 3512
599.14 587.387 3534
610.169 589.88 3549
624.06 595.032 3580
632.621 595.032 3580
642.615 596.362 3588
652.465 597.525 3595
662.533 598.855 3603
671.149 598.855 3603
679.765 598.855 3603
689.909 600.185 3611
698.544 600.185 3611
707.179 600.185 3611
715.814 600.185 3611
724.449 600.185 3611
733.084 600.185 3611
741.719 600.185 3611
748.692 598.855 3603
755.626 597.525 3595
764.223 597.525 3595
772.819 597.525 3595
778.156 595.032 3580
786.717 595.032 3580
798.61 597.525 3595
807.206 597.525 3595
815.803 597.525 3595
826.234 598.855 3603
838.558 601.514 3619
847.212 601.514 3619
857.758 602.844 3627
866.431 602.844 3627
875.104 602.844 3627
885.727 604.174 3635
894.419 604.174 3635
903.112 604.174 3635
911.804 604.174 3635
922.269 605.337 3642
930.978 605.337 3642
943.815 607.997 3658
956.99 610.822 3675
967.88 612.152 3683
976.687 612.152 3683
989.776 614.811 3699
998.621 614.811 3699
1009.65 616.141 3707
1018.51 616.141 3707
1029.87 617.637 3716
1038.76 617.637 3716
1047.64 617.637 3716
1056.53 617.637 3716
1065.41 617.637 3716
1074.3 617.637 3716
1085.52 618.967 3724
1094.42 618.967 3724
1103.33 618.967 3724
1112.23 618.967 3724
1125.96 621.626 3740
1134.9 621.626 3740
1143.84 621.626 3740
1152.79 621.626 3740
1164.52 623.122 3749
1173.49 623.122 3749
1182.45 623.122 3749
1193.96 624.451 3757
1202.95 624.451 3757
1214.83 625.947 3766
1223.84 625.947 3766
1232.84 625.947 3766
1241.85 625.947 3766
1250.86 625.947 3766
1259.86 625.947 3766
1268.87 625.947 3766
1277.87 625.947 3766
1286.88 625.947 3766
1292.79 624.451 3757
1301.77 624.451 3757
1316.69 627.277 3774
1325.71 627.277 3774
1334.74 627.277 3774
1343.76 627.277 3774
1349.92 625.947 3766
1358.92 625.947 3766
1367.93 625.947 3766
1376.94 625.947 3766
1385.94 625.947 3766
1385.32 621.626 3740
1394.26 621.626 3740
1397.2 618.967 3724
1409.13 620.296 3732
1418.05 620.296 3732
1426.97 620.296 3732
1435.9 620.296 3732
1444.82 620.296 3732
1453.75 620.296 3732
1462.67 620.296 3732
1471.6 620.296 3732
1483.69 621.626 3740
1492.64 621.626 3740
1501.58 621.626 3740
1510.52 621.626 3740
1516.22 620.296 3732
1518.6 617.637 3716
1527.49 617.637 3716
1542.99 620.296 3732
1551.92 620.296 3732
1567.95 623.122 3749
1584.07 625.947 3766
1596.45 627.277 3774
1605.48 627.277 3774
1614.5 627.277 3774
1623.53 627.277 3774
1632.55 627.277 3774
1634.18 624.451 3757
1643.17 624.451 3757
1656.11 625.947 3766
1665.12 625.947 3766
1674.12 625.947 3766
1686.7 627.277 3774
1703.82 630.269 3792
1720.56 633.094 3809
1729.67 633.094 3809
1738.78 633.094 3809
1752.02 634.59 3818
1761.15 634.59 3818
1770.28 634.59 3818
1779.41 634.59 3818
1776.36 630.269 3792
1781.19 628.773 3783
1790.23 628.773 3783
1799.28 628.773 3783
1808.33 628.773 3783
1813.05 627.277 3774
1822.07 627.277 3774
1822.85 624.451 3757
1827.93 623.122 3749
1828.57 620.296 3732
1837.49 620.296 3732
1830.09 614.811 3699
1814.58 606.667 3650
1819.31 605.337 3642
1804.43 597.525 3595
1813.02 597.525 3595
1806.42 592.539 3565
1810.87 591.209 3557
1811.71 588.716 3542
1823.77 589.88 3549
1832.26 589.88 3549
1844.9 591.209 3557
1873.2 597.525 3595
1881.8 597.525 3595
1890.39 597.525 3595
1903.22 598.855 3603
1911.83 598.855 3603
1928.98 601.514 3619
1937.63 601.514 3619
1954.89 604.174 3635
1967.36 605.337 3642
1984.75 607.997 3658
2020.21 616.141 3707
2029.07 616.141 3707
2084.66 630.269 3792
2098.15 631.599 3800
2141.62 641.904 3862
2180.93 650.879 3916
2216.58 658.691 3963
2226.05 658.691 3963
2246.25 661.849 3982
2255.77 661.849 3982
2265.29 661.849 3982
2274.82 661.849 3982
2284.34 661.849 3982
2293.86 661.849 3982
2303.38 661.849 3982
2312.9 661.849 3982
2322.43 661.849 3982
2331.95 661.849 3982
2346.76 663.345 3991
2362.21 665.007 4001
2377.11 666.503 4010
2386.7 666.503 4010
2408.24 669.827 4030
2417.88 669.827 4030
2427.52 669.827 4030
2437.15 669.827 4030
2446.79 669.827 4030
2456.43 669.827 4030
2466.07 669.827 4030
2475.7 669.827 4030
2479.17 668.165 4020
2488.79 668.165 4020
2498.4 668.165 4020
2508.01 668.165 4020
2511.36 666.503 4010
2520.95 666.503 4010
2530.54 666.503 4010
2540.13 666.503 4010
2537.64 663.345 3991
2559.31 666.503 4010
2568.9 666.503 4010
2578.49 666.503 4010
2588.07 666.503 4010
2591.83 665.007 4001
2607.25 666.503 4010
2616.84 666.503 4010
2626.43 666.503 4010
2617.61 661.849 3982
2627.14 661.849 3982
527.42 121.832 733
530.616 122.164 735
532.374 122.164 735
534.858 122.331 736
536.618 122.331 736
538.378 122.331 736
540.138 122.331 736
541.898 122.331 736
542.919 122.164 735
544.677 122.164 735
546.435 122.164 735
548.192 122.164 735
549.95 122.164 735
551.708 122.164 735
553.465 122.164 735
555.223 122.164 735
556.98 122.164 735
558.738 122.164 735
559.733 121.998 734
561.488 121.998 734
-2361.48 531.782 3154
-2353.94 531.782 3154
-2341.93 530.771 3148
-2325.5 528.747 3136
-2318 528.747 3136
-2310.5 528.747 3136
-2303.01 528.747 3136
-2295.51 528.747 3136
-2288.01 528.747 3136
-2293.6 531.782 3154
-2286.06 531.782 3154
-2282.85 532.794 3160
-2279.61 533.805 3166
-2315.82 544.09 3227
-2308.1 544.09 3227
-2336.74 552.689 3278
-2448.97 581.184 3447
-2440.73 581.184 3447
-2432.48 581.184 3447
-2517.78 603.608 3580
-2552.67 614.062 3642
-2543.96 614.062 3642
-2563.79 620.975 3683
-2566.09 623.672 3699
-2557.24 623.672 3699
-2548.4 623.672 3699
-2539.55 623.672 3699
-2525.23 622.323 3691
-2516.41 622.323 3691
-2502.14 620.975 3683
-2493.34 620.975 3683
-2484.53 620.975 3683
-2475.72 620.975 3683
-2466.92 620.975 3683
-2458.11 620.975 3683
-2449.3 620.975 3683
-2440.49 620.975 3683
-2431.69 620.975 3683
-2422.88 620.975 3683
-2414.07 620.975 3683
-2405.27 620.975 3683
-2380.19 616.759 3658
-2371.44 616.759 3658
-2362.7 616.759 3658
-2353.95 616.759 3658
-2334.94 614.062 3642
-2311.54 610.184 3619
-2292.71 607.486 3603
-2279.02 606.137 3595
-2270.42 606.137 3595
-2261.83 606.137 3595
-2268.27 610.184 3619
-2259.62 610.184 3619
-2250.97 610.184 3619
-1898.11 655.707 3889
-1888.81 655.707 3889
-1879.51 655.707 3889
-1870.21 655.707 3889
-1860.91 655.707 3889
-1843.04 652.672 3871
-1838.05 654.19 3880
-1833.02 655.707 3889
-1827.94 657.225 3898
-1818.61 657.225 3898
-1821.83 661.777 3925
-1821.21 664.981 3944
-1824.64 669.702 3972
-1815.15 669.702 3972
-1805.65 669.702 3972
-1783.49 664.981 3944
-1774.06 664.981 3944
-1752.1 660.26 3916
-1734.72 657.225 3898
-1721.42 655.707 3889
-1712.12 655.707 3889
-1702.82 655.707 3889
-1693.52 655.707 3889
-1684.22 655.707 3889
-1686.55 660.26 3916
-1677.18 660.26 3916
-1675.91 663.463 3935
-1666.5 663.463 3935
-1657.09 663.463 3935
-1647.68 663.463 3935
-1638.27 663.463 3935
-1636.31 666.498 3953
-1638.8 671.388 3982
-1629.27 671.388 3982
-1619.75 671.388 3982
-1602.55 668.184 3963
-1596.69 669.702 3972
-1598.78 674.591 4001
-1589.21 674.591 4001
-1579.64 674.591 4001
-1570.07 674.591 4001
-1560.51 674.591 4001
-1536.21 668.184 3963
-1519.41 664.981 3944
-1506.54 663.463 3935
-1497.13 663.463 3935
-1487.72 663.463 3935
-1485.07 666.498 3953
-1475.62 666.498 3953
-1466.16 666.498 3953
-1453.39 664.981 3944
-1430.42 658.742 3907
-1417.8 657.225 3898
-1408.48 657.225 3898
-1389.46 652.672 3871
-1377 651.155 3862
-1364.58 649.638 3853
-1355.36 649.638 3853
-1346.15 649.638 3853
-1336.94 649.638 3853
-1312.56 642.219 3809
-1303.45 642.219 3809
-604.403 306.356 1817
-601.379 307.031 1821
-598.336 307.705 1825
-593.972 307.705 1825
-589.607 307.705 1825
-585.243 307.705 1825
-580.879 307.705 1825
-576.515 307.705 1825
-570.897 307.031 1821
-564.676 306.019 1815
-560.335 306.019 1815
-555.383 305.682 1813
-550.439 305.345 1811
-544.902 304.67 1807
-539.983 304.333 1805
-535.667 304.333 1805
-530.467 303.827 1802
-522.07 301.467 1788
-514.03 299.275 1775
-509.785 299.275 1775
-502.123 297.252 1763
-492.824 294.217 1745
-487.251 293.374 1740
-483.09 293.374 1740
-475.351 291.182 1727
-470.675 290.845 1725
-464.116 289.327 1716
-458.672 288.484 1711
-454.581 288.484 1711
-449.699 287.978 1708
-444.05 286.967 1702
-439.204 286.461 1699
-435.141 286.461 1699
-430.571 286.124 1697
-424 284.438 1687
-419.965 284.438 1687
-415.931 284.438 1687
-410.188 283.257 1680
-406.171 283.257 1680
-400.956 282.414 1675
-396.951 282.414 1675
-392.476 282.077 1673
-387.315 281.234 1668
-383.326 281.234 1668
-379.337 281.234 1668
-375.124 281.066 1667
-369.579 279.885 1660
-364.949 279.38 1657
-360.986 279.38 1657
-356.593 279.042 1655
-352.209 278.705 1653
-347.203 277.862 1648
-343.262 277.862 1648
-339.321 277.862 1648
-335.177 277.694 1647
-330.635 277.188 1644
-326.704 277.188 1644
-322.772 277.188 1644
-318.841 277.188 1644
-314.143 276.513 1640
-310.222 276.513 1640
-306.3 276.513 1640
-302.378 276.513 1640
-298.457 276.513 1640
-294.535 276.513 1640
-290.613 276.513 1640
-286.691 276.513 1640
-282.597 276.345 1639
-278.848 276.513 1640
-274.926 276.513 1640
-271.004 276.513 1640
-267.083 276.513 1640
-263.482 276.85 1642
-259.555 276.85 1642
-255.629 276.85 1642
-252.469 277.694 1647
-248.53 277.694 1647
-245.037 278.199 1650
-241.092 278.199 1650
-237.577 278.705 1653
-233.624 278.705 1653
-230.227 279.38 1657
-226.401 279.548 1658
-222.437 279.548 1658
-219.131 280.391 1663
-215.801 281.234 1668
-212.447 282.077 1673
-208.446 282.077 1673
-205.057 282.92 1678
-201.523 283.595 1682
-197.619 283.763 1683
-193.594 283.763 1683
-190.02 284.438 1687
-186.758 285.618 1694
-183.03 286.124 1697
-178.972 286.124 1697
-175.121 286.461 1699
-171.561 287.304 1704
-167.879 287.978 1708
-163.795 287.978 1708
-159.711 287.978 1708
-155.718 288.147 1709
-151.631 288.147 1709
-147.544 288.147 1709
-143.793 288.821 1713
-139.86 289.159 1715
-135.838 289.327 1716
-131.735 289.327 1716
-127.631 289.327 1716
-261.353 655.707 3889
-252.053 655.707 3889
-242.753 655.707 3889
-236.755 664.981 3944
-227.843 666.498 3953
-218.39 666.498 3953
-208.937 666.498 3953
-199.989 668.184 3963
-191.426 671.388 3982
-182.315 672.905 3991
-172.771 672.905 3991
-163.636 674.591 4001
-155.185 679.481 4030
-146.235 682.684 4049
-136.552 682.684 4049
-127.183 684.37 4059
-117.766 686.056 4069
-108.036 686.056 4069
-98.3058 686.056 4069
115.759 686.056 4069
125.489 686.056 4069
135.219 686.056 4069
144.95 686.056 4069
154.68 686.056 4069
163.198 680.998 4039
172.856 680.998 4039
181.656 677.795 4020
189.461 671.388 3982
198.034 668.184 3963
207.511 668.184 3963
215.947 664.981 3944
222.75 657.225 3898
229.392 649.638 3853
238.606 649.638 3853
245.568 643.736 3818
252.964 639.353 3792
260.788 636.318 3774
269.812 636.318 3774
278.837 636.318 3774
287.862 636.318 3774
298.303 639.353 3792
307.371 639.353 3792
316.438 639.353 3792
324.734 637.835 3783
332.986 636.318 3774
342.011 636.318 3774
351.035 636.318 3774
360.06 636.318 3774
368.303 634.969 3766
375.605 632.103 3749
384.57 632.103 3749
390.911 627.887 3724
394.555 619.626 3675
398.075 611.533 3627
406.748 611.533 3627
411.757 606.137 3595
419.535 604.957 3588
425.37 601.079 3565
431.096 597.201 3542
439.566 597.201 3542
444.241 592.143 3512
449.804 588.434 3490
453.424 582.364 3454
461.683 582.364 3454
467.086 578.823 3433
472.388 575.282 3412
480.547 575.282 3412
488.706 575.282 3412
495.846 574.102 3405
503.988 574.102 3405
514.236 576.463 3419
523.482 577.643 3426
531.674 577.643 3426
544.279 582.364 3454
557.178 587.253 3483
569.079 590.963 3505
577.46 590.963 3505
587.012 592.143 3512
599.14 595.852 3534
610.169 598.381 3549
624.06 603.608 3580
632.621 603.608 3580
642.615 604.957 3588
652.465 606.137 3595
662.533 607.486 3603
671.149 607.486 3603
679.765 607.486 3603
689.909 608.835 3611
698.544 608.835 3611
707.179 608.835 3611
715.814 608.835 3611
724.449 608.835 3611
733.084 608.835 3611
741.719 608.835 3611
748.692 607.486 3603
755.626 606.137 3595
764.223 606.137 3595
772.819 606.137 3595
778.156 603.608 3580
786.717 603.608 3580
798.61 606.137 3595
807.206 606.137 3595
815.803 606.137 3595
826.234 607.486 3603
838.558 610.184 3619
847.212 610.184 3619
857.758 611.533 3627
866.431 611.533 3627
875.104 611.533 3627
885.727 612.882 3635
894.419 612.882 3635
903.112 612.882 3635
911.804 612.882 3635
922.269 614.062 3642
930.978 614.062 3642
943.815 616.759 3658
956.99 619.626 3675
967.88 620.975 3683
976.687 620.975 3683
989.776 623.672 3699
998.621 623.672 3699
1009.65 625.021 3707
1018.51 625.021 3707
1029.87 626.539 3716
1038.76 626.539 3716
1047.64 626.539 3716
1056.53 626.539 3716
1065.41 626.539 3716
1074.3 626.539 3716
1085.52 627.887 3724
1094.42 627.887 3724
1103.33 627.887 3724
1112.23 627.887 3724
1125.96 630.585 3740
1134.9 630.585 3740
1143.84 630.585 3740
1152.79 630.585 3740
1164.52 632.103 3749
1173.49 632.103 3749
1182.45 632.103 3749
1193.96 633.451 3757
1202.95 633.451 3757
1214.83 634.969 3766
1223.84 634.969 3766
1232.84 634.969 3766
1241.85 634.969 3766
1250.86 634.969 3766
1259.86 634.969 3766
1268.87 634.969 3766
1277.87 634.969 3766
1286.88 634.969 3766
1292.79 633.451 3757
1301.77 633.451 3757
1316.69 636.318 3774
1325.71 636.318 3774
1334.74 636.318 3774
1343.76 636.318 3774
1349.92 634.969 3766
1358.92 634.969 3766
1367.93 634.969 3766
1376.94 634.969 3766
1385.94 634.969 3766
1385.32 630.585 3740
1394.26 630.585 3740
1397.2 627.887 3724
1409.13 629.236 3732
1418.05 629.236 3732
1426.97 629.236 3732
1435.9 629.236 3732
1444.82 629.236 3732
1453.75 629.236 3732
1462.67 629.236 3732
1471.6 629.236 3732
1483.69 630.585 3740
1492.64 630.585 3740
1501.58 630.585 3740
1510.52 630.585 3740
1516.22 629.236 3732
1518.6 626.539 3716
1527.49 626.539 3716
1542.99 629.236 3732
1551.92 629.236 3732
1567.95 632.103 3749
1584.07 634.969 3766
1596.45 636.318 3774
1605.48 636.318 3774
1614.5 636.318 3774
1623.53 636.318 3774
1632.55 636.318 3774
1634.18 633.451 3757
1643.17 633.451 3757
1656.11 634.969 3766
1665.12 634.969 3766
1674.12 634.969 3766
1686.7 636.318 3774
1703.82 639.353 3792
1720.56 642.219 3809
1729.67 642.219 3809
1738.78 642.219 3809
1752.02 643.736 3818
1761.15 643.736 3818
1770.28 643.736 3818
1779.41 643.736 3818
1776.36 639.353 3792
1781.19 637.835 3783
1790.23 637.835 3783
1799.28 637.835 3783
1808.33 637.835 3783
1813.05 636.318 3774
1822.07 636.318 3774
1822.85 633.451 3757
1827.93 632.103 3749
1828.57 629.236 3732
1837.49 629.236 3732
1830.09 623.672 3699
1814.58 615.411 3650
1819.31 614.062 3642
1808.44 607.486 3603
1817.06 607.486 3603
1806.42 601.079 3565
1814.94 601.079 3565
1811.71 597.201 3542
1823.77 598.381 3549
1832.26 598.381 3549
1844.9 599.73 3557
1873.2 606.137 3595
1885.99 607.486 3603
1894.6 607.486 3603
1903.22 607.486 3603
1911.83 607.486 3603
1928.98 610.184 3619
1937.63 610.184 3619
1954.89 612.882 3635
1967.36 614.062 3642
1984.75 616.759 3658
2020.21 625.021 3707
2029.07 625.021 3707
2084.66 639.353 3792
2098.15 640.701 3800
2141.62 651.155 3862
2180.93 660.26 3916
2216.58 668.184 3963
2226.05 668.184 3963
2246.25 671.388 3982
2255.77 671.388 3982
2265.29 671.388 3982
2274.82 671.388 3982
2284.34 671.388 3982
2293.86 671.388 3982
2303.38 671.388 3982
2312.9 671.388 3982
2322.43 671.388 3982
2331.95 671.388 3982
2346.76 672.905 3991
2362.21 674.591 4001
2377.11 676.109 4010
2386.7 676.109 4010
2408.24 679.481 4030
2417.88 679.481 4030
2427.52 679.481 4030
2437.15 679.481 4030
2446.79 679.481 4030
2456.43 679.481 4030
2466.07 679.481 4030
2475.7 679.481 4030
2479.17 677.795 4020
2488.79 677.795 4020
2498.4 677.795 4020
2508.01 677.795 4020
2511.36 676.109 4010
2520.95 676.109 4010
2530.54 676.109 4010
2540.13 676.109 4010
2537.64 672.905 3991
2559.31 676.109 4010
2568.9 676.109 4010
2578.49 676.109 4010
2588.07 676.109 4010
2591.83 674.591 4001
2607.25 676.109 4010
2616.84 676.109 4010
2626.43 676.109 4010
2617.61 671.388 3982
2627.14 671.388 3982
527.42 123.588 733
530.616 123.925 735
532.374 123.925 735
534.858 124.094 736
536.618 124.094 736
538.378 124.094 736
540.138 124.094 736
541.898 124.094 736
542.919 123.925 735
544.677 123.925 735
546.435 123.925 735
548.192 123.925 735
549.95 123.925 735
551.708 123.925 735
553.465 123.925 735
555.223 123.925 735
556.98 123.925 735
558.738 123.925 735
559.733 123.757 734
561.488 123.757 734
-2365.97 540.364 3160
-2358.41 540.364 3160
-2346.39 539.338 3154
-2329.95 537.286 3142
-2322.44 537.286 3142
-2314.93 537.286 3142
-2307.41 537.286 3142
-2299.9 537.286 3142
-2288.01 536.26 3136
-2293.6 539.338 3154
-2286.06 539.338 3154
-2287.18 541.39 3166
-2279.61 541.39 3166
-2315.82 551.821 3227
-2308.1 551.821 3227
-2336.74 560.542 3278
-2439.02 587.047 3433
-2430.81 587.047 3433
-2422.6 587.047 3433
-2512.15 610.816 3572
-2552.67 622.786 3642
-2543.96 622.786 3642
-2563.79 629.797 3683
-2566.09 632.533 3699
-2557.24 632.533 3699
-2548.4 632.533 3699
-2539.55 632.533 3699
-2525.23 631.165 3691
-2516.41 631.165 3691
-2502.14 629.797 3683
-2493.34 629.797 3683
-2484.53 629.797 3683
-2475.72 629.797 3683
-2466.92 629.797 3683
-2458.11 629.797 3683
-2449.3 629.797 3683
-2440.49 629.797 3683
-2431.69 629.797 3683
-2422.88 629.797 3683
-2414.07 629.797 3683
-2405.27 629.797 3683
-2391.25 628.429 3675
-2371.44 625.522 3658
-2362.7 625.522 3658
-2353.95 625.522 3658
-2345.2 625.522 3658
-2316.65 620.221 3627
-2292.71 616.117 3603
-2284.09 616.117 3603
-2275.48 616.117 3603
-2266.86 616.117 3603
-2268.27 618.853 3619
-2259.62 618.853 3619
-2250.97 618.853 3619
-1902.51 666.562 3898
-1893.19 666.562 3898
-1883.86 666.562 3898
-1870.21 665.023 3889
-1860.91 665.023 3889
-1847.33 663.484 3880
-1846.58 666.562 3898
-1841.5 668.102 3907
-1840.6 671.18 3925
-1831.21 671.18 3925
-1821.83 671.18 3925
-1821.21 674.429 3944
-1824.64 679.217 3972
-1815.15 679.217 3972
-1805.65 679.217 3972
-1783.49 674.429 3944
-1774.06 674.429 3944
-1752.1 669.641 3916
-1734.72 666.562 3898
-1721.42 665.023 3889
-1712.12 665.023 3889
-1702.82 665.023 3889
-1693.52 665.023 3889
-1692.01 668.102 3907
-1686.55 669.641 3916
-1677.18 669.641 3916
-1675.91 672.89 3935
-1666.5 672.89 3935
-1657.09 672.89 3935
-1647.68 672.89 3935
-1638.27 672.89 3935
-1644.18 679.217 3972
-1638.8 680.927 3982
-1632.96 682.466 3991
-1623.41 682.466 3991
-1613.87 682.466 3991
-1604.32 682.466 3991
-1598.78 684.176 4001
-1589.21 684.176 4001
-1579.64 684.176 4001
-1570.07 684.176 4001
-1560.51 684.176 4001
-1539.7 679.217 3972
-1526.73 677.678 3963
-1517.26 677.678 3963
-1507.78 677.678 3963
-1498.3 677.678 3963
-1492.21 679.217 3972
-1482.71 679.217 3972
-1473.21 679.217 3972
-1456.71 675.968 3953
-1447.26 675.968 3953
-1431.26 672.89 3935
-1421.85 672.89 3935
-1402.39 668.102 3907
-1386.63 665.023 3889
-1374.14 663.484 3880
-1364.86 663.484 3880
-1355.58 663.484 3880
-1340.06 660.406 3862
-1327.72 658.867 3853
-1318.51 658.867 3853
-601.379 311.393 1821
-598.336 312.077 1825
-593.972 312.077 1825
-590.254 312.419 1827
-585.885 312.419 1827
-581.516 312.419 1827
-576.515 312.077 1825
-572.151 312.077 1825
-564.676 310.367 1815
-560.335 310.367 1815
-555.995 310.367 1815
-551.655 310.367 1815
-545.505 309.341 1809
-540.581 308.999 1807
-536.26 308.999 1807
-531.35 308.657 1805
-523.238 306.434 1792
-516.057 304.724 1782
-511.796 304.724 1782
-504.971 303.185 1773
-494.801 299.594 1752
-488.651 298.397 1745
-484.478 298.397 1745
-476.727 296.174 1732
-470.675 294.977 1725
-464.657 293.78 1718
-459.745 293.267 1715
-455.643 293.267 1715
-450.489 292.583 1711
-444.571 291.386 1704
-439.721 290.873 1701
-435.653 290.873 1701
-430.571 290.189 1697
-424.754 288.992 1690
-419.965 288.479 1687
-415.931 288.479 1687
-410.676 287.624 1682
-406.171 287.282 1680
-401.675 286.94 1678
-397.662 286.94 1678
-392.946 286.427 1675
-387.779 285.572 1670
-383.326 285.23 1668
-379.337 285.23 1668
-375.124 285.059 1667
-369.579 283.862 1660
-364.949 283.349 1657
-360.986 283.349 1657
-356.593 283.007 1655
-352.209 282.665 1653
-347.624 282.152 1650
-343.262 281.81 1648
-339.321 281.81 1648
-335.177 281.639 1647
-330.836 281.297 1645
-326.704 281.126 1644
-322.772 281.126 1644
-318.841 281.126 1644
-314.91 281.126 1644
-310.978 281.126 1644
-307.047 281.126 1644
-303.116 281.126 1644
-299.184 281.126 1644
-295.253 281.126 1644
-291.322 281.126 1644
-287.041 280.784 1642
-282.77 280.442 1640
-279.188 280.784 1642
-275.261 280.784 1642
-271.335 280.784 1642
-267.408 280.784 1642
-264.284 281.639 1647
-260.346 281.639 1647
-256.407 281.639 1647
-252.929 282.152 1650
-249.436 282.665 1653
-246.077 283.349 1657
-242.114 283.349 1657
-238.152 283.349 1657
-234.19 283.349 1657
-231.061 284.375 1663
-227.084 284.375 1663
-223.376 284.717 1665
-219.79 285.23 1668
-216.448 286.085 1673
-212.955 286.769 1677
-208.945 286.769 1677
-205.546 287.624 1682
-201.643 287.795 1683
-198.088 288.479 1687
-194.054 288.479 1687
-190.583 289.334 1692
-186.868 289.847 1695
-183.03 290.189 1697
-178.972 290.189 1697
-175.121 290.531 1699
-171.36 291.044 1702
-167.486 291.386 1704
-163.412 291.386 1704
-159.711 292.07 1708
-155.626 292.07 1708
-151.631 292.241 1709
-147.544 292.241 1709
-143.793 292.925 1713
-139.86 293.267 1715
-135.838 293.438 1716
-131.735 293.438 1716
-127.631 293.438 1716
-261.353 665.023 3889
-252.053 665.023 3889
-242.753 665.023 3889
-233.994 666.562 3898
-227.843 675.968 3953
-218.39 675.968 3953
-208.937 675.968 3953
-199.989 677.678 3963
-191.426 680.927 3982
-182.315 682.466 3991
-172.771 682.466 3991
-163.636 684.176 4001
-155.185 689.135 4030
-146.235 692.384 4049
-136.552 692.384 4049
-127.496 695.804 4069
-117.766 695.804 4069
-108.036 695.804 4069
-98.3058 695.804 4069
115.759 695.804 4069
125.489 695.804 4069
135.219 695.804 4069
144.95 695.804 4069
153.919 692.384 4049
161.662 684.176 4001
171.23 684.176 4001
179.939 680.927 3982
187.653 674.429 3944
197.084 674.429 3944
206.516 674.429 3944
214.907 671.18 3925
221.721 663.484 3880
227.784 654.25 3826
236.934 654.25 3826
243.896 648.436 3792
251.763 645.358 3774
260.235 643.99 3766
269.241 643.99 3766
276.99 641.083 3749
285.955 641.083 3749
296.257 643.99 3766
305.263 643.99 3766
314.269 643.99 3766
323.274 643.99 3766
330.78 641.083 3749
339.745 641.083 3749
348.71 641.083 3749
357.675 641.083 3749
366.64 641.083 3749
373.1 636.808 3724
382.006 636.808 3724
388.287 632.533 3699
391.871 624.154 3650
395.441 616.117 3603
404.057 616.117 3603
410.955 613.552 3588
417.664 610.816 3572
424.416 608.251 3557
429.27 603.121 3527
437.705 603.121 3527
442.344 597.991 3497
448 594.4 3476
452.505 589.441 3447
460.748 589.441 3447
466.133 585.85 3426
472.388 583.456 3412
479.561 582.259 3405
487.703 582.259 3405
494.826 581.062 3398
502.952 581.062 3398
512.13 582.259 3405
523.482 585.85 3426
531.674 585.85 3426
542.073 588.244 3440
554.778 593.032 3468
566.643 596.794 3490
574.989 596.794 3490
585.842 599.359 3505
596.766 601.924 3520
607.591 604.318 3534
620.051 608.251 3557
628.557 608.251 3557
641.182 612.184 3580
651.195 613.552 3588
659.775 613.552 3588
668.355 613.552 3588
676.935 613.552 3588
686.852 614.749 3595
695.449 614.749 3595
704.045 614.749 3595
714.228 616.117 3603
722.844 616.117 3603
731.46 616.117 3603
738.432 614.749 3595
745.575 613.552 3588
752.473 612.184 3580
761.034 612.184 3580
767.875 610.816 3572
774.895 609.619 3565
783.42 609.619 3565
791.945 609.619 3565
800.47 609.619 3565
808.995 609.619 3565
817.52 609.619 3565
831.375 613.552 3588
841.593 614.749 3595
850.19 614.749 3595
858.787 614.749 3595
869.314 616.117 3603
879.879 617.485 3611
888.514 617.485 3611
897.149 617.485 3611
905.784 617.485 3611
920.496 621.589 3635
929.189 621.589 3635
939.687 622.786 3642
952.563 625.522 3658
965.778 628.429 3675
974.566 628.429 3675
985.495 629.797 3683
998.621 632.533 3699
1007.47 632.533 3699
1016.31 632.533 3699
1029.87 635.44 3716
1038.76 635.44 3716
1047.64 635.44 3716
1056.53 635.44 3716
1065.41 635.44 3716
1074.3 635.44 3716
1085.52 636.808 3724
1094.42 636.808 3724
1103.33 636.808 3724
1112.23 636.808 3724
1123.55 638.176 3732
1134.9 639.544 3740
1143.84 639.544 3740
1152.79 639.544 3740
1161.73 639.544 3740
1170.67 639.544 3740
1179.62 639.544 3740
1188.56 639.544 3740
1197.5 639.544 3740
1206.45 639.544 3740
1215.39 639.544 3740
1224.33 639.544 3740
1233.28 639.544 3740
1242.22 639.544 3740
1248.49 638.176 3732
1257.41 638.176 3732
1266.34 638.176 3732
1275.26 638.176 3732
1284.18 638.176 3732
1293.11 638.176 3732
1302.03 638.176 3732
1310.96 638.176 3732
1319.88 638.176 3732
1328.81 638.176 3732
1334.86 636.808 3724
1349.54 639.544 3740
1358.49 639.544 3740
1367.43 639.544 3740
1370.48 636.808 3724
1376.43 635.44 3716
1385.31 635.44 3716
1394.2 635.44 3716
1403.08 635.44 3716
1411.97 635.44 3716
