ply
format ascii 1.0
comment File generated
element vertex 2124
property float x
property float y
property float z
end_header
-259.768 -375.128 1572
-256.008 -375.128 1572
-253.052 -376.321 1577
-249.439 -376.559 1578
-246.132 -377.275 1581
-242.352 -377.275 1581
-239.325 -378.469 1586
-235.681 -378.707 1587
-232.617 -379.9 1592
-228.81 -379.9 1592
-225.568 -380.855 1596
-222.447 -382.048 1601
-218.891 -382.525 1603
-215.058 -382.525 1603
-212.147 -384.196 1610
-208.944 -385.389 1615
-205.717 -386.582 1620
-201.843 -386.582 1620
-198.702 -388.014 1626
-195.533 -389.446 1632
-192.217 -390.639 1637
-188.303 -390.639 1637
-185.177 -392.309 1644
-181.576 -393.025 1647
-178.824 -395.65 1658
-174.859 -395.65 1658
-171.41 -396.843 1663
-167.836 -397.798 1667
-164.341 -398.991 1672
-160.343 -398.991 1672
-156.906 -400.423 1678
-153.257 -401.377 1682
-149.856 -403.048 1689
-145.817 -403.048 1689
-142.198 -404.241 1694
-138.555 -405.434 1699
-134.73 -406.15 1702
-130.66 -406.15 1702
-127.036 -407.582 1708
-123.168 -408.297 1711
-119.076 -408.297 1711
-114.985 -408.297 1711
-110.763 -407.82 1709
37.2835 -954.762 4001
46.8511 -954.762 4001
56.5456 -956.91 4010
66.1348 -956.91 4010
75.9127 -959.296 4020
85.7385 -961.682 4030
95.3755 -961.682 4030
105.012 -961.682 4030
114.649 -961.682 4030
123.67 -956.91 4010
133.259 -956.91 4010
142.527 -954.762 4001
151.372 -950.228 3982
160.491 -947.842 3972
169.989 -947.842 3972
179.487 -947.842 3972
184.608 -925.888 3880
195.236 -932.331 3907
205.521 -936.626 3925
214.907 -936.626 3925
224.293 -936.626 3925
233.678 -936.626 3925
243.064 -936.626 3925
246.083 -913.002 3826
255.232 -913.002 3826
264.381 -913.002 3826
272.315 -908.945 3809
281.423 -908.945 3809
290.532 -908.945 3809
299.64 -908.945 3809
308.749 -908.945 3809
317.857 -908.945 3809
326.966 -908.945 3809
336.074 -908.945 3809
344.367 -906.797 3800
353.454 -906.797 3800
361.778 -904.888 3792
370.845 -904.888 3792
380.715 -906.797 3800
391.648 -911.093 3818
400.778 -911.093 3818
409.908 -911.093 3818
419.038 -911.093 3818
428.168 -911.093 3818
437.298 -911.093 3818
446.428 -911.093 3818
460.808 -921.592 3862
470.043 -921.592 3862
479.278 -921.592 3862
486.237 -917.297 3844
494.269 -915.149 3835
503.44 -915.149 3835
512.61 -915.149 3835
521.781 -915.149 3835
527.352 -908.945 3809
530.404 -898.684 3766
539.41 -898.684 3766
3108.41 -975.762 4089
3118.19 -975.762 4089
3127.96 -975.762 4089
-2447.79 -851.156 3603
-2465.58 -860.369 3642
-2456.87 -860.369 3642
-2448.16 -860.369 3642
-2434.76 -858.715 3635
-2420.73 -856.826 3627
-2406.74 -854.936 3619
-2392.78 -853.046 3611
-2389.43 -854.936 3619
-2380.78 -854.936 3619
-2377.37 -856.826 3627
-2368.69 -856.826 3627
-2360.02 -856.826 3627
-2346.16 -854.936 3619
-2327.17 -851.156 3603
-2313.41 -849.266 3595
-2304.81 -849.266 3595
-2291.74 -847.612 3588
-2272.98 -843.833 3572
-2249.86 -838.399 3549
-2241.37 -838.399 3549
-2200.17 -826.115 3497
-2160.47 -814.303 3447
-2099.78 -794.459 3363
-2091.74 -794.459 3363
-2075.64 -791.388 3350
-499.985 -388.607 1645
-496.051 -388.607 1645
-494.511 -390.497 1653
-493.229 -392.623 1662
-489.549 -392.859 1663
-485.572 -392.859 1663
-482.754 -393.804 1667
-478.767 -393.804 1667
-474.781 -393.804 1667
-470.795 -393.804 1667
-466.809 -393.804 1667
-462.267 -393.332 1665
-458.285 -393.332 1665
-454.304 -393.332 1665
-449.781 -392.859 1663
-445.805 -392.859 1663
-441.828 -392.859 1663
-435.745 -390.97 1655
-430.483 -389.788 1650
-424.986 -388.371 1644
-421.055 -388.371 1644
-415.855 -387.19 1639
-410.176 -385.536 1632
-405.527 -384.827 1629
-400.892 -384.119 1626
-397.003 -384.119 1626
-392.39 -383.41 1623
-386.594 -381.52 1615
-381.31 -380.103 1609
-377.462 -380.103 1609
-372.918 -379.394 1606
-368.388 -378.685 1603
-362.963 -377.032 1596
-359.147 -377.032 1596
-354.662 -376.323 1593
-350.192 -375.614 1590
-345.736 -374.905 1587
-341.941 -374.905 1587
-337.294 -373.961 1583
-332.876 -373.252 1580
-328.473 -372.543 1577
-324.702 -372.543 1577
-320.524 -372.071 1575
-316.155 -371.362 1572
-312.197 -371.126 1571
-307.458 -369.945 1566
-303.714 -369.945 1566
-299.777 -369.708 1565
-296.035 -369.708 1565
-292.292 -369.708 1565
-288.55 -369.708 1565
-284.808 -369.708 1565
-281.245 -369.945 1566
-277.854 -370.417 1568
-274.28 -370.653 1569
-270.528 -370.653 1569
-267.116 -371.126 1571
-263.359 -371.126 1571
-259.768 -371.362 1572
-256.008 -371.362 1572
-253.052 -372.543 1577
-249.439 -372.779 1578
-245.977 -373.252 1580
-242.198 -373.252 1580
-239.325 -374.669 1586
-235.681 -374.905 1587
-232.617 -376.087 1592
-228.81 -376.087 1592
-225.568 -377.032 1596
-222.447 -378.213 1601
-218.891 -378.685 1603
-215.058 -378.685 1603
-212.147 -380.339 1610
-208.944 -381.52 1615
-205.717 -382.701 1620
-201.843 -382.701 1620
-198.702 -384.119 1626
-195.533 -385.536 1632
-192.217 -386.717 1637
-188.303 -386.717 1637
-185.177 -388.371 1644
-181.576 -389.08 1647
-178.824 -391.678 1658
-174.859 -391.678 1658
-171.41 -392.859 1663
-167.836 -393.804 1667
-164.341 -394.986 1672
-160.343 -394.986 1672
-156.625 -395.694 1675
-153.257 -397.348 1682
-149.679 -398.529 1687
-145.645 -398.529 1687
-142.198 -400.183 1694
-138.229 -400.419 1695
-134.651 -401.836 1701
-130.583 -401.836 1701
-126.887 -403.017 1706
-122.952 -403.49 1708
-118.937 -403.726 1709
-114.85 -403.726 1709
-110.763 -403.726 1709
46.5115 -938.327 3972
56.4187 -945.178 4001
65.9863 -945.178 4001
75.7239 -947.304 4010
85.5258 -949.666 4020
95.1388 -949.666 4020
104.752 -949.666 4020
114.365 -949.666 4020
123.67 -947.304 4010
133.259 -947.304 4010
141.494 -938.327 3972
150.992 -938.327 3972
158.996 -929.586 3935
168.405 -929.586 3935
177.815 -929.586 3935
184.608 -916.593 3880
193.437 -914.467 3871
202.693 -914.467 3871
211.95 -914.467 3871
221.207 -914.467 3871
294.92 -885.646 3749
303.885 -885.646 3749
312.85 -885.646 3749
321.815 -885.646 3749
330.78 -885.646 3749
338.204 -881.63 3732
347.873 -883.52 3740
356.816 -883.52 3740
366.64 -885.646 3749
379.011 -893.678 3783
389.802 -897.694 3800
398.889 -897.694 3800
409.908 -901.947 3818
419.038 -901.947 3818
428.168 -901.947 3818
437.298 -901.947 3818
446.428 -901.947 3818
460.808 -912.341 3862
470.043 -912.341 3862
479.278 -912.341 3862
486.237 -908.089 3844
494.269 -905.963 3835
503.44 -905.963 3835
512.61 -905.963 3835
521.781 -905.963 3835
527.352 -899.82 3809
3108.41 -965.966 4089
3118.19 -965.966 4089
3127.96 -965.966 4089
-2447.79 -842.525 3603
-2455.43 -848.137 3627
-2446.75 -848.137 3627
-2438.08 -848.137 3627
-2429.41 -848.137 3627
-2415.39 -846.266 3619
-2401.42 -844.396 3611
-2392.78 -844.396 3611
-2389.43 -846.266 3619
-2380.78 -846.266 3619
-2377.37 -848.137 3627
-2368.69 -848.137 3627
-2360.02 -848.137 3627
-2346.16 -846.266 3619
-2327.17 -842.525 3603
-2313.41 -840.654 3595
-2304.81 -840.654 3595
-2291.74 -839.017 3588
-2272.98 -835.276 3572
-2249.86 -829.898 3549
-2241.37 -829.898 3549
-2200.17 -817.738 3497
-2160.47 -806.046 3447
-505.456 -388.876 1663
-501.479 -388.876 1663
-498.699 -389.811 1667
-494.713 -389.811 1667
-491.021 -390.045 1668
-487.032 -390.045 1668
-483.623 -390.513 1670
-479.629 -390.513 1670
-475.636 -390.513 1670
-471.077 -390.045 1668
-467.089 -390.045 1668
-462.822 -389.811 1667
-458.836 -389.811 1667
-454.85 -389.811 1667
-449.781 -388.876 1663
-445.805 -388.876 1663
-441.828 -388.876 1663
-435.745 -387.005 1655
-430.483 -385.836 1650
-424.986 -384.433 1644
-421.055 -384.433 1644
-415.855 -383.263 1639
-410.176 -381.627 1632
-405.527 -380.925 1629
-400.892 -380.224 1626
-397.003 -380.224 1626
-392.39 -379.522 1623
-386.594 -377.651 1615
-381.31 -376.248 1609
-377.462 -376.248 1609
-372.918 -375.547 1606
-368.388 -374.845 1603
-362.963 -373.208 1596
-359.147 -373.208 1596
-354.662 -372.507 1593
-350.192 -371.805 1590
-345.736 -371.104 1587
-341.941 -371.104 1587
-337.294 -370.168 1583
-332.876 -369.467 1580
-328.473 -368.765 1577
-324.702 -368.765 1577
-320.524 -368.298 1575
-316.155 -367.596 1572
-312.197 -367.362 1571
-307.458 -366.193 1566
-303.714 -366.193 1566
-299.777 -365.959 1565
-296.035 -365.959 1565
-292.292 -365.959 1565
-288.55 -365.959 1565
-284.808 -365.959 1565
-281.245 -366.193 1566
-277.854 -366.661 1568
-274.28 -366.895 1569
-270.528 -366.895 1569
-267.116 -367.362 1571
-263.359 -367.362 1571
-259.768 -367.596 1572
-256.008 -367.596 1572
-253.052 -368.765 1577
-249.439 -368.999 1578
-245.977 -369.467 1580
-242.198 -369.467 1580
-239.325 -370.87 1586
-235.681 -371.104 1587
-232.617 -372.273 1592
-228.81 -372.273 1592
-225.568 -373.208 1596
-222.447 -374.378 1601
-218.891 -374.845 1603
-215.058 -374.845 1603
-212.147 -376.482 1610
-208.944 -377.651 1615
-205.717 -378.821 1620
-201.843 -378.821 1620
-198.702 -380.224 1626
-195.533 -381.627 1632
-192.217 -382.796 1637
-188.303 -382.796 1637
-185.177 -384.433 1644
-181.576 -385.134 1647
-178.501 -387.005 1655
-174.543 -387.005 1655
-170.895 -387.706 1658
-167.433 -388.876 1663
-163.85 -389.811 1667
-159.863 -389.811 1667
-156.345 -390.98 1672
-152.893 -392.383 1678
-149.324 -393.552 1683
-145.299 -393.552 1683
-141.611 -394.488 1687
-138.147 -396.125 1694
-134.334 -396.826 1697
-130.276 -396.826 1697
-126.59 -397.995 1702
-122.952 -399.398 1708
-118.937 -399.632 1709
-114.85 -399.632 1709
-110.763 -399.632 1709
37.3674 -937.698 4010
46.9565 -937.698 4010
56.5456 -937.698 4010
65.508 -928.812 3972
75.1951 -931.15 3982
84.9088 -933.255 3991
94.4525 -933.255 3991
103.996 -933.255 3991
113.54 -933.255 3991
123.084 -933.255 3991
132.627 -933.255 3991
141.173 -926.707 3963
148.864 -915.717 3916
157.864 -913.612 3907
167.207 -913.612 3907
175.737 -909.403 3889
184.608 -907.299 3880
193.437 -905.194 3871
202.693 -905.194 3871
209.979 -896.776 3835
219.15 -896.776 3835
302.507 -872.69 3732
311.431 -872.69 3732
320.356 -872.69 3732
329.28 -872.69 3732
337.48 -870.82 3724
346.385 -870.82 3724
355.29 -870.82 3724
364.195 -870.82 3724
374.703 -874.561 3740
385.391 -878.536 3757
394.375 -878.536 3757
407.117 -886.721 3792
419.038 -892.8 3818
428.168 -892.8 3818
437.298 -892.8 3818
452.625 -905.194 3871
461.882 -905.194 3871
471.139 -905.194 3871
480.395 -905.194 3871
489.652 -905.194 3871
497.749 -903.089 3862
506.984 -903.089 3862
516.219 -903.089 3862
521.781 -896.776 3835
3108.41 -956.171 4089
3118.19 -956.171 4089
3127.96 -956.171 4089
-2447.79 -833.894 3603
-2439.18 -833.894 3603
-2430.56 -833.894 3603
-2421.95 -833.894 3603
-2413.33 -833.894 3603
-2404.72 -833.894 3603
-2386.12 -830.422 3588
-2392.78 -835.745 3611
-2389.43 -837.597 3619
-2380.78 -837.597 3619
-2377.37 -839.449 3627
-2368.69 -839.449 3627
-2360.02 -839.449 3627
-2346.16 -837.597 3619
-2327.17 -833.894 3603
-2313.41 -832.042 3595
-2304.81 -832.042 3595
-2291.74 -830.422 3588
-2272.98 -826.719 3572
-2249.86 -821.396 3549
-2241.37 -821.396 3549
-2200.17 -809.361 3497
-515.253 -389.289 1682
-511.231 -389.289 1682
-507.209 -389.289 1682
-501.092 -387.669 1675
-496.197 -386.975 1672
-492.198 -386.975 1672
-488.2 -386.975 1672
-484.491 -387.206 1673
-480.491 -387.206 1673
-476.49 -387.206 1673
-471.642 -386.512 1670
-467.649 -386.512 1670
-463.1 -386.049 1668
-459.111 -386.049 1668
-454.85 -385.818 1667
-449.781 -384.892 1663
-445.805 -384.892 1663
-441.828 -384.892 1663
-435.745 -383.04 1655
-429.961 -381.42 1648
-424.469 -380.032 1642
-420.543 -380.032 1642
-415.347 -378.874 1637
-409.925 -377.486 1631
-405.527 -377.023 1629
-400.152 -375.634 1623
-396.271 -375.634 1623
-391.906 -375.171 1621
-386.594 -373.783 1615
-381.31 -372.394 1609
-377.462 -372.394 1609
-372.918 -371.7 1606
-368.388 -371.005 1603
-363.418 -369.848 1598
-359.597 -369.848 1598
-354.662 -368.691 1593
-350.192 -367.996 1590
-345.736 -367.302 1587
-341.941 -367.302 1587
-337.294 -366.376 1583
-333.087 -365.913 1581
-328.682 -365.219 1578
-324.908 -365.219 1578
-320.524 -364.525 1575
-316.557 -364.293 1574
-312.197 -363.599 1571
-307.458 -362.442 1566
-303.714 -362.442 1566
-299.969 -362.442 1566
-296.035 -362.21 1565
-292.292 -362.21 1565
-288.734 -362.442 1566
-284.99 -362.442 1566
-281.245 -362.442 1566
-277.854 -362.905 1568
-274.28 -363.136 1569
-270.528 -363.136 1569
-267.116 -363.599 1571
-263.527 -363.83 1572
-260.098 -364.293 1574
-256.334 -364.293 1574
-253.052 -364.988 1577
-249.439 -365.219 1578
-245.977 -365.682 1580
-242.198 -365.682 1580
-239.325 -367.071 1586
-235.533 -367.071 1586
-232.617 -368.459 1592
-228.81 -368.459 1592
-225.568 -369.385 1596
-222.447 -370.542 1601
-218.891 -371.005 1603
-215.058 -371.005 1603
-212.147 -372.625 1610
-208.944 -373.783 1615
-205.717 -374.94 1620
-201.843 -374.94 1620
-198.336 -375.634 1623
-195.173 -377.023 1629
-191.63 -377.717 1632
-187.728 -377.717 1632
-184.726 -379.569 1640
-181.576 -381.189 1647
-178.501 -383.04 1655
-174.543 -383.04 1655
-170.895 -383.735 1658
-167.433 -384.892 1663
-163.653 -385.355 1665
-159.671 -385.355 1665
-156.345 -386.975 1672
-152.62 -387.669 1675
-149.324 -389.521 1683
-145.299 -389.521 1683
-141.611 -390.447 1687
-138.147 -392.067 1694
-134.334 -392.761 1697
-130.276 -392.761 1697
-126.59 -393.918 1702
-123.168 -396.001 1711
-119.076 -396.001 1711
-114.985 -396.001 1711
-110.893 -396.001 1711
-106.677 -395.538 1709
-102.59 -395.538 1709
8.66221 -934.804 4039
18.3207 -934.804 4039
27.9792 -934.804 4039
37.6376 -934.804 4039
47.2961 -934.804 4039
56.9546 -934.804 4039
65.9863 -926.009 4001
75.1951 -921.611 3982
84.9088 -923.694 3991
94.4525 -923.694 3991
103.996 -923.694 3991
113.54 -923.694 3991
122.22 -917.214 3963
131.697 -917.214 3963
140.176 -910.733 3935
148.864 -906.336 3916
157.501 -902.17 3898
166.822 -902.17 3898
175.737 -900.087 3889
183.752 -893.838 3862
192.087 -889.672 3844
201.28 -889.672 3844
209.979 -887.589 3835
302.507 -863.75 3732
311.431 -863.75 3732
320.356 -863.75 3732
328.574 -861.899 3724
335.214 -856.113 3699
344.059 -856.113 3699
352.142 -854.261 3691
360.968 -854.261 3691
369.794 -854.261 3691
381.185 -860.047 3716
390.071 -860.047 3716
403.359 -869.536 3757
414.209 -873.471 3774
428.168 -883.654 3818
437.298 -883.654 3818
452.625 -895.921 3871
461.882 -895.921 3871
471.139 -895.921 3871
480.395 -895.921 3871
489.652 -895.921 3871
497.749 -893.838 3862
506.984 -893.838 3862
516.219 -893.838 3862
521.781 -887.589 3835
3108.41 -946.376 4089
3118.19 -946.376 4089
3127.96 -946.376 4089
-2447.79 -825.263 3603
-2439.18 -825.263 3603
-2430.56 -825.263 3603
-2421.95 -825.263 3603
-2413.33 -825.263 3603
-2404.72 -825.263 3603
-2386.12 -821.827 3588
-2382.18 -823.43 3595
-2384.15 -827.095 3611
-2375.51 -827.095 3611
-2372.12 -828.928 3619
-2363.47 -828.928 3619
-2354.81 -828.928 3619
-2335.79 -825.263 3603
-2322.01 -823.43 3595
-2308.9 -821.827 3588
-2300.32 -821.827 3588
-2281.52 -818.162 3572
-2263.44 -814.727 3557
-2231.48 -806.252 3520
-2223.06 -806.252 3520
-2177.52 -792.738 3461
-516.172 -385.947 1685
-512.143 -385.947 1685
-508.113 -385.947 1685
-503.186 -385.26 1682
-497.68 -384.115 1677
-493.67 -384.115 1677
-489.076 -383.657 1675
-485.071 -383.657 1675
-481.065 -383.657 1675
-477.06 -383.657 1675
-472.489 -383.199 1673
-467.649 -382.512 1670
-463.1 -382.053 1668
-459.111 -382.053 1668
-454.85 -381.824 1667
-450.322 -381.366 1665
-445.805 -380.908 1663
-441.828 -380.908 1663
-435.745 -379.076 1655
-430.483 -377.931 1650
-424.469 -376.098 1642
-420.543 -376.098 1642
-415.855 -375.411 1639
-410.176 -373.808 1632
-405.527 -373.121 1629
-400.152 -371.746 1623
-396.271 -371.746 1623
-391.906 -371.288 1621
-386.594 -369.914 1615
-381.31 -368.54 1609
-377.462 -368.54 1609
-372.918 -367.852 1606
-368.388 -367.165 1603
-363.418 -366.02 1598
-359.597 -366.02 1598
-354.662 -364.875 1593
-350.192 -364.188 1590
-345.736 -363.5 1587
-341.941 -363.5 1587
-337.294 -362.584 1583
-333.087 -362.126 1581
-328.682 -361.439 1578
-324.908 -361.439 1578
-320.524 -360.752 1575
-316.557 -360.523 1574
-312.197 -359.836 1571
-307.458 -358.69 1566
-303.714 -358.69 1566
-299.969 -358.69 1566
-296.224 -358.69 1566
-292.479 -358.69 1566
-288.734 -358.69 1566
-284.99 -358.69 1566
-281.245 -358.69 1566
-278.032 -359.378 1569
-274.28 -359.378 1569
-270.528 -359.378 1569
-267.116 -359.836 1571
-263.527 -360.065 1572
-260.263 -360.752 1575
-256.497 -360.752 1575
-253.052 -361.21 1577
-249.755 -361.897 1580
-245.977 -361.897 1580
-242.198 -361.897 1580
-239.325 -363.271 1586
-235.533 -363.271 1586
-232.763 -364.875 1593
-228.954 -364.875 1593
-225.568 -365.562 1596
-222.447 -366.707 1601
-218.891 -367.165 1603
-215.058 -367.165 1603
-212.147 -368.769 1610
-208.944 -369.914 1615
-205.717 -371.059 1620
-201.843 -371.059 1620
-198.336 -371.746 1623
-195.173 -373.121 1629
-191.63 -373.808 1632
-187.728 -373.808 1632
-184.726 -375.64 1640
-181.576 -377.243 1647
-178.501 -379.076 1655
-174.543 -379.076 1655
-170.895 -379.763 1658
-167.433 -380.908 1663
-163.653 -381.366 1665
-159.671 -381.366 1665
-156.345 -382.97 1672
-152.62 -383.657 1675
-149.501 -385.947 1685
-145.472 -385.947 1685
-141.611 -386.405 1687
-138.147 -388.009 1694
-134.334 -388.696 1697
-130.276 -388.696 1697
-126.59 -389.841 1702
-123.168 -391.903 1711
-119.076 -391.903 1711
-114.985 -391.903 1711
-110.893 -391.903 1711
-106.677 -391.444 1709
-102.59 -391.444 1709
-48.3612 -907.72 3963
-39.3456 -918.486 4010
-30.0459 -927.419 4049
-20.3635 -927.419 4049
-10.7075 -929.709 4059
-1.0012 -929.709 4059
8.7051 -929.709 4059
18.3207 -925.128 4039
27.9792 -925.128 4039
37.6376 -925.128 4039
47.2961 -925.128 4039
56.9546 -925.128 4039
65.9863 -916.424 4001
75.3651 -914.134 3991
84.9088 -914.134 3991
94.4525 -914.134 3991
103.996 -914.134 3991
113.54 -914.134 3991
122.498 -909.782 3972
131.996 -909.782 3972
140.176 -901.307 3935
148.864 -896.955 3916
157.501 -892.832 3898
166.822 -892.832 3898
175.737 -890.771 3889
183.752 -884.587 3862
192.537 -882.525 3853
201.751 -882.525 3853
210.472 -880.464 3844
302.507 -854.81 3732
311.431 -854.81 3732
320.356 -854.81 3732
328.574 -852.978 3724
336.755 -851.145 3716
345.641 -851.145 3716
353.668 -849.084 3707
360.968 -845.419 3691
369.794 -845.419 3691
381.185 -851.145 3716
390.071 -851.145 3716
403.359 -860.536 3757
416.184 -868.553 3792
428.168 -874.508 3818
437.298 -874.508 3818
452.625 -886.648 3871
461.882 -886.648 3871
471.139 -886.648 3871
480.395 -886.648 3871
489.652 -886.648 3871
497.749 -884.587 3862
506.984 -884.587 3862
516.219 -884.587 3862
521.781 -878.402 3835
3108.41 -936.581 4089
3118.19 -936.581 4089
3127.96 -936.581 4089
-2447.79 -816.632 3603
-2450.01 -820.258 3619
-2441.36 -820.258 3619
-2432.7 -820.258 3619
-2424.05 -820.258 3619
-2410.05 -818.445 3611
-2390.78 -814.819 3595
-2382.18 -814.819 3595
-2384.15 -818.445 3611
-2375.51 -818.445 3611
-2372.12 -820.258 3619
-2363.47 -820.258 3619
-2354.81 -820.258 3619
-2335.79 -816.632 3603
-2322.01 -814.819 3595
-2308.9 -813.232 3588
-2300.32 -813.232 3588
-2281.52 -809.606 3572
-2263.44 -806.206 3557
-2231.48 -797.82 3520
-2223.06 -797.82 3520
-2177.52 -784.447 3461
-516.172 -381.911 1685
-512.143 -381.911 1685
-508.113 -381.911 1685
-503.186 -381.231 1682
-497.68 -380.098 1677
-493.67 -380.098 1677
-489.076 -379.644 1675
-485.071 -379.644 1675
-481.065 -379.644 1675
-477.06 -379.644 1675
-472.489 -379.191 1673
-467.649 -378.511 1670
-463.1 -378.058 1668
-459.111 -378.058 1668
-454.85 -377.831 1667
-450.322 -377.378 1665
-445.805 -376.924 1663
-441.828 -376.924 1663
-435.745 -375.111 1655
-430.483 -373.978 1650
-423.952 -371.711 1640
-420.03 -371.711 1640
-415.855 -371.485 1639
-410.176 -369.898 1632
-405.527 -369.218 1629
-400.152 -367.858 1623
-396.271 -367.858 1623
-391.906 -367.405 1621
-386.594 -366.045 1615
-381.31 -364.685 1609
-377.462 -364.685 1609
-372.918 -364.005 1606
-368.388 -363.325 1603
-363.418 -362.192 1598
-359.597 -362.192 1598
-354.662 -361.059 1593
-350.192 -360.379 1590
-345.736 -359.699 1587
-341.941 -359.699 1587
-337.294 -358.792 1583
-333.087 -358.339 1581
-328.682 -357.659 1578
-324.908 -357.659 1578
-320.524 -356.979 1575
-316.557 -356.752 1574
-312.197 -356.072 1571
-307.458 -354.939 1566
-303.714 -354.939 1566
-299.969 -354.939 1566
-296.224 -354.939 1566
-292.479 -354.939 1566
-288.734 -354.939 1566
-284.99 -354.939 1566
-281.245 -354.939 1566
-278.032 -355.619 1569
-274.28 -355.619 1569
-270.528 -355.619 1569
-267.116 -356.072 1571
-263.527 -356.299 1572
-260.263 -356.979 1575
-256.497 -356.979 1575
-253.052 -357.432 1577
-249.755 -358.112 1580
-245.977 -358.112 1580
-242.198 -358.112 1580
-239.325 -359.472 1586
-235.533 -359.472 1586
-232.763 -361.059 1593
-228.954 -361.059 1593
-225.568 -361.739 1596
-222.447 -362.872 1601
-218.891 -363.325 1603
-215.058 -363.325 1603
-212.147 -364.912 1610
-208.685 -365.592 1613
-205.463 -366.725 1618
-201.594 -366.725 1618
-198.336 -367.858 1623
-195.054 -368.992 1628
-191.63 -369.898 1632
-187.728 -369.898 1632
-184.726 -371.711 1640
-181.576 -373.298 1647
-178.501 -375.111 1655
-174.543 -375.111 1655
-170.895 -375.791 1658
-167.433 -376.924 1663
-163.653 -377.378 1665
-159.671 -377.378 1665
-156.345 -378.964 1672
-152.437 -379.191 1673
-149.501 -381.911 1685
-145.472 -381.911 1685
-141.611 -382.364 1687
-138.147 -383.951 1694
-134.334 -384.631 1697
-130.276 -384.631 1697
-126.59 -385.764 1702
-123.168 -387.804 1711
-119.076 -387.804 1711
-114.985 -387.804 1711
-110.893 -387.804 1711
-106.677 -387.35 1709
-102.59 -387.35 1709
-48.3612 -898.227 3963
-39.3456 -908.88 4010
-30.0459 -917.719 4049
-20.3635 -917.719 4049
-10.7075 -919.986 4059
-1.0012 -919.986 4059
8.7051 -919.986 4059
18.3207 -915.453 4039
27.9792 -915.453 4039
37.6376 -915.453 4039
47.2961 -915.453 4039
56.9546 -915.453 4039
65.9863 -906.84 4001
75.3651 -904.573 3991
84.9088 -904.573 3991
94.4525 -904.573 3991
103.996 -904.573 3991
113.54 -904.573 3991
122.498 -900.267 3972
131.996 -900.267 3972
140.176 -891.881 3935
148.864 -887.574 3916
157.501 -883.495 3898
166.822 -883.495 3898
175.737 -881.455 3889
183.752 -875.335 3862
192.537 -873.295 3853
201.751 -873.295 3853
210.472 -871.255 3844
302.507 -845.87 3732
311.431 -845.87 3732
320.356 -845.87 3732
327.868 -842.244 3716
336.755 -842.244 3716
345.641 -842.244 3716
353.668 -840.204 3707
360.968 -836.577 3691
369.794 -836.577 3691
381.185 -842.244 3716
390.071 -842.244 3716
401.534 -847.683 3740
416.184 -859.469 3792
426.149 -861.283 3800
435.236 -861.283 3800
446.428 -865.362 3818
461.882 -877.375 3871
471.139 -877.375 3871
480.395 -877.375 3871
488.514 -875.335 3862
492.078 -865.362 3818
501.208 -865.362 3818
510.338 -865.362 3818
518.243 -863.322 3809
3110.56 -924.519 4079
3120.31 -924.519 4079
-2447.79 -808.001 3603
-2450.01 -811.589 3619
-2441.36 -811.589 3619
-2432.7 -811.589 3619
-2424.05 -811.589 3619
-2410.05 -809.795 3611
-2390.78 -806.207 3595
-2382.18 -806.207 3595
-2384.15 -809.795 3611
-2375.51 -809.795 3611
-2366.88 -809.795 3611
-2358.24 -809.795 3611
-2349.61 -809.795 3611
-2335.79 -808.001 3603
-2317.48 -804.637 3588
-2303.76 -802.843 3580
-2295.19 -802.843 3580
-2281.52 -801.049 3572
-2258.35 -795.891 3549
-2226.4 -787.593 3512
-2218.01 -787.593 3512
-2164.31 -771.447 3440
-516.172 -377.874 1685
-512.143 -377.874 1685
-508.113 -377.874 1685
-504.084 -377.874 1685
-497.977 -376.305 1678
-493.965 -376.305 1678
-489.952 -376.305 1678
-485.65 -376.08 1677
-481.639 -376.08 1677
-477.629 -376.08 1677
-472.489 -375.183 1673
-467.649 -374.511 1670
-463.1 -374.062 1668
-459.111 -374.062 1668
-454.85 -373.838 1667
-450.322 -373.389 1665
-445.805 -372.941 1663
-441.828 -372.941 1663
-435.745 -371.147 1655
-430.483 -370.025 1650
-423.952 -367.783 1640
-420.03 -367.783 1640
-415.855 -367.559 1639
-410.176 -365.989 1632
-405.527 -365.316 1629
-400.152 -363.97 1623
-396.271 -363.97 1623
-391.906 -363.522 1621
-386.594 -362.176 1615
-381.31 -360.831 1609
-377.462 -360.831 1609
-372.918 -360.158 1606
-368.388 -359.485 1603
-363.418 -358.364 1598
-359.597 -358.364 1598
-354.662 -357.243 1593
-350.192 -356.57 1590
-345.736 -355.897 1587
-341.941 -355.897 1587
-336.868 -354.552 1581
-332.876 -354.327 1580
-328.682 -353.879 1578
-324.908 -353.879 1578
-320.524 -353.206 1575
-316.557 -352.982 1574
-312.197 -352.309 1571
-307.458 -351.188 1566
-303.714 -351.188 1566
-299.969 -351.188 1566
-296.224 -351.188 1566
-292.479 -351.188 1566
-288.734 -351.188 1566
-284.99 -351.188 1566
-281.245 -351.188 1566
-278.032 -351.861 1569
-274.28 -351.861 1569
-270.528 -351.861 1569
-267.116 -352.309 1571
-263.527 -352.533 1572
-260.263 -353.206 1575
-256.497 -353.206 1575
-253.052 -353.655 1577
-249.755 -354.327 1580
-246.132 -354.552 1581
-242.352 -354.552 1581
-239.325 -355.673 1586
-235.533 -355.673 1586
-232.763 -357.243 1593
-228.954 -357.243 1593
-225.568 -357.915 1596
-222.724 -359.485 1603
-218.891 -359.485 1603
-215.058 -359.485 1603
-212.147 -361.055 1610
-208.685 -361.728 1613
-205.463 -362.849 1618
-201.594 -362.849 1618
-198.336 -363.97 1623
-195.173 -365.316 1629
-191.63 -365.989 1632
-187.728 -365.989 1632
-184.726 -367.783 1640
-181.576 -369.353 1647
-178.501 -371.147 1655
-174.543 -371.147 1655
-170.895 -371.819 1658
-167.332 -372.716 1662
-163.653 -373.389 1665
-159.671 -373.389 1665
-156.345 -374.959 1672
-152.437 -375.183 1673
-149.501 -377.874 1685
-145.472 -377.874 1685
-141.862 -378.996 1690
-138.147 -379.893 1694
-134.334 -380.565 1697
-130.276 -380.565 1697
-126.59 -381.687 1702
-123.168 -383.705 1711
-119.076 -383.705 1711
-114.985 -383.705 1711
-110.893 -383.705 1711
-106.24 -381.687 1702
-102.17 -381.687 1702
-124.175 -888.734 3963
-114.698 -888.734 3963
-105.222 -888.734 3963
-95.5033 -886.491 3953
-86.0504 -886.491 3953
-76.7914 -888.734 3963
-67.3147 -888.734 3963
-57.8379 -888.734 3963
-48.471 -890.752 3972
-39.3456 -899.274 4010
-30.0459 -908.02 4049
-20.3635 -908.02 4049
-10.7075 -910.262 4059
-1.0012 -910.262 4059
8.7051 -910.262 4059
18.3207 -905.777 4039
27.9792 -905.777 4039
37.6376 -905.777 4039
47.2961 -905.777 4039
56.9546 -905.777 4039
65.9863 -897.255 4001
75.3651 -895.013 3991
84.9088 -895.013 3991
94.4525 -895.013 3991
103.996 -895.013 3991
113.54 -895.013 3991
122.498 -890.752 3972
131.996 -890.752 3972
140.176 -882.454 3935
148.864 -878.194 3916
157.137 -872.139 3889
166.437 -872.139 3889
175.737 -872.139 3889
183.323 -864.065 3853
192.537 -864.065 3853
201.751 -864.065 3853
210.472 -862.047 3844
302.507 -836.93 3732
311.431 -836.93 3732
320.356 -836.93 3732
328.574 -835.136 3724
336.755 -833.342 3716
345.641 -833.342 3716
353.668 -831.324 3707
362.533 -831.324 3707
372.299 -833.342 3716
382.826 -836.93 3732
391.751 -836.93 3732
407.976 -852.18 3800
417.062 -852.18 3800
427.159 -854.198 3809
436.267 -854.198 3809
446.428 -856.216 3818
457.586 -860.029 3835
466.757 -860.029 3835
475.928 -860.029 3835
482.948 -856.216 3818
492.078 -856.216 3818
501.208 -856.216 3818
509.135 -854.198 3809
518.243 -854.198 3809
3108.41 -916.99 4089
3118.19 -916.99 4089
3127.96 -916.99 4089
-2465.58 -808.022 3642
-2456.87 -808.022 3642
-2448.16 -808.022 3642
-2439.45 -808.022 3642
-2415.39 -802.92 3619
-2401.42 -801.145 3611
-2387.48 -799.37 3603
-2384.15 -801.145 3611
-2375.51 -801.145 3611
-2372.12 -802.92 3619
-2363.47 -802.92 3619
-2354.81 -802.92 3619
-2340.97 -801.145 3611
-2322.01 -797.595 3595
-2303.76 -794.267 3580
-2295.19 -794.267 3580
-2271.94 -789.164 3557
-2258.35 -787.389 3549
-2226.4 -779.18 3512
-2218.01 -779.18 3512
-2155.5 -760.1 3426
-516.785 -374.282 1687
-512.75 -374.282 1687
-508.716 -374.282 1687
-504.682 -374.282 1687
-499.164 -373.172 1682
-495.142 -373.172 1682
-489.952 -372.285 1678
-485.939 -372.285 1678
-481.927 -372.285 1678
-477.914 -372.285 1678
-473.619 -372.063 1677
-467.649 -370.51 1670
-463.1 -370.066 1668
-459.111 -370.066 1668
-454.85 -369.844 1667
-450.322 -369.401 1665
-445.537 -368.735 1662
-441.562 -368.735 1662
-435.745 -367.182 1655
-430.483 -366.073 1650
-423.952 -363.854 1640
-420.03 -363.854 1640
-415.855 -363.632 1639
-410.176 -362.079 1632
-405.527 -361.414 1629
-400.152 -360.082 1623
-396.271 -360.082 1623
-391.665 -359.417 1620
-386.115 -357.864 1613
-381.31 -356.976 1609
-377.462 -356.976 1609
-372.454 -355.867 1604
-367.929 -355.202 1601
-362.281 -353.427 1593
-358.471 -353.427 1593
-353.994 -352.761 1590
-349.531 -352.095 1587
-345.083 -351.43 1584
-341.295 -351.43 1584
-336.868 -350.764 1581
-332.455 -350.099 1578
-328.057 -349.433 1575
-324.29 -349.433 1575
-319.914 -348.768 1572
-315.953 -348.546 1571
-311.799 -348.102 1569
-307.458 -347.436 1566
-303.714 -347.436 1566
-299.777 -347.214 1565
-296.224 -347.436 1566
-292.479 -347.436 1566
-288.734 -347.436 1566
-284.99 -347.436 1566
-281.245 -347.436 1566
-278.032 -348.102 1569
-274.629 -348.546 1571
-270.873 -348.546 1571
-267.116 -348.546 1571
-263.527 -348.768 1572
-260.263 -349.433 1575
-256.497 -349.433 1575
-252.731 -349.433 1575
-249.755 -350.542 1580
-246.132 -350.764 1581
-242.352 -350.764 1581
-239.325 -351.874 1586
-235.533 -351.874 1586
-232.763 -353.427 1593
-228.954 -353.427 1593
-225.568 -354.092 1596
-222.724 -355.645 1603
-219.301 -356.311 1606
-215.46 -356.311 1606
-212.411 -357.642 1612
-209.203 -358.751 1617
-205.717 -359.417 1620
-201.843 -359.417 1620
-198.458 -360.304 1624
-195.413 -361.857 1631
-191.63 -362.079 1632
-187.728 -362.079 1632
-184.951 -364.298 1642
-181.576 -365.407 1647
-178.501 -367.182 1655
-174.543 -367.182 1655
-171.101 -368.291 1660
-167.332 -368.735 1662
-163.948 -370.066 1668
-159.959 -370.066 1668
-156.345 -370.954 1672
-152.802 -372.063 1677
-149.679 -374.282 1687
-145.645 -374.282 1687
-141.862 -374.947 1690
-138.147 -375.835 1694
-134.492 -376.944 1699
-130.429 -376.944 1699
-127.036 -378.941 1708
-123.168 -379.606 1711
-119.563 -381.159 1718
-115.455 -381.159 1718
-111.347 -381.159 1718
-106.802 -379.606 1711
-102.71 -379.606 1711
-192.672 -847.07 3818
-183.542 -847.07 3818
-175.599 -852.839 3844
-166.407 -852.839 3844
-162.082 -879.24 3963
-153.337 -883.456 3982
-143.815 -883.456 3982
-134.293 -883.456 3982
-124.175 -879.24 3963
-114.698 -879.24 3963
-105.222 -879.24 3963
-95.5033 -877.022 3953
-86.0504 -877.022 3953
-76.7914 -879.24 3963
-67.3147 -879.24 3963
-57.8379 -879.24 3963
-48.471 -881.237 3972
-38.9728 -881.237 3972
-30.0459 -898.32 4049
-20.3635 -898.32 4049
-10.6811 -898.32 4049
-0.998732 -898.32 4049
8.68365 -898.32 4049
18.3207 -896.102 4039
27.9168 -894.105 4030
37.4606 -891.886 4020
47.0736 -891.886 4020
56.6867 -891.886 4020
65.673 -883.456 3982
75.0063 -881.237 3972
84.5046 -881.237 3972
94.0028 -881.237 3972
103.501 -881.237 3972
112.999 -881.237 3972
121.634 -875.025 3944
131.065 -875.025 3944
139.499 -868.813 3916
147.837 -862.822 3889
156.046 -856.832 3862
165.281 -856.832 3862
174.11 -854.835 3853
182.895 -852.839 3844
192.087 -852.839 3844
201.28 -852.839 3844
210.472 -852.839 3844
302.507 -827.99 3732
311.431 -827.99 3732
320.356 -827.99 3732
328.574 -826.215 3724
336.755 -824.44 3716
345.641 -824.44 3716
353.668 -822.444 3707
363.413 -824.44 3716
373.902 -827.99 3732
385.391 -833.537 3757
394.375 -833.537 3757
408.942 -845.073 3809
419.038 -847.07 3818
429.065 -848.845 3826
438.214 -848.845 3826
448.416 -850.842 3835
457.586 -850.842 3835
466.757 -850.842 3835
475.928 -850.842 3835
483.96 -848.845 3826
489.758 -843.077 3800
498.845 -843.077 3800
507.932 -843.077 3800
515.93 -841.302 3792
3108.41 -907.195 4089
3118.19 -907.195 4089
3127.96 -907.195 4089
-2465.58 -799.298 3642
-2456.87 -799.298 3642
-2448.16 -799.298 3642
-2439.45 -799.298 3642
-2426.07 -797.762 3635
-2412.06 -796.006 3627
-2387.48 -790.739 3603
-2384.15 -792.495 3611
-2375.51 -792.495 3611
-2372.12 -794.25 3619
-2363.47 -794.25 3619
-2354.81 -794.25 3619
-2340.97 -792.495 3611
-2322.01 -788.983 3595
-2303.76 -785.691 3580
-2295.19 -785.691 3580
-2271.94 -780.643 3557
-2258.35 -778.888 3549
-2226.4 -770.767 3512
-2218.01 -770.767 3512
-2200.17 -767.475 3497
-517.704 -370.899 1690
-513.662 -370.899 1690
-509.621 -370.899 1690
-504.682 -370.24 1687
-499.461 -369.363 1683
-495.436 -369.363 1683
-491.12 -369.143 1682
-487.098 -369.143 1682
-482.501 -368.704 1680
-478.484 -368.704 1680
-473.901 -368.265 1678
-467.649 -366.51 1670
-463.655 -366.51 1670
-459.662 -366.51 1670
-455.122 -366.071 1668
-450.863 -365.851 1667
-445.537 -364.754 1662
-441.562 -364.754 1662
-435.745 -363.218 1655
-430.483 -362.12 1650
-423.952 -359.926 1640
-420.03 -359.926 1640
-415.855 -359.706 1639
-410.176 -358.17 1632
-405.527 -357.511 1629
-400.152 -356.195 1623
-396.271 -356.195 1623
-391.665 -355.536 1620
-386.115 -354 1613
-381.31 -353.122 1609
-377.462 -353.122 1609
-372.454 -352.025 1604
-367.929 -351.366 1601
-362.281 -349.611 1593
-358.471 -349.611 1593
-353.994 -348.952 1590
-349.531 -348.294 1587
-345.083 -347.635 1584
-341.295 -347.635 1584
-336.868 -346.977 1581
-332.455 -346.319 1578
-328.057 -345.66 1575
-324.29 -345.66 1575
-319.914 -345.002 1572
-315.953 -344.782 1571
-311.799 -344.343 1569
-307.458 -343.685 1566
-303.714 -343.685 1566
-299.777 -343.466 1565
-296.224 -343.685 1566
-292.479 -343.685 1566
-288.734 -343.685 1566
-284.99 -343.685 1566
-281.245 -343.685 1566
-278.032 -344.343 1569
-274.629 -344.782 1571
-270.873 -344.782 1571
-267.116 -344.782 1571
-263.527 -345.002 1572
-260.263 -345.66 1575
-256.497 -345.66 1575
-252.731 -345.66 1575
-249.755 -346.758 1580
-246.444 -347.416 1583
-242.658 -347.416 1583
-239.325 -348.074 1586
-235.533 -348.074 1586
-232.763 -349.611 1593
-228.954 -349.611 1593
-225.568 -350.269 1596
-222.724 -351.805 1603
-219.301 -352.464 1606
-215.46 -352.464 1606
-212.411 -353.78 1612
-209.203 -354.878 1617
-205.717 -355.536 1620
-201.843 -355.536 1620
-198.458 -356.414 1624
-195.413 -357.95 1631
-191.865 -358.609 1634
-187.958 -358.609 1634
-184.951 -360.364 1642
-181.576 -361.462 1647
-178.501 -363.218 1655
-174.543 -363.218 1655
-171.101 -364.315 1660
-167.332 -364.754 1662
-163.948 -366.071 1668
-159.959 -366.071 1668
-156.345 -366.948 1672
-152.802 -368.046 1677
-149.856 -370.679 1689
-145.817 -370.679 1689
-141.862 -370.899 1690
-138.392 -372.435 1697
-134.73 -373.532 1702
-130.66 -373.532 1702
-127.259 -375.508 1711
-123.672 -377.044 1718
-119.911 -378.141 1723
-115.791 -378.141 1723
-111.671 -378.141 1723
-107.238 -377.044 1718
-103.13 -377.044 1718
-192.672 -837.924 3818
-183.542 -837.924 3818
-175.599 -843.63 3844
-166.407 -843.63 3844
-162.082 -869.747 3963
-153.337 -873.917 3982
-143.815 -873.917 3982
-134.293 -873.917 3982
-124.175 -869.747 3963
-114.698 -869.747 3963
-105.222 -869.747 3963
-95.5033 -867.552 3953
-86.0504 -867.552 3953
-76.7914 -869.747 3963
-67.3147 -869.747 3963
-57.8379 -869.747 3963
-48.471 -871.722 3972
-38.9728 -871.722 3972
-30.0459 -888.621 4049
-20.3635 -888.621 4049
-10.6811 -888.621 4049
-0.998732 -888.621 4049
8.68365 -888.621 4049
18.3207 -886.426 4039
27.9168 -884.451 4030
37.4606 -882.256 4020
47.0736 -882.256 4020
56.6867 -882.256 4020
65.673 -873.917 3982
75.0063 -871.722 3972
84.5046 -871.722 3972
94.0028 -871.722 3972
103.501 -871.722 3972
112.999 -871.722 3972
121.634 -865.577 3944
131.065 -865.577 3944
139.499 -859.432 3916
148.179 -855.482 3898
156.41 -849.556 3871
165.666 -849.556 3871
174.923 -849.556 3871
183.323 -845.606 3853
192.537 -845.606 3853
201.751 -845.606 3853
210.472 -843.63 3844
302.507 -819.05 3732
311.431 -819.05 3732
320.356 -819.05 3732
328.574 -817.294 3724
336.755 -815.539 3716
345.641 -815.539 3716
354.527 -815.539 3716
364.195 -817.294 3724
374.703 -820.806 3740
386.314 -826.512 3766
395.32 -826.512 3766
409.908 -837.924 3818
420.904 -841.655 3835
431.084 -843.63 3844
440.276 -843.63 3844
450.52 -845.606 3853
459.734 -845.606 3853
468.948 -845.606 3853
475.928 -841.655 3835
485.098 -841.655 3835
494.269 -841.655 3835
503.44 -841.655 3835
512.61 -841.655 3835
520.556 -839.68 3826
3108.41 -897.4 4089
3118.19 -897.4 4089
3127.96 -897.4 4089
-2465.58 -790.574 3642
-2462.27 -792.31 3650
-2453.54 -792.31 3650
-2444.81 -792.31 3650
-2436.08 -792.31 3650
-2422.04 -790.574 3642
-2403.39 -787.318 3627
-2394.71 -787.318 3627
-2380.78 -785.581 3619
-2372.12 -785.581 3619
-2363.47 -785.581 3619
-2354.81 -785.581 3619
-2340.97 -783.844 3611
-2322.01 -780.371 3595
-2303.76 -777.115 3580
-2295.19 -777.115 3580
-2271.94 -772.122 3557
-2258.35 -770.386 3549
-2240.35 -767.13 3534
-2231.9 -767.13 3534
-2200.17 -759.098 3497
-517.704 -366.85 1690
-513.662 -366.85 1690
-509.621 -366.85 1690
-504.682 -366.199 1687
-499.461 -365.331 1683
-495.436 -365.331 1683
-491.12 -365.114 1682
-487.098 -365.114 1682
-482.501 -364.68 1680
-478.484 -364.68 1680
-473.901 -364.246 1678
-467.649 -362.509 1670
-463.655 -362.509 1670
-459.662 -362.509 1670
-455.122 -362.075 1668
-450.863 -361.858 1667
-445.001 -360.338 1660
-441.031 -360.338 1660
-435.745 -359.253 1655
-429.961 -357.733 1648
-423.694 -355.78 1639
-419.774 -355.78 1639
-415.347 -355.346 1637
-410.176 -354.26 1632
-405.278 -353.392 1628
-399.659 -351.873 1621
-395.783 -351.873 1621
-390.939 -351.004 1617
-385.397 -349.485 1610
-380.125 -348.182 1604
-376.289 -348.182 1604
-372.221 -347.965 1603
-367.239 -346.88 1598
-361.599 -345.143 1590
-357.796 -345.143 1590
-353.772 -344.926 1589
-349.311 -344.275 1586
-345.083 -343.841 1584
-341.295 -343.841 1584
-336.229 -342.538 1578
-332.455 -342.538 1578
-327.432 -341.236 1572
-323.673 -341.236 1572
-319.914 -341.236 1572
-315.551 -340.585 1569
-311.601 -340.368 1568
-307.262 -339.717 1565
-303.52 -339.717 1565
-299.777 -339.717 1565
-296.035 -339.717 1565
-292.292 -339.717 1565
-288.734 -339.934 1566
-284.99 -339.934 1566
-281.245 -339.934 1566
-277.854 -340.368 1568
-274.629 -341.019 1571
-270.873 -341.019 1571
-267.116 -341.019 1571
-263.527 -341.236 1572
-260.263 -341.887 1575
-256.497 -341.887 1575
-252.731 -341.887 1575
-249.755 -342.973 1580
-246.444 -343.624 1583
-242.658 -343.624 1583
-239.325 -344.275 1586
-235.533 -344.275 1586
-232.763 -345.795 1593
-228.954 -345.795 1593
-225.568 -346.446 1596
-222.447 -347.531 1601
-219.301 -348.616 1606
-215.46 -348.616 1606
-212.411 -349.919 1612
-209.203 -351.004 1617
-205.717 -351.655 1620
-201.843 -351.655 1620
-198.458 -352.524 1624
-195.413 -354.043 1631
-191.865 -354.694 1634
-187.958 -354.694 1634
-184.951 -356.431 1642
-181.576 -357.516 1647
-178.501 -359.253 1655
-174.543 -359.253 1655
-171.101 -360.338 1660
-167.332 -360.772 1662
-163.948 -362.075 1668
-159.959 -362.075 1668
-156.345 -362.943 1672
-152.802 -364.029 1677
-149.856 -366.633 1689
-145.817 -366.633 1689
-141.862 -366.85 1690
-138.392 -368.37 1697
-134.73 -369.455 1702
-130.66 -369.455 1702
-127.259 -371.409 1711
-123.672 -372.928 1718
-119.911 -374.014 1723
-115.791 -374.014 1723
-111.671 -374.014 1723
-107.238 -372.928 1718
-103.13 -372.928 1718
-192.672 -828.778 3818
-183.542 -828.778 3818
-175.599 -834.422 3844
-166.407 -834.422 3844
-162.082 -860.253 3963
-153.337 -864.378 3982
-143.815 -864.378 3982
-134.293 -864.378 3982
-124.175 -860.253 3963
-113.888 -854.175 3935
-104.478 -854.175 3935
-95.0684 -854.175 3935
-85.6586 -854.175 3935
-76.7914 -860.253 3963
-67.3147 -860.253 3963
-57.8379 -860.253 3963
-48.3612 -860.253 3963
-38.9728 -862.207 3972
-29.8307 -872.627 4020
-20.2177 -872.627 4020
-10.6547 -876.751 4039
-0.996266 -876.751 4039
8.66221 -876.751 4039
18.1891 -870.456 4010
27.7783 -870.456 4010
37.2835 -868.502 4001
46.8511 -868.502 4001
56.4187 -868.502 4001
65.3596 -860.253 3963
74.6475 -858.083 3953
84.1003 -858.083 3953
93.5532 -858.083 3953
103.006 -858.083 3953
112.459 -858.083 3953
121.048 -852.005 3925
130.434 -852.005 3925
139.499 -850.051 3916
148.179 -846.144 3898
156.41 -840.283 3871
165.666 -840.283 3871
174.923 -840.283 3871
183.323 -836.376 3853
192.537 -836.376 3853
201.751 -836.376 3853
209.048 -828.778 3818
301.21 -806.637 3716
310.096 -806.637 3716
318.982 -806.637 3716
327.868 -806.637 3716
335.939 -804.683 3707
345.641 -806.637 3716
354.527 -806.637 3716
364.195 -808.373 3724
374.703 -811.847 3740
386.314 -817.49 3766
395.32 -817.49 3766
409.908 -828.778 3818
420.904 -832.468 3835
431.084 -834.422 3844
440.276 -834.422 3844
450.52 -836.376 3853
459.734 -836.376 3853
468.948 -836.376 3853
475.928 -832.468 3835
485.098 -832.468 3835
494.269 -832.468 3835
503.44 -832.468 3835
512.61 -832.468 3835
520.556 -830.515 3826
3108.41 -887.604 4089
3118.19 -887.604 4089
3127.96 -887.604 4089
-2465.58 -781.849 3642
-2462.27 -783.567 3650
-2453.54 -783.567 3650
-2444.81 -783.567 3650
-2436.08 -783.567 3650
-2422.04 -781.849 3642
-2403.39 -778.629 3627
-2394.71 -778.629 3627
-2380.78 -776.912 3619
-2372.12 -776.912 3619
-2363.47 -776.912 3619
-2354.81 -776.912 3619
-2340.97 -775.194 3611
-2317.48 -770.257 3588
-2303.76 -768.539 3580
-2295.19 -768.539 3580
-2271.94 -763.602 3557
-2258.35 -761.884 3549
-2240.35 -758.664 3534
-2231.9 -758.664 3534
-2200.17 -750.721 3497
-518.929 -363.661 1694
-514.878 -363.661 1694
-510.827 -363.661 1694
-506.776 -363.661 1694
-500.055 -361.729 1685
-496.025 -361.729 1685
-491.412 -361.299 1683
-487.098 -361.085 1682
-483.076 -361.085 1682
-479.053 -361.085 1682
-473.901 -360.226 1678
-467.649 -358.509 1670
-463.655 -358.509 1670
-459.662 -358.509 1670
-455.122 -358.079 1668
-450.863 -357.865 1667
-445.001 -356.362 1660
-441.031 -356.362 1660
-435.745 -355.288 1655
-429.7 -353.571 1647
-423.694 -351.854 1639
-419.774 -351.854 1639
-415.347 -351.424 1637
-410.679 -350.78 1634
-405.278 -349.492 1628
-399.659 -347.989 1621
-395.783 -347.989 1621
-390.939 -347.131 1617
-385.397 -345.628 1610
-380.125 -344.34 1604
-376.289 -344.34 1604
-371.757 -343.696 1601
-367.239 -343.052 1598
-361.599 -341.334 1590
-357.796 -341.334 1590
-353.326 -340.69 1587
-349.311 -340.476 1586
-344.429 -339.402 1581
-340.648 -339.402 1581
-336.229 -338.758 1578
-331.823 -338.114 1575
-327.432 -337.47 1572
-323.673 -337.47 1572
-319.303 -336.826 1569
-315.35 -336.612 1568
-311.203 -336.182 1566
-307.262 -335.968 1565
-303.52 -335.968 1565
-299.586 -335.753 1564
-296.035 -335.968 1565
-292.292 -335.968 1565
-288.55 -335.968 1565
-284.808 -335.968 1565
-281.245 -336.182 1566
-277.5 -336.182 1566
-274.629 -337.256 1571
-270.873 -337.256 1571
-267.116 -337.256 1571
-263.527 -337.47 1572
-260.263 -338.114 1575
-256.497 -338.114 1575
-253.052 -338.544 1577
-249.755 -339.188 1580
-246.444 -339.832 1583
-242.658 -339.832 1583
-239.024 -340.046 1584
-235.533 -340.476 1586
-232.763 -341.978 1593
-228.954 -341.978 1593
-225.568 -342.623 1596
-222.447 -343.696 1601
-219.437 -344.984 1607
-215.595 -344.984 1607
-212.542 -346.272 1613
-209.203 -347.131 1617
-205.717 -347.775 1620
-201.843 -347.775 1620
-198.458 -348.633 1624
-195.413 -350.136 1631
-191.865 -350.78 1634
-187.958 -350.78 1634
-184.951 -352.498 1642
-181.576 -353.571 1647
-178.501 -355.288 1655
-174.543 -355.288 1655
-171.101 -356.362 1660
-167.332 -356.791 1662
-163.948 -358.079 1668
-159.959 -358.079 1668
-156.345 -358.938 1672
-152.802 -360.011 1677
-149.856 -362.587 1689
-145.817 -362.587 1689
-142.03 -363.231 1692
-138.718 -365.163 1701
-134.888 -365.807 1704
-130.813 -365.807 1704
-127.557 -368.169 1715
-124.175 -370.316 1725
-120.05 -370.316 1725
-115.925 -370.316 1725
-111.8 -370.316 1725
-107.675 -370.316 1725
-103.55 -370.316 1725
-191.763 -815.768 3800
-183.542 -819.632 3818
-175.599 -825.214 3844
-166.407 -825.214 3844
-157.215 -825.214 3844
-152.605 -850.76 3963
-143.129 -850.76 3963
-133.652 -850.76 3963
-123.298 -844.749 3935
-113.888 -844.749 3935
-104.478 -844.749 3935
-95.0684 -844.749 3935
-85.245 -840.67 3916
-75.8807 -840.67 3916
-66.9919 -846.681 3944
-57.5606 -846.681 3944
-48.1293 -846.681 3944
-38.9728 -852.692 3972
-29.4745 -852.692 3972
-19.9763 -852.692 3972
-10.5545 -858.918 4001
-0.986893 -858.918 4001
8.58071 -858.918 4001
18.103 -856.771 3991
27.7159 -858.918 4001
37.2835 -858.918 4001
46.8511 -858.918 4001
56.4187 -858.918 4001
64.8978 -844.749 3935
74.3076 -844.749 3935
83.7174 -844.749 3935
93.1272 -844.749 3935
102.537 -844.749 3935
111.947 -844.749 3935
120.771 -840.67 3916
130.135 -840.67 3916
139.499 -840.67 3916
148.179 -836.806 3898
156.41 -831.01 3871
165.666 -831.01 3871
174.923 -831.01 3871
183.323 -827.146 3853
192.537 -827.146 3853
201.751 -827.146 3853
209.048 -819.632 3818
300.481 -795.803 3707
310.096 -797.735 3716
318.982 -797.735 3716
327.868 -797.735 3716
337.48 -799.453 3724
346.385 -799.453 3724
355.29 -799.453 3724
364.978 -801.17 3732
375.605 -804.819 3749
386.314 -808.469 3766
395.32 -808.469 3766
411.733 -823.282 3835
421.892 -825.214 3844
433.102 -829.078 3862
442.338 -829.078 3862
451.573 -829.078 3862
460.808 -829.078 3862
470.043 -829.078 3862
479.278 -829.078 3862
487.375 -827.146 3853
501.229 -834.874 3889
514.073 -840.67 3916
523.437 -840.67 3916
536.611 -846.681 3944
546.043 -846.681 3944
555.474 -846.681 3944
3118.19 -877.809 4089
3127.96 -877.809 4089
-2465.58 -773.125 3642
-2462.27 -774.823 3650
-2453.54 -774.823 3650
-2444.81 -774.823 3650
-2436.08 -774.823 3650
-2427.36 -774.823 3650
-2418.63 -774.823 3650
-2394.71 -769.94 3627
-2380.78 -768.242 3619
-2372.12 -768.242 3619
-2363.47 -768.242 3619
-2354.81 -768.242 3619
-2340.97 -766.544 3611
-2327.17 -764.846 3603
-2308.9 -761.662 3588
-2300.32 -761.662 3588
-2286.63 -759.963 3580
-2263.44 -755.081 3557
-2249.86 -753.383 3549
-2241.37 -753.383 3549
-2200.17 -742.344 3497
-523.906 -360.24 1697
-519.848 -360.24 1697
-515.79 -360.24 1697
-510.827 -359.603 1694
-506.776 -359.603 1694
-500.055 -357.692 1685
-496.025 -357.692 1685
-491.996 -357.692 1685
-487.387 -357.268 1683
-483.076 -357.055 1682
-479.053 -357.055 1682
-475.031 -357.055 1682
-468.489 -355.145 1673
-463.655 -354.508 1670
-459.662 -354.508 1670
-455.668 -354.508 1670
-451.134 -354.083 1668
-445.001 -352.385 1660
-441.031 -352.385 1660
-435.745 -351.324 1655
-429.7 -349.626 1647
-423.694 -347.927 1639
-419.774 -347.927 1639
-415.347 -347.503 1637
-410.679 -346.866 1634
-405.278 -345.592 1628
-399.659 -344.106 1621
-395.783 -344.106 1621
-390.939 -343.257 1617
-385.397 -341.771 1610
-380.125 -340.498 1604
-376.289 -340.498 1604
-371.757 -339.861 1601
-366.78 -338.799 1596
-361.371 -337.313 1589
-357.571 -337.313 1589
-353.326 -336.889 1587
-348.871 -336.252 1584
-344.429 -335.615 1581
-340.648 -335.615 1581
-336.229 -334.978 1578
-331.823 -334.341 1575
-327.432 -333.705 1572
-323.673 -333.705 1572
-319.303 -333.068 1569
-314.948 -332.431 1566
-311.004 -332.219 1565
-307.262 -332.219 1565
-303.52 -332.219 1565
-299.586 -332.006 1564
-296.035 -332.219 1565
-292.292 -332.219 1565
-288.734 -332.431 1566
-284.99 -332.431 1566
-281.245 -332.431 1566
-277.5 -332.431 1566
-274.804 -333.705 1572
-271.045 -333.705 1572
-267.286 -333.705 1572
-263.527 -333.705 1572
-260.594 -334.766 1577
-256.823 -334.766 1577
-253.212 -334.978 1578
-249.913 -335.615 1581
-246.444 -336.04 1583
-242.658 -336.04 1583
-239.325 -336.676 1586
-235.681 -336.889 1587
-232.763 -338.162 1593
-228.954 -338.162 1593
-225.568 -338.799 1596
-222.447 -339.861 1601
-219.437 -341.134 1607
-215.595 -341.134 1607
-212.542 -342.408 1613
-208.944 -342.833 1615
-205.717 -343.894 1620
-201.843 -343.894 1620
-198.458 -344.743 1624
-195.413 -346.229 1631
-191.865 -346.866 1634
-187.958 -346.866 1634
-184.726 -348.14 1640
-181.686 -349.838 1648
-178.501 -351.324 1655
-174.543 -351.324 1655
-171.307 -352.81 1662
-167.836 -353.871 1667
-163.948 -354.083 1668
-159.959 -354.083 1668
-156.438 -355.145 1673
-153.075 -356.631 1680
-150.122 -359.178 1692
-146.076 -359.178 1692
-142.198 -359.603 1694
-138.8 -361.301 1702
-135.046 -362.15 1706
-130.967 -362.15 1706
-127.78 -364.697 1718
-124.463 -367.033 1729
-120.468 -367.457 1731
-116.329 -367.457 1731
-112.189 -367.457 1731
-107.925 -367.033 1729
-103.791 -367.033 1729
-188.735 -793.928 3740
-180.225 -795.839 3749
-174.777 -812.184 3826
-165.628 -812.184 3826
-157.215 -816.005 3844
-148.023 -816.005 3844
-138.831 -816.005 3844
-129.639 -816.005 3844
-120.446 -816.005 3844
-111.254 -816.005 3844
-102.062 -816.005 3844
-92.8699 -816.005 3844
-83.6777 -816.005 3844
-75.1831 -823.647 3880
-66.3635 -829.379 3907
-57.0206 -829.379 3907
-47.7876 -831.289 3916
-38.6097 -835.323 3935
-29.1999 -835.323 3935
-19.7902 -835.323 3935
-10.478 -843.177 3972
-0.97974 -843.177 3972
8.51852 -843.177 3972
17.8489 -835.323 3935
27.2587 -835.323 3935
36.6685 -835.323 3935
46.0783 -835.323 3935
55.2201 -831.289 3916
64.436 -829.379 3907
