ply
format ascii 1.0
comment File generated
element vertex 2255
property float x
property float y
property float z
end_header
378.24 1181.29 2780
384.888 1181.29 2780
390.268 1177.47 2771
396.895 1177.47 2771
404.249 1179.59 2776
413.551 1187.24 2794
420.233 1187.24 2794
426.914 1187.24 2794
433.595 1187.24 2794
440.277 1187.24 2794
446.958 1187.24 2794
453.639 1187.24 2794
456.531 1177.47 2771
463.158 1177.47 2771
469.784 1177.47 2771
478.817 1183.42 2785
490.358 1195.31 2813
501.326 1205.51 2837
508.11 1205.51 2837
516.709 1209.76 2847
524.436 1211.89 2852
534.795 1219.96 2871
541.661 1219.96 2871
551.392 1226.33 2886
560.228 1230.58 2896
567.153 1230.58 2896
574.078 1230.58 2896
584.013 1236.96 2911
592.192 1239.51 2917
600.195 1241.63 2922
607.182 1241.63 2922
616.271 1245.88 2932
626.471 1252.25 2947
633.518 1252.25 2947
640.566 1252.25 2947
644.316 1245.88 2932
651.328 1245.88 2932
658.339 1245.88 2932
663.081 1241.63 2922
667.546 1236.96 2911
674.507 1236.96 2911
681.468 1236.96 2911
688.429 1236.96 2911
695.39 1236.96 2911
711.653 1150.7 2708
719.455 1152.82 2713
727.013 1154.52 2717
733.51 1154.52 2717
740.007 1154.52 2717
745.405 1152.82 2713
751.893 1152.82 2713
812.978 1165.99 2744
819.54 1165.99 2744
835.736 1179.59 2776
842.374 1179.59 2776
850.236 1181.29 2780
856.883 1181.29 2780
866.637 1185.54 2790
873.309 1185.54 2790
885.974 1193.61 2809
893.962 1195.31 2813
900.689 1195.31 2813
913.544 1203.39 2832
920.317 1203.39 2832
931.999 1209.76 2847
938.807 1209.76 2847
948.937 1214.01 2857
962.125 1222.08 2876
970.687 1224.21 2881
977.576 1224.21 2881
989.591 1230.58 2896
998.237 1232.71 2901
1005.17 1232.71 2901
1012.11 1232.71 2901
1020.8 1234.83 2906
1027.75 1234.83 2906
1034.7 1234.83 2906
1032.69 1224.21 2881
1029.12 1211.89 2852
1035.94 1211.89 2852
1044.58 1214.01 2857
1051.42 1214.01 2857
1058.25 1214.01 2857
1065.08 1214.01 2857
1071.91 1214.01 2857
1074.97 1209.76 2847
1076.08 1203.39 2832
1082.85 1203.39 2832
1089.62 1203.39 2832
1096.39 1203.39 2832
1099.66 1199.56 2823
1104.45 1197.44 2818
1107.64 1193.61 2809
1114.36 1193.61 2809
1117.08 1189.37 2799
1123.78 1189.37 2799
1134.51 1193.61 2809
1141.23 1193.61 2809
1147.94 1193.61 2809
1246.22 1160.05 2730
1252.75 1160.05 2730
1259.28 1160.05 2730
1261.64 1156.22 2721
1270.47 1158.35 2726
1283.08 1163.87 2739
1289.63 1163.87 2739
1298.55 1165.99 2744
1305.11 1165.99 2744
1313.58 1167.69 2748
1320.15 1167.69 2748
1329.14 1169.82 2753
1337.66 1171.52 2757
1353.52 1179.59 2776
1360.16 1179.59 2776
1368.77 1181.29 2780
1380.36 1185.54 2790
1396.48 1193.61 2809
1403.2 1193.61 2809
1409.91 1193.61 2809
1416.63 1193.61 2809
1442.6 1209.76 2847
1449.41 1209.76 2847
1461.33 1214.01 2857
1477.93 1222.08 2876
1484.81 1222.08 2876
1491.68 1222.08 2876
1498.56 1222.08 2876
1571.27 1163.87 2739
1583.01 1167.69 2748
1589.58 1167.69 2748
1596.15 1167.69 2748
1595.14 1162.17 2735
1593.48 1156.22 2721
1599.99 1156.22 2721
1606.49 1156.22 2721
1613 1156.22 2721
1617.13 1154.52 2717
1623.62 1154.52 2717
1630.12 1154.52 2717
1628.79 1149 2704
1632.23 1146.87 2699
1638.68 1146.87 2699
1648.18 1149 2704
1654.65 1149 2704
1661.12 1149 2704
1678.07 1156.22 2721
1690.15 1160.05 2730
1696.67 1160.05 2730
1711.94 1165.99 2744
1721 1167.69 2748
1736.38 1173.64 2762
1742.98 1173.64 2762
1760.99 1181.29 2780
1776.54 1187.24 2794
1792.79 1193.61 2809
1799.51 1193.61 2809
1808.8 1195.31 2813
1821.98 1199.56 2823
1844.28 1209.76 2847
1869.94 1222.08 2876
1876.82 1222.08 2876
1890.24 1226.33 2886
1920.81 1241.63 2922
1927.8 1241.63 2922
1934.79 1241.63 2922
1941.77 1241.63 2922
1948.76 1241.63 2922
1955.75 1241.63 2922
1955.35 1236.96 2911
1955.57 1232.71 2901
1952.36 1226.33 2886
1959.26 1226.33 2886
1962.75 1224.21 2881
1969.64 1224.21 2881
1976.53 1224.21 2881
1983.42 1224.21 2881
1990.31 1224.21 2881
1984.03 1216.14 2862
1967.22 1201.69 2828
1970.49 1199.56 2823
1977.24 1199.56 2823
1980.48 1197.44 2818
1983.69 1195.31 2813
1974.15 1185.54 2790
1980.82 1185.54 2790
1983.93 1183.42 2785
1987.01 1181.29 2780
1993.66 1181.29 2780
2000.31 1181.29 2780
2000.46 1177.47 2771
2000.57 1173.64 2762
-1906.64 1131.54 2648
-1900.3 1131.54 2648
-1893.97 1131.54 2648
-1887.64 1131.54 2648
-1872.07 1125.99 2635
-1865.77 1125.99 2635
-1859.47 1125.99 2635
-1827.85 1110.61 2599
-1802.01 1098.64 2571
-1800.75 1101.63 2578
-1805.72 1108.47 2594
-1799.52 1108.47 2594
-1796.78 1110.61 2599
-1790.56 1110.61 2599
-1784.35 1110.61 2599
-1774.71 1108.47 2594
-1757.6 1101.63 2578
-1746.68 1098.64 2571
-1740.53 1098.64 2571
-1728.98 1095.22 2563
-1720.17 1093.51 2559
-1711.37 1091.8 2555
-1689.91 1081.98 2532
-1683.85 1081.98 2532
-1152.29 1239.66 2901
-1145.35 1239.66 2901
-1138.41 1239.66 2901
-1131.47 1239.66 2901
-1124.54 1239.66 2901
-1109.9 1231.11 2881
-1086.16 1212.31 2837
-1083.18 1216.58 2847
-1076.37 1216.58 2847
-1076.7 1224.7 2866
-1069.85 1224.7 2866
-1063 1224.7 2866
-1061.67 1231.11 2881
-1054.78 1231.11 2881
-1047.89 1231.11 2881
-1035.58 1224.7 2866
-1028.73 1224.7 2866
-1021.87 1224.7 2866
-1008.29 1216.58 2847
-1001.48 1216.58 2847
-989.435 1210.17 2832
-982.663 1210.17 2832
-969.344 1202.05 2813
-961.248 1200.34 2809
-952.832 1198.21 2804
-958.949 1214.45 2842
-952.153 1214.45 2842
-945.357 1214.45 2842
-938.561 1214.45 2842
-931.764 1214.45 2842
-920.412 1208.46 2828
-910.419 1204.19 2818
-902.076 1202.05 2813
-895.35 1202.05 2813
-881.357 1192.22 2790
-867.475 1182.4 2767
-544.77 778.151 1821
-541.008 779.005 1823
-536.649 779.005 1823
-532.29 779.005 1823
-527.93 779.005 1823
-523.571 779.005 1823
-519.212 779.005 1823
-514.852 779.005 1823
-511.053 779.86 1825
-507.8 781.569 1829
-503.426 781.569 1829
-499.598 782.424 1831
-495.219 782.424 1831
-491.377 783.279 1833
-486.994 783.279 1833
-483.137 784.133 1835
-479.271 784.988 1837
-475.395 785.843 1839
-470.997 785.843 1839
-466.6 785.843 1839
-462.705 786.697 1841
-458.303 786.697 1841
-453.9 786.697 1841
-449.009 785.843 1839
-444.612 785.843 1839
-440.214 785.843 1839
-434.869 784.133 1835
-430.011 783.279 1833
-424.699 781.569 1829
-420.326 781.569 1829
-414.587 779.005 1823
-408.878 776.442 1817
-401.861 771.314 1805
-397.545 771.314 1805
-390.832 766.613 1794
-383.526 760.631 1780
-375.434 752.939 1762
-368.903 748.238 1751
-364.716 748.238 1751
-358.47 743.965 1741
-352.882 740.974 1734
-347.328 737.983 1727
-343.198 737.983 1727
-338.086 735.846 1722
-333.581 734.991 1720
-329.468 734.991 1720
-325.733 735.846 1722
-321.615 735.846 1722
-317.682 736.273 1723
-313.925 737.128 1725
-310.878 739.692 1731
-306.739 739.692 1731
-302.774 740.119 1732
-299.322 741.829 1736
-295.511 742.683 1738
-291.355 742.683 1738
-287.529 743.538 1740
-283.857 744.82 1743
-280.01 745.674 1745
-276.153 746.529 1747
-271.975 746.529 1747
-268.104 747.384 1749
-264.978 750.375 1756
-261.076 751.23 1758
-256.872 751.23 1758
-253.387 753.366 1763
-249.171 753.366 1763
-246.067 756.785 1771
-241.832 756.785 1771
-238.402 759.349 1777
-234.416 760.203 1779
-230.809 762.34 1784
-226.543 762.34 1784
-222.775 764.049 1788
-218.988 765.759 1792
-215.422 768.322 1798
-211.122 768.322 1798
-206.823 768.322 1798
-202.748 769.177 1800
-198.995 771.314 1805
-194.679 771.314 1805
-190.573 772.168 1807
-186.665 773.878 1811
-182.737 775.587 1815
-178.397 775.587 1815
-174.44 777.296 1819
-170.09 777.296 1819
-165.923 778.151 1821
-161.568 778.151 1821
-157.213 778.151 1821
-152.859 778.151 1821
-148.504 778.151 1821
-186.825 1187.95 2780
-180.177 1187.95 2780
-173.529 1187.95 2780
-166.881 1187.95 2780
-160.233 1187.95 2780
-153.088 1184.11 2771
-146.462 1184.11 2771
-139.836 1184.11 2771
-133.017 1182.4 2767
-126.583 1184.11 2771
-119.957 1184.11 2771
-113.331 1184.11 2771
-106.704 1184.11 2771
-99.9335 1182.4 2767
-93.1482 1180.26 2762
-87.1074 1187.95 2780
-80.4596 1187.95 2780
-74.0773 1192.22 2790
-67.4055 1192.22 2790
-60.7338 1192.22 2790
-54.0621 1192.22 2790
-47.5432 1196.07 2799
-40.9229 1198.21 2804
-34.2177 1198.21 2804
-27.5125 1198.21 2804
-20.8073 1198.21 2804
-14.0518 1193.93 2794
-7.37047 1193.93 2794
-0.686952 1190.09 2785
5.95353 1186.24 2776
12.5918 1186.24 2776
19.23 1186.24 2776
25.8683 1186.24 2776
32.5534 1187.95 2780
39.2012 1187.95 2780
45.9315 1190.09 2785
52.6857 1192.22 2790
59.3574 1192.22 2790
66.0292 1192.22 2790
72.7009 1192.22 2790
79.4864 1193.93 2794
86.1677 1193.93 2794
93.0152 1196.07 2799
99.7085 1196.07 2799
106.782 1200.34 2809
113.499 1200.34 2809
120.216 1200.34 2809
126.933 1200.34 2809
133.651 1200.34 2809
140.368 1200.34 2809
147.085 1200.34 2809
154.021 1202.05 2813
161.605 1208.46 2828
168.368 1208.46 2828
175.13 1208.46 2828
181.893 1208.46 2828
189.589 1214.45 2842
196.385 1214.45 2842
203.896 1218.72 2852
210.716 1218.72 2852
217.536 1218.72 2852
223.963 1216.58 2847
228.015 1202.05 2813
233.991 1198.21 2804
241.469 1202.05 2813
248.195 1202.05 2813
254.922 1202.05 2813
261.649 1202.05 2813
266.563 1193.93 2794
273.244 1193.93 2794
279.024 1190.09 2785
286.607 1193.93 2794
293.813 1196.07 2799
302.009 1202.05 2813
308.736 1202.05 2813
315.463 1202.05 2813
321.159 1198.21 2804
327.864 1198.21 2804
333.376 1193.93 2794
338.962 1190.09 2785
345.622 1190.09 2785
352.281 1190.09 2785
358.297 1187.95 2780
364.945 1187.95 2780
370.389 1184.11 2771
377.016 1184.11 2771
381.704 1178.12 2757
388.296 1178.12 2757
394.889 1178.12 2757
402.21 1180.26 2762
410.887 1186.24 2776
417.525 1186.24 2776
424.775 1187.95 2780
432.975 1192.22 2790
439.646 1192.22 2790
446.318 1192.22 2790
452.99 1192.22 2790
456.531 1184.11 2771
463.158 1184.11 2771
469.784 1184.11 2771
478.817 1190.09 2785
490.358 1202.05 2813
501.326 1212.31 2837
508.11 1212.31 2837
516.709 1216.58 2847
524.436 1218.72 2852
534.795 1226.84 2871
541.661 1226.84 2871
551.392 1233.25 2886
560.228 1237.52 2896
567.153 1237.52 2896
574.078 1237.52 2896
584.013 1243.93 2911
592.192 1246.49 2917
600.195 1248.63 2922
607.182 1248.63 2922
616.271 1252.9 2932
626.471 1259.31 2947
633.518 1259.31 2947
640.566 1259.31 2947
644.316 1252.9 2932
651.328 1252.9 2932
658.339 1252.9 2932
663.081 1248.63 2922
667.546 1243.93 2911
674.507 1243.93 2911
681.468 1243.93 2911
688.429 1243.93 2911
695.39 1243.93 2911
686.91 1216.58 2847
699.128 1168.72 2735
705.669 1168.72 2735
712.209 1168.72 2735
715.07 1162.74 2721
719.455 1159.32 2713
727.013 1161.03 2717
733.51 1161.03 2717
740.007 1161.03 2717
745.405 1159.32 2713
751.893 1159.32 2713
748.597 1144.36 2678
751.336 1138.81 2665
756.571 1137.1 2661
762.935 1137.1 2661
769.298 1137.1 2661
790.819 1159.32 2713
801.127 1164.88 2726
812.978 1172.57 2744
819.54 1172.57 2744
835.736 1186.24 2776
842.374 1186.24 2776
850.236 1187.95 2780
856.883 1187.95 2780
866.637 1192.22 2790
873.309 1192.22 2790
885.974 1200.34 2809
893.962 1202.05 2813
900.689 1202.05 2813
913.544 1210.17 2832
920.317 1210.17 2832
931.999 1216.58 2847
938.807 1216.58 2847
948.937 1220.85 2857
962.125 1228.97 2876
970.687 1231.11 2881
977.576 1231.11 2881
989.591 1237.52 2896
998.237 1239.66 2901
1005.17 1239.66 2901
1012.11 1239.66 2901
1020.8 1241.79 2906
1027.75 1241.79 2906
1034.7 1241.79 2906
1032.69 1231.11 2881
1029.12 1218.72 2852
1035.94 1218.72 2852
1044.58 1220.85 2857
1051.42 1220.85 2857
1058.25 1220.85 2857
1065.08 1220.85 2857
1071.91 1220.85 2857
1074.97 1216.58 2847
1076.08 1210.17 2832
1082.85 1210.17 2832
1089.62 1210.17 2832
1096.39 1210.17 2832
1099.66 1206.33 2823
1104.45 1204.19 2818
1107.64 1200.34 2809
1114.36 1200.34 2809
1117.08 1196.07 2799
1123.78 1196.07 2799
1134.51 1200.34 2809
1141.23 1200.34 2809
1147.94 1200.34 2809
1133.29 1178.12 2757
1246.22 1166.59 2730
1252.75 1166.59 2730
1259.28 1166.59 2730
1257.93 1159.32 2713
1268.14 1162.74 2721
1281.21 1168.72 2735
1287.75 1168.72 2735
1296.18 1170.43 2739
1302.73 1170.43 2739
1311.67 1172.57 2744
1318.23 1172.57 2744
1324.79 1172.57 2744
1335.72 1176.41 2753
1346.69 1180.26 2762
1353.3 1180.26 2762
1364.33 1184.11 2771
1375.41 1187.95 2780
1393.99 1198.21 2804
1400.7 1198.21 2804
1409.91 1200.34 2809
1416.63 1200.34 2809
1423.35 1200.34 2809
1430.06 1200.34 2809
1453.66 1214.45 2842
1485.64 1235.38 2891
1492.55 1235.38 2891
1499.46 1235.38 2891
1556.61 1149.92 2691
1563.04 1149.92 2691
1584.64 1161.03 2717
1591.14 1161.03 2717
1602.93 1164.88 2726
1609.44 1164.88 2726
1615.96 1164.88 2726
1617.13 1161.03 2717
1621.23 1159.32 2713
1627.72 1159.32 2713
1623.36 1151.63 2695
1627.39 1149.92 2691
1622.9 1142.23 2673
1634.77 1146.07 2682
1641.19 1146.07 2682
1650.06 1147.78 2686
1664.5 1153.34 2699
1670.95 1153.34 2699
1677.41 1153.34 2699
1703.2 1166.59 2730
1712.86 1168.72 2735
1727.57 1174.28 2748
1734.15 1174.28 2748
1743.88 1176.41 2753
1761.91 1184.11 2771
1780.67 1192.22 2790
1787.34 1192.22 2790
1799.8 1196.07 2799
1815.52 1202.05 2813
1844.28 1216.58 2847
1869.94 1228.97 2876
1876.82 1228.97 2876
1890.24 1233.25 2886
1920.81 1248.63 2922
1931.1 1250.77 2927
1938.1 1250.77 2927
1945.1 1250.77 2927
1952.1 1250.77 2927
1959.09 1250.77 2927
1962.74 1248.63 2922
1962.31 1243.93 2911
1962.5 1239.66 2901
1969.44 1239.66 2901
1976.38 1239.66 2901
1979.9 1237.52 2896
1986.82 1237.52 2896
1993.75 1237.52 2896
1993.76 1233.25 2886
1986.8 1224.7 2866
1967.22 1208.46 2828
1970.49 1206.33 2823
1977.24 1206.33 2823
1980.48 1204.19 2818
1977.35 1198.21 2804
1970.61 1190.09 2785
1977.27 1190.09 2785
1980.37 1187.95 2780
1984.15 1186.24 2776
-1906.64 1137.89 2648
-1900.3 1137.89 2648
-1906.13 1145.19 2665
-1899.76 1145.19 2665
-1893.39 1145.19 2665
-1887.01 1145.19 2665
-1880.64 1145.19 2665
-1853.17 1132.3 2635
-1821.64 1116.83 2599
-1811.93 1114.68 2594
-1811.99 1118.55 2603
-1805.77 1118.55 2603
-1799.54 1118.55 2603
-1793.32 1118.55 2603
-1787.09 1118.55 2603
-1774.71 1114.68 2594
-1757.6 1107.81 2578
-1746.68 1104.8 2571
-1740.53 1104.8 2571
-1731.68 1103.08 2567
-1722.86 1101.36 2563
-1716.73 1101.36 2563
-1710.6 1101.36 2563
-1701.81 1099.64 2559
-1123.29 1215.24 2828
-1129.95 1229.85 2862
-1123.11 1229.85 2862
-1116.26 1229.85 2862
-1107.48 1227.7 2857
-1100.65 1227.7 2857
-1086.16 1219.1 2837
-1083.18 1223.4 2847
-1076.37 1223.4 2847
-1069.56 1223.4 2847
-1062.76 1223.4 2847
-1055.95 1223.4 2847
-1054.67 1229.85 2862
-1047.82 1229.85 2862
-1040.98 1229.85 2862
-1032.33 1227.7 2857
-1020.11 1221.25 2842
-1013.32 1221.25 2842
-1004.75 1219.1 2837
-996.208 1216.96 2832
-984.544 1210.94 2818
-977.805 1210.94 2818
-967.965 1207.07 2809
-959.537 1204.92 2804
-952.832 1204.92 2804
-958.949 1221.25 2842
-952.153 1221.25 2842
-945.357 1221.25 2842
-938.561 1221.25 2842
-931.764 1221.25 2842
-920.412 1215.24 2828
-913.649 1215.24 2828
-902.076 1208.79 2813
-895.35 1208.79 2813
-881.357 1198.91 2790
-545.368 783.372 1823
-541.008 783.372 1823
-537.827 785.091 1827
-533.458 785.091 1827
-529.089 785.091 1827
-524.72 785.091 1827
-519.781 784.232 1825
-515.417 784.232 1825
-511.613 785.091 1827
-508.355 786.81 1831
-503.976 786.81 1831
-499.598 786.81 1831
-495.76 787.67 1833
-491.913 788.529 1835
-487.525 788.529 1835
-483.664 789.388 1837
-479.271 789.388 1837
-475.395 790.248 1839
-470.997 790.248 1839
-467.107 791.107 1841
-462.705 791.107 1841
-458.303 791.107 1841
-453.9 791.107 1841
-449.498 791.107 1841
-444.612 790.248 1839
-440.214 790.248 1839
-435.343 789.388 1837
-430.011 787.67 1833
-425.164 786.81 1831
-420.785 786.81 1831
-415.042 784.232 1825
-410.228 783.372 1823
-403.197 778.216 1811
-398.866 778.216 1811
-392.139 773.489 1800
-385.25 768.332 1788
-377.352 761.027 1771
-370.378 755.441 1758
-366.174 755.441 1758
-360.529 752.433 1751
-353.289 745.987 1736
-348.132 743.839 1731
-343.993 743.839 1731
-338.675 741.26 1725
-334.162 740.401 1723
-329.851 739.971 1722
-325.922 740.401 1723
-321.802 740.401 1723
-317.682 740.401 1723
-313.925 741.26 1725
-310.519 742.979 1729
-306.384 742.979 1729
-302.774 744.268 1732
-298.977 745.128 1734
-295.171 745.987 1736
-291.019 745.987 1736
-287.529 747.706 1740
-283.531 748.136 1741
-279.689 748.995 1743
-275.837 749.855 1745
-271.664 749.855 1745
-267.798 750.714 1747
-264.676 753.722 1754
-260.779 754.581 1756
-256.58 754.581 1756
-252.956 756.3 1760
-249.171 757.589 1763
-245.789 760.168 1769
-241.559 760.168 1769
-238.133 762.746 1775
-234.416 764.465 1779
-230.809 766.614 1784
-226.543 766.614 1784
-222.775 768.332 1788
-218.988 770.051 1792
-215.422 772.63 1798
-211.122 772.63 1798
-206.823 772.63 1798
-202.748 773.489 1800
-198.995 775.638 1805
-194.679 775.638 1805
-190.784 777.356 1809
-186.665 778.216 1811
-182.938 780.794 1817
-178.593 780.794 1817
-174.44 781.654 1819
-170.277 782.513 1821
-166.287 784.232 1825
-161.923 784.232 1825
-158.077 786.81 1831
-154.034 788.529 1835
-149.646 788.529 1835
-145.258 788.529 1835
-186.22 1190.74 2771
-179.594 1190.74 2771
-172.967 1190.74 2771
-166.341 1190.74 2771
-159.715 1190.74 2771
-152.867 1189.02 2767
-145.986 1186.88 2762
-139.382 1186.88 2762
-132.536 1184.73 2757
-126.172 1186.88 2762
-119.567 1186.88 2762
-112.963 1186.88 2762
-106.358 1186.88 2762
-99.5724 1184.73 2757
-92.9796 1184.73 2757
-86.5434 1186.88 2762
-79.9386 1186.88 2762
-73.8118 1194.61 2780
-67.2847 1196.76 2785
-60.7338 1198.91 2790
-54.0621 1198.91 2790
-47.3903 1198.91 2790
-40.9229 1204.92 2804
-34.2177 1204.92 2804
-27.5125 1204.92 2804
-20.7702 1202.78 2799
-14.0518 1200.63 2794
-7.37047 1200.63 2794
-0.688186 1198.91 2790
5.97283 1196.76 2785
12.6099 1194.61 2780
19.2577 1194.61 2780
25.8683 1192.89 2776
32.5534 1194.61 2780
39.2012 1194.61 2780
45.9315 1196.76 2785
52.6857 1198.91 2790
59.3574 1198.91 2790
66.0292 1198.91 2790
72.7009 1198.91 2790
79.4864 1200.63 2794
86.1677 1200.63 2794
93.0152 1202.78 2799
99.7085 1202.78 2799
106.782 1207.07 2809
113.499 1207.07 2809
120.216 1207.07 2809
126.933 1207.07 2809
133.651 1207.07 2809
140.368 1207.07 2809
147.085 1207.07 2809
154.021 1208.79 2813
161.605 1215.24 2828
168.368 1215.24 2828
175.13 1215.24 2828
181.893 1215.24 2828
188.655 1215.24 2828
195.418 1215.24 2828
203.181 1221.25 2842
209.978 1221.25 2842
216.774 1221.25 2842
221.288 1208.79 2813
227.286 1204.92 2804
233.574 1202.78 2799
240.267 1202.78 2799
246.96 1202.78 2799
253.2 1200.63 2794
259.882 1200.63 2794
265.704 1196.76 2785
272.364 1196.76 2785
277.621 1190.74 2771
285.171 1194.61 2780
292.343 1196.76 2785
299.969 1200.63 2794
306.651 1200.63 2794
313.332 1200.63 2794
318.982 1196.76 2785
325.642 1196.76 2785
331.228 1192.89 2776
337.258 1190.74 2771
342.767 1186.88 2762
349.372 1186.88 2762
354.817 1183.01 2753
360.219 1179.14 2744
364.374 1171.41 2726
370.893 1171.41 2726
377.412 1171.41 2726
383.93 1171.41 2726
393.027 1179.14 2744
400.9 1183.01 2753
410.147 1190.74 2771
416.773 1190.74 2771
424.164 1192.89 2776
430.802 1192.89 2776
437.44 1192.89 2776
444.079 1192.89 2776
449.256 1189.02 2767
455.872 1189.02 2767
462.489 1189.02 2767
468.258 1186.88 2762
477.958 1194.61 2780
487.046 1200.63 2794
497.968 1210.94 2818
504.707 1210.94 2818
514.894 1219.1 2837
523.517 1223.4 2847
531.256 1225.55 2852
538.076 1225.55 2852
548.526 1233.71 2871
558.294 1240.16 2886
565.195 1240.16 2886
572.096 1240.16 2886
580 1242.31 2891
586.914 1242.31 2891
596.908 1248.76 2906
603.857 1248.76 2906
610.806 1248.76 2906
622.22 1257.78 2927
629.219 1257.78 2927
636.218 1257.78 2927
643.218 1257.78 2927
650.217 1257.78 2927
657.216 1257.78 2927
663.081 1255.63 2922
667.546 1250.9 2911
674.507 1250.9 2911
677.957 1244.46 2896
684.882 1244.46 2896
689.418 1240.16 2886
686.91 1223.4 2847
699.128 1175.27 2735
705.669 1175.27 2735
712.209 1175.27 2735
715.07 1169.26 2721
719.455 1165.82 2713
727.013 1167.54 2717
733.51 1167.54 2717
740.007 1167.54 2717
745.405 1165.82 2713
751.893 1165.82 2713
748.597 1150.78 2678
751.336 1145.19 2665
756.571 1143.47 2661
762.935 1143.47 2661
769.298 1143.47 2661
790.819 1165.82 2713
801.127 1171.41 2726
812.978 1179.14 2744
819.54 1179.14 2744
831.521 1186.88 2762
839.643 1189.02 2767
846.26 1189.02 2767
852.876 1189.02 2767
862.289 1192.89 2776
870.179 1194.61 2780
879.981 1198.91 2790
886.653 1198.91 2790
893.324 1198.91 2790
907.415 1208.79 2813
914.142 1208.79 2813
925.779 1215.24 2828
932.542 1215.24 2828
943.955 1221.25 2842
954.096 1225.55 2852
964.285 1229.85 2862
971.129 1229.85 2862
977.973 1229.85 2862
984.817 1229.85 2862
991.661 1229.85 2862
996.76 1227.7 2857
1003.59 1227.7 2857
1010.42 1227.7 2857
1017.26 1227.7 2857
1018.71 1221.25 2842
1018.65 1213.09 2823
1025.4 1213.09 2823
1035.44 1216.96 2832
1042.22 1216.96 2832
1048.99 1216.96 2832
1055.76 1216.96 2832
1062.53 1216.96 2832
1069.3 1216.96 2832
1074.56 1215.24 2828
1081.32 1215.24 2828
1086.16 1213.09 2823
1092.91 1213.09 2823
1097.71 1210.94 2818
1100.92 1207.07 2809
1107.64 1207.07 2809
1114.36 1207.07 2809
1115.09 1200.63 2794
1121.77 1200.63 2794
1124.82 1196.76 2785
1131.48 1196.76 2785
1136.09 1194.61 2780
1133.29 1184.73 2757
1130.78 1175.27 2735
1135.24 1173.12 2730
1141.77 1173.12 2730
1101.61 1125.43 2619
1246.22 1173.12 2730
1252.75 1173.12 2730
1259.28 1173.12 2730
1257.93 1165.82 2713
1268.14 1169.26 2721
1281.21 1175.27 2735
1287.75 1175.27 2735
1296.18 1176.99 2739
1302.73 1176.99 2739
1311.67 1179.14 2744
1318.23 1179.14 2744
1324.79 1179.14 2744
1335.72 1183.01 2753
1346.69 1186.88 2762
1353.3 1186.88 2762
1364.33 1190.74 2771
1375.41 1194.61 2780
1393.99 1204.92 2804
1400.7 1204.92 2804
1409.91 1207.07 2809
1416.63 1207.07 2809
1423.35 1207.07 2809
1430.06 1207.07 2809
1453.66 1221.25 2842
1485.64 1242.31 2891
1492.55 1242.31 2891
1499.46 1242.31 2891
1556.61 1156.37 2691
1563.04 1156.37 2691
1589.89 1171.41 2726
1596.41 1171.41 2726
1602.93 1171.41 2726
1609.44 1171.41 2726
1615.96 1171.41 2726
1617.13 1167.54 2717
1621.23 1165.82 2713
1627.72 1165.82 2713
1623.36 1158.08 2695
1627.39 1156.37 2691
1622.9 1148.63 2673
1634.77 1152.5 2682
1641.19 1152.5 2682
1650.06 1154.22 2686
1664.5 1159.8 2699
1670.95 1159.8 2699
1677.41 1159.8 2699
1703.2 1173.12 2730
1712.86 1175.27 2735
1727.57 1180.86 2748
1734.15 1180.86 2748
1743.88 1183.01 2753
1761.91 1190.74 2771
1780.67 1198.91 2790
1787.34 1198.91 2790
1799.8 1202.78 2799
1815.52 1208.79 2813
1844.28 1223.4 2847
1869.94 1235.86 2876
1876.82 1235.86 2876
1890.24 1240.16 2886
1920.81 1255.63 2922
1931.1 1257.78 2927
1938.1 1257.78 2927
1945.1 1257.78 2927
1952.1 1257.78 2927
1959.09 1257.78 2927
1962.74 1255.63 2922
1962.31 1250.9 2911
1962.5 1246.61 2901
1969.44 1246.61 2901
1976.38 1246.61 2901
1979.9 1244.46 2896
1986.82 1244.46 2896
1993.75 1244.46 2896
1993.76 1240.16 2886
1986.8 1231.57 2866
1967.22 1215.24 2828
1970.49 1213.09 2823
1977.24 1213.09 2823
1974.16 1207.07 2809
1967.47 1198.91 2790
1960.7 1190.74 2771
1967.33 1190.74 2771
1963.98 1184.73 2757
-1912.85 1107.5 2563
-1906.72 1107.5 2563
-1900.59 1107.5 2563
-1906.64 1144.23 2648
-1900.3 1144.23 2648
-1906.13 1151.58 2665
-1899.76 1151.58 2665
-1893.39 1151.58 2665
-1887.01 1151.58 2665
-1880.64 1151.58 2665
-1853.17 1138.61 2635
-1821.64 1123.06 2599
-1811.93 1120.9 2594
-1811.99 1124.79 2603
-1805.77 1124.79 2603
-1799.54 1124.79 2603
-1793.32 1124.79 2603
-1787.09 1124.79 2603
-1774.71 1120.9 2594
-1757.6 1113.98 2578
-1746.68 1110.96 2571
-1740.53 1110.96 2571
-1731.68 1109.23 2567
-1722.86 1107.5 2563
-1716.73 1107.5 2563
-1710.6 1107.5 2563
-1701.81 1105.77 2559
-1115.43 1131.7 2619
-1109.17 1131.7 2619
-1102.9 1131.7 2619
-1096.64 1131.7 2619
-1104.81 1153.31 2669
-1098.43 1153.31 2669
-1104.32 1166.27 2699
-1106.82 1175.78 2721
-1100.31 1175.78 2721
-1093.8 1175.78 2721
-1101.68 1191.33 2757
-1123.29 1222.01 2828
-1129.95 1236.7 2862
-1123.11 1236.7 2862
-1116.26 1236.7 2862
-1107.48 1234.54 2857
-1100.65 1234.54 2857
-1086.16 1225.9 2837
-1083.18 1230.22 2847
-1076.37 1230.22 2847
-1069.56 1230.22 2847
-1062.76 1230.22 2847
-1055.95 1230.22 2847
-1054.67 1236.7 2862
-1047.82 1236.7 2862
-1040.98 1236.7 2862
-1032.33 1234.54 2857
-1020.11 1228.06 2842
-1013.32 1228.06 2842
-1004.75 1225.9 2837
-996.208 1223.74 2832
-984.544 1217.69 2818
-977.805 1217.69 2818
-967.965 1213.8 2809
-959.537 1211.64 2804
-952.832 1211.64 2804
-958.949 1228.06 2842
-952.153 1228.06 2842
-945.357 1228.06 2842
-938.561 1228.06 2842
-931.764 1228.06 2842
-920.412 1222.01 2828
-913.649 1222.01 2828
-902.076 1215.53 2813
-895.35 1215.53 2813
-881.357 1205.59 2790
-545.368 787.74 1823
-541.008 787.74 1823
-540.77 793.789 1837
-536.378 793.789 1837
-531.985 793.789 1837
-525.294 790.332 1829
-520.921 790.332 1829
-515.982 789.468 1827
-512.173 790.332 1829
-508.355 791.196 1831
-503.976 791.196 1831
-500.144 792.061 1833
-496.301 792.925 1835
-492.449 793.789 1837
-488.057 793.789 1837
-483.664 793.789 1837
-479.271 793.789 1837
-475.912 795.518 1841
-471.51 795.518 1841
-467.107 795.518 1841
-463.208 796.382 1843
-458.8 796.382 1843
-454.393 796.382 1843
-449.986 796.382 1843
-444.612 794.653 1839
-440.214 794.653 1839
-435.817 794.653 1839
-430.481 792.925 1835
-425.628 792.061 1833
-421.245 792.061 1833
-415.042 788.604 1825
-410.678 788.604 1825
-403.642 783.418 1813
-399.307 783.418 1813
-392.575 778.665 1802
-386.111 774.344 1792
-378.204 766.998 1775
-370.799 760.516 1760
-366.59 760.516 1760
-361.146 757.924 1754
-353.696 751.01 1738
-348.735 749.282 1734
-344.589 749.282 1734
-339.461 747.121 1729
-334.162 744.528 1723
-330.042 744.528 1723
-325.922 744.528 1723
-321.802 744.528 1723
-317.682 744.528 1723
-314.289 746.257 1727
-310.878 747.985 1731
-306.739 747.985 1731
-302.774 748.417 1732
-298.977 749.282 1734
-295.171 750.146 1736
-291.019 750.146 1736
-287.529 751.874 1740
-283.531 752.306 1741
-279.689 753.171 1743
-275.837 754.035 1745
-271.664 754.035 1745
-267.798 754.899 1747
-264.676 757.924 1754
-260.779 758.788 1756
-256.58 758.788 1756
-252.956 760.516 1760
-249.171 761.813 1763
-245.789 764.405 1769
-241.559 764.405 1769
-238.133 766.998 1775
-234.416 768.727 1779
-230.291 769.159 1780
-226.035 769.159 1780
-222.526 771.751 1786
-218.988 774.344 1792
-215.422 776.937 1798
-211.122 776.937 1798
-207.053 777.801 1800
-203.199 779.529 1804
-199.216 780.826 1807
-194.895 780.826 1807
-190.995 782.554 1811
-186.871 783.418 1813
-183.139 786.011 1819
-178.79 786.011 1819
-174.632 786.875 1821
-170.464 787.74 1823
-166.287 788.604 1825
-161.923 788.604 1825
-158.422 792.925 1835
-154.538 795.518 1841
-150.462 797.246 1845
-146.05 797.246 1845
-141.638 797.246 1845
-186.556 1199.54 2776
-179.918 1199.54 2776
-173.279 1199.54 2776
-166.341 1197.38 2771
-159.715 1197.38 2771
-152.315 1191.33 2757
-145.722 1191.33 2757
-139.129 1191.33 2757
-132.344 1189.6 2753
-125.761 1189.6 2753
-119.178 1189.6 2753
-112.594 1189.6 2753
-106.011 1189.6 2753
-99.2473 1187.44 2748
-92.676 1187.44 2748
-86.5434 1193.49 2762
-79.9386 1193.49 2762
-73.4666 1195.65 2767
-67.0673 1199.54 2776
-60.5161 1201.27 2780
-53.8683 1201.27 2780
-47.3054 1203.43 2785
-40.777 1207.32 2794
-34.0957 1207.32 2794
-27.4144 1207.32 2794
-20.7331 1207.32 2794
-14.0518 1207.32 2794
-7.37047 1207.32 2794
-0.689172 1207.32 2794
5.97283 1203.43 2785
12.6099 1201.27 2780
19.2577 1201.27 2780
25.9056 1201.27 2780
32.5534 1201.27 2780
39.2012 1201.27 2780
45.9315 1203.43 2785
52.5913 1203.43 2785
59.2511 1203.43 2785
66.0292 1205.59 2790
72.7009 1205.59 2790
79.4864 1207.32 2794
86.1677 1207.32 2794
93.0152 1209.48 2799
99.7085 1209.48 2799
106.592 1211.64 2804
113.297 1211.64 2804
120.002 1211.64 2804
126.933 1213.8 2809
133.651 1213.8 2809
140.368 1213.8 2809
147.085 1213.8 2809
153.802 1213.8 2809
161.034 1217.69 2818
167.772 1217.69 2818
174.511 1217.69 2818
181.25 1217.69 2818
187.988 1217.69 2818
194.381 1215.53 2813
200.465 1211.64 2804
207.17 1211.64 2804
213.875 1211.64 2804
220.187 1209.48 2799
226.151 1205.59 2790
232.405 1203.43 2785
239.065 1203.43 2785
245.284 1201.27 2780
251.932 1201.27 2780
258.579 1201.27 2780
263.987 1195.65 2767
270.604 1195.65 2767
275.317 1187.44 2748
282.401 1189.6 2753
289.404 1191.33 2757
295.997 1191.33 2757
302.59 1191.33 2757
309.183 1191.33 2757
315.775 1191.33 2757
322.368 1191.33 2757
327.887 1187.44 2748
333.972 1185.71 2744
340.533 1185.71 2744
347.095 1185.71 2744
351.337 1177.94 2726
357.199 1175.78 2721
363.706 1175.78 2721
370.213 1175.78 2721
376.72 1175.78 2721
383.226 1175.78 2721
389.16 1174.05 2717
396.24 1175.78 2721
407.483 1189.6 2753
414.066 1189.6 2753
420.649 1189.6 2753
427.853 1191.33 2757
434.446 1191.33 2757
441.039 1191.33 2757
445.521 1185.71 2744
452.083 1185.71 2744
458.645 1185.71 2744
464.359 1183.55 2739
474.863 1193.49 2762
484.605 1201.27 2780
493.727 1207.32 2794
500.408 1207.32 2794
511.445 1217.69 2818
520.759 1223.74 2832
531.256 1232.38 2852
538.076 1232.38 2852
546.807 1236.7 2862
555.392 1240.59 2871
562.257 1240.59 2871
569.123 1240.59 2871
577.994 1244.91 2881
584.884 1244.91 2881
593.827 1249.23 2891
600.74 1249.23 2891
607.654 1249.23 2891
617.755 1255.72 2906
624.705 1255.72 2906
631.654 1255.72 2906
642.119 1262.63 2922
649.106 1262.63 2922
656.094 1262.63 2922
660.585 1257.88 2911
667.546 1257.88 2911
671.031 1251.4 2896
674.445 1244.91 2881
681.334 1244.91 2881
688.224 1244.91 2881
686.91 1230.22 2847
675.199 1197.38 2771
681.826 1197.38 2771
686.216 1193.49 2762
699.128 1181.83 2735
705.669 1181.83 2735
712.209 1181.83 2735
715.07 1175.78 2721
718.129 1170.16 2708
725.943 1172.32 2713
732.43 1172.32 2713
738.918 1172.32 2713
745.405 1172.32 2713
751.893 1172.32 2713
748.597 1157.19 2678
751.336 1151.58 2665
756.571 1149.85 2661
762.935 1149.85 2661
769.298 1149.85 2661
790.819 1172.32 2713
801.127 1177.94 2726
810.312 1181.83 2735
816.852 1181.83 2735
823.392 1181.83 2735
831.146 1183.55 2739
841.978 1189.6 2753
848.561 1189.6 2753
859.493 1195.65 2767
866.11 1195.65 2767
875.565 1199.54 2776
883.475 1201.27 2780
890.122 1201.27 2780
899.996 1205.59 2790
907.968 1207.32 2794
917.923 1211.64 2804
924.628 1211.64 2804
935.983 1217.69 2818
944.394 1219.85 2823
954.177 1223.74 2832
960.95 1223.74 2832
967.722 1223.74 2832
974.494 1223.74 2832
981.266 1223.74 2832
981.41 1215.53 2813
988.136 1215.53 2813
994.863 1215.53 2813
1001.59 1215.53 2813
1005.09 1211.64 2804
1008.19 1207.32 2794
1016.68 1209.48 2799
1025.21 1211.64 2804
1031.91 1211.64 2804
1045.65 1219.85 2823
1052.4 1219.85 2823
1059.16 1219.85 2823
1065.91 1219.85 2823
1072.66 1219.85 2823
1077.5 1217.69 2818
1082.31 1215.53 2813
1089.04 1215.53 2813
1094.21 1213.8 2809
1097 1209.48 2799
1101.73 1207.32 2794
1108.41 1207.32 2794
1111.5 1203.43 2785
1118.16 1203.43 2785
1113.51 1191.33 2757
1120.1 1191.33 2757
1126.69 1191.33 2757
1133.29 1191.33 2757
1130.78 1181.83 2735
1135.24 1179.66 2730
1141.77 1179.66 2730
1101.61 1131.7 2619
1246.22 1179.66 2730
1252.75 1179.66 2730
1259.28 1179.66 2730
1253.75 1168.43 2704
1264.41 1172.32 2713
1278.87 1179.66 2730
1285.39 1179.66 2730
1294.29 1181.83 2735
1300.83 1181.83 2735
1307.37 1181.83 2735
1313.91 1181.83 2735
1320.45 1181.83 2735
1331.36 1185.71 2744
1339.87 1187.44 2748
1346.44 1187.44 2748
1357.44 1191.33 2757
1368.98 1195.65 2767
1375.6 1195.65 2767
1382.22 1195.65 2767
1407.4 1211.64 2804
1414.11 1211.64 2804
1423.35 1213.8 2809
1430.06 1213.8 2809
1453.66 1228.06 2842
1485.64 1249.23 2891
1492.55 1249.23 2891
1499.46 1249.23 2891
1589.89 1177.94 2726
1596.41 1177.94 2726
1602.93 1177.94 2726
1609.44 1177.94 2726
1615.96 1177.94 2726
1617.13 1174.05 2717
1621.23 1172.32 2713
1627.72 1172.32 2713
1620.96 1162.81 2691
1616.5 1155.03 2673
1615.61 1149.85 2661
1621.97 1149.85 2661
1628.34 1149.85 2661
1634.7 1149.85 2661
1648.46 1155.03 2673
1654.86 1155.03 2673
1661.25 1155.03 2673
1681.37 1164.54 2695
1687.81 1164.54 2695
1694.26 1164.54 2695
1692.5 1158.92 2682
1723.61 1175.78 2721
1733.3 1177.94 2726
1751.31 1185.71 2744
1778.37 1199.54 2776
1785.01 1199.54 2776
1800.68 1205.59 2790
1822.25 1215.53 2813
1854.34 1232.38 2852
1861.16 1232.38 2852
1886.97 1244.91 2881
1920.81 1262.63 2922
1931.1 1264.79 2927
1938.1 1264.79 2927
1945.1 1264.79 2927
1952.1 1264.79 2927
1959.09 1264.79 2927
1962.74 1262.63 2922
1962.31 1257.88 2911
1962.5 1253.56 2901
1969.44 1253.56 2901
1976.38 1253.56 2901
1979.9 1251.4 2896
1986.82 1251.4 2896
1993.75 1251.4 2896
1993.76 1247.07 2886
1986.8 1238.43 2866
1967.22 1222.01 2828
1967 1217.69 2818
1973.74 1217.69 2818
1974.16 1213.8 2809
1967.47 1205.59 2790
1960.7 1197.38 2771
1967.33 1197.38 2771
1963.98 1191.33 2757
-1951.92 1132.76 2607
-1945.69 1132.76 2607
-1939.46 1132.76 2607
-1933.22 1132.76 2607
-1926.99 1132.76 2607
-1870.88 1132.76 2607
-1918.29 1165.35 2682
-1911.88 1165.35 2682
-1905.46 1165.35 2682
-1899.05 1165.35 2682
-1892.64 1165.35 2682
-1886.22 1165.35 2682
-1846.87 1144.93 2635
-1832.18 1139.71 2623
-1828.7 1141.45 2627
-1822.41 1141.45 2627
-1816.13 1141.45 2627
-1796.07 1132.76 2607
-1789.84 1132.76 2607
-1774.71 1127.11 2594
-1754.87 1118.42 2574
-1746.68 1117.12 2571
-1740.53 1117.12 2571
-1731.68 1115.38 2567
-1725.54 1115.38 2567
-1719.41 1115.38 2567
-1713.27 1115.38 2567
-1704.47 1113.64 2563
-1115.43 1137.97 2619
-1109.17 1137.97 2619
-1102.9 1137.97 2619
-1096.64 1137.97 2619
-1104.81 1159.7 2669
-1098.43 1159.7 2669
-1104.32 1172.73 2699
-1106.82 1182.29 2721
-1100.31 1182.29 2721
-1093.8 1182.29 2721
-1101.68 1197.94 2757
-1123.29 1228.79 2828
-1118.11 1230.52 2832
-1111.33 1230.52 2832
-1106.51 1232.7 2837
-1099.73 1232.7 2837
-1092.94 1232.7 2837
-1086.16 1232.7 2837
-1081.28 1234.87 2842
-1076.37 1237.04 2847
-1069.56 1237.04 2847
-1062.76 1237.04 2847
-1055.95 1237.04 2847
-1052.83 1241.39 2857
-1045.99 1241.39 2857
-1039.16 1241.39 2857
-1028.72 1237.04 2847
-1018.32 1232.7 2837
-1011.53 1232.7 2837
-1004.75 1232.7 2837
-996.208 1230.52 2832
-982.797 1222.27 2813
-976.07 1222.27 2813
-967.965 1220.53 2809
-957.826 1216.19 2799
-952.832 1218.36 2804
-958.949 1234.87 2842
-952.153 1234.87 2842
-945.357 1234.87 2842
-938.561 1234.87 2842
-931.764 1234.87 2842
-920.412 1228.79 2828
-913.649 1228.79 2828
-902.076 1222.27 2813
-895.35 1222.27 2813
-545.368 792.107 1823
-541.008 792.107 1823
-540.77 798.19 1837
-536.378 798.19 1837
-531.985 798.19 1837
-525.294 794.714 1829
-520.921 794.714 1829
-515.982 793.845 1827
-512.173 794.714 1829
-508.355 795.583 1831
-503.976 795.583 1831
-500.144 796.452 1833
-496.301 797.321 1835
-492.449 798.19 1837
-488.057 798.19 1837
-483.664 798.19 1837
-479.271 798.19 1837
-475.912 799.928 1841
-471.51 799.928 1841
-467.107 799.928 1841
-463.208 800.797 1843
-458.8 800.797 1843
-454.393 800.797 1843
-449.986 800.797 1843
-444.612 799.059 1839
-440.214 799.059 1839
-435.817 799.059 1839
-430.481 797.321 1835
-425.628 796.452 1833
-421.245 796.452 1833
-415.042 792.976 1825
-410.678 792.976 1825
-403.642 787.761 1813
-399.307 787.761 1813
-392.575 782.982 1802
-386.111 778.637 1792
-378.204 771.25 1775
-370.799 764.733 1760
-366.59 764.733 1760
-361.146 762.125 1754
-353.696 755.173 1738
-348.735 753.435 1734
-344.589 753.435 1734
-339.461 751.263 1729
-334.162 748.656 1723
-330.042 748.656 1723
-325.922 748.656 1723
-321.802 748.656 1723
-317.682 748.656 1723
-314.289 750.394 1727
-310.878 752.132 1731
-306.739 752.132 1731
-302.599 752.132 1731
-298.977 753.435 1734
-295.171 754.304 1736
-291.019 754.304 1736
-287.199 755.173 1738
-283.368 756.042 1740
-279.368 756.477 1741
-275.521 757.346 1743
-271.353 757.346 1743
-267.798 759.084 1747
-264.224 760.822 1751
-260.482 762.125 1754
-256.288 762.125 1754
-252.668 763.864 1758
-249.171 766.036 1763
-245.511 767.774 1767
-241.286 767.774 1767
-237.597 769.512 1771
-234.416 772.988 1779
-230.809 775.161 1784
-226.543 775.161 1784
-223.024 777.768 1790
-219.477 780.375 1796
-215.422 781.244 1798
-211.122 781.244 1798
-207.283 782.982 1802
-203.537 785.154 1807
-199.657 786.892 1811
-195.326 786.892 1811
-191.206 787.761 1813
-187.283 789.499 1817
-183.341 791.237 1821
-178.986 791.237 1821
-174.823 792.107 1823
-170.651 792.976 1825
-166.287 792.976 1825
-161.923 792.976 1825
-158.422 797.321 1835
-154.538 799.928 1841
-150.462 801.666 1845
-146.05 801.666 1845
-141.638 801.666 1845
-186.556 1206.19 2776
-179.918 1206.19 2776
-173.279 1206.19 2776
-166.341 1204.02 2771
-159.715 1204.02 2771
-152.315 1197.94 2757
-145.722 1197.94 2757
-139.129 1197.94 2757
-132.344 1196.2 2753
-125.761 1196.2 2753
-119.178 1196.2 2753
-112.594 1196.2 2753
-106.011 1196.2 2753
-99.2473 1194.03 2748
-92.676 1194.03 2748
-86.5434 1200.11 2762
-79.9386 1200.11 2762
-73.4666 1202.28 2767
-67.0673 1206.19 2776
-60.5161 1207.93 2780
-53.8683 1207.93 2780
-47.3054 1210.1 2785
-40.777 1214.01 2794
-34.0957 1214.01 2794
-27.4144 1214.01 2794
-20.7331 1214.01 2794
-14.0518 1214.01 2794
-7.37047 1214.01 2794
-0.689172 1214.01 2794
5.97283 1210.1 2785
12.6099 1207.93 2780
19.2577 1207.93 2780
25.9056 1207.93 2780
32.5534 1207.93 2780
39.2012 1207.93 2780
45.9315 1210.1 2785
52.5913 1210.1 2785
59.2511 1210.1 2785
66.0292 1212.27 2790
72.7009 1212.27 2790
79.4864 1214.01 2794
86.1677 1214.01 2794
93.0152 1216.19 2799
99.7085 1216.19 2799
106.592 1218.36 2804
113.297 1218.36 2804
120.002 1218.36 2804
126.933 1220.53 2809
133.651 1220.53 2809
140.368 1220.53 2809
147.085 1220.53 2809
153.802 1220.53 2809
161.034 1224.44 2818
167.772 1224.44 2818
174.511 1224.44 2818
181.25 1224.44 2818
187.988 1224.44 2818
194.381 1222.27 2813
200.465 1218.36 2804
207.17 1218.36 2804
213.875 1218.36 2804
220.187 1216.19 2799
226.151 1212.27 2790
232.405 1210.1 2785
239.065 1210.1 2785
245.284 1207.93 2780
251.932 1207.93 2780
258.579 1207.93 2780
263.987 1202.28 2767
270.604 1202.28 2767
275.317 1194.03 2748
282.401 1196.2 2753
289.404 1197.94 2757
295.997 1197.94 2757
302.59 1197.94 2757
309.183 1197.94 2757
315.775 1197.94 2757
322.368 1197.94 2757
327.887 1194.03 2748
333.972 1192.29 2744
340.533 1192.29 2744
347.095 1192.29 2744
346.826 1169.26 2691
353.261 1169.26 2691
357.29 1161.44 2673
363.682 1161.44 2673
370.074 1161.44 2673
376.466 1161.44 2673
384.72 1167.09 2686
395.657 1180.56 2717
406.151 1192.29 2744
412.713 1192.29 2744
419.274 1192.29 2744
425.836 1192.29 2744
432.398 1192.29 2744
438.959 1192.29 2744
443.248 1186.2 2730
448.294 1182.29 2721
454.8 1182.29 2721
460.629 1180.56 2717
470.221 1188.38 2735
482.339 1202.28 2767
492.137 1210.1 2785
498.796 1210.1 2785
507.09 1214.01 2794
518.184 1224.44 2818
527.531 1230.52 2832
534.303 1230.52 2832
544.896 1239.21 2852
553.651 1243.56 2862
560.495 1243.56 2862
567.339 1243.56 2862
574.985 1245.3 2866
582.854 1247.47 2871
590.746 1249.64 2876
597.623 1249.64 2876
606.603 1253.99 2886
614.567 1256.16 2891
624.705 1262.68 2906
631.654 1262.68 2906
638.603 1262.68 2906
646.663 1264.85 2911
653.624 1264.85 2911
660.585 1264.85 2911
666.399 1262.68 2906
669.873 1256.16 2891
670.934 1245.3 2866
677.787 1245.3 2866
680.102 1237.04 2847
675.329 1216.19 2799
675.199 1204.02 2771
681.826 1204.02 2771
686.216 1200.11 2762
690.563 1196.2 2753
691.322 1186.2 2730
697.85 1186.2 2730
704.378 1186.2 2730
708.563 1182.29 2721
711.653 1176.65 2708
713.621 1169.26 2691
723.534 1174.91 2704
730 1174.91 2704
736.467 1174.91 2704
739.361 1169.26 2691
745.796 1169.26 2691
748.597 1163.61 2678
751.336 1157.96 2665
754.012 1152.31 2652
762.935 1156.22 2661
769.298 1156.22 2661
789.361 1176.65 2708
798.482 1180.56 2717
807.645 1184.47 2726
814.164 1184.47 2726
820.683 1184.47 2726
828.415 1186.2 2730
836.473 1188.38 2735
845.787 1192.29 2744
852.349 1192.29 2744
861.728 1196.2 2753
872.727 1202.28 2767
879.343 1202.28 2767
885.96 1202.28 2767
895.48 1206.19 2776
902.118 1206.19 2776
911.703 1210.1 2785
918.363 1210.1 2785
931.333 1218.36 2804
942.722 1224.44 2818
949.461 1224.44 2818
956.199 1224.44 2818
962.938 1224.44 2818
967.956 1222.27 2813
974.683 1222.27 2813
978.27 1218.36 2804
976.544 1207.93 2780
981.777 1206.19 2776
988.416 1206.19 2776
991.828 1202.28 2767
993.393 1196.2 2753
1005.06 1202.28 2767
1018.26 1210.1 2785
1024.92 1210.1 2785
1031.58 1210.1 2785
1041.59 1214.01 2794
1048.28 1214.01 2794
1056.84 1216.19 2799
1063.54 1216.19 2799
1070.23 1216.19 2799
1076.92 1216.19 2799
1083.62 1216.19 2799
1090.31 1216.19 2799
1089.56 1207.93 2780
1091.08 1202.28 2767
1097.7 1202.28 2767
1100.32 1197.94 2757
1106.91 1197.94 2757
1111.89 1196.2 2753
1118.47 1196.2 2753
1123.01 1194.03 2748
1129.59 1194.03 2748
1132.44 1190.11 2739
1135.24 1186.2 2730
1141.77 1186.2 2730
1103.29 1139.71 2623
1106.18 1136.24 2615
1128.17 1152.31 2652
1134.52 1152.31 2652
1140.86 1152.31 2652
1228.89 1163.61 2678
1235.29 1163.61 2678
1243.55 1165.35 2682
1257.89 1172.73 2699
1266.69 1174.91 2704
1273.15 1174.91 2704
1291.92 1186.2 2730
1298.45 1186.2 2730
1304.98 1186.2 2730
1311.51 1186.2 2730
1318.03 1186.2 2730
1324.56 1186.2 2730
1337.92 1192.29 2744
1344.48 1192.29 2744
1353.01 1194.03 2748
1362.06 1196.2 2753
1368.64 1196.2 2753
1375.22 1196.2 2753
1383.81 1197.94 2757
1390.41 1197.94 2757
1408.65 1207.93 2780
1415.3 1207.93 2780
1421.95 1207.93 2780
1428.6 1207.93 2780
1433.18 1206.19 2776
1439.82 1206.19 2776
1436.56 1197.94 2757
1589.89 1184.47 2726
1596.41 1184.47 2726
1602.93 1184.47 2726
1609.44 1184.47 2726
1615.96 1184.47 2726
1617.13 1180.56 2717
1615.85 1174.91 2704
1622.32 1174.91 2704
1615.53 1165.35 2682
1614.09 1159.7 2669
1615.61 1156.22 2661
1621.97 1156.22 2661
1628.34 1156.22 2661
1631.63 1154.05 2656
1637.98 1154.05 2656
1644.33 1154.05 2656
1650.68 1154.05 2656
1667.64 1161.44 2673
1674.03 1161.44 2673
1683.57 1163.61 2678
1692.5 1165.35 2682
1698.91 1165.35 2682
1716.13 1172.73 2699
1739.82 1184.47 2726
1746.34 1184.47 2726
1752.86 1184.47 2726
1779.38 1197.94 2757
1804.11 1210.1 2785
1828.98 1222.27 2813
1835.7 1222.27 2813
1864.7 1237.04 2847
1878.08 1241.39 2857
1924.5 1267.46 2917
1931.47 1267.46 2917
1941.77 1269.63 2922
1948.76 1269.63 2922
1955.75 1269.63 2922
1959.38 1267.46 2917
1958.94 1262.68 2906
1962.5 1260.51 2901
1969.44 1260.51 2901
1976.38 1260.51 2901
1979.9 1258.33 2896
1986.82 1258.33 2896
1993.75 1258.33 2896
1993.76 1253.99 2886
1970.16 1234.87 2842
1967.22 1228.79 2828
1963.51 1222.27 2813
1970.24 1222.27 2813
1970.64 1218.36 2804
1957.6 1206.19 2776
1950.8 1197.94 2757
1957.39 1197.94 2757
-1954.92 1140.75 2611
-1948.68 1140.75 2611
-1966.98 1155.17 2644
-1960.66 1155.17 2644
-1963.21 1160.41 2656
-1956.86 1160.41 2656
-1950.5 1160.41 2656
-1956.32 1187.06 2717
-1949.82 1187.06 2717
-1943.32 1187.06 2717
-1930.41 1183.13 2708
-1923.94 1183.13 2708
-1917.46 1183.13 2708
-1910.98 1183.13 2708
-1895.37 1177.45 2695
-1879.81 1171.77 2682
-1858.73 1162.6 2661
-1852.36 1162.6 2661
-1831.43 1153.42 2640
-1816.13 1147.74 2627
-1804.34 1144.25 2619
-1798.08 1144.25 2619
-1774.71 1133.33 2594
-1752.83 1123.28 2571
-1730.37 1112.79 2547
-1735.11 1119.78 2563
-1728.98 1119.78 2563
-1725.54 1121.53 2567
-1719.41 1121.53 2567
-1713.27 1121.53 2567
-1704.47 1119.78 2563
-1121.66 1131.58 2590
-1115.46 1131.58 2590
-1116.55 1139.01 2607
-1115.43 1144.25 2619
-1112.55 1147.74 2627
-1106.27 1147.74 2627
-1112.13 1160.41 2656
-1111.19 1166.09 2669
-1110.19 1171.77 2682
-1103.78 1171.77 2682
-1104.32 1179.2 2699
-1106.82 1188.81 2721
-1105.97 1194.93 2735
-1099.43 1194.93 2735
-1105.68 1208.91 2767
-1115.74 1227.26 2809
-1109.03 1227.26 2809
-1102.31 1227.26 2809
-1103 1235.56 2828
-1096.24 1235.56 2828
-1089.48 1235.56 2828
-1080.8 1233.38 2823
-1075.95 1235.56 2828
-1072.59 1239.49 2837
-1065.81 1239.49 2837
-1059.02 1239.49 2837
-1052.24 1239.49 2837
-1049.14 1243.86 2847
-1042.33 1243.86 2847
-1035.52 1243.86 2847
-1026.91 1241.68 2842
-1018.32 1239.49 2837
-1011.53 1239.49 2837
-1004.75 1239.49 2837
-988.117 1227.26 2809
-981.4 1227.26 2809
-974.683 1227.26 2809
-959.695 1216.77 2785
-953.035 1216.77 2785
-951.133 1222.89 2799
-949.164 1229.01 2813
-942.437 1229.01 2813
-942.03 1237.31 2832
-935.258 1237.31 2832
-928.486 1237.31 2832
-917.157 1231.19 2818
-908.803 1229.01 2813
-895.983 1220.71 2794
-889.302 1220.71 2794
-541.359 803.464 1839
-536.962 803.464 1839
-532.564 803.464 1839
-527.592 802.59 1837
-520.921 799.095 1829
-516.547 799.095 1829
-512.733 799.969 1831
-508.91 800.843 1833
-504.527 800.843 1833
-500.689 801.716 1835
-496.842 802.59 1837
-492.449 802.59 1837
-488.057 802.59 1837
-483.664 802.59 1837
-479.793 803.464 1839
-475.912 804.338 1841
-471.51 804.338 1841
-467.107 804.338 1841
-463.208 805.212 1843
-458.8 805.212 1843
-454.393 805.212 1843
-449.986 805.212 1843
-444.612 803.464 1839
-440.214 803.464 1839
-435.817 803.464 1839
-430.95 802.59 1837
-425.628 800.843 1833
-421.245 800.843 1833
-415.497 798.221 1827
-410.678 797.347 1825
-403.642 792.104 1813
-399.307 792.104 1813
-392.575 787.299 1802
-386.111 782.93 1792
-378.204 775.502 1775
-371.221 769.822 1762
-367.007 769.822 1762
-361.146 766.327 1754
-354.103 760.211 1740
-348.735 757.589 1734
-344.589 757.589 1734
-339.461 755.405 1729
-334.55 753.657 1725
-330.042 752.783 1723
-325.922 752.783 1723
-321.802 752.783 1723
-318.05 753.657 1725
-314.289 754.531 1727
-310.878 756.278 1731
-306.739 756.278 1731
-302.599 756.278 1731
-298.977 757.589 1734
-295.171 758.463 1736
-291.019 758.463 1736
-287.199 759.337 1738
-283.368 760.211 1740
-279.368 760.647 1741
-275.521 761.521 1743
-271.353 761.521 1743
-267.798 763.269 1747
-263.922 764.143 1749
-260.185 765.453 1752
-255.995 765.453 1752
-252.381 767.201 1756
-248.747 768.949 1760
-244.955 770.259 1763
-240.739 770.259 1763
-237.597 773.755 1771
-234.152 776.376 1777
-230.809 779.434 1784
-226.543 779.434 1784
-223.024 782.056 1790
-219.477 784.677 1796
-215.422 785.551 1798
-211.122 785.551 1798
-207.283 787.299 1802
-203.537 789.483 1807
-199.657 791.231 1811
-195.326 791.231 1811
-191.206 792.104 1813
-187.283 793.852 1817
-183.341 795.6 1821
-178.986 795.6 1821
-174.823 796.474 1823
-170.651 797.347 1825
-166.287 797.347 1825
-161.923 797.347 1825
-158.422 801.716 1835
-154.538 804.338 1841
-150.462 806.085 1845
-146.05 806.085 1845
-141.638 806.085 1845
-186.556 1212.84 2776
-179.918 1212.84 2776
-173.279 1212.84 2776
-166.341 1210.66 2771
-158.908 1204.54 2757
-152.094 1202.79 2753
-145.511 1202.79 2753
-138.927 1202.79 2753
-132.104 1200.61 2748
-125.761 1202.79 2753
-119.178 1202.79 2753
-112.594 1202.79 2753
-106.011 1202.79 2753
-99.2473 1200.61 2748
-92.676 1200.61 2748
-86.5434 1206.73 2762
-79.9386 1206.73 2762
-73.4666 1208.91 2767
-66.9465 1210.66 2771
-60.4291 1212.84 2776
-53.7908 1212.84 2776
-47.2205 1214.59 2780
-40.6456 1216.77 2785
-34.0957 1220.71 2794
-27.4144 1220.71 2794
-20.7331 1220.71 2794
-14.0518 1220.71 2794
-7.37047 1220.71 2794
-0.689172 1220.71 2794
5.97283 1216.77 2785
12.6099 1214.59 2780
19.2577 1214.59 2780
25.9056 1214.59 2780
32.5066 1212.84 2776
39.1448 1212.84 2776
45.7831 1212.84 2776
52.4213 1212.84 2776
59.0596 1212.84 2776
65.9108 1216.77 2785
72.5706 1216.77 2785
79.2304 1216.77 2785
85.8902 1216.77 2785
92.55 1216.77 2785
99.5303 1220.71 2794
106.212 1220.71 2794
112.893 1220.71 2794
119.574 1220.71 2794
126.256 1220.71 2794
132.937 1220.71 2794
139.618 1220.71 2794
146.299 1220.71 2794
153.528 1225.07 2804
160.519 1227.26 2809
167.236 1227.26 2809
173.954 1227.26 2809
180.671 1227.26 2809
187.388 1227.26 2809
193.414 1222.89 2799
199.75 1220.71 2794
206.431 1220.71 2794
213.112 1220.71 2794
219.479 1218.96 2790
225.34 1214.59 2780
231.654 1212.84 2776
237.863 1210.66 2771
244.49 1210.66 2771
250.753 1208.91 2767
256.905 1206.73 2762
262.174 1200.61 2748
268.746 1200.61 2748
273.513 1192.74 2730
280.042 1192.74 2730
286.57 1192.74 2730
293.098 1192.74 2730
299.626 1192.74 2730
306.155 1192.74 2730
311.194 1187.06 2717
317.691 1187.06 2717
324.188 1187.06 2717
329.103 1181.38 2704
335.569 1181.38 2704
342.035 1181.38 2704
346.826 1175.7 2691
353.261 1175.7 2691
357.29 1167.84 2673
363.682 1167.84 2673
370.074 1167.84 2673
376.466 1167.84 2673
384.72 1173.52 2686
395.657 1187.06 2717
406.151 1198.86 2744
412.713 1198.86 2744
419.274 1198.86 2744
425.836 1198.86 2744
432.398 1198.86 2744
438.959 1198.86 2744
443.248 1192.74 2730
448.294 1188.81 2721
454.8 1188.81 2721
460.629 1187.06 2717
470.221 1194.93 2735
482.339 1208.91 2767
492.137 1216.77 2785
498.796 1216.77 2785
507.09 1220.71 2794
518.184 1231.19 2818
527.531 1237.31 2832
534.303 1237.31 2832
544.896 1246.05 2852
553.651 1250.42 2862
560.495 1250.42 2862
567.339 1250.42 2862
574.985 1252.16 2866
582.854 1254.35 2871
