ply
format ascii 1.0
comment File generated
element vertex 2262
property float x
property float y
property float z
end_header
384.888 1241.23 2780
392.24 1243.46 2785
398.9 1243.46 2785
405.56 1243.46 2785
412.219 1243.46 2785
418.879 1243.46 2785
424.775 1241.23 2780
430.026 1237.21 2771
436.652 1237.21 2771
443.279 1237.21 2771
449.905 1237.21 2771
455.872 1235.42 2767
463.993 1239.44 2776
470.632 1239.44 2776
479.677 1245.69 2790
487.046 1247.48 2794
493.727 1247.48 2794
500.408 1247.48 2794
507.09 1247.48 2794
512.116 1243.46 2785
518.776 1243.46 2785
521.096 1233.19 2762
527.701 1233.19 2762
533.339 1230.96 2757
539.931 1230.96 2757
546.524 1230.96 2757
553.117 1230.96 2757
559.71 1230.96 2757
565.481 1229.17 2753
572.064 1229.17 2753
578.648 1229.17 2753
583.318 1225.15 2744
587.945 1221.14 2735
594.485 1221.14 2735
601.025 1221.14 2735
605.566 1217.12 2726
609.166 1211.31 2713
615.653 1211.31 2713
620.077 1207.29 2704
628.629 1211.31 2713
636.989 1214.88 2721
643.496 1214.88 2721
650.002 1214.88 2721
658.681 1218.9 2730
666.427 1221.14 2735
673.952 1222.92 2739
680.501 1222.92 2739
688.305 1225.15 2744
695.88 1226.94 2748
702.451 1226.94 2748
709.023 1226.94 2748
715.594 1226.94 2748
718.749 1221.14 2735
723.963 1218.9 2730
730.491 1218.9 2730
735.94 1217.12 2726
738.918 1211.31 2713
745.405 1211.31 2713
751.893 1211.31 2713
758.381 1211.31 2713
764.868 1211.31 2713
767.375 1205.06 2699
773.83 1205.06 2699
776.525 1199.26 2686
782.948 1199.26 2686
789.371 1199.26 2686
795.794 1199.26 2686
802.217 1199.26 2686
806.232 1195.69 2678
809.905 1191.67 2669
812.311 1185.86 2656
818.663 1185.86 2656
823.771 1184.08 2652
830.113 1184.08 2652
832.67 1178.72 2640
838.983 1178.72 2640
841.134 1172.92 2627
840.964 1163.99 2607
845.898 1162.2 2603
854.742 1165.77 2611
860.986 1165.77 2611
871.215 1171.13 2623
877.487 1171.13 2623
883.76 1171.13 2623
890.032 1171.13 2623
958.134 1193.45 2673
964.526 1193.45 2673
985.447 1211.31 2713
993.397 1213.1 2717
1003.21 1217.12 2726
1009.72 1217.12 2726
1021.09 1222.92 2739
1027.64 1222.92 2739
1034.19 1222.92 2739
1040.74 1222.92 2739
1047.29 1222.92 2739
1048.84 1217.12 2726
1055.36 1217.12 2726
1061.87 1217.12 2726
1068.39 1217.12 2726
1072.94 1214.88 2721
1079.45 1214.88 2721
1085.95 1214.88 2721
1092.46 1214.88 2721
1081.6 1195.69 2678
1089.63 1197.47 2682
1105.03 1207.29 2704
1111.5 1207.29 2704
1124.99 1214.88 2721
1137.32 1221.14 2735
1143.86 1221.14 2735
1150.4 1221.14 2735
1164.56 1229.17 2753
1171.14 1229.17 2753
1177.72 1229.17 2753
1182.16 1226.94 2748
1188.73 1226.94 2748
1195.3 1226.94 2748
1201.87 1226.94 2748
1202.72 1221.14 2735
1191.58 1203.28 2695
1194.02 1199.26 2686
1200.45 1199.26 2686
1206.87 1199.26 2686
1223.23 1209.08 2708
1251.96 1230.96 2757
1260.83 1233.19 2762
1267.44 1233.19 2762
1274.04 1233.19 2762
1278.33 1230.96 2757
1272.34 1218.9 2730
1278.87 1218.9 2730
1283.51 1217.12 2726
1290.03 1217.12 2726
1296.55 1217.12 2726
1303.07 1217.12 2726
1305.26 1213.1 2717
1320.45 1221.14 2735
1328.93 1222.92 2739
1339.87 1226.94 2748
1346.44 1226.94 2748
1353.01 1226.94 2748
1348.7 1217.12 2726
1355.22 1217.12 2726
1352.74 1209.08 2708
1350.69 1201.49 2691
1354.6 1199.26 2686
1352.41 1191.67 2669
1358.79 1191.67 2669
1365.17 1191.67 2669
1369.5 1189.88 2665
1375.87 1189.88 2665
1382.25 1189.88 2665
1388.62 1189.88 2665
1394.99 1189.88 2665
1394.53 1184.08 2652
1400.87 1184.08 2652
1402.97 1180.51 2644
1400.23 1172.92 2627
1406.51 1172.92 2627
1412.79 1172.92 2627
1406.11 1162.2 2603
1412.33 1162.2 2603
1422.92 1165.77 2611
1433.54 1169.34 2619
1446.4 1174.7 2631
1452.69 1174.7 2631
1458.98 1174.7 2631
1458.59 1169.34 2619
1464.85 1169.34 2619
1466.62 1165.77 2611
1470.61 1163.99 2607
1460.42 1151.04 2578
1471.13 1154.61 2586
1477.32 1154.61 2586
1495.55 1163.99 2607
1508.69 1169.34 2619
1514.96 1169.34 2619
1521.22 1169.34 2619
1527.48 1169.34 2619
1533.75 1169.34 2619
1544.71 1172.92 2627
1550.99 1172.92 2627
1557.28 1172.92 2627
1563.56 1172.92 2627
1569.84 1172.92 2627
1580.92 1176.49 2635
1587.22 1176.49 2635
1593.52 1176.49 2635
1636.25 1203.28 2695
1642.7 1203.28 2695
1649.14 1203.28 2695
1661.12 1207.29 2704
1683.62 1218.9 2730
1693.24 1221.14 2735
1699.78 1221.14 2735
1706.32 1221.14 2735
1712.86 1221.14 2735
1719.4 1221.14 2735
1722.79 1218.9 2730
1726.78 1217.12 2726
1730.12 1214.88 2721
1736.63 1214.88 2721
1743.13 1214.88 2721
1711.06 1188.1 2661
1682.57 1163.99 2607
1688.81 1163.99 2607
1695.04 1163.99 2607
1698.66 1162.2 2603
1704.89 1162.2 2603
1702.57 1156.4 2590
1708.76 1156.4 2590
1714.95 1156.4 2590
1721.15 1156.4 2590
1727.34 1156.4 2590
1722.83 1149.25 2574
1728.98 1149.25 2574
1711.54 1133.62 2539
1702.05 1123.36 2516
1705.36 1121.57 2512
1711.36 1121.57 2512
1717.37 1121.57 2512
1715.83 1116.66 2501
1724.56 1118.44 2505
1733.32 1120.23 2509
1746.94 1125.14 2520
1752.97 1125.14 2520
1777.84 1137.2 2547
1789.54 1140.77 2555
1795.64 1140.77 2555
1801.75 1140.77 2555
1807.86 1140.77 2555
1868.37 1147.91 2571
1879.62 1151.04 2578
1915.78 1169.34 2619
1922.04 1169.34 2619
1943.77 1178.72 2640
1950.08 1178.72 2640
1956.39 1178.72 2640
1928.51 1158.18 2594
-1330.39 1177.41 2623
-1332.7 1185.04 2640
-1338.95 1196.27 2665
-1332.58 1196.27 2665
-1326.2 1196.27 2665
-1281.23 1207.94 2691
-1287.11 1219.61 2717
-1280.61 1219.61 2717
-1286.78 1231.73 2744
-1290.95 1242.05 2767
-1286.19 1243.85 2771
-1279.56 1243.85 2771
-1272.93 1243.85 2771
-1266.31 1243.85 2771
-1259.68 1243.85 2771
-1253.05 1243.85 2771
-1242.38 1239.81 2762
-1231.75 1235.77 2753
-1225.16 1235.77 2753
-1216.37 1233.52 2748
-1197.91 1221.4 2721
-1187.9 1217.81 2713
-1183.16 1219.61 2717
-1190.08 1233.52 2748
-1183.51 1233.52 2748
-1188.93 1246.09 2776
-1194.22 1258.66 2804
-1187.51 1258.66 2804
-1182.91 1260.9 2809
-1179.97 1264.94 2818
-1173.23 1264.94 2818
-1166.49 1264.94 2818
-1156.05 1260.9 2809
-948.538 1155.42 2574
-951.536 1166.64 2599
-948.23 1170.23 2607
-947.778 1177.41 2623
-941.505 1177.41 2623
-938.085 1181 2631
-931.794 1181 2631
-925.502 1181 2631
-920.608 1182.8 2635
-917.43 1186.84 2644
-915.242 1192.23 2656
-919.157 1205.69 2686
-923.268 1219.61 2717
-918.121 1221.4 2721
-911.614 1221.4 2721
-905.107 1221.4 2721
-894.307 1215.57 2708
-887.832 1215.57 2708
-874.196 1205.69 2686
-865.188 1202.1 2678
-857.181 1199.86 2673
-848.243 1196.27 2665
-841.87 1196.27 2665
-835.497 1196.27 2665
-837.213 1207.94 2691
-830.778 1207.94 2691
-824.343 1207.94 2691
-517.677 822.797 1833
-513.853 823.695 1835
-510.576 825.491 1839
-506.178 825.491 1839
-501.781 825.491 1839
-497.924 826.388 1841
-493.522 826.388 1841
-489.119 826.388 1841
-485.243 827.286 1843
-480.836 827.286 1843
-476.429 827.286 1843
-472.022 827.286 1843
-467.615 827.286 1843
-463.71 828.184 1845
-459.298 828.184 1845
-454.886 828.184 1845
-450.474 828.184 1845
-446.062 828.184 1845
-441.651 828.184 1845
-436.765 827.286 1843
-432.357 827.286 1843
-427.486 826.388 1841
-423.083 826.388 1841
-416.862 822.797 1833
-412.028 821.9 1831
-405.424 817.411 1821
-401.069 817.411 1821
-394.972 813.82 1813
-388.912 810.229 1805
-381.826 804.393 1792
-375.013 799.007 1780
-370.756 799.007 1780
-365.058 795.865 1773
-356.952 787.336 1754
-350.545 782.398 1743
-346.377 782.398 1743
-341.62 781.052 1740
-335.908 777.46 1732
-331.575 777.012 1731
-327.435 777.012 1731
-322.922 776.114 1729
-318.419 775.216 1727
-314.653 776.114 1729
-310.878 777.012 1731
-306.739 777.012 1731
-302.599 777.012 1731
-298.977 778.358 1734
-295.171 779.256 1736
-291.019 779.256 1736
-286.868 779.256 1736
-282.717 779.256 1736
-279.207 781.052 1740
-275.204 781.5 1741
-271.041 781.5 1741
-267.491 783.296 1745
-263.922 785.091 1749
-259.74 785.091 1749
-255.557 785.091 1749
-252.093 787.336 1754
-248.464 789.131 1758
-244.816 790.927 1762
-240.603 790.927 1762
-236.523 791.376 1763
-233.362 794.967 1771
-230.55 799.904 1782
-226.289 799.904 1782
-222.775 802.598 1788
-219.232 805.291 1794
-215.422 807.087 1798
-211.122 807.087 1798
-207.053 807.984 1800
-203.199 809.78 1804
-199.216 811.126 1807
-194.895 811.126 1807
-190.995 812.922 1811
-186.871 813.82 1813
-182.737 814.718 1815
-178.397 814.718 1815
-174.248 815.615 1817
-169.903 815.615 1817
-165.558 815.615 1817
-161.036 814.718 1815
-192.418 1199.86 2673
-186.931 1205.69 2686
-180.508 1205.69 2686
-174.085 1205.69 2686
-167.662 1205.69 2686
-161.239 1205.69 2686
-154.815 1205.69 2686
-147.95 1202.1 2678
-141.282 1199.86 2673
-134.89 1199.86 2673
-128.498 1199.86 2673
-122.106 1199.86 2673
-116.104 1203.9 2682
-109.854 1205.69 2686
-103.431 1205.69 2686
-97.6582 1213.77 2704
-91.1921 1213.77 2704
-85.0081 1217.81 2713
-78.5205 1217.81 2713
-72.1391 1219.61 2717
-65.956 1225.44 2730
-59.5365 1227.69 2735
-52.9963 1227.69 2735
-46.4561 1227.69 2735
-39.9159 1227.69 2735
-33.3757 1227.69 2735
-26.8355 1227.69 2735
-20.3917 1233.52 2748
-13.8657 1237.56 2757
-7.28606 1239.81 2762
-0.681279 1239.81 2762
5.9235 1239.81 2762
12.5283 1239.81 2762
19.1331 1239.81 2762
25.6074 1233.52 2748
32.0265 1227.69 2735
38.1859 1215.57 2708
44.6616 1215.57 2708
51.1372 1215.57 2708
57.2512 1207.94 2691
63.4732 1203.9 2682
69.4437 1196.27 2665
75.8165 1196.27 2665
82.066 1194.47 2661
88.4292 1194.47 2661
94.935 1196.27 2665
102.106 1205.69 2686
108.529 1205.69 2686
115.166 1207.94 2691
121.782 1209.73 2695
128.226 1209.73 2695
134.671 1209.73 2695
142.268 1219.61 2717
148.765 1219.61 2717
156.291 1227.69 2735
162.831 1227.69 2735
169.371 1227.69 2735
175.911 1227.69 2735
182.451 1227.69 2735
188.992 1227.69 2735
194.888 1223.65 2726
201.407 1223.65 2726
207.926 1223.65 2726
214.444 1223.65 2726
220.963 1223.65 2726
227.482 1223.65 2726
234.001 1223.65 2726
240.519 1223.65 2726
246.585 1221.4 2721
252.719 1219.61 2717
258.835 1217.81 2713
265.323 1217.81 2713
271.309 1215.57 2708
277.785 1215.57 2708
284.261 1215.57 2708
290.736 1215.57 2708
297.212 1215.57 2708
303.239 1213.77 2704
309.705 1213.77 2704
317.691 1219.61 2717
324.188 1219.61 2717
332.268 1225.44 2730
339.913 1229.48 2739
347.601 1233.52 2748
354.172 1233.52 2748
360.744 1233.52 2748
367.983 1235.77 2753
374.567 1235.77 2753
381.704 1237.56 2757
388.296 1237.56 2757
395.605 1239.81 2762
402.938 1242.05 2767
409.555 1242.05 2767
416.172 1242.05 2767
422.789 1242.05 2767
428.629 1239.81 2762
435.234 1239.81 2762
440.399 1235.77 2753
446.982 1235.77 2753
453.566 1235.77 2753
461.653 1239.81 2762
468.258 1239.81 2762
477.27 1246.09 2776
484.605 1247.89 2780
491.253 1247.89 2780
497.901 1247.89 2780
504.549 1247.89 2780
509.542 1243.85 2771
516.168 1243.85 2771
519.398 1235.77 2753
524.262 1231.73 2744
530.824 1231.73 2744
537.385 1231.73 2744
543.947 1231.73 2744
548.703 1227.69 2735
555.244 1227.69 2735
562.605 1229.48 2739
569.155 1229.48 2739
575.705 1229.48 2739
580.342 1225.44 2730
586.01 1223.65 2726
592.529 1223.65 2726
597.949 1221.4 2721
603.567 1219.61 2717
604.226 1207.94 2691
610.661 1207.94 2691
617.096 1207.94 2691
623.531 1207.94 2691
630.902 1209.73 2695
637.347 1209.73 2695
643.791 1209.73 2695
650.236 1209.73 2695
657.655 1211.53 2699
664.109 1211.53 2699
672.799 1215.57 2708
679.275 1215.57 2708
688.03 1219.61 2717
694.527 1219.61 2717
701.024 1219.61 2717
707.521 1219.61 2717
714.019 1219.61 2717
718.129 1215.57 2708
724.605 1215.57 2708
730 1213.77 2704
730.475 1203.9 2682
736.888 1203.9 2682
743.302 1203.9 2682
749.715 1203.9 2682
755.001 1202.1 2678
756.571 1194.47 2661
766.375 1199.86 2673
772.767 1199.86 2673
781.782 1203.9 2682
788.196 1203.9 2682
794.609 1203.9 2682
798.335 1199.86 2673
803.523 1198.06 2669
804.746 1190.43 2652
811.088 1190.43 2652
817.43 1190.43 2652
823.771 1190.43 2652
823.54 1181 2631
829.831 1181 2631
836.123 1181 2631
837.292 1173.82 2615
836.771 1164.4 2594
842.974 1164.4 2594
854.742 1172.03 2611
860.986 1172.03 2611
868.558 1173.82 2615
874.811 1173.82 2615
881.064 1173.82 2615
887.318 1173.82 2615
958.134 1199.86 2673
964.526 1199.86 2673
985.447 1217.81 2713
993.397 1219.61 2717
1003.21 1223.65 2726
1009.72 1223.65 2726
1021.09 1229.48 2739
1027.64 1229.48 2739
1034.19 1229.48 2739
1040.74 1229.48 2739
1047.29 1229.48 2739
1048.84 1223.65 2726
1055.36 1223.65 2726
1061.87 1223.65 2726
1068.39 1223.65 2726
1072.94 1221.4 2721
1079.45 1221.4 2721
1085.95 1221.4 2721
1092.46 1221.4 2721
1081.6 1202.1 2678
1089.63 1203.9 2682
1105.03 1213.77 2704
1111.5 1213.77 2704
1124.99 1221.4 2721
1137.32 1227.69 2735
1143.86 1227.69 2735
1150.4 1227.69 2735
1164.56 1235.77 2753
1171.14 1235.77 2753
1177.72 1235.77 2753
1182.16 1233.52 2748
1188.73 1233.52 2748
1195.3 1233.52 2748
1201.87 1233.52 2748
1202.72 1227.69 2735
1191.58 1209.73 2695
1194.02 1205.69 2686
1200.45 1205.69 2686
1206.87 1205.69 2686
1223.23 1215.57 2708
1251.96 1237.56 2757
1260.83 1239.81 2762
1267.44 1239.81 2762
1274.04 1239.81 2762
1278.33 1237.56 2757
1272.34 1225.44 2730
1278.87 1225.44 2730
1283.51 1223.65 2726
1290.03 1223.65 2726
1296.55 1223.65 2726
1303.07 1223.65 2726
1305.26 1219.61 2717
1320.45 1227.69 2735
1328.93 1229.48 2739
1339.87 1233.52 2748
1346.44 1233.52 2748
1353.01 1233.52 2748
1348.7 1223.65 2726
1355.22 1223.65 2726
1352.74 1215.57 2708
1350.69 1207.94 2691
1354.6 1205.69 2686
1352.41 1198.06 2669
1358.79 1198.06 2669
1365.17 1198.06 2669
1369.5 1196.27 2665
1375.87 1196.27 2665
1382.25 1196.27 2665
1388.62 1196.27 2665
1394.99 1196.27 2665
1394.53 1190.43 2652
1400.87 1190.43 2652
1407.21 1190.43 2652
1400.23 1179.21 2627
1406.51 1179.21 2627
1412.79 1179.21 2627
1406.11 1168.44 2603
1412.33 1168.44 2603
1422.92 1172.03 2611
1433.54 1175.62 2619
1446.4 1181 2631
1452.69 1181 2631
1458.98 1181 2631
1458.59 1175.62 2619
1464.85 1175.62 2619
1466.62 1172.03 2611
1470.61 1170.23 2607
1460.42 1157.21 2578
1471.13 1160.8 2586
1477.32 1160.8 2586
1495.55 1170.23 2607
1508.69 1175.62 2619
1514.96 1175.62 2619
1521.22 1175.62 2619
1527.48 1175.62 2619
1533.75 1175.62 2619
1544.71 1179.21 2627
1550.99 1179.21 2627
1557.28 1179.21 2627
1563.56 1179.21 2627
1569.84 1179.21 2627
1576.12 1179.21 2627
1582.4 1179.21 2627
1588.69 1179.21 2627
1599.83 1182.8 2635
1614.05 1188.63 2648
1620.38 1188.63 2648
1647.6 1203.9 2682
1667.58 1213.77 2704
1674.05 1213.77 2704
1680.51 1213.77 2704
1703.2 1225.44 2730
1709.73 1225.44 2730
1716.26 1225.44 2730
1708.9 1215.57 2708
1715.38 1215.57 2708
1727.58 1219.61 2717
1734.07 1219.61 2717
1740.57 1219.61 2717
1711.06 1194.47 2661
1682.57 1170.23 2607
1688.81 1170.23 2607
1695.04 1170.23 2607
1679.74 1155.42 2574
1683.93 1154.07 2571
1692.05 1155.42 2574
1698.2 1155.42 2574
1704.36 1155.42 2574
1710.51 1155.42 2574
1712 1152.28 2567
1704.75 1143.3 2547
1710.84 1143.3 2547
1706.82 1136.56 2532
1699.35 1127.59 2512
1703.32 1126.24 2509
1709.32 1126.24 2509
1712.58 1124.44 2505
1715.83 1122.65 2501
1724.56 1124.44 2505
1733.32 1126.24 2509
1746.94 1131.18 2520
1752.97 1131.18 2520
1777.84 1143.3 2547
1789.54 1146.89 2555
1795.64 1146.89 2555
1801.75 1146.89 2555
1807.86 1146.89 2555
1805.45 1141.5 2543
1811.54 1141.5 2543
1838.75 1143.3 2547
1844.84 1143.3 2547
1865.46 1152.28 2567
1871.6 1152.28 2567
1885.79 1157.21 2578
1891.95 1157.21 2578
1909.9 1164.4 2594
1916.1 1164.4 2594
1922.3 1164.4 2594
1928.51 1164.4 2594
-1330.39 1183.7 2623
-1332.7 1191.37 2640
-1338.95 1202.65 2665
-1332.58 1202.65 2665
-1341.13 1216.19 2695
-1356.48 1236.04 2739
-1388.87 1271.69 2818
-1382.13 1271.69 2818
-1380.27 1276.21 2828
-1373.51 1276.21 2828
-1366.74 1276.21 2828
-1270.92 1198.59 2656
-1281.23 1214.38 2691
-1287.11 1226.12 2717
-1280.61 1226.12 2717
-1286.78 1238.3 2744
-1290.95 1248.68 2767
-1286.19 1250.48 2771
-1279.56 1250.48 2771
-1272.93 1250.48 2771
-1266.31 1250.48 2771
-1259.68 1250.48 2771
-1253.05 1250.48 2771
-1242.38 1246.42 2762
-1231.75 1242.36 2753
-1225.16 1242.36 2753
-1216.37 1240.11 2748
-1197.91 1227.92 2721
-1187.9 1224.31 2713
-1183.16 1226.12 2717
-1190.08 1240.11 2748
-1183.51 1240.11 2748
-1188.93 1252.74 2776
-1194.22 1265.38 2804
-1187.51 1265.38 2804
-1182.91 1267.63 2809
-1179.97 1271.69 2818
-1173.23 1271.69 2818
-1166.49 1271.69 2818
-1156.05 1267.63 2809
-961.368 1154.81 2559
-956.742 1156.62 2563
-950.613 1156.62 2563
-948.538 1161.58 2574
-951.536 1172.87 2599
-948.23 1176.48 2607
-947.778 1183.7 2623
-941.505 1183.7 2623
-938.085 1187.31 2631
-931.794 1187.31 2631
-925.502 1187.31 2631
-920.608 1189.11 2635
-917.43 1193.17 2644
-915.242 1198.59 2656
-919.157 1212.13 2686
-923.268 1226.12 2717
-918.121 1227.92 2721
-911.614 1227.92 2721
-905.107 1227.92 2721
-894.307 1222.05 2708
-887.832 1222.05 2708
-874.196 1212.13 2686
-865.188 1208.52 2678
-857.181 1206.26 2673
-848.243 1202.65 2665
-841.87 1202.65 2665
-835.497 1202.65 2665
-837.213 1214.38 2691
-830.778 1214.38 2691
-824.343 1214.38 2691
-787.21 1168.8 2590
-517.677 827.188 1833
-513.853 828.091 1835
-510.576 829.896 1839
-506.178 829.896 1839
-501.781 829.896 1839
-497.924 830.799 1841
-493.522 830.799 1841
-489.119 830.799 1841
-485.243 831.701 1843
-480.836 831.701 1843
-476.429 831.701 1843
-472.022 831.701 1843
-467.615 831.701 1843
-463.71 832.604 1845
-459.298 832.604 1845
-454.886 832.604 1845
-450.474 832.604 1845
-446.062 832.604 1845
-441.651 832.604 1845
-436.765 831.701 1843
-432.357 831.701 1843
-427.486 830.799 1841
-423.083 830.799 1841
-416.862 827.188 1833
-412.028 826.286 1831
-405.424 821.773 1821
-401.069 821.773 1821
-394.972 818.163 1813
-388.912 814.553 1805
-381.826 808.686 1792
-375.013 803.271 1780
-370.756 803.271 1780
-365.058 800.112 1773
-356.952 791.538 1754
-350.545 786.574 1743
-346.377 786.574 1743
-341.62 785.22 1740
-335.908 781.609 1732
-331.575 781.158 1731
-327.435 781.158 1731
-322.922 780.256 1729
-318.419 779.353 1727
-314.653 780.256 1729
-310.878 781.158 1731
-306.739 781.158 1731
-302.599 781.158 1731
-298.977 782.512 1734
-295.171 783.415 1736
-291.019 783.415 1736
-286.868 783.415 1736
-282.717 783.415 1736
-279.207 785.22 1740
-275.204 785.671 1741
-271.041 785.671 1741
-267.185 786.574 1743
-263.922 789.281 1749
-259.74 789.281 1749
-255.557 789.281 1749
-252.093 791.538 1754
-248.464 793.343 1758
-244.816 795.148 1762
-240.603 795.148 1762
-236.523 795.599 1763
-233.362 799.209 1771
-230.55 804.173 1782
-226.289 804.173 1782
-222.775 806.881 1788
-219.477 810.491 1796
-215.422 811.394 1798
-211.122 811.394 1798
-207.053 812.296 1800
-203.311 814.553 1805
-199.657 817.26 1811
-195.326 817.26 1811
-191.206 818.163 1813
-187.077 819.065 1815
-182.737 819.065 1815
-178.397 819.065 1815
-174.248 819.968 1817
-169.903 819.968 1817
-165.558 819.968 1817
-161.036 819.065 1815
-191.842 1202.65 2665
-185.469 1202.65 2665
-179.096 1202.65 2665
-173.566 1208.52 2678
-167.162 1208.52 2678
-160.758 1208.52 2678
-153.605 1202.65 2665
-147.232 1202.65 2665
-141.282 1206.26 2673
-134.89 1206.26 2673
-128.498 1206.26 2673
-122.106 1206.26 2673
-115.931 1208.52 2678
-109.854 1212.13 2686
-103.431 1212.13 2686
-97.6582 1220.25 2704
-91.1921 1220.25 2704
-85.0081 1224.31 2713
-78.5205 1224.31 2713
-72.1391 1226.12 2717
-65.956 1231.98 2730
-59.5365 1234.24 2735
-52.9963 1234.24 2735
-46.4561 1234.24 2735
-39.9159 1234.24 2735
-33.3757 1234.24 2735
-26.7864 1231.98 2730
-20.2582 1231.98 2730
-13.8657 1244.17 2757
-7.28606 1246.42 2762
-0.681279 1246.42 2762
5.9235 1246.42 2762
12.5283 1246.42 2762
19.1331 1246.42 2762
25.4862 1234.24 2735
31.7103 1222.05 2708
38.1859 1222.05 2708
44.2328 1210.32 2682
50.6463 1210.32 2682
57.0597 1210.32 2682
63.0709 1202.65 2665
69.2092 1198.59 2656
75.5605 1198.59 2656
81.9118 1198.59 2656
88.2631 1198.59 2656
94.7925 1200.84 2661
101.46 1204.45 2669
107.842 1204.45 2669
114.952 1212.13 2686
121.601 1214.38 2691
128.226 1216.19 2695
134.671 1216.19 2695
141.116 1216.19 2695
148.765 1226.12 2717
155.776 1230.18 2726
162.295 1230.18 2726
169.061 1231.98 2730
175.59 1231.98 2730
182.118 1231.98 2730
188.646 1231.98 2730
194.888 1230.18 2726
200.742 1226.12 2717
207.239 1226.12 2717
213.736 1226.12 2717
220.234 1226.12 2717
226.731 1226.12 2717
232.885 1224.31 2713
239.372 1224.31 2713
245.86 1224.31 2713
251.882 1222.05 2708
257.976 1220.25 2704
264.442 1220.25 2704
269.606 1214.38 2691
276.041 1214.38 2691
282.476 1214.38 2691
289.77 1217.99 2699
296.224 1217.99 2699
302.678 1217.99 2699
309.705 1220.25 2704
316.171 1220.25 2704
322.637 1220.25 2704
330.199 1224.31 2713
338.3 1230.18 2726
346.463 1236.04 2739
353.012 1236.04 2739
360.219 1238.3 2744
366.78 1238.3 2744
373.342 1238.3 2744
379.904 1238.3 2744
386.466 1238.3 2744
394.889 1244.17 2757
401.482 1244.17 2757
408.075 1244.17 2757
414.668 1244.17 2757
419.885 1240.11 2748
426.457 1240.11 2748
433.028 1240.11 2748
439.599 1240.11 2748
444.709 1236.04 2739
451.259 1236.04 2739
457.809 1236.04 2739
464.359 1236.04 2739
472.456 1240.11 2748
482.339 1248.68 2767
488.956 1248.68 2767
495.573 1248.68 2767
500.374 1244.17 2757
502.922 1234.24 2735
509.462 1234.24 2735
516.002 1234.24 2735
522.542 1234.24 2735
529.083 1234.24 2735
535.623 1234.24 2735
540.379 1230.18 2726
546.898 1230.18 2726
553.416 1230.18 2726
559.935 1230.18 2726
566.454 1230.18 2726
572.973 1230.18 2726
579.491 1230.18 2726
584.075 1226.12 2717
590.572 1226.12 2717
597.07 1226.12 2717
603.567 1226.12 2717
599.286 1204.45 2669
606.576 1206.26 2673
612.968 1206.26 2673
621.445 1210.32 2682
629.966 1214.38 2691
636.401 1214.38 2691
642.836 1214.38 2691
649.271 1214.38 2691
655.706 1214.38 2691
663.125 1216.19 2695
670.563 1217.99 2699
677.018 1217.99 2699
684.738 1220.25 2704
692.226 1222.05 2708
698.702 1222.05 2708
705.178 1222.05 2708
710.602 1220.25 2704
714.682 1216.19 2695
721.126 1216.19 2695
724.061 1210.32 2682
725.844 1202.65 2665
732.217 1202.65 2665
738.59 1202.65 2665
744.963 1202.65 2665
750.208 1200.84 2661
750.601 1191.37 2640
761.501 1198.59 2656
767.852 1198.59 2656
775.661 1200.84 2661
784.375 1204.45 2669
790.758 1204.45 2669
797.14 1204.45 2669
799.609 1198.59 2656
804.746 1196.78 2652
811.088 1196.78 2652
817.43 1196.78 2652
822.529 1194.98 2648
823.54 1187.31 2631
829.831 1187.31 2631
836.123 1187.31 2631
834.73 1176.48 2607
836.771 1170.61 2594
841.674 1168.8 2590
852.123 1174.67 2603
858.347 1174.67 2603
867.229 1178.28 2611
873.473 1178.28 2611
879.717 1178.28 2611
885.96 1178.28 2611
958.134 1206.26 2673
964.526 1206.26 2673
975.64 1212.13 2686
990.106 1222.05 2708
999.894 1226.12 2717
1006.39 1226.12 2717
1014.38 1227.92 2721
1022.76 1230.18 2726
1029.28 1230.18 2726
1035.8 1230.18 2726
1038.88 1226.12 2717
1043.84 1224.31 2713
1050.32 1224.31 2713
1056.81 1224.31 2713
1063.3 1224.31 2713
1067.81 1222.05 2708
1074.29 1222.05 2708
1080.77 1222.05 2708
1087.24 1222.05 2708
1079.58 1206.26 2673
1088 1208.52 2678
1105.03 1220.25 2704
1111.5 1220.25 2704
1123.34 1226.12 2717
1137.32 1234.24 2735
1143.86 1234.24 2735
1150.4 1234.24 2735
1162.44 1240.11 2748
1169.01 1240.11 2748
1175.59 1240.11 2748
1182.16 1240.11 2748
1188.73 1240.11 2748
1195.3 1240.11 2748
1201.87 1240.11 2748
1202.72 1234.24 2735
1191.58 1216.19 2695
1194.02 1212.13 2686
1200.45 1212.13 2686
1206.87 1212.13 2686
1223.23 1222.05 2708
1247.87 1240.11 2748
1258.55 1244.17 2757
1265.14 1244.17 2757
1271.73 1244.17 2757
1274.15 1240.11 2748
1262.08 1222.05 2708
1268.56 1222.05 2708
1275.03 1222.05 2708
1281.51 1222.05 2708
1283.71 1217.99 2699
1292.55 1220.25 2704
1299.02 1220.25 2704
1309.83 1224.31 2713
1320.2 1227.92 2721
1326.7 1227.92 2721
1333.21 1227.92 2721
1339.72 1227.92 2721
1344.24 1226.12 2717
1350.74 1226.12 2717
1352.74 1222.05 2708
1348.18 1212.13 2686
1350.56 1208.52 2678
1345.82 1198.59 2656
1352.17 1198.59 2656
1358.52 1198.59 2656
1369.5 1202.65 2665
1375.87 1202.65 2665
1382.25 1202.65 2665
1388.62 1202.65 2665
1394.99 1202.65 2665
1394.53 1196.78 2652
1400.87 1196.78 2652
1407.21 1196.78 2652
1400.23 1185.5 2627
1406.51 1185.5 2627
1412.79 1185.5 2627
1399.09 1168.8 2590
1405.28 1168.8 2590
1418.56 1174.67 2603
1429.16 1178.28 2611
1439.8 1181.89 2619
1446.07 1181.89 2619
1452.33 1181.89 2619
1451.91 1176.48 2607
1458.14 1176.48 2607
1454.83 1168.8 2590
1454.25 1163.39 2578
1445.12 1151.2 2551
1468.86 1165.19 2582
1475.03 1165.19 2582
1483.5 1167 2586
1497.17 1172.87 2599
1503.39 1172.87 2599
1509.6 1172.87 2599
1515.82 1172.87 2599
1519.1 1170.61 2594
1528.25 1172.87 2599
1539.19 1176.48 2607
1545.42 1176.48 2607
1554.04 1178.28 2611
1562.67 1180.09 2615
1573.72 1183.7 2623
1579.99 1183.7 2623
1588.69 1185.5 2627
1599.83 1189.11 2635
1614.05 1194.98 2648
1620.38 1194.98 2648
1647.6 1210.32 2682
1667.58 1220.25 2704
1674.05 1220.25 2704
1680.51 1220.25 2704
1703.2 1231.98 2730
1709.73 1231.98 2730
1716.26 1231.98 2730
1708.9 1222.05 2708
1715.38 1222.05 2708
1727.58 1226.12 2717
1734.07 1226.12 2717
1740.57 1226.12 2717
1711.06 1200.84 2661
1682.57 1176.48 2607
1688.81 1176.48 2607
1695.04 1176.48 2607
1679.74 1161.58 2574
1683.93 1160.23 2571
1692.05 1161.58 2574
1698.2 1161.58 2574
1704.36 1161.58 2574
1710.51 1161.58 2574
1712 1158.42 2567
1704.75 1149.4 2547
1710.84 1149.4 2547
1706.82 1142.63 2532
1699.35 1133.6 2512
1703.32 1132.25 2509
1709.32 1132.25 2509
1712.58 1130.45 2505
1715.83 1128.64 2501
1724.56 1130.45 2505
1733.32 1132.25 2509
1746.94 1137.21 2520
1752.97 1137.21 2520
1777.84 1149.4 2547
1789.54 1153.01 2555
1795.64 1153.01 2555
1801.75 1153.01 2555
1807.86 1153.01 2555
1805.45 1147.59 2543
1811.54 1147.59 2543
1804.04 1139.02 2524
1812.94 1140.82 2528
1826.9 1145.79 2539
1838.75 1149.4 2547
1844.84 1149.4 2547
1865.46 1158.42 2567
1871.6 1158.42 2567
1885.79 1163.39 2578
1891.95 1163.39 2578
1909.9 1170.61 2594
1916.1 1170.61 2594
1922.3 1170.61 2594
1928.51 1170.61 2594
-1375.12 1207.22 2661
-1368.76 1207.22 2661
-1362.39 1207.22 2661
-1356.03 1207.22 2661
-1351.7 1209.03 2665
-1345.32 1209.03 2665
-1354.02 1222.64 2695
-1347.58 1222.64 2695
-1341.13 1222.64 2695
-1356.48 1242.61 2739
-1388.87 1278.45 2818
-1382.13 1278.45 2818
-1380.27 1282.98 2828
-1373.51 1282.98 2828
-1366.74 1282.98 2828
-1270.92 1204.95 2656
-1281.23 1220.83 2691
-1285.22 1230.81 2713
-1278.73 1230.81 2713
-1274.12 1232.62 2717
-1277.88 1242.61 2739
-1275.51 1246.69 2748
-1268.94 1246.69 2748
-1262.37 1246.69 2748
-1255.8 1246.69 2748
-1249.22 1246.69 2748
-1242.65 1246.69 2748
-1234.28 1244.87 2744
-1223.69 1240.79 2735
-1217.15 1240.79 2735
-1204.42 1234.44 2721
-1194.39 1230.81 2713
-1183.96 1226.73 2704
-1177.49 1226.73 2704
-1178.39 1234.44 2721
-1171.88 1234.44 2721
-1179.08 1248.96 2753
-1188.26 1265.74 2790
-1181.59 1265.74 2790
-1178.7 1269.83 2799
-1172.01 1269.83 2799
-1165.32 1269.83 2799
-1158.62 1269.83 2799
-961.368 1160.94 2559
-956.742 1162.76 2563
-950.613 1162.76 2563
-948.538 1167.75 2574
-951.536 1179.09 2599
-948.23 1182.72 2607
-941.996 1182.72 2607
-935.762 1182.72 2607
-935.233 1189.98 2623
-928.96 1189.98 2623
-922.688 1189.98 2623
-919.211 1193.61 2631
-914.307 1195.42 2635
-915.242 1204.95 2656
-908.891 1204.95 2656
-912.734 1218.56 2686
-913.734 1228.54 2708
-907.259 1228.54 2708
-900.783 1228.54 2708
-887.042 1218.56 2686
-873.734 1209.03 2665
-867.361 1209.03 2665
-860.988 1209.03 2665
-851.729 1204.95 2656
-842.832 1201.32 2648
-839.027 1204.95 2656
-832.676 1204.95 2656
-826.324 1204.95 2656
-819.973 1204.95 2656
-813.622 1204.95 2656
-787.21 1175.01 2590
-517.677 831.579 1833
-513.853 832.487 1835
-510.021 833.394 1837
-505.628 833.394 1837
-501.781 834.301 1839
-497.924 835.209 1841
-493.522 835.209 1841
-489.119 835.209 1841
-485.243 836.116 1843
-480.836 836.116 1843
-476.429 836.116 1843
-472.022 836.116 1843
-467.615 836.116 1843
-463.71 837.023 1845
-459.298 837.023 1845
-454.886 837.023 1845
-450.474 837.023 1845
-446.062 837.023 1845
-441.651 837.023 1845
-436.765 836.116 1843
-432.357 836.116 1843
-427.486 835.209 1841
-423.083 835.209 1841
-417.317 832.487 1835
-412.028 830.672 1831
-405.424 826.135 1821
-401.069 826.135 1821
-394.972 822.506 1813
-388.912 818.877 1805
-381.826 812.979 1792
-375.013 807.535 1780
-370.756 807.535 1780
-365.058 804.359 1773
-356.952 795.739 1754
-350.545 790.749 1743
-346.377 790.749 1743
-341.62 789.388 1740
-335.908 785.758 1732
-331.575 785.305 1731
-327.435 785.305 1731
-322.922 784.398 1729
-318.419 783.49 1727
-314.653 784.398 1729
-310.878 785.305 1731
-306.739 785.305 1731
-302.599 785.305 1731
-298.977 786.666 1734
-295.171 787.573 1736
-291.019 787.573 1736
-286.868 787.573 1736
-282.717 787.573 1736
-279.207 789.388 1740
-275.204 789.842 1741
-271.041 789.842 1741
-267.185 790.749 1743
-263.922 793.471 1749
-259.74 793.471 1749
-255.557 793.471 1749
-252.093 795.739 1754
-248.464 797.554 1758
-244.816 799.369 1762
-240.603 799.369 1762
-236.523 799.822 1763
-233.362 803.452 1771
-230.55 808.442 1782
-226.289 808.442 1782
-222.775 811.164 1788
-219.477 814.793 1796
-215.422 815.701 1798
-211.122 815.701 1798
-207.053 816.608 1800
-203.311 818.877 1805
-199.657 821.599 1811
-195.326 821.599 1811
-191.206 822.506 1813
-187.077 823.413 1815
-182.737 823.413 1815
-178.397 823.413 1815
-174.44 825.228 1819
-170.09 825.228 1819
-165.74 825.228 1819
-161.036 823.413 1815
-191.842 1209.03 2665
-185.469 1209.03 2665
-179.096 1209.03 2665
-173.566 1214.93 2678
-167.162 1214.93 2678
-160.758 1214.93 2678
-153.605 1209.03 2665
-147.232 1209.03 2665
-141.282 1212.66 2673
-134.89 1212.66 2673
-128.498 1212.66 2673
-122.106 1212.66 2673
-115.931 1214.93 2678
-109.854 1218.56 2686
-103.431 1218.56 2686
-97.6582 1226.73 2704
-91.1921 1226.73 2704
-85.0081 1230.81 2713
-78.5205 1230.81 2713
-72.1391 1232.62 2717
-65.956 1238.52 2730
-59.5365 1240.79 2735
-52.9963 1240.79 2735
-46.4561 1240.79 2735
-39.9159 1240.79 2735
-33.3757 1240.79 2735
-26.7864 1238.52 2730
-20.2582 1238.52 2730
-13.8657 1250.77 2757
-7.28606 1253.04 2762
-0.681279 1253.04 2762
5.9235 1253.04 2762
12.5283 1253.04 2762
19.1331 1253.04 2762
25.4862 1240.79 2735
31.7103 1228.54 2708
38.1859 1228.54 2708
44.2328 1216.75 2682
50.6463 1216.75 2682
57.0597 1216.75 2682
63.0709 1209.03 2665
69.2092 1204.95 2656
75.5605 1204.95 2656
81.9118 1204.95 2656
88.2631 1204.95 2656
94.7925 1207.22 2661
101.46 1210.85 2669
107.842 1210.85 2669
114.952 1218.56 2686
121.601 1220.83 2691
128.036 1220.83 2691
134.471 1220.83 2691
141.116 1222.64 2695
148.765 1232.62 2717
155.776 1236.71 2726
162.295 1236.71 2726
169.061 1238.52 2730
175.59 1238.52 2730
182.118 1238.52 2730
188.646 1238.52 2730
194.245 1232.62 2717
200.742 1232.62 2717
207.239 1232.62 2717
213.736 1232.62 2717
220.234 1232.62 2717
226.731 1232.62 2717
232.885 1230.81 2713
239.372 1230.81 2713
245.86 1230.81 2713
251.882 1228.54 2708
256.736 1220.83 2691
263.171 1220.83 2691
269.105 1218.56 2686
276.041 1220.83 2691
282.476 1220.83 2691
288.911 1220.83 2691
295.346 1220.83 2691
301.781 1220.83 2691
308.216 1220.83 2691
316.171 1226.73 2704
322.637 1226.73 2704
329.59 1228.54 2708
337.183 1232.62 2717
345.324 1238.52 2730
351.853 1238.52 2730
358.381 1238.52 2730
364.909 1238.52 2730
371.437 1238.52 2730
377.966 1238.52 2730
383.93 1236.71 2726
392.311 1242.61 2739
399.589 1244.87 2744
406.151 1244.87 2744
412.713 1244.87 2744
419.274 1244.87 2744
424.439 1240.79 2735
430.979 1240.79 2735
436.08 1236.71 2726
442.599 1236.71 2726
446.976 1230.81 2713
454.132 1232.62 2717
460.629 1232.62 2717
470.221 1240.79 2735
476.761 1240.79 2735
483.301 1240.79 2735
489.841 1240.79 2735
495.474 1238.52 2730
500.347 1234.44 2721
506.854 1234.44 2721
513.361 1234.44 2721
519.868 1234.44 2721
526.374 1234.44 2721
532.881 1234.44 2721
539.388 1234.44 2721
545.092 1232.62 2717
550.777 1230.81 2713
557.265 1230.81 2713
563.752 1230.81 2713
570.24 1230.81 2713
576.728 1230.81 2713
583.215 1230.81 2713
589.703 1230.81 2713
593.114 1224.46 2699
599.568 1224.46 2699
597.49 1207.22 2661
603.853 1207.22 2661
610.216 1207.22 2661
619.36 1212.66 2673
627.859 1216.75 2682
634.272 1216.75 2682
640.686 1216.75 2682
647.099 1216.75 2682
652.538 1214.93 2678
658.942 1214.93 2678
667.334 1218.56 2686
673.757 1218.56 2686
682.459 1222.64 2695
689.926 1224.46 2699
696.38 1224.46 2699
702.834 1224.46 2699
709.288 1224.46 2699
711.234 1216.75 2682
717.648 1216.75 2682
718.392 1207.22 2661
725.844 1209.03 2665
732.217 1209.03 2665
738.59 1209.03 2665
744.963 1209.03 2665
747.671 1203.14 2652
749.179 1195.42 2635
755.48 1195.42 2635
761.781 1195.42 2635
774.204 1204.95 2656
780.555 1204.95 2656
786.906 1204.95 2656
793.258 1204.95 2656
798.405 1203.14 2652
803.533 1201.32 2648
809.865 1201.32 2648
816.197 1201.32 2648
822.529 1201.32 2648
823.54 1193.61 2631
829.831 1193.61 2631
836.123 1193.61 2631
834.73 1182.72 2607
836.771 1176.82 2594
840.374 1173.19 2586
850.813 1179.09 2599
857.029 1179.09 2599
864.572 1180.91 2603
870.797 1180.91 2603
877.021 1180.91 2603
883.246 1180.91 2603
944.513 1195.42 2635
950.814 1195.42 2635
975.64 1218.56 2686
990.106 1228.54 2708
999.894 1232.62 2717
1006.39 1232.62 2717
1014.38 1234.44 2721
1022.76 1236.71 2726
1029.28 1236.71 2726
1035.8 1236.71 2726
1038.88 1232.62 2717
1038.45 1224.46 2699
1044.9 1224.46 2699
1048.24 1220.83 2691
1049.58 1214.93 2678
1059.14 1218.56 2686
1065.56 1218.56 2686
1071.99 1218.56 2686
1075.2 1214.93 2678
1077.97 1210.85 2669
1084.35 1210.85 2669
1096.04 1216.75 2682
1102.46 1216.75 2682
1117.97 1226.73 2704
1124.43 1226.73 2704
1130.9 1226.73 2704
1079.74 1164.57 2567
1071.07 1148.7 2532
1165.19 1242.61 2739
1171.73 1242.61 2739
1178.28 1242.61 2739
1184.83 1242.61 2739
1191.38 1242.61 2739
1197.93 1242.61 2739
1202.72 1240.79 2735
1191.58 1222.64 2695
1188.24 1212.66 2673
1194.64 1212.66 2673
1197.43 1209.03 2665
1217.36 1222.64 2695
1231.98 1230.81 2713
1254.44 1246.69 2748
1261.01 1246.69 2748
1267.58 1246.69 2748
1257.93 1230.81 2713
1260.22 1226.73 2704
1266.69 1226.73 2704
1264.68 1218.56 2686
1271.1 1218.56 2686
1275.62 1216.75 2682
1282.03 1216.75 2682
1288.45 1216.75 2682
1303.07 1224.46 2699
1309.52 1224.46 2699
1322.8 1230.81 2713
1329.29 1230.81 2713
1335.78 1230.81 2713
1339.79 1228.54 2708
1346.27 1228.54 2708
1346.25 1222.64 2695
1350.69 1220.83 2691
1350.56 1214.93 2678
1345.82 1204.95 2656
1352.17 1204.95 2656
1356.48 1203.14 2652
1369.5 1209.03 2665
1380 1212.66 2673
1386.39 1212.66 2673
1392.79 1212.66 2673
1399.18 1212.66 2673
1405.57 1212.66 2673
1411.96 1212.66 2673
1411.99 1207.22 2661
1418.35 1207.22 2661
1404.37 1189.98 2623
1410.64 1189.98 2623
1399.09 1175.01 2590
1405.28 1175.01 2590
1411.47 1175.01 2590
1419.86 1176.82 2594
1428.81 1179.09 2599
1435.02 1179.09 2599
1441.24 1179.09 2599
1437.99 1171.38 2582
1444.16 1171.38 2582
1448.09 1169.56 2578
1443.53 1160.94 2559
1445.12 1157.32 2551
1462.6 1166.39 2571
1468.75 1166.39 2571
1481.21 1171.38 2582
1489.68 1173.19 2586
1500.5 1176.82 2594
1506.7 1176.82 2594
1512.9 1176.82 2594
1512.08 1171.38 2582
1520.6 1173.19 2586
1526.79 1173.19 2586
1532.97 1173.19 2586
1549.27 1180.91 2603
1555.5 1180.91 2603
1561.72 1180.91 2603
1567.95 1180.91 2603
1579.01 1184.54 2611
1599.83 1195.42 2635
1609.17 1197.69 2640
1615.49 1197.69 2640
1626.71 1201.32 2648
1646 1210.85 2669
1666 1220.83 2691
1672.44 1220.83 2691
1678.87 1220.83 2691
1685.31 1220.83 2691
1691.74 1220.83 2691
1679.24 1207.22 2661
1674.84 1199.51 2644
1681.16 1199.51 2644
1690.04 1201.32 2648
1696.37 1201.32 2648
1702.7 1201.32 2648
1677.41 1179.09 2599
1670.02 1169.56 2578
1676.18 1169.56 2578
1664.73 1157.32 2551
1668.21 1155.5 2547
1676.93 1157.32 2551
1683.03 1157.32 2551
1689.13 1157.32 2551
1695.23 1157.32 2551
1698.66 1155.5 2547
1694.71 1148.7 2532
1700.77 1148.7 2532
1691.32 1138.26 2509
1691.91 1134.63 2501
1697.89 1134.63 2501
1703.87 1134.63 2501
1707.11 1132.82 2497
1713.09 1132.82 2497
1721.81 1134.63 2501
1730.55 1136.45 2505
1746.94 1143.25 2520
1752.97 1143.25 2520
1775.05 1153.69 2543
1783.93 1155.5 2547
1790.02 1155.5 2547
1796.11 1155.5 2547
1802.2 1155.5 2547
1805.45 1153.69 2543
1811.54 1153.69 2543
1804.04 1145.07 2524
1812.94 1146.88 2528
1826.9 1151.87 2539
1838.75 1155.5 2547
1844.84 1155.5 2547
1853.84 1157.32 2551
1862.85 1159.13 2555
1868.96 1159.13 2555
1875.07 1159.13 2555
1881.18 1159.13 2555
1887.29 1159.13 2555
1893.4 1159.13 2555
-1405.58 1229.1 2695
-1399.13 1229.1 2695
-1397.34 1233.2 2704
-1390.88 1233.2 2704
-1384.41 1233.2 2704
-1377.94 1233.2 2704
-1355.75 1219.07 2673
-1353.9 1223.17 2682
-1358.54 1233.2 2704
-1352.08 1233.2 2704
-1361.04 1247.34 2735
-1367.87 1259.66 2762
-1388.87 1285.2 2818
-1382.13 1285.2 2818
-1380.27 1289.76 2828
-1373.51 1289.76 2828
-1366.74 1289.76 2828
-1270.92 1211.31 2656
-1281.23 1227.28 2691
-1282.85 1235.03 2708
-1276.37 1235.03 2708
-1274.12 1239.13 2717
-1273.68 1245.06 2730
-1271.33 1249.17 2739
-1264.78 1249.17 2739
-1260.53 1251.45 2744
-1253.97 1251.45 2744
-1247.41 1251.45 2744
-1240.84 1251.45 2744
-1230.23 1247.34 2735
-1217.43 1240.96 2721
-1210.92 1240.96 2721
-1196.89 1233.2 2704
-1190.43 1233.2 2704
-1174.33 1223.17 2682
-1167.91 1223.17 2682
-1171.03 1233.2 2704
-1164.56 1233.2 2704
-1175.23 1251.45 2744
-1180.17 1263.76 2771
-1177.35 1267.87 2780
-1170.7 1267.87 2780
-1164.05 1267.87 2780
-1157.41 1267.87 2780
-1150.76 1267.87 2780
-961.368 1167.07 2559
-956.742 1168.9 2563
-950.613 1168.9 2563
-948.538 1173.92 2574
-945.312 1177.56 2582
-945.321 1185.32 2599
-939.106 1185.32 2599
-932.891 1185.32 2599
-929.528 1188.97 2607
-923.294 1188.97 2607
-917.06 1188.97 2607
-912.223 1190.79 2611
-910.143 1196.26 2623
-911.107 1205.84 2644
-904.785 1205.84 2644
-902.54 1211.31 2656
-901.925 1219.07 2673
-895.533 1219.07 2673
-889.141 1219.07 2673
-875.814 1209.49 2652
-866.849 1205.84 2644
-860.526 1205.84 2644
-851.296 1201.74 2635
-843.712 1199.91 2631
-834.875 1196.26 2623
-828.602 1196.26 2623
-821.076 1194.44 2619
-814.813 1194.44 2619
-803.611 1187.14 2603
-797.386 1187.14 2603
-787.21 1181.21 2590
-526.443 835.97 1833
-522.06 835.97 1833
-517.677 835.97 1833
-513.853 836.882 1835
-510.576 838.707 1839
-506.178 838.707 1839
-501.781 838.707 1839
-497.383 838.707 1839
-493.522 839.619 1841
-489.119 839.619 1841
-484.717 839.619 1841
-480.315 839.619 1841
-476.429 840.531 1843
-472.022 840.531 1843
-467.615 840.531 1843
-463.208 840.531 1843
-458.8 840.531 1843
-454.393 840.531 1843
-450.474 841.443 1845
-446.062 841.443 1845
-441.651 841.443 1845
-436.765 840.531 1843
-432.357 840.531 1843
-427.486 839.619 1841
-423.083 839.619 1841
-417.317 836.882 1835
-412.028 835.058 1831
-405.424 830.497 1821
-401.069 830.497 1821
-394.536 825.937 1811
-388.697 822.744 1804
-381.826 817.272 1792
-374.802 811.343 1779
-370.548 811.343 1779
-365.058 808.606 1773
-356.952 799.941 1754
-350.545 794.924 1743
-346.377 794.924 1743
-341.62 793.556 1740
-335.908 789.908 1732
-331.575 789.451 1731
-327.435 789.451 1731
-322.922 788.539 1729
-318.419 787.627 1727
-314.653 788.539 1729
-310.878 789.451 1731
-306.739 789.451 1731
-302.599 789.451 1731
-298.977 790.82 1734
-295.171 791.732 1736
-291.019 791.732 1736
-286.868 791.732 1736
-282.717 791.732 1736
-278.886 792.644 1738
-275.046 793.556 1740
-270.886 793.556 1740
-267.185 794.924 1743
-263.62 796.749 1747
-259.74 797.661 1749
-255.557 797.661 1749
-251.806 799.029 1752
-248.464 801.765 1758
-244.538 802.677 1760
-240.33 802.677 1760
-236.523 804.046 1763
-233.362 807.694 1771
-230.55 812.711 1782
-226.289 812.711 1782
-222.775 815.447 1788
-219.477 819.096 1796
-215.422 820.008 1798
-211.122 820.008 1798
-207.053 820.92 1800
-203.311 823.2 1805
-199.657 825.937 1811
-195.326 825.937 1811
-191.206 826.849 1813
-187.077 827.761 1815
-182.737 827.761 1815
-178.397 827.761 1815
-174.44 829.585 1819
-170.09 829.585 1819
-165.74 829.585 1819
-161.036 827.761 1815
-190.33 1205.84 2644
-184.564 1209.49 2652
-178.223 1209.49 2652
-172.464 1213.59 2661
-166.101 1213.59 2661
-159.738 1213.59 2661
-153.086 1211.31 2656
-146.514 1209.49 2652
-140.172 1209.49 2652
-133.831 1209.49 2652
-127.489 1209.49 2652
-121.33 1211.31 2656
-115.714 1219.07 2673
-109.854 1225 2686
-103.431 1225 2686
-97.4776 1230.92 2699
-91.1921 1233.2 2704
-84.7261 1233.2 2704
-78.26 1233.2 2704
-71.7939 1233.2 2704
-65.6419 1239.13 2717
-59.1447 1239.13 2717
-52.6475 1239.13 2717
-46.1504 1239.13 2717
-39.5219 1235.03 2708
-33.0462 1235.03 2708
-26.5313 1233.2 2704
-20.0949 1235.03 2708
-13.6846 1240.96 2721
-7.1779 1240.96 2721
-0.671166 1240.96 2721
5.83557 1240.96 2721
12.3242 1239.13 2717
18.8213 1239.13 2717
25.1508 1230.92 2699
31.359 1221.35 2678
37.7629 1221.35 2678
44.1668 1221.35 2678
50.5707 1221.35 2678
56.6981 1215.42 2665
62.9762 1213.59 2661
69.0007 1207.66 2648
75.3329 1207.66 2648
81.6651 1207.66 2648
87.9972 1207.66 2648
94.6144 1211.31 2656
101.308 1215.42 2665
107.681 1215.42 2665
114.781 1223.17 2682
121.601 1227.28 2691
128.036 1227.28 2691
134.471 1227.28 2691
141.116 1229.1 2695
148.765 1239.13 2717
155.776 1243.24 2726
162.295 1243.24 2726
169.061 1245.06 2730
175.59 1245.06 2730
182.118 1245.06 2730
188.646 1245.06 2730
194.245 1239.13 2717
200.742 1239.13 2717
207.239 1239.13 2717
213.736 1239.13 2717
220.234 1239.13 2717
226.731 1239.13 2717
232.885 1237.31 2713
239.372 1237.31 2713
245.86 1237.31 2713
251.882 1235.03 2708
256.736 1227.28 2691
263.171 1227.28 2691
269.105 1225 2686
276.041 1227.28 2691
282.476 1227.28 2691
288.911 1227.28 2691
295.346 1227.28 2691
301.781 1227.28 2691
308.216 1227.28 2691
316.171 1233.2 2704
322.637 1233.2 2704
329.59 1235.03 2708
337.183 1239.13 2717
345.324 1245.06 2730
351.853 1245.06 2730
358.381 1245.06 2730
364.909 1245.06 2730
371.437 1245.06 2730
377.966 1245.06 2730
383.93 1243.24 2726
392.311 1249.17 2739
399.589 1251.45 2744
406.151 1251.45 2744
412.713 1251.45 2744
419.274 1251.45 2744
424.439 1247.34 2735
430.979 1247.34 2735
436.08 1243.24 2726
442.599 1243.24 2726
446.976 1237.31 2713
454.132 1239.13 2717
460.629 1239.13 2717
470.221 1247.34 2735
476.761 1247.34 2735
483.301 1247.34 2735
489.841 1247.34 2735
495.474 1245.06 2730
500.347 1240.96 2721
506.854 1240.96 2721
513.361 1240.96 2721
519.868 1240.96 2721
526.374 1240.96 2721
532.881 1240.96 2721
539.388 1240.96 2721
545.092 1239.13 2717
550.777 1237.31 2713
557.265 1237.31 2713
563.752 1237.31 2713
570.24 1237.31 2713
576.728 1237.31 2713
583.215 1237.31 2713
589.703 1237.31 2713
593.114 1230.92 2699
599.568 1230.92 2699
597.49 1213.59 2661
603.853 1213.59 2661
610.216 1213.59 2661
619.36 1219.07 2673
627.859 1223.17 2682
634.272 1223.17 2682
640.686 1223.17 2682
647.099 1223.17 2682
652.538 1221.35 2678
658.942 1221.35 2678
667.334 1225 2686
673.757 1225 2686
682.459 1229.1 2695
689.926 1230.92 2699
696.38 1230.92 2699
702.834 1230.92 2699
709.288 1230.92 2699
711.234 1223.17 2682
717.648 1223.17 2682
718.392 1213.59 2661
725.844 1215.42 2665
732.217 1215.42 2665
738.59 1215.42 2665
744.963 1215.42 2665
747.671 1209.49 2652
749.179 1201.74 2635
755.48 1201.74 2635
761.781 1201.74 2635
774.204 1211.31 2656
780.555 1211.31 2656
786.906 1211.31 2656
793.258 1211.31 2656
798.405 1209.49 2652
803.533 1207.66 2648
807.418 1204.02 2640
813.731 1204.02 2640
820.044 1204.02 2640
823.54 1199.91 2631
822.262 1188.97 2607
828.496 1188.97 2607
834.73 1188.97 2607
835.48 1181.21 2590
839.074 1177.56 2582
847.867 1181.21 2590
854.061 1181.21 2590
863.243 1185.32 2599
874.811 1192.61 2615
881.064 1192.61 2615
887.318 1192.61 2615
940.211 1196.26 2623
946.484 1196.26 2623
970.918 1219.07 2673
990.106 1235.03 2708
998.422 1237.31 2713
1004.91 1237.31 2713
1016.24 1243.24 2726
1022.76 1243.24 2726
1029.28 1243.24 2726
1035.8 1243.24 2726
1035.44 1235.03 2708
1035.37 1227.28 2691
1041.81 1227.28 2691
1018.64 1192.61 2615
1024.89 1192.61 2615
1032.72 1194.44 2619
1038.98 1194.44 2619
1045.25 1194.44 2619
1051.51 1194.44 2619
1057.77 1194.44 2619
1055.91 1185.32 2599
1067.03 1190.79 2611
1073.27 1190.79 2611
1079.51 1190.79 2611
1085.76 1190.79 2611
1092 1190.79 2611
1079.74 1170.72 2567
1071.07 1154.76 2532
1077.13 1154.76 2532
1162.32 1239.13 2717
1168.82 1239.13 2717
1177.05 1240.96 2721
1183.55 1240.96 2721
1190.06 1240.96 2721
1196.57 1240.96 2721
1176.55 1213.59 2661
1182.91 1213.59 2661
1189.27 1213.59 2661
1191.59 1209.49 2652
1197.93 1209.49 2652
1217.9 1223.17 2682
1236.18 1235.03 2708
1242.66 1235.03 2708
1249.13 1235.03 2708
1253.75 1233.2 2704
1235.98 1209.49 2652
1248.42 1215.42 2665
1254.79 1215.42 2665
1261.16 1215.42 2665
1271.34 1219.07 2673
1280.12 1221.35 2678
1286.53 1221.35 2678
1294.86 1223.17 2682
1305.64 1227.28 2691
1314.03 1229.1 2695
1320.47 1229.1 2695
1328.88 1230.92 2699
1335.34 1230.92 2699
1341.79 1230.92 2699
1346.25 1229.1 2695
1350.69 1227.28 2691
1350.56 1221.35 2678
1343.79 1209.49 2652
1350.14 1209.49 2652
1354.43 1207.66 2648
1364.87 1211.31 2656
1380 1219.07 2673
1386.39 1219.07 2673
1392.79 1219.07 2673
1399.18 1219.07 2673
1405.57 1219.07 2673
1411.96 1219.07 2673
1411.99 1213.59 2661
1418.35 1213.59 2661
1404.37 1196.26 2623
1410.64 1196.26 2623
1396.93 1179.39 2586
1396.6 1173.92 2574
1407.11 1177.56 2582
1413.29 1177.56 2582
1419.46 1177.56 2582
1425.64 1177.56 2582
1431.81 1177.56 2582
1433.53 1173.92 2574
1439.69 1173.92 2574
1439.66 1168.9 2563
1439.02 1163.43 2551
1442.86 1161.6 2547
1462.6 1172.55 2571
1468.75 1172.55 2571
1478.91 1175.74 2578
1485.08 1175.74 2578
1491.24 1175.74 2578
1497.41 1175.74 2578
1503.57 1175.74 2578
1509.74 1175.74 2578
1515.9 1175.74 2578
1524.43 1177.56 2582
1530.6 1177.56 2582
1539.16 1179.39 2586
1545.34 1179.39 2586
1561.72 1187.14 2603
1567.95 1187.14 2603
1574.17 1187.14 2603
1585.25 1190.79 2611
1593.94 1192.61 2615
1600.19 1192.61 2615
1616.27 1199.91 2631
1625.03 1201.74 2635
1639.38 1207.66 2648
1645.71 1207.66 2648
1652.04 1207.66 2648
1658.38 1207.66 2648
1664.71 1207.66 2648
1657.79 1198.09 2627
1661.54 1196.26 2623
1652.55 1185.32 2599
1658.76 1185.32 2599
1664.98 1185.32 2599
1671.19 1185.32 2599
1677.41 1185.32 2599
1660.3 1168.9 2563
1666.43 1168.9 2563
1662.12 1161.6 2547
1655.77 1152.94 2528
1661.81 1152.94 2528
1670.49 1154.76 2532
1676.55 1154.76 2532
1682.6 1154.76 2532
1688.66 1154.76 2532
1686.68 1149.29 2520
1692.71 1149.29 2520
1688.62 1142.45 2505
1691.91 1140.62 2501
1687.7 1133.78 2486
1693.65 1133.78 2486
1692.07 1128.77 2475
1697.99 1128.77 2475
1706.66 1130.59 2479
1722.95 1137.43 2494
1736.54 1142.45 2505
1742.53 1142.45 2505
1764.58 1152.94 2528
1781.13 1159.78 2543
1787.21 1159.78 2543
1793.29 1159.78 2543
1793.71 1156.13 2535
1794.81 1152.94 2528
1800.85 1152.94 2528
1804.04 1151.11 2524
1812.94 1152.94 2528
1826.9 1157.95 2539
1835.86 1159.78 2543
1841.94 1159.78 2543
1850.93 1161.6 2547
1857.02 1161.6 2547
1866.04 1163.43 2551
1872.14 1163.43 2551
1881.18 1165.25 2555
1887.29 1165.25 2555
1893.4 1165.25 2555
-1435.12 1206.21 2631
-1428.82 1206.21 2631
-1431.72 1214.01 2648
-1425.39 1214.01 2648
-1437.28 1229.6 2682
-1430.87 1229.6 2682
-1424.45 1229.6 2682
-1418.04 1229.6 2682
-1428.27 1249.77 2726
-1421.75 1249.77 2726
-1415.23 1249.77 2726
-1408.71 1249.77 2726
-1404.25 1251.6 2730
-1397.72 1251.6 2730
-1391.19 1251.6 2730
-1371.48 1239.68 2704
-1365.01 1239.68 2704
-1365.08 1245.64 2717
-1358.58 1245.64 2717
-1363.03 1255.73 2739
-1367.87 1266.27 2762
-1388.87 1291.95 2818
-1382.13 1291.95 2818
-1380.27 1296.53 2828
-1373.51 1296.53 2828
-1366.74 1296.53 2828
-1359.98 1296.53 2828
-1265.17 1212.17 2644
-1281.23 1233.72 2691
-1282.85 1241.52 2708
-1276.37 1241.52 2708
-1272.24 1243.81 2713
-1273.68 1251.6 2730
-1271.33 1255.73 2739
-1264.78 1255.73 2739
-1258.23 1255.73 2739
-1249.86 1253.89 2735
-1243.32 1253.89 2735
-1236.78 1253.89 2735
-1226.19 1249.77 2726
-1215.64 1245.64 2717
-1209.14 1245.64 2717
-1196.89 1239.68 2704
-1188.23 1237.39 2699
-1172.58 1227.76 2678
-1166.17 1227.76 2678
-1161.5 1229.6 2682
-1155.09 1229.6 2682
-1158.1 1239.68 2704
-1168.67 1258.02 2744
-1163.8 1259.85 2748
-1157.23 1259.85 2748
-1150.66 1259.85 2748
-1136.59 1251.6 2730
-1130.06 1251.6 2730
-947.072 1148.45 2505
-959.866 1171.37 2555
-955.249 1173.2 2559
-949.13 1173.2 2559
-948.538 1180.08 2574
-945.312 1183.75 2582
-942.047 1187.42 2590
-935.854 1187.42 2590
-929.66 1187.42 2590
-926.676 1191.54 2599
-921.877 1193.38 2603
-915.653 1193.38 2603
-910.826 1195.21 2607
-905.979 1197.04 2611
-903.871 1202.55 2623
-897.598 1202.55 2623
-898.462 1212.17 2644
-893.489 1214.01 2648
-887.157 1214.01 2648
-880.825 1214.01 2648
-873.172 1212.17 2644
