ply
format ascii 1.0
comment File generated
element vertex 2255
property float x
property float y
property float z
end_header
-437.851 113.074 1663
-433.092 112.87 1660
-427.313 112.395 1653
-423.36 112.395 1653
-419.153 112.327 1652
-414.198 112.055 1648
-410.008 111.987 1647
-406.069 111.987 1647
-401.643 111.851 1645
-396.258 111.443 1639
-391.86 111.307 1637
-387.946 111.307 1637
-382.858 110.967 1632
-378.723 110.899 1631
-374.363 110.763 1629
-370.241 110.695 1628
-366.347 110.695 1628
-362.009 110.559 1626
-357.68 110.423 1624
-353.579 110.355 1623
-349.698 110.355 1623
-345.391 110.219 1621
-341.514 110.219 1621
-337.013 110.015 1618
-333.144 110.015 1618
-329.275 110.015 1618
-325.205 109.947 1617
-320.543 109.675 1613
-316.686 109.675 1613
-312.829 109.675 1613
-308.972 109.675 1613
-305.114 109.675 1613
-301.257 109.675 1613
-296.847 109.471 1610
-292.997 109.471 1610
-288.967 109.403 1609
-285.12 109.403 1609
-281.272 109.403 1609
-277.08 109.267 1607
-272.727 109.063 1604
-268.891 109.063 1604
-265.056 109.063 1604
-261.057 108.995 1603
-257.224 108.995 1603
-253.549 109.063 1604
-250.024 109.199 1606
-246.184 109.199 1606
-242.343 109.199 1606
-238.651 109.267 1607
-235.539 109.607 1612
-231.684 109.607 1612
-227.971 109.675 1613
-224.392 109.811 1615
-220.939 110.015 1618
-217.07 110.015 1618
-213.86 110.355 1623
-210.367 110.559 1626
-207.114 110.899 1631
-203.214 110.899 1631
-199.924 111.239 1636
-196.731 111.647 1642
-193.509 112.055 1648
-189.568 112.055 1648
-186.416 112.531 1655
-183.009 112.87 1660
-180.118 113.55 1670
-176.125 113.55 1670
-172.853 114.026 1677
-169.447 114.434 1683
-166.11 114.91 1690
-162.069 114.91 1690
-158.402 115.182 1694
-154.442 115.25 1695
-151.365 115.998 1706
-147.285 115.998 1706
-143.625 116.338 1711
-139.86 116.61 1715
-136.155 116.95 1720
-132.042 116.95 1720
-128.077 117.086 1722
-124.031 117.154 1723
-119.911 117.154 1723
-115.791 117.154 1723
-213.203 251.511 3699
-204.357 251.511 3699
-195.512 251.511 3699
-185.859 250.423 3683
-174.36 246.615 3627
-165.687 246.615 3627
-155.628 244.439 3595
-147.031 244.439 3595
-138.165 243.963 3588
-129.585 243.963 3588
-120.735 243.42 3580
-112.174 243.42 3580
-104.279 244.983 3603
-95.6632 244.983 3603
-87.0474 244.983 3603
-78.4315 244.983 3603
-69.9707 245.527 3611
-61.3357 245.527 3611
-52.7007 245.527 3611
-44.0657 245.527 3611
-35.4307 245.527 3611
-26.9144 246.615 3627
-18.2412 246.615 3627
-9.5679 246.615 3627
-0.894641 246.615 3627
7.76146 246.071 3619
16.4156 246.071 3619
25.0697 246.071 3619
33.6493 245.527 3611
42.2843 245.527 3611
50.9193 245.527 3611
59.5543 245.527 3611
68.1893 245.527 3611
77.3349 247.159 3635
86.3822 248.179 3650
95.1105 248.179 3650
103.839 248.179 3650
112.104 247.159 3635
120.797 247.159 3635
129.489 247.159 3635
140.006 250.423 3683
148.813 250.423 3683
157.621 250.423 3683
160.373 241.312 3549
166.766 238.32 3505
174.748 237.776 3497
184.681 239.816 3527
193.115 239.816 3527
201.549 239.816 3527
208.673 238.32 3505
217.055 238.32 3505
230.775 243.963 3588
239.355 243.963 3588
247.935 243.963 3588
266.81 253.755 3732
275.734 253.755 3732
284.658 253.755 3732
289.728 250.423 3683
295.212 247.635 3642
306.007 249.335 3667
314.776 249.335 3667
323.545 249.335 3667
330.048 247.635 3642
338.758 247.635 3642
342.315 243.963 3588
348.645 242.4 3565
355.567 241.312 3549
364.054 241.312 3549
368.657 238.796 3512
376.304 238.32 3505
380.624 235.804 3468
387.347 234.852 3454
395.607 234.852 3454
401.411 233.424 3433
405.444 231.045 3398
409.31 228.665 3363
417.352 228.665 3363
422.864 227.305 3343
428.281 225.945 3323
433.601 224.585 3303
441.5 224.585 3303
448.582 224.177 3297
455.497 223.701 3290
463.364 223.701 3290
471.232 223.701 3290
478.225 223.293 3284
485.19 222.885 3278
493.029 222.885 3278
503.771 224.177 3297
514.759 225.537 3317
522.691 225.537 3317
542.46 230.569 3391
557.389 233.424 3433
577.46 238.32 3505
585.842 238.32 3505
603.039 241.856 3557
618.078 244.439 3595
626.675 244.439 3595
639.513 246.071 3619
648.167 246.071 3619
656.821 246.071 3619
665.475 246.071 3619
674.129 246.071 3619
682.783 246.071 3619
691.437 246.071 3619
700.092 246.071 3619
708.746 246.071 3619
717.4 246.071 3619
726.054 246.071 3619
734.708 246.071 3619
743.362 246.071 3619
752.016 246.071 3619
760.67 246.071 3619
769.325 246.071 3619
777.979 246.071 3619
786.633 246.071 3619
795.287 246.071 3619
803.941 246.071 3619
812.595 246.071 3619
824.88 247.159 3635
833.573 247.159 3635
842.265 247.159 3635
850.957 247.159 3635
865.089 248.723 3658
875.986 249.335 3667
886.685 249.879 3675
895.474 249.879 3675
904.262 249.879 3675
913.05 249.879 3675
921.838 249.879 3675
936.703 251.511 3699
945.549 251.511 3699
954.394 251.511 3699
963.24 251.511 3699
972.085 251.511 3699
980.93 251.511 3699
985.495 250.423 3683
994.302 250.423 3683
1003.11 250.423 3683
1009.72 249.879 3675
1016.29 249.335 3667
1022.54 248.723 3658
1031.29 248.723 3658
1040.04 248.723 3658
1048.78 248.723 3658
1055.22 248.179 3650
1063.95 248.179 3650
1077.67 249.335 3667
1086.44 249.335 3667
1095.21 249.335 3667
1106.39 249.879 3675
1115.17 249.879 3675
1123.96 249.879 3675
1132.75 249.879 3675
1141.54 249.879 3675
1150.33 249.879 3675
1153.75 248.723 3658
1165.36 249.335 3667
1176.69 249.879 3675
1190.64 250.967 3691
1199.47 250.967 3691
1208.29 250.967 3691
1217.12 250.967 3691
1231.26 252.055 3707
1240.12 252.055 3707
1248.99 252.055 3707
1260.91 252.667 3716
1269.79 252.667 3716
1278.68 252.667 3716
1287.57 252.667 3716
1293.31 252.055 3707
1302.18 252.055 3707
1311.04 252.055 3707
1317.06 251.511 3699
1325.9 251.511 3699
1334.75 251.511 3699
1346.5 252.055 3707
1355.36 252.055 3707
1373.43 253.755 3732
1382.35 253.755 3732
1391.28 253.755 3732
1400.2 253.755 3732
1406.11 253.211 3724
1427.55 255.454 3757
1436.53 255.454 3757
1445.52 255.454 3757
1454.5 255.454 3757
1456.86 254.299 3740
1465.81 254.299 3740
1474.75 254.299 3740
1480.52 253.755 3732
1496.23 254.911 3749
1508.41 255.454 3757
1521.03 256.066 3766
1530.03 256.066 3766
1542.31 256.61 3774
1576.41 260.758 3835
1585.58 260.758 3835
1594.75 260.758 3835
1603.92 260.758 3835
1595 257.834 3792
1604.07 257.834 3792
1613.14 257.834 3792
1622.2 257.834 3792
1631.27 257.834 3792
1640.34 257.834 3792
1638.1 256.066 3766
1632.23 253.755 3732
1634.12 252.667 3716
1643.01 252.667 3716
1651.89 252.667 3716
1679.1 255.454 3757
1688.09 255.454 3757
1697.07 255.454 3757
1706.06 255.454 3757
1711.39 254.911 3749
1708.88 253.211 3724
1706.26 251.511 3699
1715.1 251.511 3699
1720.22 250.967 3691
1729.04 250.967 3691
1737.87 250.967 3691
1746.7 250.967 3691
1747.91 249.879 3675
1740.93 247.635 3642
1730.9 244.983 3603
1739.52 244.983 3603
1744.25 244.439 3595
1741.63 242.876 3572
1750.17 242.876 3572
1773.98 244.983 3603
1782.6 244.983 3603
1791.21 244.983 3603
1799.83 244.983 3603
1789.37 242.4 3565
1797.89 242.4 3565
1794.77 240.836 3542
1795.6 239.816 3527
1796.36 238.796 3512
1804.76 238.796 3512
1798.19 236.824 3483
1802.88 236.348 3476
1814.84 236.824 3483
1830.5 237.776 3497
1838.86 237.776 3497
1863.07 239.816 3527
1875.22 240.292 3534
1895.93 241.856 3557
1908.72 242.4 3565
1917.24 242.4 3565
1925.77 242.4 3565
1929.95 241.856 3557
1938.46 241.856 3557
1946.97 241.856 3557
1989.56 246.071 3619
2010.91 247.635 3642
2024.06 248.179 3650
2032.78 248.179 3650
2059.97 250.423 3683
2082.26 252.055 3707
2153.74 259.602 3818
2162.87 259.602 3818
2176.55 260.146 3826
2185.7 260.146 3826
2194.85 260.146 3826
2194.2 258.99 3809
2198.1 258.378 3800
2217.65 259.602 3818
2226.78 259.602 3818
2235.91 259.602 3818
2249.74 260.146 3826
2258.89 260.146 3826
2268.04 260.146 3826
2272.43 259.602 3818
2281.56 259.602 3818
2285.29 258.99 3809
2284.16 257.834 3792
2293.22 257.834 3792
2302.29 257.834 3792
2305.87 257.222 3783
2320.43 257.834 3792
2329.49 257.834 3792
2338.56 257.834 3792
2352.58 258.378 3800
2372.86 259.602 3818
2398.21 261.37 3844
2407.4 261.37 3844
2427.91 262.594 3862
2437.14 262.594 3862
2446.38 262.594 3862
2427.64 259.602 3818
2425.28 258.378 3800
2417.71 256.61 3774
2438.31 257.834 3792
2458.35 258.99 3809
2467.46 258.99 3809
2476.57 258.99 3809
2479.8 258.378 3800
2488.89 258.378 3800
2497.97 258.378 3800
2507.06 258.378 3800
2516.15 258.378 3800
2525.24 258.378 3800
2534.32 258.378 3800
2538.05 257.834 3792
2535.03 256.61 3774
2550.12 257.222 3783
2570.67 258.378 3800
2579.76 258.378 3800
2601.11 259.602 3818
2615.71 260.146 3826
2624.86 260.146 3826
2634 260.146 3826
1888.53 181.477 2669
1894.91 181.477 2669
1907.7 182.089 2678
1914.11 182.089 2678
1935.57 183.517 2699
1942.03 183.517 2699
1952.09 183.857 2704
1958.56 183.857 2704
1967.93 184.128 2708
2000.65 186.576 2744
2016.72 187.46 2757
2023.32 187.46 2757
2033.59 187.8 2762
2060.88 189.704 2790
2074.22 190.316 2799
2080.91 190.316 2799
2087.61 190.316 2799
2101.78 190.996 2809
2108.5 190.996 2809
2115.22 190.996 2809
2121.93 190.996 2809
2128.65 190.996 2809
2152.85 192.56 2832
2159.62 192.56 2832
2166.4 192.56 2832
-2343.51 220.32 3130
-2336.02 220.32 3130
-2324.07 219.898 3124
-2312.15 219.475 3118
-2300.26 219.053 3112
-2297.24 219.475 3118
-2289.79 219.475 3118
-2286.72 219.898 3124
-2283.63 220.32 3130
-2276.14 220.32 3130
-2268.66 220.32 3130
-2269.84 221.165 3142
-2262.33 221.165 3142
-2254.82 221.165 3142
-2247.3 221.165 3142
-2239.79 221.165 3142
-2232.28 221.165 3142
-2224.76 221.165 3142
-2213.02 220.742 3136
-2201.3 220.32 3130
-2198.02 220.742 3136
-2194.71 221.165 3142
-2187.2 221.165 3142
-2183.84 221.587 3148
-2176.32 221.587 3148
-2181.19 222.854 3166
-2173.62 222.854 3166
-2182.47 224.543 3190
-2174.84 224.543 3190
-2175.36 225.388 3202
-2167.71 225.388 3202
-2172.87 226.725 3221
-2173.23 227.57 3233
-2169.52 227.993 3239
-2161.77 227.993 3239
-2175.31 230.245 3271
-2184.72 232.075 3297
-2180.79 232.497 3303
-2172.9 232.497 3303
-2169.58 232.99 3310
-2166.24 233.483 3317
-2192.8 237.214 3370
-2184.74 237.214 3370
-2194.76 239.184 3398
-2186.64 239.184 3398
-2187.49 240.17 3412
-2179.33 240.17 3412
-2180.08 241.155 3426
-2176.32 241.648 3433
-2181.38 243.126 3454
-2173.12 243.126 3454
-2169.24 243.619 3461
-2160.97 243.619 3461
-2152.69 243.619 3461
-2144.42 243.619 3461
-2118.86 241.648 3433
-2093.43 239.677 3405
-2089.58 240.17 3412
-2081.42 240.17 3412
-2094.53 242.634 3447
-2086.28 242.634 3447
-2078.04 242.634 3447
-2069.8 242.634 3447
-2061.56 242.634 3447
-2053.31 242.634 3447
-2045.07 242.634 3447
-2028.55 241.648 3433
-1995.63 238.692 3391
-1987.52 238.692 3391
-1979.41 238.692 3391
-1967.23 238.199 3384
-1959.14 238.199 3384
-1951.05 238.199 3384
-1942.96 238.199 3384
-1934.86 238.199 3384
-1918.8 237.214 3370
-1910.74 237.214 3370
-1922.44 239.677 3405
-1914.3 239.677 3405
-1906.16 239.677 3405
-1898.02 239.677 3405
-1889.87 239.677 3405
-1870.13 238.199 3384
-1862.03 238.199 3384
-1846.27 237.214 3370
-1838.21 237.214 3370
-1823.09 236.299 3357
-1815.07 236.299 3357
-1847.95 241.648 3433
-1847.24 242.634 3447
-1839 242.634 3447
-1830.76 242.634 3447
-1822.51 242.634 3447
-1814.27 242.634 3447
-1806.03 242.634 3447
-1794.13 242.141 3440
-1789.54 242.634 3447
-1781.3 242.634 3447
-1776.66 243.126 3454
-1768.4 243.126 3454
-1763.71 243.619 3461
-1755.43 243.619 3461
-1758.26 245.168 3483
-1749.93 245.168 3483
-1741.6 245.168 3483
-1736.76 245.66 3490
-1731.88 246.153 3497
-1723.51 246.153 3497
-1715.15 246.153 3497
-1706.79 246.153 3497
-1698.43 246.153 3497
-1683.3 245.168 3483
-1678.34 245.66 3490
-1669.99 245.66 3490
-1661.64 245.66 3490
-1653.3 245.66 3490
-1652.02 246.716 3505
-1643.64 246.716 3505
-1635.26 246.716 3505
-1626.88 246.716 3505
-1611.57 245.66 3490
-1603.23 245.66 3490
-1594.88 245.66 3490
-1586.53 245.66 3490
-1578.19 245.66 3490
-1569.84 245.66 3490
-1561.5 245.66 3490
-1553.15 245.66 3490
-1544.81 245.66 3490
-1526.77 244.112 3468
-1518.48 244.112 3468
-1498 242.141 3440
-1477.64 240.17 3412
-1475.51 241.155 3426
-1467.32 241.155 3426
-1459.13 241.155 3426
-1450.94 241.155 3426
-1442.74 241.155 3426
-1434.55 241.155 3426
-1423.44 240.663 3419
-1423.96 242.141 3440
-1424.38 243.619 3461
-1416.1 243.619 3461
-1407.82 243.619 3461
-1402.38 244.112 3468
-1397.3 244.675 3476
-1400.58 246.716 3505
-1392.2 246.716 3505
-1386.58 247.209 3512
-1389.95 249.321 3542
-1381.48 249.321 3542
-1373.01 249.321 3542
-1370.32 250.376 3557
-1373.68 252.559 3588
-1365.1 252.559 3588
-1356.52 252.559 3588
-1344.94 251.995 3580
-1327.79 250.376 3557
-1319.29 250.376 3557
-1307.83 249.813 3549
-1296.78 249.321 3542
-1282.86 248.265 3527
-1266.47 246.716 3505
-1258.09 246.716 3505
-1244.36 245.66 3490
-1233.54 245.168 3483
-1219.93 244.112 3468
-1211.64 244.112 3468
-1198.49 243.126 3454
-1182.99 241.648 3433
-1162.81 239.184 3398
-1154.68 239.184 3398
-1134.74 236.721 3363
-1108.95 232.99 3310
-553.177 117.058 1663
-550.851 117.41 1668
-548.502 117.762 1673
-544.501 117.762 1673
-540.5 117.762 1673
-536.5 117.762 1673
-532.181 117.692 1672
-529.762 118.044 1677
-525.752 118.044 1677
-521.742 118.044 1677
-517.731 118.044 1677
-513.721 118.044 1677
-508.191 117.692 1672
-503.59 117.551 1670
-501.092 117.903 1675
-497.68 118.044 1677
-493.67 118.044 1677
-489.66 118.044 1677
-485.65 118.044 1677
-481.639 118.044 1677
-477.629 118.044 1677
-473.054 117.903 1675
-468.209 117.692 1672
-464.21 117.692 1672
-460.212 117.692 1672
-456.214 117.692 1672
-450.863 117.34 1667
-446.341 117.199 1665
-442.359 117.199 1665
-437.851 117.058 1663
-433.092 116.847 1660
-427.054 116.284 1652
-423.104 116.284 1652
-418.646 116.143 1650
-414.198 116.002 1648
-410.008 115.932 1647
-406.069 115.932 1647
-401.643 115.791 1645
-396.258 115.369 1639
-391.86 115.228 1637
-387.946 115.228 1637
-382.858 114.876 1632
-378.723 114.806 1631
-374.363 114.665 1629
-370.241 114.595 1628
-366.347 114.595 1628
-362.009 114.454 1626
-357.68 114.313 1624
-353.579 114.243 1623
-349.698 114.243 1623
-345.391 114.102 1621
-341.514 114.102 1621
-337.013 113.891 1618
-333.144 113.891 1618
-329.275 113.891 1618
-325.205 113.82 1617
-320.543 113.539 1613
-316.686 113.539 1613
-312.829 113.539 1613
-308.972 113.539 1613
-305.114 113.539 1613
-301.257 113.539 1613
-296.847 113.328 1610
-292.997 113.328 1610
-288.967 113.257 1609
-285.12 113.257 1609
-281.272 113.257 1609
-277.08 113.116 1607
-272.727 112.905 1604
-268.891 112.905 1604
-265.056 112.905 1604
-261.057 112.835 1603
-257.224 112.835 1603
-253.549 112.905 1604
-250.024 113.046 1606
-246.184 113.046 1606
-242.343 113.046 1606
-238.651 113.116 1607
-235.539 113.468 1612
-231.684 113.468 1612
-227.971 113.539 1613
-224.392 113.68 1615
-220.939 113.891 1618
-217.07 113.891 1618
-213.86 114.243 1623
-210.367 114.454 1626
-207.114 114.806 1631
-203.214 114.806 1631
-199.924 115.158 1636
-196.731 115.58 1642
-193.509 116.002 1648
-189.568 116.002 1648
-186.416 116.495 1655
-183.009 116.847 1660
-180.118 117.551 1670
-176.125 117.551 1670
-172.853 118.044 1677
-169.447 118.466 1683
-166.11 118.959 1690
-162.069 118.959 1690
-158.402 119.24 1694
-154.442 119.311 1695
-151.365 120.085 1706
-147.285 120.085 1706
-143.625 120.437 1711
-139.86 120.718 1715
-136.155 121.07 1720
-132.042 121.07 1720
-128.077 121.211 1722
-124.031 121.282 1723
-119.911 121.282 1723
-115.791 121.282 1723
-213.203 260.372 3699
-204.357 260.372 3699
-195.512 260.372 3699
-185.859 259.246 3683
-174.36 255.304 3627
-165.687 255.304 3627
-155.628 253.051 3595
-147.031 253.051 3595
-138.165 252.559 3588
-129.585 252.559 3588
-120.735 251.995 3580
-112.174 251.995 3580
-104.279 253.614 3603
-95.6632 253.614 3603
-87.0474 253.614 3603
-78.4315 253.614 3603
-69.9707 254.178 3611
-61.3357 254.178 3611
-52.7007 254.178 3611
-44.0657 254.178 3611
-35.4307 254.178 3611
-26.9144 255.304 3627
-18.2412 255.304 3627
-9.5679 255.304 3627
-0.894641 255.304 3627
7.76146 254.741 3619
16.4156 254.741 3619
25.0697 254.741 3619
33.6493 254.178 3611
42.2843 254.178 3611
50.9193 254.178 3611
59.5543 254.178 3611
68.1893 254.178 3611
77.3349 255.867 3635
86.3822 256.923 3650
95.1105 256.923 3650
103.839 256.923 3650
112.104 255.867 3635
120.797 255.867 3635
129.489 255.867 3635
140.006 259.246 3683
148.813 259.246 3683
157.621 259.246 3683
208.673 246.716 3505
217.055 246.716 3505
230.775 252.559 3588
239.355 252.559 3588
247.935 252.559 3588
266.81 262.695 3732
275.734 262.695 3732
284.658 262.695 3732
289.728 259.246 3683
295.212 256.36 3642
306.007 258.119 3667
314.776 258.119 3667
323.545 258.119 3667
330.048 256.36 3642
338.758 256.36 3642
342.315 252.559 3588
348.645 250.94 3565
355.567 249.813 3549
364.054 249.813 3549
368.657 247.209 3512
376.304 246.716 3505
380.624 244.112 3468
387.347 243.126 3454
395.607 243.126 3454
401.411 241.648 3433
405.444 239.184 3398
409.31 236.721 3363
417.352 236.721 3363
422.864 235.313 3343
428.281 233.905 3323
433.601 232.497 3303
441.5 232.497 3303
448.582 232.075 3297
455.497 231.582 3290
463.364 231.582 3290
471.232 231.582 3290
478.225 231.16 3284
485.19 230.738 3278
493.029 230.738 3278
503.771 232.075 3297
514.759 233.483 3317
522.691 233.483 3317
542.46 238.692 3391
557.389 241.648 3433
577.46 246.716 3505
585.842 246.716 3505
603.039 250.376 3557
618.078 253.051 3595
626.675 253.051 3595
639.513 254.741 3619
648.167 254.741 3619
656.821 254.741 3619
665.475 254.741 3619
674.129 254.741 3619
682.783 254.741 3619
691.437 254.741 3619
700.092 254.741 3619
708.746 254.741 3619
717.4 254.741 3619
726.054 254.741 3619
734.708 254.741 3619
743.362 254.741 3619
752.016 254.741 3619
760.67 254.741 3619
769.325 254.741 3619
777.979 254.741 3619
786.633 254.741 3619
795.287 254.741 3619
803.941 254.741 3619
812.595 254.741 3619
824.88 255.867 3635
833.573 255.867 3635
842.265 255.867 3635
850.957 255.867 3635
865.089 257.486 3658
875.986 258.119 3667
886.685 258.682 3675
895.474 258.682 3675
904.262 258.682 3675
913.05 258.682 3675
921.838 258.682 3675
936.703 260.372 3699
945.549 260.372 3699
954.394 260.372 3699
963.24 260.372 3699
972.085 260.372 3699
980.93 260.372 3699
985.495 259.246 3683
994.302 259.246 3683
1003.11 259.246 3683
1009.72 258.682 3675
1016.29 258.119 3667
1022.54 257.486 3658
1031.29 257.486 3658
1040.04 257.486 3658
1048.78 257.486 3658
1055.22 256.923 3650
1063.95 256.923 3650
1077.67 258.119 3667
1086.44 258.119 3667
1095.21 258.119 3667
1106.39 258.682 3675
1115.17 258.682 3675
1123.96 258.682 3675
1132.75 258.682 3675
1141.54 258.682 3675
1150.33 258.682 3675
1153.75 257.486 3658
1165.36 258.119 3667
1176.69 258.682 3675
1190.64 259.809 3691
1199.47 259.809 3691
1208.29 259.809 3691
1217.12 259.809 3691
1231.26 260.935 3707
1240.12 260.935 3707
1248.99 260.935 3707
1260.91 261.568 3716
1269.79 261.568 3716
1278.68 261.568 3716
1287.57 261.568 3716
1293.31 260.935 3707
1302.18 260.935 3707
1311.04 260.935 3707
1317.06 260.372 3699
1325.9 260.372 3699
1334.75 260.372 3699
1346.5 260.935 3707
1355.36 260.935 3707
1373.43 262.695 3732
1382.35 262.695 3732
1391.28 262.695 3732
1400.2 262.695 3732
1406.11 262.132 3724
1443.89 267.481 3800
1452.97 267.481 3800
1462.06 267.481 3800
1471.15 267.481 3800
1470.11 265.651 3774
1479.13 265.651 3774
1481.45 264.454 3757
1490.44 264.454 3757
1509.8 266.285 3783
1522.46 266.918 3792
1531.53 266.918 3792
1547.5 268.115 3809
1570.91 270.578 3844
1580.1 270.578 3844
1589.3 270.578 3844
1594.75 269.945 3835
1603.92 269.945 3835
1595 266.918 3792
1604.07 266.918 3792
1613.14 266.918 3792
1622.2 266.918 3792
1631.27 266.918 3792
1640.34 266.918 3792
1638.1 265.088 3766
1632.23 262.695 3732
1634.12 261.568 3716
1643.01 261.568 3716
1651.89 261.568 3716
1679.1 264.454 3757
1688.09 264.454 3757
1720.56 268.115 3809
1729.67 268.115 3809
1738.78 268.115 3809
1728.16 265.088 3766
1737.16 265.088 3766
1746.17 265.088 3766
1755.17 265.088 3766
1764.18 265.088 3766
1768.95 264.454 3757
1777.93 264.454 3757
1778.83 263.258 3740
1772 260.935 3707
1777.02 260.372 3699
1785.86 260.372 3699
1783.07 258.682 3675
1779.66 256.923 3650
1777.12 255.304 3627
1797.12 256.923 3650
1805.85 256.923 3650
1814.58 256.923 3650
1803.82 254.178 3611
1808.44 253.614 3603
1817.06 253.614 3603
1806.42 250.94 3565
1806.8 249.813 3549
1807.61 248.757 3534
1816.06 248.757 3534
1813.16 247.209 3512
1810.14 245.66 3490
1822.14 246.153 3497
1842.54 247.772 3520
1850.96 247.772 3520
1863.07 248.265 3527
1875.22 248.757 3534
1895.93 250.376 3557
1908.72 250.94 3565
1917.24 250.94 3565
1925.77 250.94 3565
1929.95 250.376 3557
1938.46 250.376 3557
1946.97 250.376 3557
1989.56 254.741 3619
2010.91 256.36 3642
2028.49 257.486 3658
2037.24 257.486 3658
2064.44 259.809 3691
2100.79 263.258 3740
2158.25 269.311 3826
2167.4 269.311 3826
2222.63 275.013 3907
2231.97 275.013 3907
2241.31 275.013 3907
2209.18 269.945 3835
2208.52 268.748 3818
2243.2 271.845 3862
2262.94 273.112 3880
2272.22 273.112 3880
2281.49 273.112 3880
2285.46 272.479 3871
2294.72 272.479 3871
2303.97 272.479 3871
2313.23 272.479 3871
2322.49 272.479 3871
2331.74 272.479 3871
2335.56 271.845 3862
2344.79 271.845 3862
2343.05 270.578 3844
2352.25 270.578 3844
2361.44 270.578 3844
2370.63 270.578 3844
2379.82 270.578 3844
2400.2 271.845 3862
2431.9 274.379 3898
2441.22 274.379 3898
2456.2 275.013 3907
2465.54 275.013 3907
2474.88 275.013 3907
2461.34 272.479 3871
2447.62 269.945 3835
2445.9 268.748 3818
2455.03 268.748 3818
2475.13 269.945 3835
2484.3 269.945 3835
2493.47 269.945 3835
2502.64 269.945 3835
2511.81 269.945 3835
2503.89 268.115 3809
2507.06 267.481 3800
2522.11 268.115 3809
2531.22 268.115 3809
2540.32 268.115 3809
2543.41 267.481 3800
2541.08 266.285 3783
2556.19 266.918 3792
2570.67 267.481 3800
2579.76 267.481 3800
2601.11 268.748 3818
2615.71 269.311 3826
2624.86 269.311 3826
2634 269.311 3826
1888.53 187.87 2669
1894.91 187.87 2669
1907.7 188.504 2678
1914.11 188.504 2678
1935.57 189.982 2699
1942.03 189.982 2699
1952.09 190.334 2704
1958.56 190.334 2704
1967.93 190.616 2708
2000.65 193.15 2744
2016.72 194.065 2757
2023.32 194.065 2757
2033.59 194.417 2762
2060.88 196.387 2790
2074.22 197.021 2799
2080.91 197.021 2799
2087.61 197.021 2799
2101.78 197.725 2809
2108.5 197.725 2809
2115.22 197.725 2809
2121.93 197.725 2809
2128.65 197.725 2809
2152.85 199.344 2832
2159.62 199.344 2832
2166.4 199.344 2832
-2339.02 227.381 3124
-2331.54 227.381 3124
-2319.61 226.945 3118
-2307.71 226.508 3112
-2296.57 226.144 3107
-2297.24 226.945 3118
-2289.79 226.945 3118
-2282.33 226.945 3118
-2283.63 227.818 3130
-2276.14 227.818 3130
-2268.66 227.818 3130
-2265.51 228.255 3136
-2262.33 228.691 3142
-2254.82 228.691 3142
-2247.3 228.691 3142
-2239.79 228.691 3142
-2232.28 228.691 3142
-2224.76 228.691 3142
-2213.02 228.255 3136
-2205.52 228.255 3136
-2198.02 228.255 3136
-2190.52 228.255 3136
-2183.02 228.255 3136
-2179.68 228.691 3142
-2188.76 230.438 3166
-2185.32 230.875 3172
-2177.74 230.875 3172
-2178.36 231.748 3184
-2174.84 232.185 3190
-2175.36 233.059 3202
-2167.71 233.059 3202
-2172.87 234.441 3221
-2177.26 235.752 3239
-2190.95 238.081 3271
-2183.13 238.081 3271
-2192.6 239.973 3297
-2193.33 240.919 3310
-2185.42 240.919 3310
-2177.5 240.919 3310
-2174.17 241.429 3317
-2200.85 245.286 3370
-2220.12 248.343 3412
-2211.96 248.343 3412
-2203.81 248.343 3412
-2213.66 250.381 3440
-2214.41 251.4 3454
-2206.15 251.4 3454
-2197.9 251.4 3454
-2198.51 252.419 3468
-2213.59 255.112 3505
-2205.2 255.112 3505
-2196.82 255.112 3505
-2188.44 255.112 3505
-2180.06 255.112 3505
-2171.68 255.112 3505
-2149.72 253.511 3483
-2119.26 250.891 3447
-2115.3 251.4 3454
-2107.04 251.4 3454
-2124.91 254.53 3497
-2121.39 255.112 3505
-2117.23 255.622 3512
-2108.83 255.622 3512
-2100.43 255.622 3512
-2074.76 253.511 3483
-2066.43 253.511 3483
-2040.96 251.4 3454
-2016.23 249.362 3426
-2008.03 249.362 3426
-1999.84 249.362 3426
-1987.58 248.853 3419
-1971.3 247.834 3405
-1963.16 247.834 3405
-1955.01 247.834 3405
-1946.87 247.834 3405
-1930.76 246.815 3391
-1922.65 246.815 3391
-1922.44 247.834 3405
-1914.3 247.834 3405
-1914 248.853 3419
-1905.82 248.853 3419
-1897.64 248.853 3419
-1877.86 247.324 3398
-1869.74 247.324 3398
-1853.94 246.305 3384
-1845.85 246.305 3384
-1837.76 246.305 3384
-1856.16 249.872 3433
-1855.49 250.891 3447
-1854.74 251.91 3461
-1846.47 251.91 3461
-1846.16 253.002 3476
-1837.85 253.002 3476
-1829.53 253.002 3476
-1817.03 252.419 3468
-1805.09 251.91 3461
-1793.18 251.4 3454
-1784.92 251.4 3454
-1780.26 251.91 3461
-1771.98 251.91 3461
-1763.71 251.91 3461
-1763.04 253.002 3476
-1761.79 254.021 3490
-1753.45 254.021 3490
-1745.1 254.021 3490
-1736.76 254.021 3490
-1739.31 255.622 3512
-1730.91 255.622 3512
-1722.51 255.622 3512
-1714.11 255.622 3512
-1705.71 255.622 3512
-1697.31 255.622 3512
-1681.7 254.53 3497
-1673.34 254.53 3497
-1672.12 255.622 3512
-1663.72 255.622 3512
-1655.32 255.622 3512
-1650.68 256.204 3520
-1642.26 256.204 3520
-1633.84 256.204 3520
-1628.66 256.714 3527
-1620.22 256.714 3527
-1611.79 256.714 3527
-1603.35 256.714 3527
-1594.92 256.714 3527
-1593.23 257.806 3542
-1584.76 257.806 3542
-1576.29 257.806 3542
-1567.82 257.806 3542
-1549.67 256.204 3520
-1541.25 256.204 3520
-1519.77 254.021 3490
-1498.86 251.91 3461
-1497.05 253.002 3476
-1501.16 255.112 3505
-1492.77 255.112 3505
-1484.39 255.112 3505
-1466.75 253.511 3483
-1458.42 253.511 3483
-1447.17 253.002 3476
-1438.86 253.002 3476
-1433.43 253.511 3483
-1430.83 254.53 3497
-1422.47 254.53 3497
-1417.34 255.112 3505
-1414.99 256.204 3520
-1415.36 257.806 3542
-1406.89 257.806 3542
-1401.19 258.315 3549
-1395.84 258.897 3557
-1399.42 261.154 3588
-1390.84 261.154 3588
-1384.96 261.663 3595
-1379.43 262.245 3603
-1370.81 262.245 3603
-1362.2 262.245 3603
-1350.57 261.663 3595
-1336.38 260.571 3580
-1327.82 260.571 3580
-1310.78 258.897 3557
-1299.35 258.315 3549
-1285.4 257.223 3534
-1271.89 256.204 3520
-1263.48 256.204 3520
-1246.86 254.53 3497
-1236.02 254.021 3490
-1225.21 253.511 3483
-1216.88 253.511 3483
-1200.92 251.91 3461
-1182.99 249.872 3433
-1169.99 248.853 3419
-1161.82 248.853 3419
-1146.55 247.324 3398
-556.148 120.824 1660
-552.179 120.824 1660
-549.2 121.042 1663
-546.535 121.333 1667
-543.525 121.551 1670
-539.531 121.551 1670
-535.538 121.551 1670
-531.544 121.551 1670
-528.183 121.697 1672
-524.184 121.697 1672
-520.497 121.77 1673
-516.497 121.77 1673
-512.496 121.77 1673
-508.191 121.697 1672
-503.59 121.551 1670
-501.092 121.915 1675
-497.68 122.061 1677
-493.67 122.061 1677
-489.66 122.061 1677
-485.65 122.061 1677
-481.065 121.915 1675
-477.06 121.915 1675
-473.054 121.915 1675
-468.209 121.697 1672
-464.21 121.697 1672
-460.212 121.697 1672
-455.668 121.551 1670
-450.863 121.333 1667
-446.341 121.188 1665
-442.359 121.188 1665
-437.588 120.969 1662
-433.092 120.824 1660
-427.054 120.241 1652
-423.104 120.241 1652
-418.646 120.096 1650
-414.198 119.95 1648
-410.008 119.877 1647
-406.069 119.877 1647
-401.643 119.732 1645
-396.258 119.295 1639
-391.86 119.15 1637
-387.946 119.15 1637
-382.858 118.786 1632
-378.955 118.786 1632
-374.363 118.567 1629
-370.241 118.494 1628
-366.347 118.494 1628
-362.454 118.494 1628
-357.46 118.131 1623
-353.579 118.131 1623
-349.698 118.131 1623
-345.817 118.131 1623
-341.514 117.985 1621
-337.43 117.912 1620
-333.556 117.912 1620
-329.275 117.767 1618
-325.205 117.694 1617
-320.941 117.548 1615
-317.079 117.548 1615
-313.217 117.548 1615
-309.355 117.548 1615
-305.114 117.403 1613
-301.257 117.403 1613
-297.216 117.33 1612
-292.997 117.184 1610
-288.967 117.112 1609
-285.12 117.112 1609
-281.272 117.112 1609
-277.425 117.112 1609
-273.067 116.893 1606
-269.226 116.893 1606
-265.056 116.748 1604
-261.057 116.675 1603
-257.224 116.675 1603
-253.549 116.748 1604
-250.024 116.893 1606
-246.184 116.893 1606
-242.494 116.966 1607
-238.948 117.112 1609
-235.685 117.403 1613
-231.828 117.403 1613
-228.254 117.548 1615
-224.67 117.694 1617
-221.622 118.131 1623
-217.741 118.131 1623
-214.255 118.349 1626
-211.014 118.713 1631
-207.495 118.931 1634
-203.587 118.931 1634
-200.291 119.295 1639
-197.45 119.95 1648
-194.096 120.314 1653
-190.143 120.314 1653
-186.979 120.824 1660
-183.891 121.406 1668
-180.658 121.915 1675
-176.652 121.915 1675
-173.368 122.425 1682
-170.051 122.934 1689
-166.307 123.153 1692
-162.261 123.153 1692
-158.402 123.298 1694
-154.624 123.517 1697
-151.365 124.172 1706
-147.285 124.172 1706
-143.625 124.536 1711
-139.941 124.9 1716
-136.155 125.191 1720
-132.042 125.191 1720
-128.077 125.336 1722
-123.959 125.336 1722
-119.842 125.336 1722
-115.724 125.336 1722
-213.203 269.233 3699
-204.357 269.233 3699
-195.512 269.233 3699
-185.859 268.068 3683
-175.465 265.666 3650
-166.737 265.666 3650
-157.013 263.992 3627
-148.34 263.992 3627
-139.359 263.41 3619
-130.705 263.41 3619
-121.781 262.828 3611
-113.146 262.828 3611
-104.974 263.992 3627
-96.5129 264.575 3635
-87.8205 264.575 3635
-79.1281 264.575 3635
-70.4357 264.575 3635
-61.7433 264.575 3635
-53.0509 264.575 3635
-44.3585 264.575 3635
-35.7348 265.084 3642
-27.0257 265.084 3642
-18.3166 265.084 3642
-9.60747 265.084 3642
-0.898341 265.084 3642
7.79577 264.575 3635
16.4882 264.575 3635
25.1805 264.575 3635
33.8729 264.575 3635
42.5653 264.575 3635
51.2577 264.575 3635
59.9501 264.575 3635
68.7747 265.084 3642
78.0157 266.904 3667
86.9739 267.486 3675
95.7619 267.486 3675
104.55 267.486 3675
113.585 268.068 3683
122.392 268.068 3683
131.199 268.068 3683
140.006 268.068 3683
148.813 268.068 3683
157.621 268.068 3683
266.81 271.635 3732
275.734 271.635 3732
284.658 271.635 3732
289.728 268.068 3683
299.184 268.651 3691
308.678 269.233 3699
317.523 269.233 3699
326.368 269.233 3699
334.489 268.651 3691
343.315 268.651 3691
347.467 265.084 3642
353.144 262.828 3611
357.17 259.48 3565
365.695 259.48 3565
372.541 258.315 3549
379.417 257.223 3534
384.685 255.112 3505
390.6 253.511 3483
398.928 253.511 3483
403.867 251.4 3454
407.95 248.853 3419
410.162 245.286 3370
418.221 245.286 3370
423.75 243.831 3350
428.281 241.866 3323
433.601 240.41 3303
441.5 240.41 3303
448.582 239.973 3297
456.466 239.973 3297
464.35 239.973 3297
472.234 239.973 3297
478.225 239.027 3284
485.19 238.59 3278
495.887 239.973 3297
507.744 241.866 3323
520.966 244.34 3357
528.994 244.34 3357
549.179 249.872 3433
557.389 249.872 3433
577.46 255.112 3505
585.842 255.112 3505
614.907 263.992 3627
626.159 265.084 3642
634.868 265.084 3642
647.995 266.904 3667
656.764 266.904 3667
666.984 267.486 3675
675.773 267.486 3675
684.561 267.486 3675
693.349 267.486 3675
702.137 267.486 3675
712.472 268.068 3683
721.279 268.068 3683
730.087 268.068 3683
735.684 266.904 3667
744.453 266.904 3667
753.222 266.904 3667
760.12 266.249 3658
772.441 267.486 3675
781.229 267.486 3675
790.017 267.486 3675
797.066 266.904 3667
805.835 266.904 3667
816.381 267.486 3675
825.169 267.486 3675
833.957 267.486 3675
842.745 267.486 3675
851.533 267.486 3675
858.449 266.904 3667
867.217 266.904 3667
883.631 269.233 3699
892.476 269.233 3699
901.321 269.233 3699
910.167 269.233 3699
919.012 269.233 3699
927.858 269.233 3699
943.034 271.052 3724
951.939 271.052 3724
964.973 272.217 3740
973.916 272.217 3740
982.86 272.217 3740
991.803 272.217 3740
994.325 270.47 3716
1000.78 269.815 3707
1009.65 269.815 3707
1018.51 269.815 3707
1027.37 269.815 3707
1038.76 270.47 3716
1047.64 270.47 3716
1056.53 270.47 3716
1065.41 270.47 3716
1074.3 270.47 3716
1083.19 270.47 3716
1092.07 270.47 3716
1100.96 270.47 3716
1114.62 271.635 3732
1123.55 271.635 3732
1132.47 271.635 3732
1141.4 271.635 3732
1150.32 271.635 3732
1151.48 269.815 3707
1160.34 269.815 3707
1166.68 269.233 3699
1180.93 270.47 3716
1189.82 270.47 3716
1209.35 272.872 3749
1218.31 272.872 3749
1229.9 273.454 3757
1238.88 273.454 3757
1247.87 273.454 3757
1256.85 273.454 3757
1271.56 274.692 3774
1280.59 274.692 3774
1289.61 274.692 3774
1298.64 274.692 3774
1301.77 273.454 3757
1302.03 271.635 3732
1313.77 272.217 3740
1322.71 272.217 3740
1331.66 272.217 3740
1340.6 272.217 3740
1352.79 272.872 3749
1364.66 273.454 3757
1373.64 273.454 3757
1395.51 276.002 3792
1404.58 276.002 3792
1413.64 276.002 3792
1422.71 276.002 3792
1431.78 276.002 3792
1443.89 276.584 3800
1452.97 276.584 3800
1462.06 276.584 3800
1471.15 276.584 3800
1470.11 274.692 3774
1479.13 274.692 3774
1481.45 273.454 3757
1490.44 273.454 3757
1509.8 275.347 3783
1522.46 276.002 3792
1531.53 276.002 3792
1547.5 277.239 3809
1570.91 279.787 3844
1580.1 279.787 3844
1589.3 279.787 3844
1594.75 279.132 3835
1603.92 279.132 3835
1595 276.002 3792
1604.07 276.002 3792
1613.14 276.002 3792
1622.2 276.002 3792
1631.27 276.002 3792
1640.34 276.002 3792
1638.1 274.109 3766
1632.23 271.635 3732
1634.12 270.47 3716
1643.01 270.47 3716
1651.89 270.47 3716
1679.1 273.454 3757
1688.09 273.454 3757
1720.56 277.239 3809
1729.67 277.239 3809
1738.78 277.239 3809
1728.16 274.109 3766
1737.16 274.109 3766
1746.17 274.109 3766
1755.17 274.109 3766
1764.18 274.109 3766
1768.95 273.454 3757
1777.93 273.454 3757
1778.83 272.217 3740
1772 269.815 3707
1777.02 269.233 3699
1785.86 269.233 3699
1783.07 267.486 3675
1779.66 265.666 3650
1777.12 263.992 3627
1797.12 265.666 3650
1805.85 265.666 3650
1814.58 265.666 3650
1803.82 262.828 3611
1808.44 262.245 3603
1817.06 262.245 3603
1806.42 259.48 3565
1806.8 258.315 3549
1807.61 257.223 3534
1816.06 257.223 3534
1813.16 255.622 3512
1810.14 254.021 3490
1822.14 254.53 3497
1842.54 256.204 3520
1850.96 256.204 3520
1863.07 256.714 3527
1875.22 257.223 3534
1895.93 258.897 3557
1908.72 259.48 3565
1917.24 259.48 3565
1925.77 259.48 3565
1929.95 258.897 3557
1938.46 258.897 3557
1946.97 258.897 3557
1989.56 263.41 3619
2010.91 265.084 3642
2028.49 266.249 3658
2037.24 266.249 3658
2064.44 268.651 3691
2100.79 272.217 3740
2158.25 278.477 3826
2167.4 278.477 3826
2222.63 284.372 3907
2231.97 284.372 3907
2241.31 284.372 3907
2209.18 279.132 3835
2208.52 277.894 3818
2243.2 281.097 3862
2262.94 282.407 3880
2272.22 282.407 3880
2281.49 282.407 3880
2285.46 281.752 3871
2294.72 281.752 3871
2303.97 281.752 3871
2313.23 281.752 3871
2322.49 281.752 3871
2331.74 281.752 3871
2335.56 281.097 3862
2344.79 281.097 3862
2343.05 279.787 3844
2352.25 279.787 3844
2361.44 279.787 3844
2370.63 279.787 3844
2379.82 279.787 3844
2400.2 281.097 3862
2431.9 283.717 3898
2441.22 283.717 3898
2456.2 284.372 3907
2465.54 284.372 3907
2474.88 284.372 3907
2461.34 281.752 3871
2447.62 279.132 3835
2445.9 277.894 3818
2455.03 277.894 3818
2475.13 279.132 3835
2484.3 279.132 3835
2493.47 279.132 3835
2502.64 279.132 3835
2511.81 279.132 3835
2503.89 277.239 3809
2507.06 276.584 3800
2522.11 277.239 3809
2531.22 277.239 3809
2540.32 277.239 3809
2543.41 276.584 3800
2541.08 275.347 3783
2556.19 276.002 3792
2570.67 276.584 3800
2579.76 276.584 3800
2601.11 277.894 3818
2615.71 278.477 3826
2624.86 278.477 3826
2634 278.477 3826
1870.84 192.444 2644
1877.16 192.444 2644
1895.59 193.682 2661
1901.96 193.682 2661
1908.32 193.682 2661
1939.15 196.156 2695
1945.59 196.156 2695
1952.04 196.156 2695
1961.39 196.448 2699
1994.09 199.068 2735
2010.14 200.014 2748
2016.71 200.014 2748
2033.59 201.033 2762
2050.54 202.052 2776
2070.51 203.362 2794
2077.2 203.362 2794
2087.61 203.726 2799
2098.04 204.09 2804
2108.5 204.454 2809
2115.22 204.454 2809
2121.93 204.454 2809
2128.65 204.454 2809
2149.81 205.837 2828
2156.57 205.837 2828
2163.34 205.837 2828
-2339.02 234.865 3124
-2331.54 234.865 3124
-2319.61 234.414 3118
-2307.71 233.963 3112
-2296.57 233.587 3107
-2297.24 234.414 3118
-2289.79 234.414 3118
-2282.33 234.414 3118
-2283.63 235.316 3130
-2276.14 235.316 3130
-2268.66 235.316 3130
-2265.51 235.767 3136
-2266.65 236.669 3148
-2259.12 236.669 3148
-2251.6 236.669 3148
-2244.07 236.669 3148
-2236.54 236.669 3148
-2229.01 236.669 3148
-2221.48 236.669 3148
-2213.96 236.669 3148
-2206.43 236.669 3148
-2224.05 239.376 3184
-2216.43 239.376 3184
-2212.98 239.827 3190
-2209.5 240.278 3196
-2253.53 245.916 3271
-2245.71 245.916 3271
-2246.78 246.894 3284
-2247.79 247.871 3297
-2267.08 250.878 3337
-2259.1 250.878 3337
-2292.27 255.464 3398
-2302.97 257.569 3426
-2313.53 259.674 3454
-2305.27 259.674 3454
-2311.64 261.328 3476
-2303.33 261.328 3476
-2295.02 261.328 3476
-2286.7 261.328 3476
-2278.39 261.328 3476
-2293.59 264.035 3512
-2299.51 265.689 3534
-2291.06 265.689 3534
-2282.61 265.689 3534
-2265.15 264.636 3520
-2256.73 264.636 3520
-2248.31 264.636 3520
-2258.35 266.817 3549
-2249.86 266.817 3549
-2241.37 266.817 3549
-2232.89 266.817 3549
-2234.43 268.02 3565
-2225.9 268.02 3565
-2217.38 268.02 3565
-2208.85 268.02 3565
-2172.55 264.636 3520
-2145.69 262.381 3490
-2137.35 262.381 3490
-2129 262.381 3490
-2134.02 264.035 3512
-2125.63 264.035 3512
-2126.27 265.163 3527
-2117.84 265.163 3527
-2109.4 265.163 3527
-2092.03 264.035 3512
-2083.63 264.035 3512
-2053.96 261.328 3476
-2032.7 259.674 3454
-2012.14 258.096 3433
-2003.93 258.096 3433
-1991.65 257.569 3426
-1983.46 257.569 3426
-1967.19 256.517 3412
-1959.03 256.517 3412
-1950.87 256.517 3412
-1938.73 255.991 3405
-1930.59 255.991 3405
-1926.4 256.517 3412
-1918.24 256.517 3412
-1917.91 257.569 3426
-1909.72 257.569 3426
-1901.53 257.569 3426
-1885.6 256.517 3412
-1877.44 256.517 3412
-1857.78 254.938 3391
-1849.67 254.938 3391
-1837.76 254.412 3384
-1859.94 258.622 3440
-1863.02 260.201 3461
-1862.78 261.328 3476
-1854.47 261.328 3476
-1849.88 261.855 3483
-1841.55 261.855 3483
-1833.22 261.855 3483
-1824.89 261.855 3483
-1805.09 260.201 3461
-1796.81 260.201 3461
-1788.53 260.201 3461
-1780.26 260.201 3461
-1771.98 260.201 3461
-1763.71 260.201 3461
-1763.04 261.328 3476
-1769.36 263.509 3505
-1760.98 263.509 3505
-1752.6 263.509 3505
-1747.7 264.035 3512
-1743.27 264.636 3520
-1734.85 264.636 3520
-1726.43 264.636 3520
-1718.02 264.636 3520
-1709.6 264.636 3520
-1701.18 264.636 3520
-1688.92 264.035 3512
-1680.52 264.035 3512
-1675.93 264.636 3520
-1667.51 264.636 3520
-1676.53 267.418 3557
-1668.03 267.418 3557
-1659.52 267.418 3557
-1651.02 267.418 3557
-1642.51 267.418 3557
-1634 267.418 3557
-1625.5 267.418 3557
-1616.99 267.418 3557
-1608.49 267.418 3557
-1606.73 268.546 3572
-1598.19 268.546 3572
-1589.64 268.546 3572
-1570.92 266.817 3549
-1559.35 266.29 3542
-1550.88 266.29 3542
-1532.83 264.636 3520
-1511.42 262.381 3490
-1509.54 263.509 3505
-1504.15 264.035 3512
-1495.76 264.035 3512
-1487.36 264.035 3512
-1476.01 263.509 3505
-1467.63 263.509 3505
-1453 262.381 3490
-1459.97 265.163 3527
-1451.54 265.163 3527
-1443.11 265.163 3527
-1434.67 265.163 3527
-1432.3 266.29 3542
-1429.86 267.418 3557
-1430.55 269.147 3580
-1421.99 269.147 3580
-1416.58 269.749 3588
-1413.89 270.876 3603
-1408.39 271.478 3611
-1399.76 271.478 3611
-1391.12 271.478 3611
-1388.62 272.681 3627
-1379.94 272.681 3627
-1371.27 272.681 3627
-1356.58 271.478 3611
-1344.96 270.876 3603
-1336.35 270.876 3603
-1319.26 269.147 3580
-1299.35 266.817 3549
-1290.86 266.817 3549
-1276.95 265.689 3534
-1268.5 265.689 3534
-1255.06 264.636 3520
-1238.5 262.907 3497
-1225.21 261.855 3483
-1216.88 261.855 3483
-1200.92 260.201 3461
-1182.99 258.096 3433
-1169.99 257.043 3419
-1161.82 257.043 3419
-1146.55 255.464 3398
-552.128 123.898 1648
-548.187 123.898 1648
-548.209 124.8 1660
-545.223 125.026 1663
-541.897 125.176 1665
-537.916 125.176 1665
-533.934 125.176 1665
-531.544 125.552 1670
-528.183 125.702 1672
-524.184 125.702 1672
-520.186 125.702 1672
-516.188 125.702 1672
-510.964 125.402 1668
-507.583 125.552 1670
-503.59 125.552 1670
-500.494 125.777 1673
-497.087 125.928 1675
-493.081 125.928 1675
-489.076 125.928 1675
-485.071 125.928 1675
-481.065 125.928 1675
-477.06 125.928 1675
-472.489 125.777 1673
-467.649 125.552 1670
-463.655 125.552 1670
-459.662 125.552 1670
-455.668 125.552 1670
-450.863 125.326 1667
-446.341 125.176 1665
-442.359 125.176 1665
-437.851 125.026 1663
-433.092 124.8 1660
-427.313 124.274 1653
-423.36 124.274 1653
-418.646 124.048 1650
-414.7 124.048 1650
-410.008 123.823 1647
-406.069 123.823 1647
-402.131 123.823 1647
-396.5 123.297 1640
-391.621 122.996 1636
-387.709 122.996 1636
-383.327 122.845 1634
-378.955 122.695 1632
-374.363 122.47 1629
-370.241 122.394 1628
-366.347 122.394 1628
-362.454 122.394 1628
-357.46 122.018 1623
-353.579 122.018 1623
-349.698 122.018 1623
-345.817 122.018 1623
-341.936 122.018 1623
-337.43 121.793 1620
-333.556 121.793 1620
-329.275 121.643 1618
-325.205 121.567 1617
-320.941 121.417 1615
-317.079 121.417 1615
-313.217 121.417 1615
-309.355 121.417 1615
-305.114 121.267 1613
-301.257 121.267 1613
-297.216 121.191 1612
-292.997 121.041 1610
-288.967 120.966 1609
-285.12 120.966 1609
-281.272 120.966 1609
-277.425 120.966 1609
-273.067 120.74 1606
-269.226 120.74 1606
-265.056 120.59 1604
-261.057 120.515 1603
-257.224 120.515 1603
-253.549 120.59 1604
-250.024 120.74 1606
-246.184 120.74 1606
-242.494 120.816 1607
-238.948 120.966 1609
-235.685 121.267 1613
-231.828 121.267 1613
-228.254 121.417 1615
-224.67 121.567 1617
-221.622 122.018 1623
-217.741 122.018 1623
-214.519 122.394 1628
-211.014 122.62 1631
-208.13 123.221 1639
-204.21 123.221 1639
-200.658 123.447 1642
-198.049 124.274 1653
-194.683 124.65 1658
-190.718 124.65 1658
-187.767 125.326 1667
-184.443 125.777 1673
-181.197 126.304 1680
-177.18 126.304 1680
-173.677 126.68 1685
-170.152 127.056 1690
-166.503 127.356 1694
-162.453 127.356 1694
-158.495 127.431 1695
-154.624 127.582 1697
-151.365 128.258 1706
-147.285 128.258 1706
-143.625 128.634 1711
-139.941 129.01 1716
-135.838 129.01 1716
-131.735 129.01 1716
-128.077 129.461 1722
-123.959 129.461 1722
-119.842 129.461 1722
-213.664 278.695 3707
-204.799 278.695 3707
-195.935 278.695 3707
-185.455 276.289 3675
-175.85 275.011 3658
-167.103 275.011 3658
-158.355 275.011 3658
-149.281 274.41 3650
-140.552 274.41 3650
-131.824 274.41 3650
-122.59 273.282 3635
-113.898 273.282 3635
-105.408 273.808 3642
-96.6987 273.808 3642
-87.9896 273.808 3642
-79.2805 273.808 3642
-70.4357 273.282 3635
-61.7433 273.282 3635
-53.1531 273.808 3642
-44.444 273.808 3642
-35.8133 274.41 3650
-27.1444 275.011 3658
-18.3971 275.011 3658
-9.64967 275.011 3658
-0.902288 275.011 3658
7.82794 274.41 3650
16.5562 274.41 3650
25.2845 274.41 3650
34.0873 275.011 3658
42.8346 275.011 3658
51.8218 276.289 3675
60.6098 276.289 3675
69.3978 276.289 3675
78.1859 276.289 3675
86.9739 276.289 3675
95.7619 276.289 3675
104.55 276.289 3675
113.585 276.891 3683
122.392 276.891 3683
131.199 276.891 3683
300.348 287.04 3818
309.478 287.04 3818
318.608 287.04 3818
326.193 285.687 3800
333.78 284.409 3783
338.929 281.176 3740
347.873 281.176 3740
352.142 277.492 3691
356.176 273.808 3642
361.779 271.478 3611
370.414 271.478 3611
377.37 270.275 3595
381.887 267.418 3557
387.1 265.163 3527
392.17 262.907 3497
400.532 262.907 3497
405.504 260.727 3468
409.62 258.096 3433
414.422 255.991 3405
422.564 255.991 3405
424.635 252.382 3357
428.281 249.826 3323
433.601 248.322 3303
441.5 248.322 3303
448.582 247.871 3297
456.466 247.871 3297
464.35 247.871 3297
472.234 247.871 3297
478.225 246.894 3284
485.19 246.443 3278
498.895 249.375 3317
508.813 250.352 3330
520.966 252.382 3357
538.764 257.043 3419
557.178 261.855 3483
565.507 261.855 3483
573.836 261.855 3483
624.401 276.891 3683
641.632 280.575 3732
650.557 280.575 3732
662.485 281.853 3749
671.45 281.853 3749
680.415 281.853 3749
689.38 281.853 3749
696.668 281.176 3740
704.103 280.575 3732
713.027 280.575 3732
721.951 280.575 3732
730.876 280.575 3732
738.214 279.973 3724
745.514 279.372 3716
754.4 279.372 3716
759.795 278.094 3699
765.315 276.891 3683
774.122 276.891 3683
782.93 276.891 3683
791.737 276.891 3683
800.544 276.891 3683
809.351 276.891 3683
818.158 276.891 3683
826.965 276.891 3683
835.773 276.891 3683
844.58 276.891 3683
857.094 278.094 3699
865.94 278.094 3699
876.677 278.695 3707
885.542 278.695 3707
896.578 279.372 3716
905.464 279.372 3716
914.35 279.372 3716
925.224 279.973 3724
934.129 279.973 3724
955.696 283.732 3774
964.72 283.732 3774
973.745 283.732 3774
982.77 283.732 3774
991.795 283.732 3774
1000.82 283.732 3774
1005.3 282.454 3757
1014.28 282.454 3757
1023.26 282.454 3757
1032.25 282.454 3757
1041.23 282.454 3757
1052.73 283.131 3766
1061.74 283.131 3766
1070.74 283.131 3766
1079.75 283.131 3766
1088.75 283.131 3766
1100.09 283.732 3774
1109.12 283.732 3774
1120.81 284.409 3783
1134.93 285.687 3800
1144.02 285.687 3800
1153.11 285.687 3800
1162.19 285.687 3800
1171.28 285.687 3800
1172.29 283.732 3774
1181.31 283.732 3774
1184.98 282.454 3757
1196.82 283.131 3766
1208.39 283.732 3774
1220.32 284.409 3783
1229.36 284.409 3783
1241.36 285.086 3792
1250.42 285.086 3792
1259.49 285.086 3792
1268.56 285.086 3792
1283.36 286.364 3809
1295.52 287.04 3818
1304.65 287.04 3818
1313.78 287.04 3818
1316.67 285.687 3800
1325.76 285.687 3800
1334.84 285.687 3800
1341.1 285.086 3792
1350.17 285.086 3792
1359.24 285.086 3792
1374.44 286.364 3809
1386.82 287.04 3818
1395.95 287.04 3818
1414.65 288.995 3844
1430.51 290.348 3862
1439.74 290.348 3862
1448.98 290.348 3862
1458.21 290.348 3862
1467.45 290.348 3862
1476.68 290.348 3862
1485.92 290.348 3862
1495.15 290.348 3862
1497.38 288.995 3844
1506.57 288.995 3844
1515.76 288.995 3844
1539.23 291.702 3880
1574.05 296.513 3944
1587.1 297.19 3953
1596.55 297.19 3953
1617.79 299.37 3982
1635.07 300.798 4001
1652.45 302.227 4020
1662.06 302.227 4020
1671.68 302.227 4020
1681.29 302.227 4020
1690.9 302.227 4020
1708.55 303.655 4039
1718.21 303.655 4039
1727.87 303.655 4039
1737.53 303.655 4039
1747.19 303.655 4039
1740.32 300.798 4001
1733.26 297.942 3963
1730.43 295.836 3935
1739.84 295.836 3935
1736.8 293.731 3907
1775.19 298.618 3972
1784.69 298.618 3972
1794.19 298.618 3972
1786.89 295.836 3935
1742.89 287.04 3818
1752.02 287.04 3818
1761.15 287.04 3818
1758.22 285.086 3792
1767.29 285.086 3792
1776.36 285.086 3792
1785.43 285.086 3792
1794.49 285.086 3792
1795 283.732 3774
1787.77 281.176 3740
1785.19 279.372 3716
1794.07 279.372 3716
1794.71 278.094 3699
1795.75 276.891 3683
1804.56 276.891 3683
1813.37 276.891 3683
1822.18 276.891 3683
1823.03 275.688 3667
1827.3 275.011 3658
1808.44 270.876 3603
1817.06 270.876 3603
1809.97 268.546 3572
1806.8 266.817 3549
1811.71 266.29 3542
1820.18 266.29 3542
1813.16 264.035 3512
1810.14 262.381 3490
1822.14 262.907 3497
1846.2 265.163 3527
1854.64 265.163 3527
1866.77 265.689 3534
1879.47 266.29 3542
1895.93 267.418 3557
1908.72 268.02 3565
1917.24 268.02 3565
1925.77 268.02 3565
1934.29 268.02 3565
1942.82 268.02 3565
1951.34 268.02 3565
1998.35 273.282 3635
2019.74 275.011 3658
2046.79 277.492 3691
2055.62 277.492 3691
2082.9 279.973 3724
2100.79 281.176 3740
2214.1 295.085 3925
2223.48 295.085 3925
2243.68 296.513 3944
2253.11 296.513 3944
2262.54 296.513 3944
2250.66 293.731 3907
2239.17 291.025 3871
2279.8 295.085 3925
2295.02 295.836 3935
2304.42 295.836 3935
2313.83 295.836 3935
2323.24 295.836 3935
2337.99 296.513 3944
2347.42 296.513 3944
2356.85 296.513 3944
2354.88 295.085 3925
2364.27 295.085 3925
2362.77 293.731 3907
2372.11 293.731 3907
2370.48 292.378 3889
2379.78 292.378 3889
2405.67 294.408 3916
2415.03 294.408 3916
2424.4 294.408 3916
2433.76 294.408 3916
2454.98 295.836 3935
2464.39 295.836 3935
2479.46 296.513 3944
2488.89 296.513 3944
2498.32 296.513 3944
2484.23 293.731 3907
2459.1 289.672 3853
2462.55 288.995 3844
2483.32 290.348 3862
2492.55 290.348 3862
2501.79 290.348 3862
2511.03 290.348 3862
2520.26 290.348 3862
2529.5 290.348 3862
2520.98 288.318 3835
2518.94 287.04 3818
2528.07 287.04 3818
2537.2 287.04 3818
2546.33 287.04 3818
2555.46 287.04 3818
2564.59 287.04 3818
2573.72 287.04 3818
2570.67 285.687 3800
2591.98 287.04 3818
2601.11 287.04 3818
2610.24 287.04 3818
2619.37 287.04 3818
2628.5 287.04 3818
1858.81 197.5 2627
1870.77 198.101 2635
1883.48 198.778 2644
1889.81 198.778 2644
1901.87 199.379 2652
1914.68 200.056 2661
1923.94 200.357 2665
1930.31 200.357 2665
1958.48 202.612 2695
1983.88 204.567 2721
2000.63 205.619 2735
2007.17 205.619 2735
2029.91 207.273 2757
2050.54 208.702 2776
2063.84 209.379 2785
2070.5 209.379 2785
2080.89 209.754 2790
2090.56 210.055 2794
2097.24 210.055 2794
2103.92 210.055 2794
2110.6 210.055 2794
2128.65 211.183 2809
2142.21 211.859 2818
