ply
format ascii 1.0
comment File generated
element vertex 2245
property float x
property float y
property float z
end_header
-1477.64 1033 3412
-1469.48 1033 3412
-1464.32 1035.12 3419
-1456.15 1035.12 3419
-1450.94 1037.24 3426
-1448.64 1041.47 3440
-1443.34 1043.59 3447
-1435.1 1043.59 3447
-1432.65 1047.83 3461
-1424.38 1047.83 3461
-1422.24 1052.37 3476
-1413.93 1052.37 3476
-1408.44 1054.49 3483
-1402.93 1056.61 3490
-1394.58 1056.61 3490
-1386.24 1056.61 3490
-1380.66 1058.73 3497
-1372.29 1058.73 3497
-1367.05 1061.15 3505
-1358.67 1061.15 3505
-1356.07 1065.69 3520
-1353.01 1069.93 3534
-1344.56 1069.93 3534
-1336.11 1069.93 3534
-1325.03 1067.81 3527
-1319.21 1069.93 3534
-1310.76 1069.93 3534
-1302.3 1069.93 3534
-1293.85 1069.93 3534
-1282.86 1067.81 3527
-1271.89 1065.69 3520
-1263.48 1065.69 3520
-1252.21 1063.27 3512
-1238.5 1058.73 3497
-1227.67 1056.61 3490
-1219.33 1056.61 3490
-1208.55 1054.49 3483
-1197.81 1052.37 3476
-1184.36 1047.83 3461
-1176.09 1047.83 3461
-1163.09 1043.59 3447
-1145.46 1035.12 3419
-1134.96 1033 3412
-1129.11 1035.12 3419
-1120.94 1035.12 3419
-1115.04 1037.24 3426
-1106.85 1037.24 3426
-1100.9 1039.35 3433
-1092.69 1039.35 3433
-1084.48 1039.35 3433
-1085.05 1047.83 3461
-1076.77 1047.83 3461
-1068.5 1047.83 3461
-1060.22 1047.83 3461
-519.133 517.104 1708
-517.461 519.526 1716
-515.153 521.343 1722
-512.519 522.856 1727
-508.389 522.856 1727
-504.843 523.462 1729
-501.288 524.067 1731
-497.148 524.067 1731
-493.009 524.067 1731
-488.87 524.067 1731
-484.73 524.067 1731
-480.591 524.067 1731
-476.452 524.067 1731
-472.312 524.067 1731
-468.173 524.067 1731
-464.034 524.067 1731
-458.832 522.856 1727
-454.175 522.251 1725
-450.05 522.251 1725
-445.408 521.645 1723
-441.288 521.645 1723
-436.407 520.737 1720
-431.791 520.132 1718
-427.683 520.132 1718
-423.574 520.132 1718
-418.978 519.526 1716
-414.633 519.223 1715
-410.053 518.618 1713
-405.956 518.618 1713
-401.86 518.618 1713
-396.603 517.104 1708
-391.14 515.288 1702
-387.07 515.288 1702
-383 515.288 1702
-378.262 514.379 1699
-373.318 513.168 1695
-369.265 513.168 1695
-364.565 512.26 1692
-360.093 511.655 1690
-355.841 511.352 1689
-351.802 511.352 1689
-347.763 511.352 1689
-343.317 510.746 1687
-339.685 511.352 1689
-335.646 511.352 1689
-331.607 511.352 1689
-327.568 511.352 1689
-323.146 510.746 1687
-319.491 511.352 1689
-315.452 511.352 1689
-311.413 511.352 1689
-307.556 511.655 1690
-303.874 512.26 1692
-300.182 512.866 1694
-296.131 512.866 1694
-292.253 513.168 1695
-289.22 514.985 1701
-285.32 515.288 1702
-281.25 515.288 1702
-277.505 515.893 1704
-274.072 517.104 1708
-269.988 517.104 1708
-265.904 517.104 1708
-262.279 518.012 1711
-258.49 518.618 1713
-254.69 519.223 1715
-250.589 519.223 1715
-246.632 519.526 1716
-242.528 519.526 1716
-238.425 519.526 1716
-234.321 519.526 1716
-230.486 520.132 1718
-226.642 520.737 1720
-222.528 520.737 1720
-218.415 520.737 1720
-214.552 521.343 1722
-210.434 521.343 1722
-206.316 521.343 1722
-202.198 521.343 1722
-198.08 521.343 1722
-193.962 521.343 1722
-189.845 521.343 1722
-134.786 1129.88 3732
-125.861 1129.88 3732
-116.937 1129.88 3732
-107.781 1127.46 3724
-98.8759 1127.46 3724
-79.9988 1112.62 3675
-71.2108 1112.62 3675
-62.4228 1112.62 3675
-53.6347 1112.62 3675
-44.8467 1112.62 3675
-35.9801 1110.2 3667
-27.2112 1110.2 3667
-18.3971 1107.47 3658
-9.62857 1105.05 3650
-0.896615 1100.51 3635
7.77861 1098.09 3627
16.4519 1098.09 3627
24.9589 1090.82 3603
33.5747 1090.82 3603
42.1906 1090.82 3603
50.8065 1090.82 3603
59.2904 1088.4 3595
67.8871 1088.4 3595
76.4839 1088.4 3595
85.0806 1088.4 3595
93.6773 1088.4 3595
102.274 1088.4 3595
110.871 1088.4 3595
119.468 1088.4 3595
128.064 1088.4 3595
136.661 1088.4 3595
145.258 1088.4 3595
153.854 1088.4 3595
162.135 1086.28 3588
170.334 1083.86 3580
178.895 1083.86 3580
187.456 1083.86 3580
196.017 1083.86 3580
204.578 1083.86 3580
213.615 1086.28 3588
222.195 1086.28 3588
230.775 1086.28 3588
238.821 1083.86 3580
247.382 1083.86 3580
255.943 1083.86 3580
264.504 1083.86 3580
273.065 1083.86 3580
282.255 1086.28 3588
291.402 1088.4 3595
299.999 1088.4 3595
308.596 1088.4 3595
317.192 1088.4 3595
324.43 1083.86 3580
336.618 1095.67 3619
345.272 1095.67 3619
353.926 1095.67 3619
362.581 1095.67 3619
371.235 1095.67 3619
379.889 1095.67 3619
385.966 1088.4 3595
389.514 1074.47 3549
398.001 1074.47 3549
401.448 1061.15 3505
403.867 1045.71 3454
409.62 1039.35 3433
412.718 1026.64 3391
420.827 1026.64 3391
428.05 1024.52 3384
435.24 1022.4 3377
439.771 1014.23 3350
447.782 1014.23 3350
455.793 1014.23 3350
460.066 1006.05 3323
467.167 1004.24 3317
475.099 1004.24 3317
482.012 1002.12 3310
489.927 1002.12 3310
496.789 999.997 3303
504.688 999.997 3303
512.586 999.997 3303
520.485 999.997 3303
528.383 999.997 3303
536.281 999.997 3303
545.333 1002.12 3310
553.248 1002.12 3310
561.164 1002.12 3310
569.079 1002.12 3310
576.994 1002.12 3310
584.909 1002.12 3310
594.078 1004.24 3317
602.01 1004.24 3317
609.942 1004.24 3317
617.874 1004.24 3317
625.806 1004.24 3317
633.738 1004.24 3317
641.67 1004.24 3317
649.602 1004.24 3317
657.534 1004.24 3317
668.074 1008.17 3330
676.037 1008.17 3330
684 1008.17 3330
691.963 1008.17 3330
702.659 1012.11 3343
710.653 1012.11 3343
718.647 1012.11 3343
726.641 1012.11 3343
733.317 1010.29 3337
741.296 1010.29 3337
750.623 1012.11 3343
758.617 1012.11 3343
768.217 1014.23 3350
776.228 1014.23 3350
784.238 1014.23 3350
792.249 1014.23 3350
801.932 1016.35 3357
813.097 1020.28 3370
821.155 1020.28 3370
829.214 1020.28 3370
837.273 1020.28 3370
845.331 1020.28 3370
853.39 1020.28 3370
861.449 1020.28 3370
876.732 1028.76 3398
884.857 1028.76 3398
892.983 1028.76 3398
901.109 1028.76 3398
920.473 1041.47 3440
936.258 1049.95 3468
948.636 1054.49 3483
956.965 1054.49 3483
967.234 1056.61 3490
985.923 1067.81 3527
1002.81 1076.9 3557
1011.32 1076.9 3557
1024.13 1081.44 3572
1034.98 1083.86 3580
1045.87 1086.28 3588
1058.86 1090.82 3603
1067.48 1090.82 3603
1083.26 1098.09 3627
1103.98 1110.2 3667
1115.17 1112.62 3675
1123.96 1112.62 3675
1132.75 1112.62 3675
1139.05 1110.2 3667
1147.82 1110.2 3667
1156.59 1110.2 3667
1165.36 1110.2 3667
1174.13 1110.2 3667
1182.9 1110.2 3667
1191.67 1110.2 3667
1197.49 1107.47 3658
1206.24 1107.47 3658
1214.98 1107.47 3658
1223.73 1107.47 3658
1232.48 1107.47 3658
1241.23 1107.47 3658
1249.97 1107.47 3658
1258.72 1107.47 3658
1267.47 1107.47 3658
1273.43 1105.05 3650
1282.15 1105.05 3650
1290.88 1105.05 3650
1299.61 1105.05 3650
1314.43 1110.2 3667
1323.2 1110.2 3667
1331.97 1110.2 3667
1340.74 1110.2 3667
1349.51 1110.2 3667
1358.28 1110.2 3667
1367.05 1110.2 3667
1372.44 1107.47 3658
1381.18 1107.47 3658
1386.89 1105.05 3650
1395.62 1105.05 3650
1401.27 1102.63 3642
1401.08 1095.67 3619
1406.61 1093.25 3611
1415.25 1093.25 3611
1411.66 1083.86 3580
1411.1 1076.9 3557
1419.6 1076.9 3557
1422.09 1072.36 3542
1430.56 1072.36 3542
1432.93 1067.81 3527
1429.11 1058.73 3497
1431.71 1054.49 3483
1440.04 1054.49 3483
1445.46 1052.37 3476
1453.77 1052.37 3476
1465.03 1054.49 3483
1473.36 1054.49 3483
1481.69 1054.49 3483
1496 1058.73 3497
1504.37 1058.73 3497
1512.73 1058.73 3497
1521.09 1058.73 3497
1520.27 1052.37 3476
1528.58 1052.37 3476
1539.99 1054.49 3483
1554.54 1058.73 3497
1562.9 1058.73 3497
1571.27 1058.73 3497
1579.63 1058.73 3497
1587.99 1058.73 3497
1662.25 1037.24 3426
1670.45 1037.24 3426
1692.36 1045.71 3454
1700.62 1045.71 3454
1708.88 1045.71 3454
1717.14 1045.71 3454
1721.9 1043.59 3447
1726.63 1041.47 3440
1734.85 1041.47 3440
1743.08 1041.47 3440
1751.31 1041.47 3440
1763.11 1043.59 3447
1771.36 1043.59 3447
1779.6 1043.59 3447
1787.84 1043.59 3447
1785.14 1037.24 3426
1793.34 1037.24 3426
1768.4 1018.16 3363
1755.31 1006.05 3323
1745.75 996.061 3290
1747.22 992.428 3278
1755.06 992.428 3278
2312.9 1205.57 3982
2322.43 1205.57 3982
2331.95 1205.57 3982
2313.83 1191.34 3935
2306.71 1182.86 3907
2316.06 1182.86 3907
2320.04 1180.14 3898
2307.85 1169.24 3862
2317.09 1169.24 3862
2326.32 1169.24 3862
2335.56 1169.24 3862
2344.79 1169.24 3862
2343.05 1163.79 3844
539.143 214.047 707
540.834 214.047 707
-2361.48 962.442 3154
-2353.94 962.442 3154
-2346.39 962.442 3154
-2334.4 960.611 3148
-2326.87 960.611 3148
-2319.35 960.611 3148
-2311.82 960.611 3148
-2304.29 960.611 3148
-2305.52 964.273 3160
-2302.32 966.104 3166
-2294.75 966.104 3166
-2300.19 971.596 3184
-2296.89 973.427 3190
-2302.18 978.92 3208
-2294.51 978.92 3208
-2296.11 982.887 3221
-2314.69 994.178 3258
-2325.31 1002.11 3284
-2317.46 1002.11 3284
-2313.82 1003.94 3290
-2319.97 1010.05 3310
-2340 1022.25 3350
-2331.99 1022.25 3350
-2342.71 1030.49 3377
-2353.99 1039.03 3405
-2355.49 1043.31 3419
-2347.32 1043.31 3419
-2339.14 1043.31 3419
-2330.96 1043.31 3419
-2322.79 1043.31 3419
-2314.61 1043.31 3419
-2296.99 1039.03 3405
-2288.85 1039.03 3405
-2280.71 1039.03 3405
-2272.57 1039.03 3405
-2269.08 1041.17 3412
-2265.56 1043.31 3419
-2266.63 1047.58 3433
-2258.42 1047.58 3433
-2254.8 1049.71 3440
-2255.71 1053.99 3454
-2256.56 1058.26 3468
-2248.27 1058.26 3468
-2245.14 1060.7 3476
-2236.83 1060.7 3476
-2233.01 1062.84 3483
-2224.68 1062.84 3483
-2216.35 1062.84 3483
-2208.02 1062.84 3483
-2204.11 1064.97 3490
-2195.77 1064.97 3490
-2196.82 1069.55 3505
-2192.81 1071.69 3512
-2193.74 1076.26 3527
-2185.31 1076.26 3527
-2181.19 1078.4 3534
-2172.74 1078.4 3534
-2164.29 1078.4 3534
-2155.84 1078.4 3534
-2147.39 1078.4 3534
-2143.78 1080.84 3542
-2139.53 1082.98 3549
-2131.05 1082.98 3549
-2122.56 1082.98 3549
-2114.07 1082.98 3549
-2105.59 1082.98 3549
-2092.96 1080.84 3542
-2084.49 1080.84 3542
-2071.33 1078.4 3534
-2062.88 1078.4 3534
-2054.43 1078.4 3534
-2045.98 1078.4 3534
-2037.53 1078.4 3534
-2029.08 1078.4 3534
-2020.63 1078.4 3534
-2012.18 1078.4 3534
-1999.76 1076.26 3527
-1991.32 1076.26 3527
-1978.95 1074.13 3520
-1970.54 1074.13 3520
-1962.12 1074.13 3520
-1953.7 1074.13 3520
-1945.28 1074.13 3520
-1936.87 1074.13 3520
-1928.45 1074.13 3520
-1920.03 1074.13 3520
-1911.62 1074.13 3520
-1906.98 1076.26 3527
-1902.32 1078.4 3534
-1893.87 1078.4 3534
-1885.41 1078.4 3534
-1876.96 1078.4 3534
-1872.74 1080.84 3542
-1867.96 1082.98 3549
-1859.47 1082.98 3549
-1855.16 1085.42 3557
-1854.44 1089.99 3572
-1861.92 1099.45 3603
-1853.3 1099.45 3603
-1848.78 1101.9 3611
-1848.3 1106.78 3627
-1843.68 1109.22 3635
-1834.99 1109.22 3635
-1829.81 1111.35 3642
-1821.11 1111.35 3642
-1812.4 1111.35 3642
-1803.69 1111.35 3642
-1794.98 1111.35 3642
-1786.27 1111.35 3642
-1777.56 1111.35 3642
-1761.57 1106.78 3627
-1749.03 1104.34 3619
-1740.37 1104.34 3619
-1731.72 1104.34 3619
-1715.45 1099.45 3603
-1706.83 1099.45 3603
-1691.14 1094.88 3588
-1660.99 1080.84 3542
-1652.52 1080.84 3542
-1633.84 1074.13 3520
-1614.8 1067.11 3497
-1577.04 1047.58 3433
-1568.83 1047.58 3433
-1544.71 1036.9 3398
-1530.25 1032.63 3384
-1522.16 1032.63 3384
-1517.2 1034.76 3391
-1509.09 1034.76 3391
-1504.08 1036.9 3398
-1495.96 1036.9 3398
-1490.9 1039.03 3405
-1482.75 1039.03 3405
-1477.64 1041.17 3412
-1469.48 1041.17 3412
-1464.32 1043.31 3419
-1456.15 1043.31 3419
-1450.94 1045.44 3426
-1448.64 1049.71 3440
-1443.34 1051.85 3447
-1435.1 1051.85 3447
-1432.65 1056.12 3461
-1424.38 1056.12 3461
-1422.24 1060.7 3476
-1413.93 1060.7 3476
-1408.44 1062.84 3483
-1402.93 1064.97 3490
-1394.58 1064.97 3490
-1386.24 1064.97 3490
-1380.66 1067.11 3497
-1372.29 1067.11 3497
-1367.05 1069.55 3505
-1358.67 1069.55 3505
-1356.07 1074.13 3520
-1353.01 1078.4 3534
-1344.56 1078.4 3534
-1336.11 1078.4 3534
-1325.03 1076.26 3527
-1316.59 1076.26 3527
-1308.16 1076.26 3527
-1299.73 1076.26 3527
-1291.29 1076.26 3527
-1282.86 1076.26 3527
-1271.89 1074.13 3520
-1263.48 1074.13 3520
-1252.21 1071.69 3512
-1238.5 1067.11 3497
-1225.21 1062.84 3483
-1216.88 1062.84 3483
-1208.55 1062.84 3483
-1197.81 1060.7 3476
-1184.36 1056.12 3461
-1176.09 1056.12 3461
-1163.09 1051.85 3447
-1145.46 1043.31 3419
-1134.96 1041.17 3412
-1126.8 1041.17 3412
-1118.64 1041.17 3412
-1115.04 1045.44 3426
-1106.85 1045.44 3426
-1098.65 1045.44 3426
-1090.46 1045.44 3426
-1082.27 1045.44 3426
-1080.66 1051.85 3447
-1072.42 1051.85 3447
-1064.17 1051.85 3447
-1055.93 1051.85 3447
-519.133 521.196 1708
-515.35 521.501 1709
-514.554 524.857 1720
-512.519 526.993 1727
-508.389 526.993 1727
-504.259 526.993 1727
-500.709 527.604 1729
-496.574 527.604 1729
-492.439 527.604 1729
-488.305 527.604 1729
-484.17 527.604 1729
-480.036 527.604 1729
-475.901 527.604 1729
-471.767 527.604 1729
-467.632 527.604 1729
-463.498 527.604 1729
-458.832 526.993 1727
-454.175 526.383 1725
-449.528 525.773 1723
-445.408 525.773 1723
-441.288 525.773 1723
-436.407 524.857 1720
-431.791 524.247 1718
-427.683 524.247 1718
-423.574 524.247 1718
-418.978 523.637 1716
-414.633 523.332 1715
-410.053 522.721 1713
-405.956 522.721 1713
-401.86 522.721 1713
-396.603 521.196 1708
-391.599 519.975 1704
-387.524 519.975 1704
-383 519.365 1702
-378.707 519.06 1701
-373.758 517.839 1697
-369.7 517.839 1697
-365.211 517.229 1695
-360.519 516.313 1692
-356.051 515.703 1690
-352.01 515.703 1690
-347.969 515.703 1690
-343.724 515.398 1689
-339.886 515.703 1690
-335.845 515.703 1690
-331.804 515.703 1690
-327.762 515.703 1690
-323.529 515.398 1689
-319.491 515.398 1689
-315.638 515.703 1690
-311.597 515.703 1690
-307.92 516.313 1692
-304.233 516.924 1694
-300.359 517.229 1695
-296.306 517.229 1695
-292.598 517.839 1697
-289.22 519.06 1701
-285.32 519.365 1702
-281.25 519.365 1702
-277.505 519.975 1704
-274.072 521.196 1708
-269.988 521.196 1708
-265.904 521.196 1708
-262.279 522.111 1711
-258.49 522.721 1713
-254.69 523.332 1715
-250.589 523.332 1715
-246.632 523.637 1716
-242.811 524.247 1718
-238.703 524.247 1718
-234.595 524.247 1718
-230.755 524.857 1720
-226.905 525.468 1722
-222.917 525.773 1723
-218.796 525.773 1723
-214.676 525.773 1723
-210.556 525.773 1723
-206.675 526.383 1725
-202.55 526.383 1725
-198.655 526.993 1727
-194.526 526.993 1727
-190.396 526.993 1727
-134.786 1138.82 3732
-125.861 1138.82 3732
-116.937 1138.82 3732
-107.781 1136.38 3724
-98.8759 1136.38 3724
-79.9988 1121.42 3675
-71.2108 1121.42 3675
-62.4228 1121.42 3675
-53.6347 1121.42 3675
-44.8467 1121.42 3675
-35.9801 1118.98 3667
-27.2112 1118.98 3667
-18.3971 1116.24 3658
-9.62857 1113.8 3650
-0.896615 1109.22 3635
7.77861 1106.78 3627
16.4519 1106.78 3627
24.9589 1099.45 3603
33.5747 1099.45 3603
42.1906 1099.45 3603
50.8065 1099.45 3603
59.2904 1097.01 3595
67.8871 1097.01 3595
76.4839 1097.01 3595
85.2699 1099.45 3603
93.8858 1099.45 3603
102.502 1099.45 3603
111.118 1099.45 3603
119.733 1099.45 3603
128.349 1099.45 3603
136.965 1099.45 3603
145.258 1097.01 3595
153.854 1097.01 3595
162.451 1097.01 3595
170.715 1094.88 3588
179.295 1094.88 3588
187.875 1094.88 3588
196.455 1094.88 3588
205.035 1094.88 3588
213.615 1094.88 3588
222.195 1094.88 3588
231.225 1097.01 3595
239.822 1097.01 3595
248.419 1097.01 3595
257.015 1097.01 3595
265.612 1097.01 3595
274.209 1097.01 3595
282.255 1094.88 3588
291.402 1097.01 3595
299.999 1097.01 3595
308.596 1097.01 3595
317.192 1097.01 3595
324.43 1092.44 3580
335.13 1099.45 3603
343.746 1099.45 3603
353.926 1104.34 3619
362.581 1104.34 3619
371.235 1104.34 3619
379.049 1101.9 3611
385.215 1094.88 3588
389.514 1082.98 3549
398.001 1082.98 3549
400.532 1067.11 3497
403.867 1053.99 3454
407.95 1043.31 3419
412.718 1034.76 3391
420.827 1034.76 3391
427.165 1030.49 3377
433.436 1026.22 3363
439.771 1022.25 3350
447.782 1022.25 3350
454.841 1020.12 3343
459.235 1012.18 3317
466.181 1010.05 3310
474.096 1010.05 3310
482.012 1010.05 3310
489.927 1010.05 3310
496.789 1007.91 3303
504.688 1007.91 3303
512.586 1007.91 3303
520.485 1007.91 3303
528.383 1007.91 3303
536.281 1007.91 3303
545.333 1010.05 3310
553.248 1010.05 3310
562.35 1012.18 3317
570.282 1012.18 3317
578.214 1012.18 3317
586.146 1012.18 3317
594.078 1012.18 3317
602.01 1012.18 3317
609.942 1012.18 3317
617.874 1012.18 3317
625.806 1012.18 3317
633.738 1012.18 3317
641.67 1012.18 3317
649.602 1012.18 3317
657.534 1012.18 3317
668.074 1016.15 3330
676.037 1016.15 3330
684 1016.15 3330
691.963 1016.15 3330
702.659 1020.12 3343
710.653 1020.12 3343
718.647 1020.12 3343
726.641 1020.12 3343
733.317 1018.28 3337
741.296 1018.28 3337
750.623 1020.12 3343
758.617 1020.12 3343
768.217 1022.25 3350
776.228 1022.25 3350
784.238 1022.25 3350
792.249 1022.25 3350
801.932 1024.39 3357
813.097 1028.35 3370
821.155 1028.35 3370
829.214 1028.35 3370
837.273 1028.35 3370
845.331 1028.35 3370
853.39 1028.35 3370
861.449 1028.35 3370
876.732 1036.9 3398
884.857 1036.9 3398
892.983 1036.9 3398
901.109 1036.9 3398
920.473 1049.71 3440
932.478 1053.99 3454
946.73 1060.7 3476
955.042 1060.7 3476
967.234 1064.97 3490
985.923 1076.26 3527
1000.56 1082.98 3549
1009.05 1082.98 3549
1024.13 1089.99 3572
1032.67 1089.99 3572
1045.87 1094.88 3588
1058.86 1099.45 3603
1067.48 1099.45 3603
1083.26 1106.78 3627
1103.98 1118.98 3667
1115.17 1121.42 3675
1123.96 1121.42 3675
1132.75 1121.42 3675
1141.54 1121.42 3675
1150.33 1121.42 3675
1156.59 1118.98 3667
1165.36 1118.98 3667
1174.13 1118.98 3667
1182.9 1118.98 3667
1191.67 1118.98 3667
1200.44 1118.98 3667
1206.24 1116.24 3658
1214.98 1116.24 3658
1223.73 1116.24 3658
1229.78 1113.8 3650
1235.8 1111.35 3642
1244.51 1111.35 3642
1253.22 1111.35 3642
1261.92 1111.35 3642
1270.63 1111.35 3642
1279.34 1111.35 3642
1288.05 1111.35 3642
1296.76 1111.35 3642
1308.34 1113.8 3650
1319.95 1116.24 3658
1328.7 1116.24 3658
1337.45 1116.24 3658
1346.2 1116.24 3658
1351.98 1113.8 3650
1360.71 1113.8 3650
1369.44 1113.8 3650
1378.16 1113.8 3650
1383.85 1111.35 3642
1392.56 1111.35 3642
1401.27 1111.35 3642
1401.08 1104.34 3619
1406.61 1101.9 3611
1415.25 1101.9 3611
1411.66 1092.44 3580
1414.27 1087.86 3565
1419.6 1085.42 3557
1424.9 1082.98 3549
1433.38 1082.98 3549
1432.93 1076.26 3527
1432.37 1069.55 3505
1434.59 1064.97 3490
1442.94 1064.97 3490
1442.13 1058.26 3468
1453.77 1060.7 3476
1465.03 1062.84 3483
1473.36 1062.84 3483
1481.69 1062.84 3483
1490.02 1062.84 3483
1495.33 1060.7 3476
1503.65 1060.7 3476
1511.96 1060.7 3476
1510.65 1053.99 3454
1509.67 1047.58 3433
1514.79 1045.44 3426
1522.98 1045.44 3426
1528.04 1043.31 3419
1536.22 1043.31 3419
1693.72 1049.71 3440
1719.76 1060.7 3476
1728.07 1060.7 3476
1736.39 1060.7 3476
1740.68 1058.26 3468
1748.98 1058.26 3468
1746.63 1051.85 3447
1751.31 1049.71 3440
1766.69 1053.99 3454
1774.95 1053.99 3454
1783.21 1053.99 3454
1784.21 1049.71 3440
1766.91 1034.76 3391
1775.01 1034.76 3391
1761.56 1022.25 3350
1762.71 1018.28 3337
1752.65 1007.91 3303
2270.91 1178.49 3862
2280.14 1178.49 3862
2289.38 1178.49 3862
2293.26 1175.74 3853
2291.72 1170.25 3835
2300.89 1170.25 3835
2310.06 1170.25 3835
2319.23 1170.25 3835
2328.4 1170.25 3835
2332.08 1167.5 3826
-2361.48 969.997 3154
-2353.94 969.997 3154
-2341.93 968.152 3148
-2334.4 968.152 3148
-2326.87 968.152 3148
-2319.35 968.152 3148
-2311.82 968.152 3148
-2308.68 969.997 3154
-2305.52 971.843 3160
-2302.32 973.688 3166
-2294.75 973.688 3166
-2291.52 975.533 3172
-2292.57 979.224 3184
-2297.88 984.76 3202
-2290.22 984.76 3202
-2291.12 988.45 3214
-2310.43 1000.14 3252
-2311.86 1004.13 3265
-2304.05 1004.13 3265
-2313.82 1011.82 3290
-2319.97 1017.97 3310
-2340 1030.28 3350
-2331.99 1030.28 3350
-2347.56 1040.73 3384
-2363.67 1051.5 3419
-2355.49 1051.5 3419
-2352.12 1053.65 3426
-2343.93 1053.65 3426
-2335.74 1053.65 3426
-2327.54 1053.65 3426
-2314.61 1051.5 3419
-2306.44 1051.5 3419
-2293.56 1049.34 3412
-2290.09 1051.5 3419
-2281.91 1051.5 3419
-2273.73 1051.5 3419
-2274.83 1055.8 3433
-2266.63 1055.8 3433
-2258.42 1055.8 3433
-2263.97 1062.26 3454
-2260.28 1064.41 3461
-2261.77 1069.03 3476
-2253.46 1069.03 3476
-2245.14 1069.03 3476
-2236.83 1069.03 3476
-2228.52 1069.03 3476
-2220.21 1069.03 3476
-2211.89 1069.03 3476
-2203.58 1069.03 3476
-2204.11 1073.33 3490
-2195.77 1073.33 3490
-2191.81 1075.49 3497
-2192.81 1080.1 3512
-2193.74 1084.71 3527
-2185.31 1084.71 3527
-2176.87 1084.71 3527
-2168.44 1084.71 3527
-2160.01 1084.71 3527
-2151.57 1084.71 3527
-2143.14 1084.71 3527
-2143.78 1089.32 3542
-2135.31 1089.32 3542
-2126.84 1089.32 3542
-2118.37 1089.32 3542
-2109.9 1089.32 3542
-2101.43 1089.32 3542
-2092.96 1089.32 3542
-2079.78 1086.86 3534
-2071.33 1086.86 3534
-2062.88 1086.86 3534
-2054.43 1086.86 3534
-2045.98 1086.86 3534
-2037.53 1086.86 3534
-2029.08 1086.86 3534
-2020.63 1086.86 3534
-2004.21 1082.56 3520
-1995.79 1082.56 3520
-1987.37 1082.56 3520
-1974.46 1080.1 3512
-1970.54 1082.56 3520
-1962.12 1082.56 3520
-1953.7 1082.56 3520
-1945.28 1082.56 3520
-1936.87 1082.56 3520
-1924.07 1080.1 3512
-1915.67 1080.1 3512
-1907.27 1080.1 3512
-1898.87 1080.1 3512
-1894.78 1082.56 3520
-1886.36 1082.56 3520
-1877.95 1082.56 3520
-1869.53 1082.56 3520
-1868.51 1086.86 3534
-1864.27 1089.32 3542
-1855.8 1089.32 3542
-1847.33 1089.32 3542
-1850.8 1096.4 3565
-1850.03 1101.01 3580
-1841.47 1101.01 3580
-1844.68 1108.09 3603
-1840.14 1110.55 3611
-1839.62 1115.47 3627
-1830.95 1115.47 3627
-1822.28 1115.47 3627
-1817.61 1117.93 3635
-1808.91 1117.93 3635
-1800.22 1117.93 3635
-1787.59 1115.47 3627
-1778.91 1115.47 3627
-1770.24 1115.47 3627
-1757.68 1113.01 3619
-1741.29 1108.09 3603
-1732.68 1108.09 3603
-1724.06 1108.09 3603
-1715.45 1108.09 3603
-1703.04 1105.62 3595
-1691.14 1103.47 3588
-1664.28 1091.48 3549
-1655.79 1091.48 3549
-1633.84 1082.56 3520
-1614.8 1075.49 3497
-1583.47 1060.11 3447
-1575.23 1060.11 3447
-1554.26 1051.5 3419
-1536.59 1045.04 3398
-1525.31 1042.89 3391
-1520.33 1045.04 3398
-1512.21 1045.04 3398
-1504.08 1045.04 3398
-1495.96 1045.04 3398
-1490.9 1047.19 3405
-1482.75 1047.19 3405
-1483.71 1053.65 3426
-1475.51 1053.65 3426
-1467.32 1053.65 3426
-1459.13 1053.65 3426
-1450.94 1053.65 3426
-1448.64 1057.96 3440
-1443.34 1060.11 3447
-1435.1 1060.11 3447
-1432.65 1064.41 3461
-1424.38 1064.41 3461
-1422.24 1069.03 3476
-1413.93 1069.03 3476
-1408.44 1071.18 3483
-1402.93 1073.33 3490
-1394.58 1073.33 3490
-1386.24 1073.33 3490
-1380.66 1075.49 3497
-1372.29 1075.49 3497
-1367.05 1077.95 3505
-1358.67 1077.95 3505
-1356.07 1082.56 3520
-1353.01 1086.86 3534
-1344.56 1086.86 3534
-1336.11 1086.86 3534
-1325.03 1084.71 3527
-1316.59 1084.71 3527
-1308.16 1084.71 3527
-1299.73 1084.71 3527
-1291.29 1084.71 3527
-1280.31 1082.56 3520
-1269 1080.1 3512
-1260.6 1080.1 3512
-1249.71 1077.95 3505
-1236.02 1073.33 3490
-1225.21 1071.18 3483
-1216.88 1071.18 3483
-1208.55 1071.18 3483
-1197.81 1069.03 3476
-1184.36 1064.41 3461
-1176.09 1064.41 3461
-1163.09 1060.11 3447
-1145.46 1051.5 3419
-1132.63 1047.19 3405
-1124.49 1047.19 3405
-1116.35 1047.19 3405
-1115.04 1053.65 3426
-1106.85 1053.65 3426
-1098.65 1053.65 3426
-1090.46 1053.65 3426
-1080.06 1051.5 3419
-1071.88 1051.5 3419
-1063.71 1051.5 3419
-1055.53 1051.5 3419
-1045.21 1049.34 3412
-519.133 525.287 1708
-515.35 525.595 1709
-514.554 528.978 1720
-512.519 531.13 1727
-508.389 531.13 1727
-504.259 531.13 1727
-500.709 531.746 1729
-496.574 531.746 1729
-492.439 531.746 1729
-488.305 531.746 1729
-484.17 531.746 1729
-480.036 531.746 1729
-475.901 531.746 1729
-471.767 531.746 1729
-467.632 531.746 1729
-463.498 531.746 1729
-458.3 530.515 1725
-454.175 530.515 1725
-449.528 529.9 1723
-445.408 529.9 1723
-441.288 529.9 1723
-436.407 528.978 1720
-431.791 528.363 1718
-427.683 528.363 1718
-423.574 528.363 1718
-418.978 527.747 1716
-414.633 527.44 1715
-410.053 526.825 1713
-405.956 526.825 1713
-401.86 526.825 1713
-396.603 525.287 1708
-391.599 524.057 1704
-387.524 524.057 1704
-383 523.442 1702
-378.707 523.134 1701
-373.758 521.904 1697
-369.7 521.904 1697
-365.211 521.289 1695
-360.519 520.366 1692
-356.051 519.751 1690
-352.01 519.751 1690
-347.969 519.751 1690
-343.724 519.444 1689
-339.886 519.751 1690
-335.845 519.751 1690
-331.804 519.751 1690
-327.762 519.751 1690
-323.529 519.444 1689
-319.491 519.444 1689
-315.638 519.751 1690
-311.597 519.751 1690
-307.92 520.366 1692
-304.233 520.982 1694
-300.359 521.289 1695
-296.306 521.289 1695
-292.598 521.904 1697
-289.22 523.134 1701
-285.32 523.442 1702
-281.25 523.442 1702
-277.505 524.057 1704
-273.752 524.672 1706
-269.988 525.287 1708
-265.904 525.287 1708
-261.973 525.595 1709
-258.188 526.21 1711
-254.69 527.44 1715
-250.589 527.44 1715
-246.632 527.747 1716
-242.811 528.363 1718
-238.703 528.363 1718
-234.595 528.363 1718
-230.755 528.978 1720
-226.905 529.593 1722
-222.917 529.9 1723
-218.796 529.9 1723
-214.676 529.9 1723
-210.556 529.9 1723
-206.675 530.515 1725
-202.55 530.515 1725
-198.655 531.13 1727
-194.526 531.13 1727
-190.396 531.13 1727
-62.4228 1130.23 3675
-53.6347 1130.23 3675
-44.8467 1130.23 3675
-35.9801 1127.77 3667
-27.2112 1127.77 3667
-18.3971 1125 3658
-9.62857 1122.54 3650
-0.896615 1117.93 3635
7.77861 1115.47 3627
16.4519 1115.47 3627
24.9589 1108.09 3603
33.5747 1108.09 3603
42.1906 1108.09 3603
50.8065 1108.09 3603
59.2904 1105.62 3595
67.8871 1105.62 3595
76.4839 1105.62 3595
85.2699 1108.09 3603
93.8858 1108.09 3603
102.502 1108.09 3603
111.118 1108.09 3603
119.733 1108.09 3603
128.349 1108.09 3603
136.965 1108.09 3603
145.581 1108.09 3603
154.197 1108.09 3603
162.813 1108.09 3603
171.429 1108.09 3603
180.044 1108.09 3603
189.079 1110.55 3611
197.714 1110.55 3611
206.806 1113.01 3619
215.46 1113.01 3619
224.115 1113.01 3619
232.769 1113.01 3619
241.423 1113.01 3619
250.077 1113.01 3619
258.731 1113.01 3619
267.385 1113.01 3619
274.819 1108.09 3603
283.435 1108.09 3603
292.051 1108.09 3603
300.667 1108.09 3603
309.282 1108.09 3603
317.192 1105.62 3595
325.155 1103.47 3588
335.13 1108.09 3603
343.746 1108.09 3603
353.926 1113.01 3619
362.581 1113.01 3619
371.235 1113.01 3619
379.049 1110.55 3611
385.215 1103.47 3588
389.514 1091.48 3549
398.001 1091.48 3549
400.532 1075.49 3497
403.867 1062.26 3454
407.95 1051.5 3419
412.718 1042.89 3391
420.827 1042.89 3391
427.165 1038.58 3377
433.436 1034.27 3363
439.771 1030.28 3350
447.782 1030.28 3350
454.841 1028.12 3343
459.235 1020.13 3317
466.181 1017.97 3310
474.096 1017.97 3310
482.012 1017.97 3310
489.927 1017.97 3310
496.789 1015.82 3303
504.688 1015.82 3303
512.586 1015.82 3303
520.485 1015.82 3303
528.383 1015.82 3303
537.418 1017.97 3310
546.487 1020.13 3317
554.419 1020.13 3317
562.35 1020.13 3317
570.282 1020.13 3317
578.214 1020.13 3317
586.146 1020.13 3317
595.153 1021.97 3323
603.099 1021.97 3323
611.045 1021.97 3323
617.874 1020.13 3317
625.806 1020.13 3317
633.738 1020.13 3317
641.67 1020.13 3317
649.602 1020.13 3317
658.723 1021.97 3323
668.074 1024.13 3330
676.037 1024.13 3330
684 1024.13 3330
691.963 1024.13 3330
702.659 1028.12 3343
710.653 1028.12 3343
718.647 1028.12 3343
726.641 1028.12 3343
733.317 1026.28 3337
741.296 1026.28 3337
750.623 1028.12 3343
758.617 1028.12 3343
768.217 1030.28 3350
776.228 1030.28 3350
784.238 1030.28 3350
792.249 1030.28 3350
801.932 1032.43 3357
813.097 1036.43 3370
821.155 1036.43 3370
829.214 1036.43 3370
837.273 1036.43 3370
845.331 1036.43 3370
853.39 1036.43 3370
861.449 1036.43 3370
876.732 1045.04 3398
884.857 1045.04 3398
892.983 1045.04 3398
901.109 1045.04 3398
920.473 1057.96 3440
932.478 1062.26 3454
946.73 1069.03 3476
955.042 1069.03 3476
967.234 1073.33 3490
985.923 1084.71 3527
1000.56 1091.48 3549
1009.05 1091.48 3549
1024.13 1098.55 3572
1032.67 1098.55 3572
1045.87 1103.47 3588
1058.86 1108.09 3603
1067.48 1108.09 3603
1083.26 1115.47 3627
1103.98 1127.77 3667
1115.17 1130.23 3675
1123.96 1130.23 3675
1132.75 1130.23 3675
1141.54 1130.23 3675
1150.33 1130.23 3675
1156.59 1127.77 3667
1165.36 1127.77 3667
1174.13 1127.77 3667
1182.9 1127.77 3667
1191.67 1127.77 3667
1200.44 1127.77 3667
1206.24 1125 3658
1214.98 1125 3658
1223.73 1125 3658
1229.78 1122.54 3650
1235.8 1120.08 3642
1244.51 1120.08 3642
1253.22 1120.08 3642
1261.92 1120.08 3642
1270.63 1120.08 3642
1279.34 1120.08 3642
1288.05 1120.08 3642
1296.76 1120.08 3642
1308.34 1122.54 3650
1319.95 1125 3658
1328.7 1125 3658
1337.45 1125 3658
1346.2 1125 3658
1351.98 1122.54 3650
1360.71 1122.54 3650
1369.44 1122.54 3650
1378.16 1122.54 3650
1383.85 1120.08 3642
1392.56 1120.08 3642
1401.27 1120.08 3642
1401.08 1113.01 3619
1406.61 1110.55 3611
1415.25 1110.55 3611
1411.66 1101.01 3580
1414.27 1096.4 3565
1419.6 1093.94 3557
1424.9 1091.48 3549
1433.38 1091.48 3549
1435.78 1086.86 3534
1435.24 1080.1 3512
1440.76 1077.95 3505
1449.14 1077.95 3505
1445.46 1069.03 3476
1456.7 1071.18 3483
1467.97 1073.33 3490
1476.32 1073.33 3490
1484.66 1073.33 3490
1493.01 1073.33 3490
1495.33 1069.03 3476
1503.65 1069.03 3476
1511.96 1069.03 3476
1510.65 1062.26 3454
1509.67 1055.8 3433
1514.79 1053.65 3426
1522.98 1053.65 3426
1528.04 1051.5 3419
1496.23 1024.13 3330
1719.76 1069.03 3476
1728.07 1069.03 3476
1736.39 1069.03 3476
1744.7 1069.03 3476
1753.01 1069.03 3476
1757.27 1066.57 3468
1751.31 1057.96 3440
1766.69 1062.26 3454
1774.95 1062.26 3454
1783.21 1062.26 3454
1787.84 1060.11 3447
1766.91 1042.89 3391
1775.01 1042.89 3391
1761.56 1030.28 3350
1765.88 1028.12 3343
1756.36 1017.97 3310
-2365.97 979.413 3160
-2358.41 979.413 3160
-2341.93 975.693 3148
-2334.4 975.693 3148
-2326.87 975.693 3148
-2319.35 975.693 3148
-2311.82 975.693 3148
-2308.68 977.553 3154
-2305.52 979.413 3160
-2302.32 981.272 3166
-2294.75 981.272 3166
-2291.52 983.132 3172
-2292.57 986.851 3184
-2297.88 992.43 3202
-2290.22 992.43 3202
-2291.12 996.149 3214
-2310.43 1007.93 3252
-2311.86 1011.96 3265
-2304.05 1011.96 3265
-2313.82 1019.7 3290
-2319.97 1025.9 3310
-2340 1038.3 3350
-2331.99 1038.3 3350
-2347.56 1048.84 3384
-2363.67 1059.69 3419
-2355.49 1059.69 3419
-2352.12 1061.86 3426
-2343.93 1061.86 3426
-2335.74 1061.86 3426
-2327.54 1061.86 3426
-2314.61 1059.69 3419
-2311.16 1061.86 3426
-2302.97 1061.86 3426
-2299.46 1064.03 3433
-2291.25 1064.03 3433
-2283.04 1064.03 3433
-2274.83 1064.03 3433
-2271.25 1066.2 3440
-2263.02 1066.2 3440
-2263.97 1070.54 3454
-2260.28 1072.7 3461
-2261.77 1077.35 3476
-2253.46 1077.35 3476
-2249.66 1079.52 3483
-2241.34 1079.52 3483
-2233.01 1079.52 3483
-2220.21 1077.35 3476
-2206.8 1074.87 3468
-2198.51 1074.87 3468
-2195.27 1077.35 3476
-2186.96 1077.35 3476
-2187.42 1081.69 3490
-2183.45 1083.86 3497
-2189.39 1090.99 3520
-2180.97 1090.99 3520
-2172.55 1090.99 3520
-2164.14 1090.99 3520
-2155.72 1090.99 3520
-2147.3 1090.99 3520
-2143.14 1093.16 3527
-2138.94 1095.33 3534
-2135.31 1097.81 3542
-2126.84 1097.81 3542
-2118.37 1097.81 3542
-2109.9 1097.81 3542
-2101.43 1097.81 3542
-2084.1 1093.16 3527
-2075.67 1093.16 3527
-2067.23 1093.16 3527
-2058.8 1093.16 3527
-2050.36 1093.16 3527
-2041.93 1093.16 3527
-2033.49 1093.16 3527
-2025.06 1093.16 3527
-2016.63 1093.16 3527
-2004.21 1090.99 3520
-1991.25 1088.51 3512
-1982.85 1088.51 3512
-1974.46 1088.51 3512
-1970.54 1090.99 3520
-1962.12 1090.99 3520
-1953.7 1090.99 3520
-1945.28 1090.99 3520
-1936.87 1090.99 3520
-1928.45 1090.99 3520
-1920.03 1090.99 3520
-1907.27 1088.51 3512
-1898.87 1088.51 3512
-1890.47 1088.51 3512
-1882.08 1088.51 3512
-1873.68 1088.51 3512
-1865.28 1088.51 3512
-1856.88 1088.51 3512
-1848.48 1088.51 3512
-1840.08 1088.51 3512
-1843.16 1095.33 3534
-1846.65 1102.46 3557
-1842.28 1104.94 3565
-1833.75 1104.94 3565
-1832.91 1109.59 3580
-1828.42 1112.07 3588
-1823.39 1114.24 3595
-1814.8 1114.24 3595
-1806.2 1114.24 3595
-1801.6 1116.72 3603
-1792.99 1116.72 3603
-1784.37 1116.72 3603
-1775.76 1116.72 3603
-1767.14 1116.72 3603
-1758.53 1116.72 3603
-1746.02 1114.24 3595
-1737.43 1114.24 3595
-1728.83 1114.24 3595
-1720.23 1114.24 3595
-1711.64 1114.24 3595
-1703.04 1114.24 3595
-1683.6 1107.11 3572
-1668.03 1102.46 3557
-1659.52 1102.46 3557
-1647.3 1099.98 3549
-1621.73 1088.51 3512
-1593.12 1074.87 3468
-1584.83 1074.87 3468
-1563.8 1066.2 3440
-1546.08 1059.69 3419
-1534.76 1057.52 3412
-1526.6 1057.52 3412
-1518.44 1057.52 3412
-1507.18 1055.35 3405
-1499.04 1055.35 3405
-1497.03 1059.69 3419
-1488.85 1059.69 3419
-1483.71 1061.86 3426
-1475.51 1061.86 3426
-1467.32 1061.86 3426
-1459.13 1061.86 3426
-1453.9 1064.03 3433
-1448.64 1066.2 3440
-1443.34 1068.37 3447
-1435.1 1068.37 3447
-1426.86 1068.37 3447
-1424.38 1072.7 3461
-1422.24 1077.35 3476
-1413.93 1077.35 3476
-1408.44 1079.52 3483
-1400.12 1079.52 3483
-1394.58 1081.69 3490
-1386.24 1081.69 3490
-1377.89 1081.69 3490
-1369.55 1081.69 3490
-1363.93 1083.86 3497
-1355.57 1083.86 3497
-1356.07 1090.99 3520
-1350.33 1093.16 3527
-1341.9 1093.16 3527
-1333.46 1093.16 3527
-1322.4 1090.99 3520
-1313.98 1090.99 3520
-1305.56 1090.99 3520
-1297.15 1090.99 3520
-1288.73 1090.99 3520
-1277.4 1088.51 3512
-1266.47 1086.34 3505
-1258.09 1086.34 3505
-1249.71 1086.34 3505
-1236.02 1081.69 3490
-1222.75 1077.35 3476
-1214.43 1077.35 3476
-1206.12 1077.35 3476
-1195.05 1074.87 3468
-1181.97 1070.54 3454
-1173.71 1070.54 3454
-1163.09 1068.37 3447
-1145.46 1059.69 3419
-1132.63 1055.35 3405
-1124.49 1055.35 3405
-1116.35 1055.35 3405
-1112.76 1059.69 3419
-1104.59 1059.69 3419
-1096.41 1059.69 3419
-1088.23 1059.69 3419
-1080.06 1059.69 3419
-1071.88 1059.69 3419
-1063.71 1059.69 3419
-1055.53 1059.69 3419
-1045.21 1057.52 3412
-519.133 529.379 1708
-515.35 529.689 1709
-514.554 533.098 1720
-511.925 534.648 1725
-507.8 534.648 1725
-504.259 535.268 1727
-500.709 535.887 1729
-496.574 535.887 1729
-492.439 535.887 1729
-488.305 535.887 1729
-484.17 535.887 1729
-480.036 535.887 1729
-475.901 535.887 1729
-471.767 535.887 1729
-467.632 535.887 1729
-463.498 535.887 1729
-458.3 534.648 1725
-453.649 534.028 1723
-449.528 534.028 1723
-445.15 533.718 1722
-441.032 533.718 1722
-436.407 533.098 1720
-431.791 532.478 1718
-427.185 531.858 1716
-423.081 531.858 1716
-418.978 531.858 1716
-414.633 531.548 1715
-410.053 530.928 1713
-405.956 530.928 1713
-401.86 530.928 1713
-396.603 529.379 1708
-392.059 528.759 1706
-387.979 528.759 1706
-383.45 528.139 1704
-378.93 527.519 1702
-374.199 526.589 1699
-370.136 526.589 1699
-365.211 525.349 1695
-360.945 525.039 1694
-356.894 525.039 1694
-352.843 525.039 1694
-348.381 524.42 1692
-344.335 524.42 1692
-340.288 524.42 1692
-336.242 524.42 1692
-332.196 524.42 1692
-328.15 524.42 1692
-323.721 523.8 1690
-319.68 523.8 1690
-316.012 524.42 1692
-311.966 524.42 1692
-307.92 524.42 1692
-304.233 525.039 1694
-300.359 525.349 1695
-296.306 525.349 1695
-292.598 525.969 1697
-289.22 527.209 1701
-285.32 527.519 1702
-281.25 527.519 1702
-277.505 528.139 1704
-273.752 528.759 1706
-269.988 529.379 1708
-265.904 529.379 1708
-261.973 529.689 1709
-258.188 530.308 1711
-254.393 530.928 1713
-250.297 530.928 1713
-246.632 531.858 1716
-242.811 532.478 1718
-238.703 532.478 1718
-234.595 532.478 1718
-231.023 533.718 1722
-227.037 534.028 1723
-222.917 534.028 1723
-218.796 534.028 1723
-214.925 534.648 1725
-210.8 534.648 1725
-206.915 535.268 1727
-202.785 535.268 1727
-199.116 536.507 1731
-195.765 538.677 1738
-192.16 540.227 1743
-187.992 540.227 1743
-183.824 540.227 1743
-44.7491 1136.55 3667
-35.9801 1136.55 3667
-27.2112 1136.55 3667
-18.3971 1133.76 3658
-9.62857 1131.28 3650
-0.896615 1126.63 3635
7.77861 1124.15 3627
16.4519 1124.15 3627
24.9589 1116.72 3603
33.5002 1114.24 3595
42.0969 1114.24 3595
50.6937 1114.24 3595
59.2904 1114.24 3595
67.8871 1114.24 3595
76.4839 1114.24 3595
85.2699 1116.72 3603
93.8858 1116.72 3603
102.502 1116.72 3603
111.118 1116.72 3603
119.733 1116.72 3603
128.349 1116.72 3603
136.965 1116.72 3603
145.581 1116.72 3603
154.197 1116.72 3603
162.813 1116.72 3603
171.429 1116.72 3603
180.044 1116.72 3603
189.079 1119.2 3611
197.714 1119.2 3611
206.806 1121.68 3619
215.46 1121.68 3619
224.115 1121.68 3619
232.769 1121.68 3619
241.423 1121.68 3619
250.077 1121.68 3619
258.731 1121.68 3619
267.385 1121.68 3619
274.819 1116.72 3603
283.435 1116.72 3603
292.051 1116.72 3603
300.667 1116.72 3603
309.282 1116.72 3603
317.192 1114.24 3595
325.155 1112.07 3588
335.13 1116.72 3603
343.746 1116.72 3603
353.926 1121.68 3619
362.581 1121.68 3619
371.235 1121.68 3619
379.049 1119.2 3611
385.215 1112.07 3588
386.332 1090.99 3520
394.749 1090.99 3520
395.607 1070.54 3454
401.411 1064.03 3433
406.279 1055.35 3405
411.866 1048.84 3384
419.958 1048.84 3384
425.394 1042.33 3363
431.76 1038.3 3350
438.852 1036.13 3343
446.846 1036.13 3343
453.072 1032.1 3330
459.235 1028.07 3317
465.195 1023.73 3303
473.094 1023.73 3303
480.992 1023.73 3303
488.891 1023.73 3303
496.789 1023.73 3303
504.688 1023.73 3303
512.586 1023.73 3303
520.485 1023.73 3303
528.383 1023.73 3303
537.418 1025.9 3310
546.487 1028.07 3317
554.419 1028.07 3317
562.35 1028.07 3317
570.282 1028.07 3317
578.214 1028.07 3317
586.146 1028.07 3317
595.153 1029.93 3323
603.099 1029.93 3323
611.045 1029.93 3323
617.874 1028.07 3317
625.806 1028.07 3317
633.738 1028.07 3317
641.67 1028.07 3317
649.602 1028.07 3317
658.723 1029.93 3323
668.074 1032.1 3330
676.037 1032.1 3330
684 1032.1 3330
691.963 1032.1 3330
701.397 1034.27 3337
709.377 1034.27 3337
717.357 1034.27 3337
725.337 1034.27 3337
733.317 1034.27 3337
741.296 1034.27 3337
750.623 1036.13 3343
758.617 1036.13 3343
768.217 1038.3 3350
776.228 1038.3 3350
784.238 1038.3 3350
792.249 1038.3 3350
801.932 1040.47 3357
811.408 1042.33 3363
821.155 1044.5 3370
829.214 1044.5 3370
837.273 1044.5 3370
845.331 1044.5 3370
853.39 1044.5 3370
861.449 1044.5 3370
874.926 1051.01 3391
884.857 1053.18 3398
892.983 1053.18 3398
901.109 1053.18 3398
914.854 1059.69 3419
928.699 1066.2 3440
940.738 1070.54 3454
948.998 1070.54 3454
963.354 1077.35 3476
977.537 1083.86 3497
994.357 1093.16 3527
1002.79 1093.16 3527
1017.53 1099.98 3549
1028.33 1102.46 3557
1041.21 1107.11 3572
1058.86 1116.72 3603
1067.48 1116.72 3603
1083.26 1124.15 3627
1103.98 1136.55 3667
1115.17 1139.03 3675
1123.96 1139.03 3675
1132.75 1139.03 3675
1141.54 1139.03 3675
1150.33 1139.03 3675
1156.59 1136.55 3667
1165.36 1136.55 3667
1174.13 1136.55 3667
1182.9 1136.55 3667
1191.67 1136.55 3667
1200.44 1136.55 3667
1206.24 1133.76 3658
1214.98 1133.76 3658
1223.73 1133.76 3658
1227.09 1128.8 3642
1235.8 1128.8 3642
1244.51 1128.8 3642
1253.22 1128.8 3642
1261.92 1128.8 3642
1268.19 1126.63 3635
1276.88 1126.63 3635
1282.75 1124.15 3627
1291.42 1124.15 3627
1305.47 1128.8 3642
1317.07 1131.28 3650
1325.79 1131.28 3650
1334.52 1131.28 3650
1343.25 1131.28 3650
1351.98 1131.28 3650
1360.71 1131.28 3650
1369.44 1131.28 3650
1375.14 1128.8 3642
1383.85 1128.8 3642
1392.56 1128.8 3642
1398.58 1126.63 3635
1401.08 1121.68 3619
1406.61 1119.2 3611
1415.25 1119.2 3611
1411.66 1109.59 3580
1414.27 1104.94 3565
1419.6 1102.46 3557
1424.9 1099.98 3549
1433.38 1099.98 3549
1435.78 1095.33 3534
1435.24 1088.51 3512
1440.76 1086.34 3505
1449.14 1086.34 3505
1448.37 1079.52 3483
1459.63 1081.69 3490
1470.92 1083.86 3497
1479.28 1083.86 3497
1487.64 1083.86 3497
1496 1083.86 3497
1501.36 1081.69 3490
1509.7 1081.69 3490
1505.43 1072.7 3461
1501.46 1064.03 3433
1503.52 1059.69 3419
1499.31 1051.01 3391
1507.42 1051.01 3391
1503.02 1042.33 3363
1496.23 1032.1 3330
1719.76 1077.35 3476
1728.07 1077.35 3476
1736.39 1077.35 3476
1744.7 1077.35 3476
1753.01 1077.35 3476
1757.27 1074.87 3468
1751.31 1066.2 3440
1766.69 1070.54 3454
1774.95 1070.54 3454
1783.21 1070.54 3454
1787.84 1068.37 3447
1770.55 1053.18 3398
1778.68 1053.18 3398
1783.12 1051.01 3391
1773.27 1040.47 3357
1760.08 1028.07 3317
-2365.97 986.982 3160
-2358.41 986.982 3160
-2341.93 983.234 3148
-2334.4 983.234 3148
-2322.44 981.36 3142
-2314.93 981.36 3142
-2307.41 981.36 3142
-2308.68 985.108 3154
-2305.52 986.982 3160
-2297.96 986.982 3160
-2290.4 986.982 3160
-2291.52 990.73 3172
-2288.25 992.604 3178
-2297.88 1000.1 3202
-2290.22 1000.1 3202
-2286.84 1001.97 3208
-2310.43 1015.72 3252
-2311.86 1019.78 3265
-2304.05 1019.78 3265
-2309.6 1025.71 3284
-2319.97 1033.83 3310
-2340 1046.33 3350
-2331.99 1046.33 3350
-2347.56 1056.95 3384
-2363.67 1067.88 3419
-2355.49 1067.88 3419
-2352.12 1070.06 3426
-2343.93 1070.06 3426
-2335.74 1070.06 3426
-2327.54 1070.06 3426
-2314.61 1067.88 3419
-2311.16 1070.06 3426
-2302.97 1070.06 3426
-2299.46 1072.25 3433
-2291.25 1072.25 3433
-2283.04 1072.25 3433
-2274.83 1072.25 3433
-2271.25 1074.44 3440
-2263.02 1074.44 3440
-2263.97 1078.81 3454
-2260.28 1081 3461
-2261.77 1085.68 3476
-2253.46 1085.68 3476
-2249.66 1087.87 3483
-2241.34 1087.87 3483
-2233.01 1087.87 3483
-2220.21 1085.68 3476
-2206.8 1083.18 3468
-2198.51 1083.18 3468
-2195.27 1085.68 3476
-2186.96 1085.68 3476
-2187.42 1090.05 3490
-2183.45 1092.24 3497
-2189.39 1099.42 3520
-2180.97 1099.42 3520
-2172.55 1099.42 3520
-2164.14 1099.42 3520
-2155.72 1099.42 3520
-2147.3 1099.42 3520
-2143.14 1101.61 3527
-2138.94 1103.8 3534
-2135.31 1106.29 3542
-2126.84 1106.29 3542
-2118.37 1106.29 3542
-2109.9 1106.29 3542
-2101.43 1106.29 3542
-2084.1 1101.61 3527
-2075.67 1101.61 3527
-2067.23 1101.61 3527
-2058.8 1101.61 3527
-2050.36 1101.61 3527
-2041.93 1101.61 3527
-2033.49 1101.61 3527
-2025.06 1101.61 3527
-2016.63 1101.61 3527
-2004.21 1099.42 3520
-1991.25 1096.92 3512
-1982.85 1096.92 3512
-1974.46 1096.92 3512
-1970.54 1099.42 3520
-1962.12 1099.42 3520
-1953.7 1099.42 3520
-1945.28 1099.42 3520
-1936.87 1099.42 3520
-1928.45 1099.42 3520
-1920.03 1099.42 3520
-1911.62 1099.42 3520
-1903.2 1099.42 3520
-1890.47 1096.92 3512
-1882.08 1096.92 3512
-1873.68 1096.92 3512
-1865.28 1096.92 3512
-1856.88 1096.92 3512
-1848.48 1096.92 3512
-1840.08 1096.92 3512
-1843.16 1103.8 3534
-1846.65 1110.98 3557
-1845.9 1115.66 3572
-1837.35 1115.66 3572
-1832.91 1118.16 3580
-1828.42 1120.66 3588
-1823.39 1122.85 3595
-1814.8 1122.85 3595
-1806.2 1122.85 3595
-1801.6 1125.35 3603
-1792.99 1125.35 3603
-1784.37 1125.35 3603
-1775.76 1125.35 3603
-1767.14 1125.35 3603
-1758.53 1125.35 3603
-1749.91 1125.35 3603
-1741.29 1125.35 3603
-1736.52 1127.85 3611
-1727.89 1127.85 3611
-1719.25 1127.85 3611
-1706.83 1125.35 3603
-1691.14 1120.66 3588
-1675.06 1115.66 3572
-1666.52 1115.66 3572
-1651.02 1110.98 3557
-1638.82 1108.48 3549
-1606.44 1092.24 3497
-1598.08 1092.24 3497
-1580.17 1085.68 3476
-1561.91 1078.81 3454
-1547.35 1074.44 3440
-1539.13 1074.44 3440
-1524.67 1070.06 3426
-1516.48 1070.06 3426
-1505.2 1067.88 3419
-1497.03 1067.88 3419
-1488.85 1067.88 3419
-1489.77 1074.44 3440
-1481.54 1074.44 3440
-1473.32 1074.44 3440
-1459.13 1070.06 3426
-1453.9 1072.25 3433
-1448.64 1074.44 3440
-1443.34 1076.62 3447
-1435.1 1076.62 3447
-1426.86 1076.62 3447
-1424.38 1081 3461
-1422.24 1085.68 3476
-1413.93 1085.68 3476
-1408.44 1087.87 3483
-1400.12 1087.87 3483
-1394.58 1090.05 3490
-1386.24 1090.05 3490
-1377.89 1090.05 3490
-1369.55 1090.05 3490
-1363.93 1092.24 3497
-1355.57 1092.24 3497
-1356.07 1099.42 3520
-1350.33 1101.61 3527
-1341.9 1101.61 3527
-1333.46 1101.61 3527
-1322.4 1099.42 3520
-1313.98 1099.42 3520
-1305.56 1099.42 3520
-1297.15 1099.42 3520
-1288.73 1099.42 3520
-1277.4 1096.92 3512
-1266.47 1094.74 3505
-1258.09 1094.74 3505
-1249.71 1094.74 3505
-1236.02 1090.05 3490
-1222.75 1085.68 3476
-1214.43 1085.68 3476
-1206.12 1085.68 3476
-1195.05 1083.18 3468
-1181.97 1078.81 3454
-1173.71 1078.81 3454
-1163.09 1076.62 3447
-1145.46 1067.88 3419
-1132.63 1063.5 3405
-1124.49 1063.5 3405
-1116.35 1063.5 3405
-1112.76 1067.88 3419
-1104.59 1067.88 3419
-1096.41 1067.88 3419
-1088.23 1067.88 3419
-1080.06 1067.88 3419
-1069.69 1065.69 3412
-1061.53 1065.69 3412
-1053.37 1065.69 3412
-1045.21 1065.69 3412
-1034.92 1063.5 3405
-1026.78 1063.5 3405
-516.05 538.78 1725
-511.925 538.78 1725
-507.8 538.78 1725
-504.259 539.405 1727
-500.709 540.029 1729
-496.574 540.029 1729
-492.439 540.029 1729
-488.305 540.029 1729
-483.61 539.405 1727
-480.036 540.029 1729
-475.901 540.029 1729
-471.767 540.029 1729
-467.632 540.029 1729
-463.498 540.029 1729
-458.3 538.78 1725
-453.649 538.155 1723
-449.268 537.843 1722
-444.633 537.218 1720
-440.52 537.218 1720
-435.899 536.594 1718
-431.791 536.594 1718
-427.185 535.969 1716
-423.081 535.969 1716
-418.978 535.969 1716
-414.633 535.657 1715
-410.053 535.032 1713
-405.956 535.032 1713
-401.86 535.032 1713
-396.603 533.47 1708
-392.059 532.846 1706
-387.979 532.846 1706
-383.9 532.846 1706
-379.375 532.221 1704
-374.199 530.659 1699
-370.136 530.659 1699
-365.642 530.034 1697
-361.158 529.41 1695
-356.894 529.097 1694
-352.843 529.097 1694
-348.792 529.097 1694
-344.335 528.473 1692
-340.691 529.097 1694
-336.64 529.097 1694
-332.589 529.097 1694
-328.538 529.097 1694
-324.104 528.473 1692
-320.058 528.473 1692
-316.385 529.097 1694
-312.335 529.097 1694
-308.284 529.097 1694
-304.233 529.097 1694
-300.359 529.41 1695
-296.306 529.41 1695
-292.598 530.034 1697
-289.22 531.284 1701
-285.152 531.284 1701
-281.084 531.284 1701
-277.18 531.596 1702
-273.752 532.846 1706
-269.988 533.47 1708
-265.904 533.47 1708
-261.973 533.783 1709
-258.188 534.407 1711
-254.393 535.032 1713
-250.297 535.032 1713
-246.919 536.594 1718
-242.811 536.594 1718
-238.703 536.594 1718
-234.595 536.594 1718
-231.023 537.843 1722
-227.037 538.155 1723
-223.175 538.78 1725
-219.05 538.78 1725
-214.925 538.78 1725
-210.8 538.78 1725
-207.394 540.654 1731
-203.255 540.654 1731
-199.921 542.84 1738
-196.328 544.402 1743
-192.601 545.651 1747
-188.423 545.651 1747
-184.246 545.651 1747
-180.068 545.651 1747
-175.89 545.651 1747
-35.8133 1140.03 3650
-27.0851 1140.03 3650
-18.3568 1140.03 3650
-9.589 1135.34 3635
7.69497 1120.66 3588
16.275 1120.66 3588
24.855 1120.66 3588
33.435 1120.66 3588
42.015 1120.66 3588
50.6937 1122.85 3595
59.2904 1122.85 3595
67.8871 1122.85 3595
76.6541 1125.35 3603
85.2699 1125.35 3603
93.8858 1125.35 3603
102.502 1125.35 3603
111.118 1125.35 3603
119.733 1125.35 3603
128.349 1125.35 3603
136.965 1125.35 3603
145.581 1125.35 3603
154.197 1125.35 3603
162.813 1125.35 3603
171.429 1125.35 3603
180.044 1125.35 3603
189.079 1127.85 3611
197.714 1127.85 3611
206.806 1130.34 3619
215.937 1132.84 3627
224.61 1132.84 3627
233.283 1132.84 3627
241.957 1132.84 3627
250.63 1132.84 3627
258.731 1130.34 3619
267.385 1130.34 3619
276.039 1130.34 3619
283.435 1125.35 3603
292.051 1125.35 3603
300.667 1125.35 3603
309.282 1125.35 3603
317.192 1122.85 3595
325.155 1120.66 3588
333.735 1120.66 3588
342.315 1120.66 3588
352.362 1125.35 3603
360.978 1125.35 3603
369.593 1125.35 3603
378.209 1125.35 3603
383.497 1115.66 3572
385.454 1096.92 3512
393.852 1096.92 3512
394.805 1076.62 3447
399.774 1067.88 3419
403.774 1056.95 3384
409.31 1050.39 3363
417.352 1050.39 3363
422.864 1044.14 3343
430.085 1042.27 3337
438.065 1042.27 3337
446.044 1042.27 3337
452.119 1037.89 3323
458.266 1033.83 3310
466.181 1033.83 3310
474.096 1033.83 3310
482.012 1033.83 3310
488.891 1031.65 3303
496.789 1031.65 3303
504.688 1031.65 3303
513.672 1033.83 3310
521.588 1033.83 3310
529.503 1033.83 3310
538.555 1036.02 3317
546.487 1036.02 3317
554.419 1036.02 3317
564.554 1040.08 3330
572.517 1040.08 3330
580.48 1040.08 3330
588.444 1040.08 3330
595.153 1037.89 3323
603.099 1037.89 3323
611.045 1037.89 3323
618.992 1037.89 3323
626.938 1037.89 3323
634.884 1037.89 3323
642.831 1037.89 3323
650.777 1037.89 3323
660.111 1040.08 3330
668.074 1040.08 3330
676.037 1040.08 3330
684 1040.08 3330
691.963 1040.08 3330
701.397 1042.27 3337
709.377 1042.27 3337
717.357 1042.27 3337
725.337 1042.27 3337
731.778 1040.08 3330
739.741 1040.08 3330
749.276 1042.27 3337
757.256 1042.27 3337
766.612 1044.14 3343
774.606 1044.14 3343
784.238 1046.33 3350
792.249 1046.33 3350
801.932 1048.51 3357
811.408 1050.39 3363
821.155 1052.57 3370
829.214 1052.57 3370
837.273 1052.57 3370
845.331 1052.57 3370
853.39 1052.57 3370
861.449 1052.57 3370
873.12 1056.95 3384
883.035 1059.13 3391
892.983 1061.32 3398
901.109 1061.32 3398
912.981 1065.69 3412
924.919 1070.06 3426
935.018 1072.25 3433
943.228 1072.25 3433
957.257 1078.81 3454
973.623 1087.87 3483
990.128 1096.92 3512
1002.79 1101.61 3527
1011.23 1101.61 3527
1024 1106.29 3542
1036.84 1110.98 3557
1052.1 1118.16 3580
1060.66 1118.16 3580
1083.26 1132.84 3627
1106.39 1147.84 3675
1115.17 1147.84 3675
1123.96 1147.84 3675
1132.75 1147.84 3675
1141.54 1147.84 3675
1150.33 1147.84 3675
1153.75 1142.53 3658
1167.9 1147.84 3675
