ply
format ascii 1.0
comment File generated
element vertex 2253
property float x
property float y
property float z
end_header
-151.516 875.087 1805
-147.199 875.087 1805
-185.496 1209.12 2494
-180.036 1212.52 2501
-174.056 1212.52 2501
-168.075 1212.52 2501
-162.807 1217.85 2512
-156.8 1217.85 2512
-150.793 1217.85 2512
-144.786 1217.85 2512
-138.614 1216.4 2509
-132.773 1217.85 2512
-127.573 1225.61 2528
-121.528 1225.61 2528
-115.665 1227.55 2532
-109.74 1229 2535
-103.678 1229 2535
-97.6165 1229 2535
-91.5546 1229 2535
-85.4926 1229 2535
-79.4307 1229 2535
-73.3687 1229 2535
-67.3068 1229 2535
-61.1723 1227.55 2532
-55.1176 1227.55 2532
-49.0628 1227.55 2532
-43.008 1227.55 2532
-36.9532 1227.55 2532
-30.8984 1227.55 2532
-24.8437 1227.55 2532
-18.7592 1225.61 2528
-12.714 1225.61 2528
-6.66877 1225.61 2528
-0.62356 1225.61 2528
5.41308 1223.67 2524
11.4487 1223.67 2524
17.4844 1223.67 2524
23.5573 1225.61 2528
29.6025 1225.61 2528
35.7041 1227.55 2532
41.7589 1227.55 2532
47.8137 1227.55 2532
53.7834 1225.61 2528
59.4499 1217.85 2512
65.2745 1214.46 2505
71.5776 1219.79 2516
77.7175 1221.73 2520
83.7436 1221.73 2520
89.7697 1221.73 2520
95.3776 1216.4 2509
101.377 1216.4 2509
106.864 1210.58 2497
112.338 1205.24 2486
117.949 1201.85 2479
123.877 1201.85 2479
129.805 1201.85 2479
135.733 1201.85 2479
141.033 1196.52 2468
146.935 1196.52 2468
152.155 1191.19 2457
158.031 1191.19 2457
163.172 1185.85 2446
170.058 1193.12 2461
175.943 1193.12 2461
182.567 1197.97 2471
189.391 1203.79 2483
195.565 1205.24 2486
201.509 1205.24 2486
207.454 1205.24 2486
214.086 1209.12 2494
220.667 1212.52 2501
226.648 1212.52 2501
233.373 1216.4 2509
239.372 1216.4 2509
246.057 1219.79 2516
252.073 1219.79 2516
258.09 1219.79 2516
264.946 1223.67 2524
272.163 1229 2535
278.664 1230.94 2539
284.735 1230.94 2539
291.265 1232.88 2543
297.814 1234.82 2547
303.904 1234.82 2547
309.995 1234.82 2547
316.086 1234.82 2547
322.682 1236.76 2551
328.782 1236.76 2551
334.883 1236.76 2551
341.517 1238.7 2555
347.627 1238.7 2555
353.737 1238.7 2555
359.847 1238.7 2555
365.957 1238.7 2555
370.901 1234.82 2547
377.584 1236.76 2551
383.684 1236.76 2551
391.618 1242.58 2563
397.747 1242.58 2563
403.876 1242.58 2563
410.005 1242.58 2563
416.134 1242.58 2563
421.604 1240.64 2559
427.723 1240.64 2559
433.842 1240.64 2559
439.962 1240.64 2559
446.081 1240.64 2559
452.907 1242.58 2563
459.036 1242.58 2563
465.165 1242.58 2563
471.294 1242.58 2563
476.678 1240.64 2559
482.797 1240.64 2559
484.331 1229 2535
489.813 1227.55 2532
496.455 1229 2535
504.103 1232.88 2543
510.184 1232.88 2543
516.265 1232.88 2543
522.346 1232.88 2543
528.427 1232.88 2543
533.667 1230.94 2539
537.401 1225.61 2528
540.866 1219.79 2516
546.883 1219.79 2516
552.899 1219.79 2516
556.472 1214.46 2505
562.462 1214.46 2505
570.949 1219.79 2516
583.157 1232.88 2543
589.238 1232.88 2543
598.128 1238.7 2555
604.238 1238.7 2555
610.348 1238.7 2555
614.527 1234.82 2547
617.694 1229 2535
619.081 1219.79 2516
625.097 1219.79 2516
631.114 1219.79 2516
637.13 1219.79 2516
642.124 1217.85 2512
648.131 1217.85 2512
652.315 1214.46 2505
662.248 1221.73 2520
670.395 1225.61 2528
679.384 1230.94 2539
685.455 1230.94 2539
692.616 1232.88 2543
699.796 1234.82 2547
705.887 1234.82 2547
711.978 1234.82 2547
716.941 1232.88 2543
715.345 1219.79 2516
720.215 1217.85 2512
726.222 1217.85 2512
727.856 1210.58 2497
736.178 1214.46 2505
743.354 1216.4 2509
751.444 1219.79 2516
757.461 1219.79 2516
763.477 1219.79 2516
766.13 1214.46 2505
772.12 1214.46 2505
778.11 1214.46 2505
781.596 1210.58 2497
787.567 1210.58 2497
793.538 1210.58 2497
797.268 1207.18 2490
808.061 1214.46 2505
820.226 1223.67 2524
831.172 1230.94 2539
838.562 1232.88 2543
844.643 1232.88 2543
850.724 1232.88 2543
856.806 1232.88 2543
862.887 1232.88 2543
968.898 1260.03 2599
975.113 1260.03 2599
981.328 1260.03 2599
985.644 1257.6 2594
984.199 1247.91 2574
983.044 1238.7 2555
989.154 1238.7 2555
992.148 1234.82 2547
998.238 1234.82 2547
1002.75 1232.88 2543
1008.83 1232.88 2543
1014.91 1232.88 2543
1017.78 1229 2535
1023.84 1229 2535
1031.53 1230.94 2539
1037.6 1230.94 2539
1043.67 1230.94 2539
1049.75 1230.94 2539
1055.82 1230.94 2539
1061.89 1230.94 2539
1067.96 1230.94 2539
1072.34 1229 2535
1072.02 1221.73 2520
1078.05 1221.73 2520
1074.18 1210.58 2497
1077.12 1207.18 2490
1074.81 1197.97 2471
1080.72 1197.97 2471
1086.63 1197.97 2471
1088.12 1193.12 2461
1097.11 1196.52 2468
1103.02 1196.52 2468
1113.86 1201.85 2479
1119.79 1201.85 2479
1125.72 1201.85 2479
1133.47 1203.79 2483
1139.41 1203.79 2483
1145.35 1203.79 2483
1144.33 1196.52 2468
1150.23 1196.52 2468
1161.28 1201.85 2479
1167.21 1201.85 2479
1173.14 1201.85 2479
1184.3 1207.18 2490
1202.68 1219.79 2516
1212.54 1223.67 2524
1218.58 1223.67 2524
1229.95 1229 2535
1236.01 1229 2535
1247.95 1234.82 2547
1254.05 1234.82 2547
1260.14 1234.82 2547
1266.23 1234.82 2547
1272.32 1234.82 2547
1278.41 1234.82 2547
1276.93 1227.55 2532
1282.99 1227.55 2532
1292.61 1230.94 2539
1298.68 1230.94 2539
1319.14 1244.51 2567
1325.28 1244.51 2567
1331.42 1244.51 2567
1337.55 1244.51 2567
1335.32 1236.76 2551
1337.21 1232.88 2543
1343.29 1232.88 2543
1347.25 1230.94 2539
1345.33 1223.67 2524
1339.05 1212.52 2501
1350.94 1217.85 2512
1363.43 1223.67 2524
1369.47 1223.67 2524
1377.69 1225.61 2528
1383.73 1225.61 2528
1389.78 1225.61 2528
1395.82 1225.61 2528
1419.06 1240.64 2559
1425.18 1240.64 2559
1431.3 1240.64 2559
1437.41 1240.64 2559
1441.28 1238.7 2555
1436.06 1229 2535
1442.12 1229 2535
1450.47 1230.94 2539
1456.54 1230.94 2539
1469.52 1236.76 2551
1475.62 1236.76 2551
1486.37 1240.64 2559
1492.49 1240.64 2559
1503.29 1244.51 2567
1509.43 1244.51 2567
1515.57 1244.51 2567
1521.71 1244.51 2567
1523.09 1240.64 2559
1526.81 1238.7 2555
1535.32 1240.64 2559
1541.44 1240.64 2559
1549.98 1242.58 2563
1556.11 1242.58 2563
1562.24 1242.58 2563
1568.37 1242.58 2563
1572.04 1240.64 2559
1583.09 1244.51 2567
1596.04 1249.85 2578
1607.18 1253.73 2586
1613.36 1253.73 2586
1624.56 1257.6 2594
1630.76 1257.6 2594
1636.96 1257.6 2594
1643.17 1257.6 2594
1639.2 1249.85 2578
1642.81 1247.91 2574
1648.96 1247.91 2574
1650.62 1244.51 2567
1656.76 1244.51 2567
1665.48 1246.45 2571
1671.63 1246.45 2571
1677.78 1246.45 2571
1681.31 1244.51 2567
1687.45 1244.51 2567
1706.12 1253.73 2586
1717.6 1257.6 2594
1723.81 1257.6 2594
1730.01 1257.6 2594
1733.53 1255.67 2590
1739.73 1255.67 2590
1745.92 1255.67 2590
1749.41 1253.73 2586
1750.16 1249.85 2578
1756.33 1249.85 2578
1759.76 1247.91 2574
1763.85 1246.45 2571
1764.49 1242.58 2563
1770.62 1242.58 2563
1773.98 1240.64 2559
1782.88 1242.58 2563
1789.01 1242.58 2563
1795.14 1242.58 2563
1795.64 1238.7 2555
1801.75 1238.7 2555
1799.37 1232.88 2543
1797.64 1227.55 2532
1803.7 1227.55 2532
1804.04 1223.67 2524
1807.2 1221.73 2520
1810.35 1219.79 2516
1816.37 1219.79 2516
1822.38 1219.79 2516
1828.4 1219.79 2516
1829.31 1216.4 2509
1835.31 1216.4 2509
1838.38 1214.46 2505
1841.42 1212.52 2501
1847.4 1212.52 2501
1845.23 1207.18 2490
1851.19 1207.18 2490
1857.14 1207.18 2490
1863.1 1207.18 2490
1872.05 1209.12 2494
1878.02 1209.12 2494
1883.98 1209.12 2494
1895.25 1212.52 2501
1901.23 1212.52 2501
1907.21 1212.52 2501
-1456.51 1167.84 2397
-1450.78 1167.84 2397
-1472.77 1190.25 2443
-1481.94 1202.43 2468
-1485.01 1209.74 2483
-1479.08 1209.74 2483
-1486.19 1220.46 2505
-1496.16 1233.61 2532
-1503.64 1244.82 2555
-1497.53 1244.82 2555
-1491.42 1244.82 2555
-1485.31 1244.82 2555
-1479.2 1244.82 2555
-1459.83 1233.61 2532
-1453.77 1233.61 2532
-1449.43 1235.07 2535
-1443.37 1235.07 2535
-1437.31 1235.07 2535
-1431.25 1235.07 2535
-1427.43 1237.02 2539
-1425.84 1240.92 2547
-1419.75 1240.92 2547
-1413.66 1240.92 2547
-1407.57 1240.92 2547
-1410.28 1248.71 2563
-1404.15 1248.71 2563
-1398.02 1248.71 2563
-1391.89 1248.71 2563
-1385.77 1248.71 2563
-1375.33 1244.82 2555
-1360.65 1237.02 2539
-1346.57 1229.71 2524
-1340.54 1229.71 2524
-1332.39 1227.77 2520
-1326.36 1227.77 2520
-1320.33 1227.77 2520
-1314.31 1227.77 2520
-1304.13 1223.87 2512
-1254.36 1193.66 2450
-1248.51 1193.66 2450
-1242.65 1193.66 2450
-1259 1215.1 2494
-1258.56 1220.46 2505
-1254.57 1222.41 2509
-1248.57 1222.41 2509
-1242.57 1222.41 2509
-1236.57 1222.41 2509
-1232.05 1223.87 2512
-1226.04 1223.87 2512
-1231.2 1235.07 2535
-1230.94 1240.92 2547
-1224.85 1240.92 2547
-1218.76 1240.92 2547
-1212.67 1240.92 2547
-1206.58 1240.92 2547
-1200.49 1240.92 2547
-1188.77 1235.07 2535
-1177.57 1229.71 2524
-1169.68 1227.77 2520
-1167.35 1231.66 2528
-1161.3 1231.66 2528
-1158.46 1235.07 2535
-1154.21 1237.02 2539
-1148.14 1237.02 2539
-1142.07 1237.02 2539
-1136 1237.02 2539
-1129.93 1237.02 2539
-1123.86 1237.02 2539
-1117.79 1237.02 2539
-1111.71 1237.02 2539
-1103.9 1235.07 2535
-1103.04 1240.92 2547
-1096.95 1240.92 2547
-1092.57 1242.87 2551
-1088.17 1244.82 2555
-1082.06 1244.82 2555
-1075.95 1244.82 2555
-1066.49 1240.92 2547
-1060.4 1240.92 2547
-1055.97 1242.87 2551
-1049.87 1242.87 2551
-1043.77 1242.87 2551
-1037.67 1242.87 2551
-1031.57 1242.87 2551
-1022.25 1238.97 2543
-1016.17 1238.97 2543
-1004.13 1231.66 2528
-998.084 1231.66 2528
-990.469 1229.71 2524
-987.554 1233.61 2532
-981.499 1233.61 2532
-975.444 1233.61 2532
-969.389 1233.61 2532
-963.334 1233.61 2532
-954.255 1229.71 2524
-958.363 1242.87 2551
-953.756 1244.82 2555
-947.646 1244.82 2555
-948.538 1254.07 2574
-943.847 1256.02 2578
-937.682 1256.02 2578
-931.518 1256.02 2578
-923.917 1254.07 2574
-915.266 1250.66 2567
-909.128 1250.66 2567
-901.582 1248.71 2563
-892.658 1244.82 2555
-883.772 1240.92 2547
-877.682 1240.92 2547
-871.591 1240.92 2547
-865.5 1240.92 2547
-860.759 1242.87 2551
-854.659 1242.87 2551
-848.559 1242.87 2551
-842.459 1242.87 2551
-837.67 1244.82 2555
-832.862 1246.77 2559
-826.743 1246.77 2559
-821.906 1248.71 2563
-815.777 1248.71 2563
-809.648 1248.71 2563
-802.265 1246.77 2559
-792.413 1240.92 2547
-779.221 1229.71 2524
-773.186 1229.71 2524
-762.591 1222.41 2509
-757.496 1223.87 2512
-751.489 1223.87 2512
-745.482 1223.87 2512
-538.645 906.207 1860
-534.198 906.207 1860
-529.75 906.207 1860
-524.737 905.233 1858
-521.974 908.156 1864
-517.517 908.156 1864
-513.61 909.131 1866
-509.694 910.105 1868
-505.227 910.105 1868
-500.76 910.105 1868
-495.761 909.131 1866
-491.299 909.131 1866
-485.793 907.182 1862
-481.341 907.182 1862
-476.376 906.207 1860
-470.913 904.259 1856
-466.475 904.259 1856
-462.037 904.259 1856
-457.598 904.259 1856
-452.672 903.284 1854
-447.755 902.31 1852
-443.326 902.31 1852
-438.423 901.335 1850
-433.296 899.874 1847
-427.95 897.925 1843
-423.543 897.925 1843
-417.317 894.027 1835
-411.578 891.104 1829
-405.869 888.181 1823
-401.509 888.181 1823
-395.407 884.283 1815
-388.697 878.924 1804
-382.678 875.026 1796
-378.384 875.026 1796
-371.589 869.18 1784
-365.882 865.769 1777
-359.191 859.923 1765
-350.948 850.179 1745
-346.775 850.179 1745
-341.817 848.23 1741
-336.684 845.794 1736
-331.192 842.383 1729
-327.057 842.383 1729
-322.549 841.409 1727
-318.419 841.409 1727
-314.289 841.409 1727
-310.16 841.409 1727
-306.03 841.409 1727
-302.25 842.383 1729
-298.115 842.383 1729
-294.321 843.358 1731
-290.181 843.358 1731
-286.207 843.845 1732
-282.717 845.794 1736
-279.207 847.742 1740
-275.204 848.23 1741
-271.041 848.23 1741
-267.491 850.179 1745
-263.922 852.127 1749
-260.482 854.563 1754
-256.288 854.563 1754
-252.381 855.538 1756
-249.171 858.948 1763
-245.789 861.872 1769
-241.559 861.872 1769
-237.865 863.82 1773
-234.152 865.769 1777
-231.585 872.103 1790
-227.304 872.103 1790
-223.273 873.077 1792
-220.454 878.924 1804
-216.141 878.924 1804
-211.827 878.924 1804
-207.628 879.411 1805
-203.537 880.385 1807
-199.436 881.36 1809
-195.11 881.36 1809
-190.784 881.36 1809
-186.459 881.36 1809
-182.133 881.36 1809
-177.807 881.36 1809
-173.481 881.36 1809
-169.155 881.36 1809
-164.829 881.36 1809
-160.326 880.385 1807
-156.005 880.385 1807
-151.684 880.385 1807
-147.363 880.385 1807
-183.265 1200.48 2464
-178.453 1207.79 2479
-172.525 1207.79 2479
-166.597 1207.79 2479
-160.669 1207.79 2479
-154.741 1207.79 2479
-148.812 1207.79 2479
-142.884 1207.79 2479
-137.177 1209.74 2483
-132.191 1218.51 2501
-126.967 1225.82 2516
-120.951 1225.82 2516
-115.117 1227.77 2520
-109.264 1229.71 2524
-103.229 1229.71 2524
-97.193 1229.71 2524
-91.1573 1229.71 2524
-85.2566 1231.66 2528
-79.2113 1231.66 2528
-73.1661 1231.66 2528
-67.1209 1231.66 2528
-61.0757 1231.66 2528
-54.9434 1229.71 2524
-48.9853 1231.66 2528
-42.9401 1231.66 2528
-36.8948 1231.66 2528
-30.8496 1231.66 2528
-24.8044 1231.66 2528
-18.7592 1231.66 2528
-12.714 1231.66 2528
-6.65822 1229.71 2524
-0.622574 1229.71 2524
5.41308 1229.71 2524
11.4306 1227.77 2520
17.4567 1227.77 2520
23.52 1229.71 2524
29.5557 1229.71 2524
35.5913 1229.71 2524
41.627 1229.71 2524
47.6626 1229.71 2524
53.443 1223.87 2512
59.1896 1218.51 2501
64.9878 1215.1 2494
70.9517 1215.1 2494
77.2549 1220.46 2505
83.2451 1220.46 2505
89.2353 1220.46 2505
94.5033 1211.2 2486
100.448 1211.2 2486
105.622 1202.43 2468
111.208 1199.02 2461
116.57 1193.66 2450
122.428 1193.66 2450
128.287 1193.66 2450
134.146 1193.66 2450
140.004 1193.66 2450
145.863 1193.66 2450
150.793 1186.35 2435
156.616 1186.35 2435
162.705 1188.3 2439
169.021 1191.71 2446
174.87 1191.71 2446
181.828 1199.02 2461
187.942 1200.48 2464
193.834 1200.48 2464
199.726 1200.48 2464
205.952 1202.43 2468
212.798 1207.79 2479
219.344 1211.2 2486
225.288 1211.2 2486
232.628 1218.51 2501
238.991 1220.46 2505
245.372 1222.41 2509
252.073 1225.82 2516
258.09 1225.82 2516
264.106 1225.82 2516
270.552 1227.77 2520
277.017 1229.71 2524
283.053 1229.71 2524
290.807 1237.02 2539
297.346 1238.97 2543
303.427 1238.97 2543
309.508 1238.97 2543
316.086 1240.92 2547
322.176 1240.92 2547
328.267 1240.92 2547
334.357 1240.92 2547
340.983 1242.87 2551
347.083 1242.87 2551
353.183 1242.87 2551
358.72 1240.92 2547
364.811 1240.92 2547
370.319 1238.97 2543
376.4 1238.97 2543
382.481 1238.97 2543
389.173 1240.92 2547
395.885 1242.87 2551
401.985 1242.87 2551
408.085 1242.87 2551
414.185 1242.87 2551
420.286 1242.87 2551
426.386 1242.87 2551
431.808 1240.92 2547
436.523 1237.02 2539
442.595 1237.02 2539
448.666 1237.02 2539
454.738 1237.02 2539
460.809 1237.02 2539
466.881 1237.02 2539
472.207 1235.07 2535
478.269 1235.07 2535
484.331 1235.07 2535
489.813 1233.61 2532
496.455 1235.07 2535
504.103 1238.97 2543
510.184 1238.97 2543
516.265 1238.97 2543
522.346 1238.97 2543
528.427 1238.97 2543
533.667 1237.02 2539
537.401 1231.66 2528
540.866 1225.82 2516
546.883 1225.82 2516
552.899 1225.82 2516
556.472 1220.46 2505
562.462 1220.46 2505
570.949 1225.82 2516
585.909 1244.82 2555
592.018 1244.82 2555
598.128 1244.82 2555
604.238 1244.82 2555
610.348 1244.82 2555
616.458 1244.82 2555
619.643 1238.97 2543
619.081 1225.82 2516
625.097 1225.82 2516
631.114 1225.82 2516
637.13 1225.82 2516
642.124 1223.87 2512
648.131 1223.87 2512
652.315 1220.46 2505
662.248 1227.77 2520
670.395 1231.66 2528
679.384 1237.02 2539
685.455 1237.02 2539
692.616 1238.97 2543
699.796 1240.92 2547
705.887 1240.92 2547
711.978 1240.92 2547
716.941 1238.97 2543
715.345 1225.82 2516
720.215 1223.87 2512
726.222 1223.87 2512
727.856 1216.56 2497
736.178 1220.46 2505
743.354 1222.41 2509
751.444 1225.82 2516
757.461 1225.82 2516
763.477 1225.82 2516
766.13 1220.46 2505
772.12 1220.46 2505
778.11 1220.46 2505
781.596 1216.56 2497
787.567 1216.56 2497
793.538 1216.56 2497
797.268 1213.15 2490
808.061 1220.46 2505
820.226 1229.71 2524
831.172 1237.02 2539
838.562 1238.97 2543
844.643 1238.97 2543
850.724 1238.97 2543
856.806 1238.97 2543
862.887 1238.97 2543
968.898 1266.25 2599
975.113 1266.25 2599
981.328 1266.25 2599
985.644 1263.82 2594
984.199 1254.07 2574
983.044 1244.82 2555
989.154 1244.82 2555
992.148 1240.92 2547
998.238 1240.92 2547
1002.75 1238.97 2543
1008.83 1238.97 2543
1014.91 1238.97 2543
1017.78 1235.07 2535
1023.84 1235.07 2535
1031.53 1237.02 2539
1037.6 1237.02 2539
1043.67 1237.02 2539
1049.75 1237.02 2539
1055.82 1237.02 2539
1061.89 1237.02 2539
1067.96 1237.02 2539
1072.34 1235.07 2535
1072.02 1227.77 2520
1078.05 1227.77 2520
1074.18 1216.56 2497
1068.9 1203.89 2471
1071.77 1200.48 2464
1076.35 1199.02 2461
1082.23 1199.02 2461
1083.25 1193.66 2450
1090.45 1195.12 2453
1103.02 1202.43 2468
1110.27 1203.89 2471
1116.17 1203.89 2471
1125.72 1207.79 2479
1133.47 1209.74 2483
1139.41 1209.74 2483
1145.35 1209.74 2483
1144.33 1202.43 2468
1150.23 1202.43 2468
1161.28 1207.79 2479
1167.21 1207.79 2479
1173.14 1207.79 2479
1184.3 1213.15 2490
1202.68 1225.82 2516
1212.54 1229.71 2524
1218.58 1229.71 2524
1229.95 1235.07 2535
1236.01 1235.07 2535
1242.08 1235.07 2535
1248.14 1235.07 2535
1262.83 1231.66 2528
1268.87 1231.66 2528
1274.92 1231.66 2528
1274.88 1225.82 2516
1290.57 1235.07 2535
1296.63 1235.07 2535
1308.86 1240.92 2547
1314.95 1240.92 2547
1321.04 1240.92 2547
1327.13 1240.92 2547
1329.04 1237.02 2539
1333 1235.07 2535
1339.07 1235.07 2535
1339.29 1229.71 2524
1333.07 1218.51 2501
1335.3 1215.1 2494
1342.88 1216.56 2497
1351.01 1218.51 2501
1356.99 1218.51 2501
1362.97 1218.51 2501
1366.76 1216.56 2497
1380.98 1223.87 2512
1386.99 1223.87 2512
1399.65 1229.71 2524
1411.81 1235.07 2535
1417.87 1235.07 2535
1423.93 1235.07 2535
1430 1235.07 2535
1434.36 1233.61 2532
1440.41 1233.61 2532
1446.47 1233.61 2532
1452.52 1233.61 2532
1464.91 1238.97 2543
1475.62 1242.87 2551
1488.69 1248.71 2563
1494.82 1248.71 2563
1500.95 1248.71 2563
1504.73 1246.77 2559
1510.85 1246.77 2559
1516.97 1246.77 2559
1520.7 1244.82 2555
1526.81 1244.82 2555
1535.32 1246.77 2559
1541.44 1246.77 2559
1549.98 1248.71 2563
1556.11 1248.71 2563
1562.24 1248.71 2563
1565.92 1246.77 2559
1564.67 1240.92 2547
1573.23 1242.87 2551
1586.76 1248.71 2563
1595.37 1250.66 2567
1601.51 1250.66 2567
1607.65 1250.66 2567
1616.3 1252.61 2571
1622.45 1252.61 2571
1628.6 1252.61 2571
1634.74 1252.61 2571
1630.68 1244.82 2555
1636.79 1244.82 2555
1642.9 1244.82 2555
1651.59 1246.77 2559
1657.71 1246.77 2559
1663.83 1246.77 2559
1667.34 1244.82 2555
1673.45 1244.82 2555
1684.82 1248.71 2563
1693.59 1250.66 2567
1704.36 1254.07 2574
1710.51 1254.07 2574
1719.34 1256.02 2578
1725.5 1256.02 2578
1731.67 1256.02 2578
1737.83 1256.02 2578
1744 1256.02 2578
1750.16 1256.02 2578
1756.33 1256.02 2578
1757.71 1252.61 2571
1761.11 1250.66 2567
1764.49 1248.71 2563
1770.62 1248.71 2563
1773.98 1246.77 2559
1780.1 1246.77 2559
1783.43 1244.82 2555
1789.54 1244.82 2555
1792.83 1242.87 2551
1798.93 1242.87 2551
1799.37 1238.97 2543
1797.64 1233.61 2532
1803.7 1233.61 2532
1804.04 1229.71 2524
1807.2 1227.77 2520
1810.35 1225.82 2516
1816.37 1225.82 2516
1822.38 1225.82 2516
1828.4 1225.82 2516
1829.31 1222.41 2509
1835.31 1222.41 2509
1841.31 1222.41 2509
1841.42 1218.51 2501
1847.4 1218.51 2501
1845.23 1213.15 2490
1851.19 1213.15 2490
1857.14 1213.15 2490
1863.1 1213.15 2490
1869.05 1213.15 2490
1875 1213.15 2490
1880.96 1213.15 2490
1895.25 1218.51 2501
1918.71 1229.71 2524
1930.85 1233.61 2532
1936.9 1233.61 2532
-1456.51 1173.58 2397
-1450.78 1173.58 2397
-1472.77 1196.1 2443
-1481.94 1208.34 2468
-1485.01 1215.69 2483
-1479.08 1215.69 2483
-1486.19 1226.46 2505
-1491.43 1235.76 2524
-1490.1 1239.68 2532
-1484.05 1239.68 2532
-1477.99 1239.68 2532
-1471.94 1239.68 2532
-1465.88 1239.68 2532
-1459.83 1239.68 2532
-1453.77 1239.68 2532
-1449.43 1241.15 2535
-1443.37 1241.15 2535
-1437.31 1241.15 2535
-1431.25 1241.15 2535
-1427.43 1243.1 2539
-1425.84 1247.02 2547
-1419.75 1247.02 2547
-1413.66 1247.02 2547
-1407.57 1247.02 2547
-1410.28 1254.85 2563
-1404.15 1254.85 2563
-1398.02 1254.85 2563
-1391.89 1254.85 2563
-1385.77 1254.85 2563
-1375.33 1250.94 2555
-1360.65 1243.1 2539
-1346.57 1235.76 2524
-1340.54 1235.76 2524
-1332.39 1233.8 2520
-1326.36 1233.8 2520
-1320.33 1233.8 2520
-1314.31 1233.8 2520
-1304.13 1229.88 2512
-1279 1211.77 2475
-1269.48 1208.34 2468
-1261.53 1206.38 2464
-1255.64 1206.38 2464
-1242.65 1199.53 2450
-1259 1221.07 2494
-1258.56 1226.46 2505
-1254.57 1228.42 2509
-1248.57 1228.42 2509
-1242.57 1228.42 2509
-1236.57 1228.42 2509
-1232.05 1229.88 2512
-1226.04 1229.88 2512
-1231.2 1241.15 2535
-1230.94 1247.02 2547
-1224.85 1247.02 2547
-1218.76 1247.02 2547
-1212.67 1247.02 2547
-1206.58 1247.02 2547
-1200.49 1247.02 2547
-1188.77 1241.15 2535
-1177.57 1235.76 2524
-1169.68 1233.8 2520
-1167.35 1237.72 2528
-1161.3 1237.72 2528
-1158.46 1241.15 2535
-1154.21 1243.1 2539
-1148.14 1243.1 2539
-1142.07 1243.1 2539
-1136 1243.1 2539
-1129.93 1243.1 2539
-1123.86 1243.1 2539
-1117.79 1243.1 2539
-1111.71 1243.1 2539
-1103.9 1241.15 2535
-1103.04 1247.02 2547
-1096.95 1247.02 2547
-1092.57 1248.98 2551
-1088.17 1250.94 2555
-1082.06 1250.94 2555
-1075.95 1250.94 2555
-1066.49 1247.02 2547
-1060.4 1247.02 2547
-1055.97 1248.98 2551
-1049.87 1248.98 2551
-1043.77 1248.98 2551
-1037.67 1248.98 2551
-1031.57 1248.98 2551
-1022.25 1245.06 2543
-1016.17 1245.06 2543
-1004.13 1237.72 2528
-998.084 1237.72 2528
-990.469 1235.76 2524
-987.554 1239.68 2532
-982.662 1241.15 2535
-976.6 1241.15 2535
-970.538 1241.15 2535
-964.476 1241.15 2535
-957.28 1239.68 2532
-958.363 1248.98 2551
-953.756 1250.94 2555
-947.646 1250.94 2555
-948.538 1260.24 2574
-943.847 1262.2 2578
-937.682 1262.2 2578
-931.518 1262.2 2578
-923.917 1260.24 2574
-915.266 1256.81 2567
-909.128 1256.81 2567
-901.582 1254.85 2563
-892.658 1250.94 2555
-883.772 1247.02 2547
-877.682 1247.02 2547
-871.591 1247.02 2547
-865.5 1247.02 2547
-860.759 1248.98 2551
-854.659 1248.98 2551
-848.559 1248.98 2551
-842.459 1248.98 2551
-831.113 1241.15 2535
-827.655 1245.06 2543
-821.574 1245.06 2543
-816.775 1247.02 2547
-810.685 1247.02 2547
-804.594 1247.02 2547
-798.503 1247.02 2547
-785.257 1235.76 2524
-775.517 1229.88 2512
-769.51 1229.88 2512
-758.032 1221.07 2494
-756.591 1228.42 2509
-750.591 1228.42 2509
-744.592 1228.42 2509
-539.804 912.622 1864
-535.346 912.622 1864
-530.889 912.622 1864
-525.867 911.642 1862
-522.534 913.601 1866
-518.072 913.601 1866
-515.261 916.538 1872
-512.149 918.986 1877
-507.661 918.986 1877
-503.172 918.986 1877
-496.824 915.559 1870
-491.826 914.58 1868
-486.315 912.622 1864
-481.858 912.622 1864
-476.888 911.642 1862
-470.913 908.705 1856
-466.475 908.705 1856
-462.037 908.705 1856
-457.598 908.705 1856
-452.672 907.726 1854
-447.755 906.746 1852
-443.326 906.746 1852
-438.423 905.767 1850
-433.296 904.298 1847
-427.95 902.34 1843
-423.543 902.34 1843
-417.317 898.423 1835
-411.578 895.485 1829
-405.869 892.548 1823
-401.509 892.548 1823
-395.407 888.631 1815
-388.697 883.245 1804
-382.678 879.328 1796
-378.384 879.328 1796
-371.589 873.453 1784
-366.294 871.005 1779
-359.191 864.151 1765
-350.948 854.359 1745
-346.775 854.359 1745
-342.602 854.359 1745
-336.684 849.952 1736
-331.575 847.504 1731
-327.435 847.504 1731
-322.549 845.546 1727
-318.419 845.546 1727
-314.289 845.546 1727
-310.519 846.525 1729
-306.384 846.525 1729
-302.25 846.525 1729
-298.115 846.525 1729
-294.321 847.504 1731
-290.181 847.504 1731
-286.538 848.973 1734
-283.042 850.931 1738
-279.207 851.911 1740
-275.204 852.4 1741
-271.041 852.4 1741
-267.798 855.338 1747
-264.224 857.296 1751
-260.779 859.744 1756
-256.58 859.744 1756
-252.956 861.703 1760
-249.736 865.13 1767
-246.345 868.068 1773
-242.105 868.068 1773
-238.402 870.026 1777
-234.548 871.495 1780
-231.844 877.37 1792
-227.558 877.37 1792
-223.522 878.349 1794
-220.454 883.245 1804
-216.26 883.735 1805
-211.944 883.735 1805
-207.858 884.714 1807
-203.537 884.714 1807
-199.436 885.693 1809
-195.11 885.693 1809
-190.995 886.673 1811
-186.665 886.673 1811
-182.334 886.673 1811
-177.807 885.693 1809
-173.481 885.693 1809
-169.155 885.693 1809
-164.829 885.693 1809
-160.326 884.714 1807
-156.005 884.714 1807
-151.684 884.714 1807
-147.363 884.714 1807
-182.744 1202.96 2457
-176.869 1202.96 2457
-170.994 1202.96 2457
-165.118 1202.96 2457
-157.622 1190.72 2432
-152.244 1194.14 2439
-146.651 1196.1 2443
-140.809 1196.1 2443
-136.514 1209.81 2471
-130.817 1211.77 2475
-126.412 1226.46 2505
-120.422 1226.46 2505
-114.615 1228.42 2509
-108.918 1231.84 2516
-102.901 1231.84 2516
-96.8849 1231.84 2516
-90.8684 1231.84 2516
-84.8519 1231.84 2516
-78.9607 1233.8 2520
-72.9346 1233.8 2520
-66.9085 1233.8 2520
-60.7858 1231.84 2516
-54.7693 1231.84 2516
-48.9078 1235.76 2524
-42.8721 1235.76 2524
-36.8948 1237.72 2528
-30.8496 1237.72 2528
-24.8044 1237.72 2528
-18.7592 1237.72 2528
-12.6738 1233.8 2520
-6.64767 1233.8 2520
-0.621587 1233.8 2520
5.39592 1231.84 2516
11.4124 1231.84 2516
17.429 1231.84 2516
23.4455 1231.84 2516
29.462 1231.84 2516
35.4785 1231.84 2516
41.495 1231.84 2516
47.5115 1231.84 2516
53.2089 1224.5 2501
58.9293 1219.11 2490
64.597 1213.73 2479
70.7242 1217.16 2486
76.6689 1217.16 2486
82.6137 1217.16 2486
88.3091 1213.73 2479
93.819 1208.34 2468
99.7207 1208.34 2468
105.323 1204.92 2461
110.53 1197.57 2446
116.236 1196.1 2443
122.078 1196.1 2443
127.92 1196.1 2443
133.324 1192.19 2435
139.147 1192.19 2435
144.97 1192.19 2435
150.607 1190.72 2432
155.972 1187.29 2425
161.771 1187.29 2425
168.538 1194.14 2439
174.37 1194.14 2439
180.72 1197.57 2446
187.713 1204.92 2461
193.598 1204.92 2461
199.483 1204.92 2461
205.368 1204.92 2461
211.854 1208.34 2468
218.726 1213.73 2479
225.017 1215.69 2483
230.954 1215.69 2483
237.941 1221.07 2494
243.905 1221.07 2494
249.869 1221.07 2494
255.833 1221.07 2494
262.532 1224.5 2501
270.123 1231.84 2516
276.578 1233.8 2520
282.604 1233.8 2520
289.089 1235.76 2524
295.592 1237.72 2528
301.637 1237.72 2528
307.682 1237.72 2528
313.728 1237.72 2528
320.279 1239.68 2532
326.72 1241.15 2535
332.782 1241.15 2535
339.379 1243.1 2539
345.45 1243.1 2539
351.522 1243.1 2539
357.593 1243.1 2539
363.665 1243.1 2539
368.717 1239.68 2532
375.216 1241.15 2535
381.278 1241.15 2535
387.951 1243.1 2539
394.643 1245.06 2543
400.724 1245.06 2543
406.805 1245.06 2543
412.886 1245.06 2543
418.968 1245.06 2543
425.049 1245.06 2543
430.452 1243.1 2539
435.835 1241.15 2535
441.897 1241.15 2535
447.959 1241.15 2535
454.021 1241.15 2535
460.083 1241.15 2535
466.145 1241.15 2535
472.207 1241.15 2535
478.269 1241.15 2535
483.758 1239.68 2532
489.039 1237.72 2528
495.084 1237.72 2528
501.922 1239.68 2532
507.977 1239.68 2532
515.453 1243.1 2539
521.524 1243.1 2539
527.596 1243.1 2539
531.355 1237.72 2528
536.55 1235.76 2524
540.866 1231.84 2516
546.883 1231.84 2516
551.361 1228.42 2509
554.695 1222.54 2497
559.094 1219.11 2490
570.041 1229.88 2512
585.909 1250.94 2555
592.018 1250.94 2555
598.128 1250.94 2555
604.238 1250.94 2555
610.348 1250.94 2555
616.458 1250.94 2555
619.643 1245.06 2543
617.358 1228.42 2509
623.358 1228.42 2509
628.355 1226.46 2505
634.345 1226.46 2505
640.335 1226.46 2505
646.325 1226.46 2505
647.368 1217.16 2486
658.306 1226.46 2505
665.357 1228.42 2509
674.3 1233.8 2520
680.326 1233.8 2520
688.531 1237.72 2528
695.675 1239.68 2532
701.73 1239.68 2532
707.785 1239.68 2532
712.712 1237.72 2528
714.208 1229.88 2512
715.054 1221.07 2494
721.018 1221.07 2494
726.982 1221.07 2494
732.946 1221.07 2494
742.169 1226.46 2505
748.159 1226.46 2505
754.149 1226.46 2505
760.139 1226.46 2505
763.683 1222.54 2497
769.654 1222.54 2497
774.693 1221.07 2494
780.657 1221.07 2494
785.359 1219.11 2490
791.314 1219.11 2490
795.027 1215.69 2483
800.964 1215.69 2483
810.477 1221.07 2494
821.351 1228.42 2509
829.659 1231.84 2516
835.675 1231.84 2516
841.692 1231.84 2516
846.361 1229.88 2512
852.368 1229.88 2512
967.034 1270.03 2594
973.237 1270.03 2594
979.44 1270.03 2594
985.644 1270.03 2594
984.199 1260.24 2574
983.044 1250.94 2555
989.154 1250.94 2555
992.148 1247.02 2547
996.67 1245.06 2543
1002.75 1245.06 2543
1005.66 1241.15 2535
1011.72 1241.15 2535
1017.78 1241.15 2535
1022.63 1239.68 2532
1028.69 1239.68 2532
1037.6 1243.1 2539
1043.67 1243.1 2539
1049.75 1243.1 2539
1055.82 1243.1 2539
1061.89 1243.1 2539
1066.28 1241.15 2535
1067.69 1235.76 2524
1070.32 1231.84 2516
1076.34 1231.84 2516
1071.17 1219.11 2490
1068.9 1209.81 2471
1071.77 1206.38 2464
1076.35 1204.92 2461
1082.23 1204.92 2461
1083.25 1199.53 2450
1090.45 1201 2453
1103.02 1208.34 2468
1110.27 1209.81 2471
1116.17 1209.81 2471
1125.72 1213.73 2479
1133.47 1215.69 2483
1139.41 1215.69 2483
1145.35 1215.69 2483
1144.33 1208.34 2468
1150.23 1208.34 2468
1161.28 1213.73 2479
1167.21 1213.73 2479
1173.14 1213.73 2479
1184.3 1219.11 2490
1202.68 1231.84 2516
1212.54 1235.76 2524
1218.58 1235.76 2524
1229.95 1241.15 2535
1236.01 1241.15 2535
1242.08 1241.15 2535
1248.14 1241.15 2535
1262.83 1237.72 2528
1268.87 1237.72 2528
1274.92 1237.72 2528
1274.88 1231.84 2516
1290.57 1241.15 2535
1296.63 1241.15 2535
1308.86 1247.02 2547
1314.95 1247.02 2547
1321.04 1247.02 2547
1327.13 1247.02 2547
1329.04 1243.1 2539
1333 1241.15 2535
1339.07 1241.15 2535
1339.29 1235.76 2524
1333.07 1224.5 2501
1335.3 1221.07 2494
1342.88 1222.54 2497
1351.01 1224.5 2501
1356.99 1224.5 2501
1362.97 1224.5 2501
1366.76 1222.54 2497
1380.98 1229.88 2512
1386.99 1229.88 2512
1399.65 1235.76 2524
1411.81 1241.15 2535
1417.87 1241.15 2535
1423.93 1241.15 2535
1430 1241.15 2535
1434.36 1239.68 2532
1440.41 1239.68 2532
1446.47 1239.68 2532
1452.52 1239.68 2532
1464.91 1245.06 2543
1475.62 1248.98 2551
1488.69 1254.85 2563
1494.82 1254.85 2563
1500.95 1254.85 2563
1507.08 1254.85 2563
1513.21 1254.85 2563
1516.97 1252.9 2559
1520.7 1250.94 2555
1526.81 1250.94 2555
1535.32 1252.9 2559
1541.44 1252.9 2559
1549.98 1254.85 2563
1556.11 1254.85 2563
1562.24 1254.85 2563
1565.92 1252.9 2559
1564.67 1247.02 2547
1573.23 1248.98 2551
1586.76 1254.85 2563
1595.37 1256.81 2567
1601.51 1256.81 2567
1607.65 1256.81 2567
1616.3 1258.77 2571
1622.45 1258.77 2571
1628.6 1258.77 2571
1634.74 1258.77 2571
1630.68 1250.94 2555
1636.79 1250.94 2555
1642.9 1250.94 2555
1651.59 1252.9 2559
1657.71 1252.9 2559
1663.83 1252.9 2559
1667.34 1250.94 2555
1673.45 1250.94 2555
1684.82 1254.85 2563
1693.59 1256.81 2567
1704.36 1260.24 2574
1710.51 1260.24 2574
1716.67 1260.24 2574
1715.46 1254.85 2563
1721.59 1254.85 2563
1727.72 1254.85 2563
1736.56 1256.81 2567
1742.69 1256.81 2567
1748.83 1256.81 2567
1752.24 1254.85 2563
1750.13 1248.98 2551
1756.23 1248.98 2551
1762.33 1248.98 2551
1768.43 1248.98 2551
1768.97 1245.06 2543
1775.05 1245.06 2543
1781.13 1245.06 2543
1787.21 1245.06 2543
1793.29 1245.06 2543
1796.54 1243.1 2539
1794.81 1237.72 2528
1800.85 1237.72 2528
1804.04 1235.76 2524
1804.33 1231.84 2516
1810.35 1231.84 2516
1816.37 1231.84 2516
1822.38 1231.84 2516
1828.4 1231.84 2516
1829.31 1228.42 2509
1835.31 1228.42 2509
1841.31 1228.42 2509
1841.42 1224.5 2501
1847.4 1224.5 2501
1845.23 1219.11 2490
1851.19 1219.11 2490
1848.94 1213.73 2479
1854.87 1213.73 2479
1863.8 1215.69 2483
1869.73 1215.69 2483
1875.67 1215.69 2483
1895.25 1224.5 2501
1918.71 1235.76 2524
1930.85 1239.68 2532
1936.9 1239.68 2532
-1433.57 1156.2 2350
-1456.51 1179.32 2397
-1450.78 1179.32 2397
-1457.7 1189.65 2418
-1472.94 1206.87 2453
-1476.04 1214.25 2468
-1470.14 1214.25 2468
-1474.92 1223.11 2486
-1480.2 1232.46 2505
-1485.39 1241.81 2524
-1479.36 1241.81 2524
-1473.32 1241.81 2524
-1467.29 1241.81 2524
-1461.25 1241.81 2524
-1446.57 1234.43 2509
-1442.29 1235.9 2512
-1436.28 1235.9 2512
-1430.27 1235.9 2512
-1424.27 1235.9 2512
-1425.04 1241.81 2524
-1421.25 1243.77 2528
-1417.44 1245.74 2532
-1411.39 1245.74 2532
-1405.33 1245.74 2532
-1403.15 1249.19 2539
-1401.48 1253.12 2547
-1395.39 1253.12 2547
-1389.3 1253.12 2547
-1378.86 1249.19 2539
-1372.79 1249.19 2539
-1366.72 1249.19 2539
-1352.61 1241.81 2524
-1338.57 1234.43 2509
-1334.16 1235.9 2512
-1328.16 1235.9 2512
-1322.15 1235.9 2512
-1316.14 1235.9 2512
-1310.14 1235.9 2512
-1304.13 1235.9 2512
-1279 1217.7 2475
-1269.48 1214.25 2468
-1261.53 1212.29 2464
-1255.64 1212.29 2464
-1242.65 1205.4 2450
-1247.39 1215.73 2471
-1253.04 1227.05 2494
-1247.07 1227.05 2494
-1241.11 1227.05 2494
-1235.14 1227.05 2494
-1227.21 1225.08 2490
-1230.57 1234.43 2509
-1224.57 1234.43 2509
-1227.8 1243.77 2528
-1227.07 1249.19 2539
-1221 1249.19 2539
-1214.93 1249.19 2539
-1208.86 1249.19 2539
-1200.89 1247.22 2535
-1194.83 1247.22 2535
-1183.61 1241.81 2524
-1170.58 1234.43 2509
-1162.72 1232.46 2505
-1156.73 1232.46 2505
-1150.74 1232.46 2505
-1144.75 1232.46 2505
-1138.76 1232.46 2505
-1134.58 1234.43 2509
-1128.58 1234.43 2509
-1122.58 1234.43 2509
-1116.58 1234.43 2509
-1113.68 1237.87 2516
-1107.66 1237.87 2516
-1101.64 1237.87 2516
-1095.63 1237.87 2516
-1089.61 1237.87 2516
-1081.87 1235.9 2512
-1075.86 1235.9 2512
-1069.86 1235.9 2512
-1065.54 1237.87 2516
-1059.53 1237.87 2516
-1053.51 1237.87 2516
-1054.16 1245.74 2532
-1048.1 1245.74 2532
-1042.05 1245.74 2532
-1035.99 1245.74 2532
-1028.31 1243.77 2528
-1022.26 1243.77 2528
-1016.22 1243.77 2528
-1010.17 1243.77 2528
-999.363 1237.87 2516
-993.346 1237.87 2516
-987.33 1237.87 2516
-987.554 1245.74 2532
-982.662 1247.22 2535
-976.6 1247.22 2535
-970.538 1247.22 2535
-964.476 1247.22 2535
-957.28 1245.74 2532
-956.86 1253.12 2547
-953.756 1257.06 2555
-947.646 1257.06 2555
-948.538 1266.41 2574
-942.383 1266.41 2574
-936.227 1266.41 2574
-930.072 1266.41 2574
-919.969 1260.99 2563
-910.987 1257.06 2555
-904.878 1257.06 2555
-897.361 1255.09 2551
-889.863 1253.12 2547
-880.996 1249.19 2539
-874.925 1249.19 2539
-866.458 1245.74 2532
-861.423 1247.22 2535
-856.71 1249.19 2539
-850.639 1249.19 2539
-844.567 1249.19 2539
-838.496 1249.19 2539
-831.113 1247.22 2535
-827.655 1251.15 2543
-821.574 1251.15 2543
-816.775 1253.12 2547
-810.685 1253.12 2547
-804.594 1253.12 2547
-798.503 1253.12 2547
-785.257 1241.81 2524
-775.517 1235.9 2512
-769.51 1235.9 2512
-758.032 1227.05 2494
-756.591 1234.43 2509
-750.591 1234.43 2509
-744.592 1234.43 2509
-539.804 917.087 1864
-535.346 917.087 1864
-530.889 917.087 1864
-526.997 918.071 1866
-524.775 922.007 1874
-520.293 922.007 1874
-517.188 924.467 1879
-512.695 924.467 1879
-508.202 924.467 1879
-503.708 924.467 1879
-498.684 923.483 1877
-492.879 921.023 1872
-488.402 921.023 1872
-482.892 919.055 1868
-477.4 917.087 1864
-471.421 914.135 1858
-466.475 913.151 1856
-462.037 913.151 1856
-457.598 913.151 1856
-452.672 912.167 1854
-448.238 912.167 1854
-443.805 912.167 1854
-438.423 910.199 1850
-433.296 908.723 1847
-427.95 906.755 1843
-423.543 906.755 1843
-417.317 902.819 1835
-411.578 899.867 1829
-405.869 896.915 1823
-401.509 896.915 1823
-395.407 892.979 1815
-388.697 887.567 1804
-383.105 884.615 1798
-378.805 884.615 1798
-372.006 878.711 1786
-366.5 875.759 1780
-359.191 868.379 1765
-351.752 860.507 1749
-347.57 860.507 1749
-342.602 858.539 1745
-336.684 854.111 1736
-331.575 851.651 1731
-327.435 851.651 1731
-323.296 851.651 1731
-318.419 849.683 1727
-314.653 850.667 1729
-310.519 850.667 1729
-306.384 850.667 1729
-302.599 851.651 1731
-298.46 851.651 1731
-294.831 853.127 1734
-290.684 853.127 1734
-286.538 853.127 1734
-283.042 855.095 1738
-279.368 856.571 1741
-275.521 857.555 1743
-271.353 857.555 1743
-267.798 859.523 1747
-264.676 862.967 1754
-260.779 863.951 1756
-256.58 863.951 1756
-253.674 868.379 1765
-250.302 871.331 1771
-246.622 873.299 1775
-242.378 873.299 1775
-238.402 874.283 1777
-234.811 876.743 1782
-231.844 881.663 1792
-227.558 881.663 1792
-224.021 884.615 1798
-220.454 887.567 1804
-216.26 888.059 1805
-211.944 888.059 1805
-207.858 889.043 1807
-203.762 890.027 1809
-199.657 891.011 1811
-195.326 891.011 1811
-190.995 891.011 1811
-186.665 891.011 1811
-182.334 891.011 1811
-178.003 891.011 1811
-173.481 890.027 1809
-169.155 890.027 1809
-164.829 890.027 1809
-160.326 889.043 1807
-156.005 889.043 1807
-151.684 889.043 1807
-147.363 889.043 1807
-192.754 1198.02 2435
-186.931 1198.02 2435
-181.108 1198.02 2435
-174.781 1194.57 2428
-168.975 1194.57 2428
-163.169 1194.57 2428
-157.363 1194.57 2428
-151.557 1194.57 2428
-145.991 1196.54 2432
-140.809 1201.95 2443
-134.968 1201.95 2443
-129.866 1208.84 2457
-125.302 1221.63 2483
-119.365 1221.63 2483
-113.564 1223.11 2486
-108.615 1234.43 2509
-102.615 1234.43 2509
-96.6153 1234.43 2509
-90.4711 1232.46 2505
-84.4809 1232.46 2505
-78.4907 1232.46 2505
-72.5005 1232.46 2505
-66.5102 1232.46 2505
-60.4234 1230.49 2501
-54.4427 1230.49 2501
-48.7528 1237.87 2516
-42.7362 1237.87 2516
-36.7197 1237.87 2516
-30.7032 1237.87 2516
-24.6867 1237.87 2516
-18.6702 1237.87 2516
-12.6184 1234.43 2509
-6.61865 1234.43 2509
-0.618874 1234.43 2509
5.37233 1232.46 2505
11.3625 1232.46 2505
17.3805 1234.43 2509
23.4082 1235.9 2512
29.4152 1235.9 2512
35.4221 1235.9 2512
41.4291 1235.9 2512
47.436 1235.9 2512
52.9749 1225.08 2490
58.6689 1219.67 2479
64.3103 1214.25 2468
70.0983 1212.29 2464
76.1138 1214.25 2468
82.0155 1214.25 2468
87.9173 1214.25 2468
93.5529 1210.81 2461
99.4379 1210.81 2461
104.681 1203.43 2446
110.214 1199.99 2439
115.713 1196.54 2432
121.529 1196.54 2432
127.344 1196.54 2432
132.941 1194.57 2428
138.747 1194.57 2428
144.553 1194.57 2428
149.926 1191.13 2421
155.522 1189.65 2418
161.504 1191.13 2421
167.778 1194.57 2428
173.584 1194.57 2428
180.498 1201.95 2443
186.569 1203.43 2446
192.418 1203.43 2446
198.267 1203.43 2446
204.116 1203.43 2446
210.91 1208.84 2457
217.755 1214.25 2468
224.654 1219.67 2479
230.582 1219.67 2479
236.892 1221.63 2483
243.514 1225.08 2490
249.468 1225.08 2490
255.423 1225.08 2490
261.797 1227.05 2494
267.761 1227.05 2494
276.139 1237.87 2516
282.156 1237.87 2516
288.172 1237.87 2516
294.657 1239.84 2520
300.683 1239.84 2520
306.709 1239.84 2520
313.231 1241.81 2524
319.773 1243.77 2528
325.818 1243.77 2528
331.863 1243.77 2528
338.844 1247.22 2535
344.906 1247.22 2535
350.968 1247.22 2535
356.607 1245.74 2532
362.662 1245.74 2532
368.717 1245.74 2532
374.772 1245.74 2532
380.225 1243.77 2528
386.27 1243.77 2528
393.402 1247.22 2535
400.094 1249.19 2539
406.165 1249.19 2539
412.237 1249.19 2539
417.65 1247.22 2535
423.21 1245.74 2532
429.265 1245.74 2532
435.32 1245.74 2532
441.374 1245.74 2532
447.959 1247.22 2535
454.021 1247.22 2535
460.083 1247.22 2535
465.593 1245.74 2532
470.903 1243.77 2528
476.948 1243.77 2528
482.229 1241.81 2524
486.717 1237.87 2516
492.734 1237.87 2516
501.129 1243.77 2528
507.174 1243.77 2528
513.22 1243.77 2528
519.265 1243.77 2528
525.31 1243.77 2528
531.355 1243.77 2528
534.85 1237.87 2516
539.361 1234.43 2509
545.361 1234.43 2509
548.724 1228.52 2497
554.028 1227.05 2494
556.624 1219.67 2479
568.452 1232.46 2505
585.909 1257.06 2555
592.018 1257.06 2555
598.128 1257.06 2555
604.238 1257.06 2555
610.348 1257.06 2555
616.458 1257.06 2555
619.643 1251.15 2543
615.39 1230.49 2501
621.371 1230.49 2501
627.351 1230.49 2501
633.332 1230.49 2501
635.478 1223.11 2486
641.423 1223.11 2486
641.639 1212.29 2464
647.531 1212.29 2464
664.296 1232.46 2505
670.286 1232.46 2505
677.356 1234.43 2509
683.356 1234.43 2509
692.378 1239.84 2520
698.404 1239.84 2520
704.43 1239.84 2520
703.972 1228.52 2497
707.953 1225.08 2490
711.9 1221.63 2483
717.838 1221.63 2483
722.609 1219.67 2479
728.537 1219.67 2479
738.91 1227.05 2494
745.77 1228.52 2497
751.741 1228.52 2497
757.712 1228.52 2497
762.765 1227.05 2494
768.729 1227.05 2494
772.208 1223.11 2486
777.214 1221.63 2483
779.367 1215.73 2471
785.276 1215.73 2471
787.983 1210.81 2461
789.029 1203.43 2446
804.302 1217.7 2475
815.131 1225.08 2490
822.404 1227.05 2494
828.368 1227.05 2494
834.332 1227.05 2494
840.296 1227.05 2494
846.26 1227.05 2494
826.254 1189.65 2418
882.667 1219.67 2479
888.595 1219.67 2479
894.523 1219.67 2479
898.998 1217.7 2475
964.052 1272.31 2586
970.236 1272.31 2586
976.42 1272.31 2586
981.084 1270.34 2582
981.523 1262.96 2567
983.044 1257.06 2555
989.154 1257.06 2555
992.148 1253.12 2547
996.67 1251.15 2543
1001.17 1249.19 2539
1005.66 1247.22 2535
1011.72 1247.22 2535
1016.58 1245.74 2532
1019.4 1241.81 2524
1025.44 1241.81 2524
1034.74 1245.74 2532
1040.8 1245.74 2532
1048.09 1247.22 2535
1054.15 1247.22 2535
1060.22 1247.22 2535
1061.65 1241.81 2524
1064.3 1237.87 2516
1060.96 1227.05 2494
1066.92 1227.05 2494
1062.99 1215.73 2471
1065.88 1212.29 2464
1065.68 1205.4 2450
1064.98 1198.02 2435
1070.8 1198.02 2435
1073.53 1194.57 2428
1090.45 1206.87 2453
1096.31 1206.87 2453
1108.92 1214.25 2468
1114.82 1214.25 2468
1122.08 1215.73 2471
1131.64 1219.67 2479
1137.57 1219.67 2479
1143.5 1219.67 2479
1142.47 1212.29 2464
1148.37 1212.29 2464
1161.28 1219.67 2479
1167.21 1219.67 2479
1173.14 1219.67 2479
1184.3 1225.08 2490
1202.68 1237.87 2516
1210.62 1239.84 2520
1216.65 1239.84 2520
1229.95 1247.22 2535
1236.01 1247.22 2535
1242.08 1247.22 2535
1248.14 1247.22 2535
1256.83 1237.87 2516
1262.85 1237.87 2516
1268.86 1237.87 2516
1272.85 1235.9 2512
1289.04 1245.74 2532
1295.1 1245.74 2532
1304.75 1249.19 2539
1310.82 1249.19 2539
1316.89 1249.19 2539
1322.96 1249.19 2539
1326.94 1247.22 2535
1327.22 1241.81 2524
1329.03 1237.87 2516
1335.05 1237.87 2516
1329.34 1227.05 2494
1331.02 1223.11 2486
1339.11 1225.08 2490
1345.07 1225.08 2490
1351.02 1225.08 2490
1356.98 1225.08 2490
1360.74 1223.11 2486
1366.69 1223.11 2486
1372.63 1223.11 2486
1392.99 1235.9 2512
1405.68 1241.81 2524
1416.19 1245.74 2532
1422.25 1245.74 2532
1428.3 1245.74 2532
1423.03 1235.9 2512
1433.59 1239.84 2520
1444.18 1243.77 2528
1450.23 1243.77 2528
1464.91 1251.15 2543
1473.31 1253.12 2547
1488.69 1260.99 2563
1494.82 1260.99 2563
1500.95 1260.99 2563
1507.08 1260.99 2563
1513.21 1260.99 2563
1514.6 1257.06 2555
1515.94 1253.12 2547
1519.64 1251.15 2543
1535.32 1259.03 2559
1541.44 1259.03 2559
1547.56 1259.03 2559
1553.68 1259.03 2559
1559.8 1259.03 2559
1558.58 1253.12 2547
1564.67 1253.12 2547
1565.83 1249.19 2539
1574.37 1251.15 2543
1580.45 1251.15 2543
1586.54 1251.15 2543
1600.13 1257.06 2555
1606.24 1257.06 2555
1612.35 1257.06 2555
1618.46 1257.06 2555
1624.57 1257.06 2555
1625.58 1253.12 2547
1631.67 1253.12 2547
1637.76 1253.12 2547
1643.85 1253.12 2547
1649.94 1253.12 2547
1656.03 1253.12 2547
1662.12 1253.12 2547
1668.21 1253.12 2547
1676.93 1255.09 2551
1683.03 1255.09 2551
1694.43 1259.03 2559
1700.55 1259.03 2559
1709.33 1260.99 2563
1715.46 1260.99 2563
1721.59 1260.99 2563
1727.72 1260.99 2563
1736.56 1262.96 2567
1742.69 1262.96 2567
1748.83 1262.96 2567
1752.24 1260.99 2563
1750.13 1255.09 2551
1756.23 1255.09 2551
1762.33 1255.09 2551
1768.43 1255.09 2551
1768.97 1251.15 2543
1775.05 1251.15 2543
1781.13 1251.15 2543
1787.21 1251.15 2543
1793.29 1251.15 2543
1796.54 1249.19 2539
1794.81 1243.77 2528
1800.85 1243.77 2528
1804.04 1241.81 2524
1804.33 1237.87 2516
1810.35 1237.87 2516
1816.37 1237.87 2516
1822.38 1237.87 2516
1828.4 1237.87 2516
1829.31 1234.43 2509
1835.31 1234.43 2509
1841.31 1234.43 2509
1841.42 1230.49 2501
1847.4 1230.49 2501
1845.23 1225.08 2490
1851.19 1225.08 2490
1848.94 1219.67 2479
1854.87 1219.67 2479
1863.8 1221.63 2483
1869.73 1221.63 2483
1875.67 1221.63 2483
1895.25 1230.49 2501
1918.71 1241.81 2524
1930.85 1245.74 2532
1936.9 1245.74 2532
-1615.06 1218.19 2464
-1609.17 1218.19 2464
-1603.28 1218.19 2464
-1560.43 1190.01 2407
-1554.68 1190.01 2407
-1433.57 1161.83 2350
-1435.85 1168.26 2363
-1430.2 1168.26 2363
-1445.04 1185.06 2397
-1451.92 1195.45 2418
-1450.33 1198.91 2425
-1444.53 1198.91 2425
-1453.56 1211.27 2450
-1455.97 1218.19 2464
-1471.86 1236.48 2501
-1465.88 1236.48 2501
-1459.9 1236.48 2501
-1453.91 1236.48 2501
-1447.93 1236.48 2501
-1437.92 1233.02 2494
-1438.27 1238.46 2505
-1434.57 1240.44 2509
-1428.57 1240.44 2509
-1422.57 1240.44 2509
-1418.26 1241.92 2512
-1414.5 1243.9 2516
-1415.2 1249.83 2528
-1409.16 1249.83 2528
-1403.11 1249.83 2528
-1394.86 1247.85 2524
-1388.82 1247.85 2524
-1382.79 1247.85 2524
-1346.3 1231.04 2490
-1340.34 1231.04 2490
-1336.53 1233.02 2494
-1332.17 1234.5 2497
-1326.2 1234.5 2497
-1320.23 1234.5 2497
-1314.25 1234.5 2497
-1308.28 1234.5 2497
-1302.31 1234.5 2497
-1296.34 1234.5 2497
-1279 1223.63 2475
-1269.48 1220.17 2468
-1261.53 1218.19 2464
-1255.64 1218.19 2464
-1237.07 1205.83 2439
-1233.25 1207.81 2443
-1241.48 1221.65 2471
-1237.57 1223.63 2475
-1231.65 1223.63 2475
-1227.72 1225.6 2479
-1223.76 1227.58 2483
-1223.22 1233.02 2494
-1217.25 1233.02 2494
-1223.92 1245.88 2520
-1221.76 1249.83 2528
-1215.71 1249.83 2528
-1209.67 1249.83 2528
-1203.62 1249.83 2528
-1193.79 1245.88 2520
-1187.76 1245.88 2520
-1181.73 1245.88 2520
-1166.84 1236.48 2501
-1157.61 1233.02 2494
-1154.88 1236.48 2501
-1148.9 1236.48 2501
-1144.75 1238.46 2505
-1138.76 1238.46 2505
-1132.77 1238.46 2505
-1126.78 1238.46 2505
-1120.79 1238.46 2505
-1111.24 1234.5 2497
-1105.27 1234.5 2497
-1094.45 1229.07 2486
-1088.51 1229.07 2486
-1079.51 1225.6 2479
-1073.59 1225.6 2479
-1064.21 1221.65 2471
-1068.16 1233.02 2494
-1063.47 1234.5 2497
-1059.19 1236.48 2501
-1053.21 1236.48 2501
-1047.23 1236.48 2501
-1042.92 1238.46 2505
-1036.92 1238.46 2505
-1030.93 1238.46 2505
-1023.31 1236.48 2501
-1017.33 1236.48 2501
-1015.79 1241.92 2512
-1009.79 1241.92 2512
-1003.78 1241.92 2512
-997.774 1241.92 2512
-993.346 1243.9 2516
-987.33 1243.9 2516
-984.433 1247.85 2524
-982.662 1253.29 2535
-976.6 1253.29 2535
-970.538 1253.29 2535
-964.476 1253.29 2535
-957.28 1251.81 2532
-953.855 1255.27 2539
-950.769 1259.22 2547
-944.679 1259.22 2547
-943.01 1265.16 2559
-938.355 1267.13 2563
-932.227 1267.13 2563
-926.098 1267.13 2563
-917.097 1263.18 2555
-908.135 1259.22 2547
-902.044 1259.22 2547
-895.954 1259.22 2547
-883.225 1249.83 2528
-877.18 1249.83 2528
-871.134 1249.83 2528
-863.72 1247.85 2524
-857.685 1247.85 2524
-851.649 1247.85 2524
-845.613 1247.85 2524
-839.578 1247.85 2524
-832.221 1245.88 2520
-826.195 1245.88 2520
-822.773 1249.83 2528
-816.727 1249.83 2528
-810.682 1249.83 2528
-804.637 1249.83 2528
-798.592 1249.83 2528
-791.293 1247.85 2524
-781.524 1241.92 2512
-769.96 1233.02 2494
-763.996 1233.02 2494
-752.257 1223.63 2475
-746.338 1223.63 2475
-739.223 1221.65 2471
-733.314 1221.65 2471
-539.804 921.552 1864
-535.346 921.552 1864
-530.889 921.552 1864
-526.997 922.541 1866
-524.775 926.496 1874
-520.293 926.496 1874
-517.188 928.968 1879
-512.695 928.968 1879
-508.202 928.968 1879
-503.708 928.968 1879
-498.684 927.979 1877
-492.879 925.507 1872
-488.402 925.507 1872
-482.892 923.53 1868
-477.4 921.552 1864
-471.421 918.586 1858
-466.475 917.597 1856
-462.037 917.597 1856
-457.598 917.597 1856
-452.672 916.608 1854
-448.238 916.608 1854
-443.805 916.608 1854
-438.423 914.63 1850
-433.296 913.147 1847
-427.486 910.181 1841
-423.083 910.181 1841
-417.317 907.215 1835
-411.578 904.248 1829
-405.869 901.282 1823
-401.509 901.282 1823
-395.407 897.327 1815
-388.697 891.888 1804
-383.105 888.922 1798
-378.805 888.922 1798
-372.006 882.989 1786
-366.5 880.023 1780
-359.191 872.607 1765
-351.752 864.697 1749
-347.57 864.697 1749
-342.602 862.719 1745
-336.684 858.269 1736
-331.575 855.797 1731
-327.435 855.797 1731
-323.296 855.797 1731
-318.419 853.82 1727
-314.653 854.809 1729
-310.519 854.809 1729
-306.384 854.809 1729
-302.599 855.797 1731
-298.46 855.797 1731
-294.831 857.281 1734
-290.684 857.281 1734
-286.538 857.281 1734
-283.042 859.258 1738
-279.368 860.741 1741
-275.521 861.73 1743
-271.353 861.73 1743
-267.798 863.708 1747
-264.676 867.169 1754
-260.779 868.157 1756
-256.58 868.157 1756
-253.674 872.607 1765
-250.302 875.573 1771
-246.622 877.551 1775
-242.378 877.551 1775
-238.402 878.54 1777
-234.811 881.012 1782
-231.844 885.956 1792
-227.558 885.956 1792
-224.021 888.922 1798
-220.454 891.888 1804
-216.26 892.383 1805
-211.944 892.383 1805
-207.858 893.371 1807
-203.762 894.36 1809
-199.877 896.338 1813
-195.542 896.338 1813
-191.206 896.338 1813
-186.871 896.338 1813
-182.535 896.338 1813
-178.003 895.349 1811
-173.673 895.349 1811
-169.342 895.349 1811
-165.011 895.349 1811
-160.681 895.349 1811
-156.35 895.349 1811
-151.516 892.383 1805
-147.199 892.383 1805
-192.754 1203.85 2435
-186.931 1203.85 2435
-181.108 1203.85 2435
-174.781 1200.39 2428
-168.975 1200.39 2428
-163.169 1200.39 2428
-157.363 1200.39 2428
-151.557 1200.39 2428
-145.991 1202.37 2432
-140.809 1207.81 2443
-134.968 1207.81 2443
-129.866 1214.73 2457
-125.302 1227.58 2483
-119.365 1227.58 2483
-113.564 1229.07 2486
-108.615 1240.44 2509
