ply
format ascii 1.0
comment File generated
element vertex 2243
property float x
property float y
property float z
end_header
-1894.45 1106.22 3683
-1897.93 1113.43 3707
-1901.81 1120.94 3732
-1905.56 1128.45 3757
-1896.58 1128.45 3757
-1892.11 1131.15 3766
-1891.61 1136.26 3783
-1882.56 1136.26 3783
-1873.52 1136.26 3783
-1864.47 1136.26 3783
-1855.42 1136.26 3783
-1846.38 1136.26 3783
-1824.7 1128.45 3757
-1803.64 1120.94 3732
-1778.84 1111.03 3699
-1770 1111.03 3699
-1757.34 1108.62 3691
-1732.88 1098.71 3658
-1709.53 1089.4 3627
-1700.85 1089.4 3627
-1680.98 1082.19 3603
-1661.69 1075.28 3580
-1638.82 1065.97 3549
-1617.01 1057.26 3520
-1608.59 1057.26 3520
-1589.72 1050.35 3497
-1575.02 1046.15 3483
-1556.8 1039.54 3461
-1548.52 1039.54 3461
-1534.02 1035.34 3447
-1519.58 1031.13 3433
-1502.12 1024.82 3412
-1493.96 1024.82 3412
-1479.71 1020.62 3398
-1465.52 1016.41 3384
-1457.43 1016.41 3384
-1452.33 1018.52 3391
-1444.22 1018.52 3391
-1439.08 1020.62 3398
-1448.64 1033.23 3440
-1440.41 1033.23 3440
-1432.19 1033.23 3440
-1429.76 1037.44 3454
-1424.38 1039.54 3461
-1425.1 1046.15 3483
-1416.77 1046.15 3483
-1408.44 1046.15 3483
-1400.12 1046.15 3483
-1391.79 1046.15 3483
-1383.46 1046.15 3483
-1377.89 1048.25 3490
-1369.55 1048.25 3490
-1367.05 1052.76 3505
-1358.67 1052.76 3505
-1358.76 1059.36 3527
-1356.07 1063.87 3542
-1347.6 1063.87 3542
-1339.13 1063.87 3542
-1330.66 1063.87 3542
-1319.21 1061.47 3534
-1310.76 1061.47 3534
-1299.73 1059.36 3527
-1288.73 1057.26 3520
-1277.4 1054.86 3512
-1266.47 1052.76 3505
-1258.09 1052.76 3505
-1246.86 1050.35 3497
-1233.54 1046.15 3483
-1222.75 1044.05 3476
-1214.43 1044.05 3476
-1206.12 1044.05 3476
-1192.64 1039.54 3461
-1184.36 1039.54 3461
-1176.09 1039.54 3461
-1160.73 1033.23 3440
-1150.15 1031.13 3433
-1134.96 1024.82 3412
-1126.8 1024.82 3412
-1109.46 1016.41 3384
-1101.37 1016.41 3384
-1093.28 1016.41 3384
-1085.19 1016.41 3384
-1074.87 1014.31 3377
-1064.58 1012.21 3370
-1060.91 1016.41 3384
-1052.82 1016.41 3384
-1044.72 1016.41 3384
-1036.63 1016.41 3384
-523.388 517.218 1722
-519.271 517.218 1722
-516.649 518.719 1727
-514.003 520.221 1732
-509.861 520.221 1732
-506.303 520.822 1734
-502.157 520.822 1734
-498.01 520.822 1734
-493.864 520.822 1734
-488.87 519.921 1731
-483.61 518.719 1727
-479.481 518.719 1727
-475.351 518.719 1727
-471.221 518.719 1727
-467.091 518.719 1727
-462.961 518.719 1727
-457.769 517.518 1723
-453.385 517.218 1722
-449.268 517.218 1722
-445.15 517.218 1722
-441.032 517.218 1722
-436.407 516.617 1720
-432.294 516.617 1720
-428.181 516.617 1720
-424.068 516.617 1720
-419.954 516.617 1720
-415.841 516.617 1720
-411.728 516.617 1720
-407.615 516.617 1720
-403.502 516.617 1720
-398.46 515.415 1716
-393.668 514.514 1713
-389.571 514.514 1713
-385.475 514.514 1713
-380.933 513.914 1711
-376.181 513.013 1708
-372.097 513.013 1708
-367.581 512.412 1706
-363.502 512.412 1706
-359.001 511.811 1704
-354.926 511.811 1704
-350.44 511.21 1702
-346.166 510.91 1701
-341.696 510.309 1699
-337.633 510.309 1699
-333.178 509.709 1697
-329.12 509.709 1697
-324.679 509.108 1695
-320.626 509.108 1695
-316.572 509.108 1695
-312.335 508.808 1694
-308.284 508.808 1694
-304.413 509.108 1695
-300.359 509.108 1695
-296.306 509.108 1695
-292.942 510.309 1699
-289.22 510.91 1701
-285.32 511.21 1702
-281.25 511.21 1702
-277.505 511.811 1704
-273.752 512.412 1706
-269.988 513.013 1708
-265.904 513.013 1708
-262.279 513.914 1711
-258.791 515.115 1715
-254.839 515.415 1716
-250.735 515.415 1716
-246.919 516.016 1718
-243.376 517.218 1722
-239.675 518.119 1725
-235.55 518.119 1725
-232.23 519.921 1731
-228.223 520.221 1732
-224.34 520.822 1734
-220.193 520.822 1734
-216.047 520.822 1734
-211.9 520.822 1734
-207.993 521.423 1736
-203.842 521.423 1736
-199.921 522.023 1738
-196.103 522.924 1741
-192.16 523.525 1743
-187.992 523.525 1743
-184.246 524.727 1747
-180.48 525.928 1751
-177.401 529.232 1762
-173.187 529.232 1762
-170.604 534.338 1779
-166.443 534.638 1780
-162.187 534.638 1780
-157.93 534.638 1780
-134.786 1120.94 3732
-125.861 1120.94 3732
-116.937 1120.94 3732
-107.289 1113.43 3707
-98.4245 1113.43 3707
-89.3667 1111.03 3699
-79.9988 1103.82 3675
-71.2108 1103.82 3675
-62.4228 1103.82 3675
-53.518 1101.42 3667
-44.7491 1101.42 3667
-35.8918 1098.71 3658
-27.1444 1098.71 3658
-18.3971 1098.71 3658
-9.62857 1096.31 3650
-0.900315 1096.31 3650
7.81078 1093.91 3642
16.5199 1093.91 3642
25.0143 1084.59 3611
33.5747 1082.19 3603
42.015 1077.69 3588
50.595 1077.69 3588
59.1749 1077.69 3588
67.6039 1075.28 3580
76.1647 1075.28 3580
84.7256 1075.28 3580
93.078 1072.88 3572
101.421 1070.78 3565
109.946 1070.78 3565
118.471 1070.78 3565
126.711 1068.38 3557
135.216 1068.38 3557
143.399 1065.97 3549
151.886 1065.97 3549
160.373 1065.97 3549
168.859 1065.97 3549
177.346 1065.97 3549
185.833 1065.97 3549
194.319 1065.97 3549
202.806 1065.97 3549
211.293 1065.97 3549
219.78 1065.97 3549
228.781 1068.38 3557
237.287 1068.38 3557
245.793 1068.38 3557
254.299 1068.38 3557
263.396 1070.78 3565
271.921 1070.78 3565
280.445 1070.78 3565
289.538 1072.88 3572
298.747 1075.28 3580
307.308 1075.28 3580
316.575 1077.69 3588
325.789 1079.79 3595
338.106 1091.8 3635
346.799 1091.8 3635
355.491 1091.8 3635
364.184 1091.8 3635
372.876 1091.8 3635
380.729 1089.4 3627
386.825 1082.19 3603
392.917 1075.28 3580
401.478 1075.28 3580
403.968 1059.36 3527
408.894 1050.35 3497
415.586 1046.15 3483
420.386 1037.44 3454
428.645 1037.44 3454
434.248 1031.13 3433
440.653 1026.93 3419
444.235 1016.41 3384
452.327 1016.41 3384
459.467 1014.31 3377
463.804 1006.2 3350
469.984 1002.3 3337
477.964 1002.3 3337
483.905 998.092 3323
491.851 998.092 3323
498.895 996.29 3317
506.827 996.29 3317
514.759 996.29 3317
521.588 994.187 3310
529.503 994.187 3310
537.418 994.187 3310
546.487 996.29 3317
554.419 996.29 3317
562.35 996.29 3317
570.282 996.29 3317
578.214 996.29 3317
586.146 996.29 3317
594.078 996.29 3317
602.01 996.29 3317
609.942 996.29 3317
617.874 996.29 3317
625.806 996.29 3317
633.738 996.29 3317
642.831 998.092 3323
650.777 998.092 3323
658.723 998.092 3323
668.074 1000.19 3330
676.037 1000.19 3330
684 1000.19 3330
693.418 1002.3 3337
701.397 1002.3 3337
710.653 1004.1 3343
718.647 1004.1 3343
726.641 1004.1 3343
734.635 1004.1 3343
741.296 1002.3 3337
752.195 1006.2 3350
760.206 1006.2 3350
769.822 1008.3 3357
777.85 1008.3 3357
785.877 1008.3 3357
792.249 1006.2 3350
803.366 1010.11 3363
811.408 1010.11 3363
821.155 1012.21 3370
829.214 1012.21 3370
837.273 1012.21 3370
845.331 1012.21 3370
853.39 1012.21 3370
859.659 1010.11 3363
869.507 1012.21 3370
879.389 1014.31 3377
891.144 1018.52 3391
899.252 1018.52 3391
918.6 1031.13 3433
934.368 1039.54 3461
944.551 1041.64 3468
952.844 1041.64 3468
967.234 1048.25 3490
981.73 1054.86 3512
1000.56 1065.97 3549
1009.05 1065.97 3549
1026.42 1075.28 3580
1037.29 1077.69 3588
1050.25 1082.19 3603
1063.56 1087 3619
1072.22 1087 3619
1090.13 1096.31 3650
1111.2 1108.62 3691
1122.46 1111.03 3699
1131.3 1111.03 3699
1142.61 1113.43 3707
1151.48 1113.43 3707
1160.34 1113.43 3707
1166.68 1111.03 3699
1175.53 1111.03 3699
1184.38 1111.03 3699
1193.22 1111.03 3699
1196.87 1106.22 3683
1200.44 1101.42 3667
1209.2 1101.42 3667
1217.97 1101.42 3667
1226.74 1101.42 3667
1232.48 1098.71 3658
1238.51 1096.31 3650
1247.24 1096.31 3650
1255.97 1096.31 3650
1264.7 1096.31 3650
1270.63 1093.91 3642
1279.34 1093.91 3642
1288.05 1093.91 3642
1296.76 1093.91 3642
1311.21 1098.71 3658
1319.95 1098.71 3658
1328.7 1098.71 3658
1337.45 1098.71 3658
1346.2 1098.71 3658
1354.94 1098.71 3658
1363.69 1098.71 3658
1369.44 1096.31 3650
1378.16 1096.31 3650
1386.89 1096.31 3650
1395.62 1096.31 3650
1401.27 1093.91 3642
1404.17 1089.4 3627
1406.61 1084.59 3611
1415.25 1084.59 3611
1417.57 1079.79 3595
1417.05 1072.88 3572
1422.79 1070.78 3565
1428.11 1068.38 3557
1436.61 1068.38 3557
1441.87 1065.97 3549
1435.24 1054.86 3512
1437.47 1050.35 3497
1445.83 1050.35 3497
1445.46 1044.05 3476
1444.57 1037.44 3454
1446.94 1033.23 3440
1455.17 1033.23 3440
1460.42 1031.13 3433
1468.63 1031.13 3433
1476.84 1031.13 3433
1485.04 1031.13 3433
1487.16 1026.93 3419
1483.09 1018.52 3391
1481.97 1012.21 3370
1499.31 1018.52 3391
1507.42 1018.52 3391
1515.53 1018.52 3391
1523.64 1018.52 3391
1528.59 1016.41 3384
1574.82 1041.64 3468
1583.12 1041.64 3468
1657.03 1084.59 3611
1676.73 1091.8 3635
1692.38 1096.31 3650
1701.11 1096.31 3650
1709.84 1096.31 3650
1718.57 1096.31 3650
1727.29 1096.31 3650
1736.02 1096.31 3650
1744.75 1096.31 3650
1753.48 1096.31 3650
1762.21 1096.31 3650
1612.28 998.092 3323
1610.47 992.085 3303
1631.6 1000.19 3330
1649.41 1006.2 3350
1657.42 1006.2 3350
1665.43 1006.2 3350
1666.95 1002.3 3337
1667.9 998.092 3323
1675.85 998.092 3323
1683.8 998.092 3323
1709.05 1008.3 3357
1723.73 1012.21 3370
1742.58 1018.52 3391
1750.69 1018.52 3391
1758.8 1018.52 3391
1766.91 1018.52 3391
1775.01 1018.52 3391
1775.76 1014.31 3377
1783.84 1014.31 3377
1784.48 1010.11 3363
1781.87 1004.1 3343
1808.06 1014.31 3377
1816.14 1014.31 3377
1831.78 1018.52 3391
1839.89 1018.52 3391
1847.99 1018.52 3391
1856.1 1018.52 3391
2312.9 1196.03 3982
2322.43 1196.03 3982
2331.95 1196.03 3982
2341.47 1196.03 3982
2350.99 1196.03 3982
2360.52 1196.03 3982
2364.09 1193.02 3972
-2374.95 960.336 3172
-2367.37 960.336 3172
-2350.86 956.703 3160
-2338.85 954.887 3154
-2326.87 953.07 3148
-2319.35 953.07 3148
-2311.82 953.07 3148
-2313.07 956.703 3160
-2305.52 956.703 3160
-2302.32 958.52 3166
-2294.75 958.52 3166
-2308.85 967.602 3196
-2305.53 969.419 3202
-2306.49 973.052 3214
-2298.8 973.052 3214
-2300.38 976.988 3227
-2319.66 988.492 3265
-2334.51 998.18 3297
-2326.63 998.18 3297
-2327.89 1002.12 3310
-2348.01 1014.23 3350
-2363.75 1024.52 3384
-2355.66 1024.52 3384
-2362.13 1030.88 3405
-2358.83 1033 3412
-2350.67 1033 3412
-2352.12 1037.24 3426
-2358.3 1043.59 3447
-2350.05 1043.59 3447
-2341.81 1043.59 3447
-2333.57 1043.59 3447
-2325.33 1043.59 3447
-2317.08 1043.59 3447
-2308.84 1043.59 3447
-2291.25 1039.35 3433
-2278.39 1037.24 3426
-2270.2 1037.24 3426
-2289.73 1049.95 3468
-2281.44 1049.95 3468
-2278.39 1052.37 3476
-2279.22 1056.61 3490
-2275.43 1058.73 3497
-2267.07 1058.73 3497
-2263.87 1061.15 3505
-2260 1063.27 3512
-2256.73 1065.69 3520
-2248.31 1065.69 3520
-2239.89 1065.69 3520
-2231.48 1065.69 3520
-2223.06 1065.69 3520
-2214.64 1065.69 3520
-2215 1069.93 3534
-2211.54 1072.36 3542
-2203.07 1072.36 3542
-2194.6 1072.36 3542
-2195.39 1076.9 3557
-2186.88 1076.9 3557
-2183.28 1079.32 3565
-2174.75 1079.32 3565
-2170.48 1081.44 3572
-2161.94 1081.44 3572
-2153.4 1081.44 3572
-2144.86 1081.44 3572
-2136.31 1081.44 3572
-2127.77 1081.44 3572
-2119.23 1081.44 3572
-2110.69 1081.44 3572
-2102.15 1081.44 3572
-2093.61 1081.44 3572
-2085.06 1081.44 3572
-2076.52 1081.44 3572
-2067.98 1081.44 3572
-2059.44 1081.44 3572
-2050.9 1081.44 3572
-2038.35 1079.32 3565
-2025.27 1076.9 3557
-2012.23 1074.47 3549
-2003.74 1074.47 3549
-1995.26 1074.47 3549
-1978.37 1069.93 3534
-1969.92 1069.93 3534
-1961.47 1069.93 3534
-1953.02 1069.93 3534
-1944.57 1069.93 3534
-1940.5 1072.36 3542
-1935.85 1074.47 3549
-1927.36 1074.47 3549
-1923.2 1076.9 3557
-1919 1079.32 3565
-1914.23 1081.44 3572
-1905.69 1081.44 3572
-1909.36 1088.4 3595
-1904.99 1090.82 3603
-1896.38 1090.82 3603
-1887.76 1090.82 3603
-1887.49 1095.67 3619
-1894.93 1105.05 3650
-1903.26 1115.04 3683
-1894.45 1115.04 3683
-1897.93 1122.31 3707
-1901.81 1129.88 3732
-1905.56 1137.45 3757
-1896.58 1137.45 3757
-1892.11 1140.17 3766
-1896.11 1148.04 3792
-1887.04 1148.04 3792
-1877.97 1148.04 3792
-1868.91 1148.04 3792
-1855.42 1145.32 3783
-1846.38 1145.32 3783
-1824.7 1137.45 3757
-1803.64 1129.88 3732
-1778.84 1119.89 3699
-1770 1119.89 3699
-1761.15 1119.89 3699
-1752.31 1119.89 3699
-1716.6 1102.63 3642
-1707.89 1102.63 3642
-1688.45 1095.67 3619
-1672.37 1090.82 3603
-1649.44 1081.44 3572
-1617.01 1065.69 3520
-1608.59 1065.69 3520
-1593.35 1061.15 3505
-1578.19 1056.61 3490
-1556.8 1047.83 3461
-1548.52 1047.83 3461
-1537.13 1045.71 3454
-1525.77 1043.59 3447
-1502.12 1033 3412
-1493.96 1033 3412
-1482.75 1030.88 3405
-1471.58 1028.76 3398
-1463.45 1028.76 3398
-1455.33 1028.76 3398
-1447.2 1028.76 3398
-1442.04 1030.88 3405
-1448.64 1041.47 3440
-1440.41 1041.47 3440
-1432.19 1041.47 3440
-1429.76 1045.71 3454
-1424.38 1047.83 3461
-1425.1 1054.49 3483
-1416.77 1054.49 3483
-1408.44 1054.49 3483
-1400.12 1054.49 3483
-1391.79 1054.49 3483
-1383.46 1054.49 3483
-1377.89 1056.61 3490
-1369.55 1056.61 3490
-1367.05 1061.15 3505
-1358.67 1061.15 3505
-1358.76 1067.81 3527
-1356.07 1072.36 3542
-1347.6 1072.36 3542
-1339.13 1072.36 3542
-1330.66 1072.36 3542
-1319.21 1069.93 3534
-1310.76 1069.93 3534
-1299.73 1067.81 3527
-1288.73 1065.69 3520
-1277.4 1063.27 3512
-1266.47 1061.15 3505
-1258.09 1061.15 3505
-1246.86 1058.73 3497
-1233.54 1054.49 3483
-1222.75 1052.37 3476
-1214.43 1052.37 3476
-1206.12 1052.37 3476
-1192.64 1047.83 3461
-1184.36 1047.83 3461
-1176.09 1047.83 3461
-1163.09 1043.59 3447
-1150.15 1039.35 3433
-1134.96 1033 3412
-1126.8 1033 3412
-1109.46 1024.52 3384
-1103.65 1026.64 3391
-1095.54 1026.64 3391
-1087.43 1026.64 3391
-1079.32 1026.64 3391
-1071.21 1026.64 3391
-1063.1 1026.64 3391
-1054.99 1026.64 3391
-1046.89 1026.64 3391
-1036.63 1024.52 3384
-523.388 521.343 1722
-519.271 521.343 1722
-516.649 522.856 1727
-514.003 524.37 1732
-509.861 524.37 1732
-506.303 524.976 1734
-502.157 524.976 1734
-498.01 524.976 1734
-493.864 524.976 1734
-488.87 524.067 1731
-483.61 522.856 1727
-479.481 522.856 1727
-475.351 522.856 1727
-471.221 522.856 1727
-467.091 522.856 1727
-462.961 522.856 1727
-457.769 521.645 1723
-453.385 521.343 1722
-449.268 521.343 1722
-445.15 521.343 1722
-441.032 521.343 1722
-436.407 520.737 1720
-432.294 520.737 1720
-428.181 520.737 1720
-424.068 520.737 1720
-419.954 520.737 1720
-415.841 520.737 1720
-411.728 520.737 1720
-407.615 520.737 1720
-403.502 520.737 1720
-398.46 519.526 1716
-393.668 518.618 1713
-389.571 518.618 1713
-385.475 518.618 1713
-380.933 518.012 1711
-376.401 517.407 1709
-372.315 517.407 1709
-368.012 517.104 1708
-363.502 516.499 1706
-359.422 516.499 1706
-355.343 516.499 1706
-350.851 515.893 1704
-346.37 515.288 1702
-342.099 514.985 1701
-338.031 514.985 1701
-333.963 514.985 1701
-329.508 514.379 1699
-325.062 513.774 1697
-321.004 513.774 1697
-316.946 513.774 1697
-312.519 513.168 1695
-308.466 513.168 1695
-304.772 513.774 1697
-301.068 514.379 1699
-297.005 514.379 1699
-293.287 514.985 1701
-289.39 515.288 1702
-285.32 515.288 1702
-281.25 515.288 1702
-277.505 515.893 1704
-274.072 517.104 1708
-269.988 517.104 1708
-265.904 517.104 1708
-262.279 518.012 1711
-258.791 519.223 1715
-254.839 519.526 1716
-250.735 519.526 1716
-246.919 520.132 1718
-243.376 521.343 1722
-239.397 521.645 1723
-235.277 521.645 1723
-232.23 524.067 1731
-228.486 524.976 1734
-224.34 524.976 1734
-220.193 524.976 1734
-216.296 525.581 1736
-212.145 525.581 1736
-208.233 526.187 1738
-204.077 526.187 1738
-200.266 527.095 1741
-196.328 527.7 1743
-192.601 528.911 1747
-188.423 528.911 1747
-184.457 529.517 1749
-180.48 530.122 1751
-178.105 535.572 1769
-173.875 535.572 1769
-170.604 538.6 1779
-166.443 538.902 1780
-162.187 538.902 1780
-157.93 538.902 1780
-115.402 1115.04 3683
-106.594 1115.04 3683
-97.7873 1115.04 3683
-88.7869 1112.62 3675
-79.8247 1110.2 3667
-70.8814 1107.47 3658
-62.134 1107.47 3658
-53.3866 1107.47 3658
-44.6392 1107.47 3658
-35.8918 1107.47 3658
-27.1444 1107.47 3658
-18.3971 1107.47 3658
-9.64967 1107.47 3658
-0.902288 1107.47 3658
7.82794 1105.05 3650
16.5562 1105.05 3650
25.0143 1093.25 3611
33.5747 1090.82 3603
42.015 1086.28 3588
50.595 1086.28 3588
59.1749 1086.28 3588
67.6039 1083.86 3580
76.1647 1083.86 3580
84.7256 1083.86 3580
93.078 1081.44 3572
101.62 1081.44 3572
109.946 1079.32 3565
118.471 1079.32 3565
126.996 1079.32 3565
135.521 1079.32 3565
143.722 1076.9 3557
152.228 1076.9 3557
160.734 1076.9 3557
169.24 1076.9 3557
177.746 1076.9 3557
186.252 1076.9 3557
194.758 1076.9 3557
203.263 1076.9 3557
211.769 1076.9 3557
220.275 1076.9 3557
228.781 1076.9 3557
237.287 1076.9 3557
245.793 1076.9 3557
254.299 1076.9 3557
262.804 1076.9 3557
271.31 1076.9 3557
280.445 1079.32 3565
289.538 1081.44 3572
298.08 1081.44 3572
306.621 1081.44 3572
315.869 1083.86 3580
325.789 1088.4 3595
338.106 1100.51 3635
346.799 1100.51 3635
355.491 1100.51 3635
364.184 1100.51 3635
372.876 1100.51 3635
380.729 1098.09 3627
386.825 1090.82 3603
392.917 1083.86 3580
401.478 1083.86 3580
403.968 1067.81 3527
408.894 1058.73 3497
415.586 1054.49 3483
420.386 1045.71 3454
428.645 1045.71 3454
434.248 1039.35 3433
440.653 1035.12 3419
444.235 1024.52 3384
452.327 1024.52 3384
459.467 1022.4 3377
463.804 1014.23 3350
469.984 1010.29 3337
477.964 1010.29 3337
483.905 1006.05 3323
491.851 1006.05 3323
498.895 1004.24 3317
506.827 1004.24 3317
514.759 1004.24 3317
521.588 1002.12 3310
529.503 1002.12 3310
537.418 1002.12 3310
547.475 1006.05 3323
555.421 1006.05 3323
563.368 1006.05 3323
571.314 1006.05 3323
579.26 1006.05 3323
586.146 1004.24 3317
594.078 1004.24 3317
603.099 1006.05 3323
611.045 1006.05 3323
618.992 1006.05 3323
626.938 1006.05 3323
634.884 1006.05 3323
642.831 1006.05 3323
650.777 1006.05 3323
660.111 1008.17 3330
669.478 1010.29 3337
677.458 1010.29 3337
685.438 1010.29 3337
693.418 1010.29 3337
702.659 1012.11 3343
710.653 1012.11 3343
718.647 1012.11 3343
726.641 1012.11 3343
734.635 1012.11 3343
741.296 1010.29 3337
752.195 1014.23 3350
760.206 1014.23 3350
769.822 1016.35 3357
777.85 1016.35 3357
785.877 1016.35 3357
793.905 1016.35 3357
803.366 1018.16 3363
811.408 1018.16 3363
821.155 1020.28 3370
829.214 1020.28 3370
837.273 1020.28 3370
845.331 1020.28 3370
853.39 1020.28 3370
859.659 1018.16 3363
869.507 1020.28 3370
879.389 1022.4 3377
891.144 1026.64 3391
899.252 1026.64 3391
918.6 1039.35 3433
934.368 1047.83 3461
944.551 1049.95 3468
952.844 1049.95 3468
967.234 1056.61 3490
981.73 1063.27 3512
1000.56 1074.47 3549
1009.05 1074.47 3549
1026.42 1083.86 3580
1037.29 1086.28 3588
1050.25 1090.82 3603
1061.21 1093.25 3611
1069.85 1093.25 3611
1090.13 1105.05 3650
1111.2 1117.47 3691
1124.88 1122.31 3707
1133.75 1122.31 3707
1142.61 1122.31 3707
1151.48 1122.31 3707
1160.34 1122.31 3707
1169.21 1122.31 3707
1178.07 1122.31 3707
1186.94 1122.31 3707
1195.8 1122.31 3707
1199.47 1117.47 3691
1203.05 1112.62 3675
1211.84 1112.62 3675
1220.63 1112.62 3675
1226.74 1110.2 3667
1232.48 1107.47 3658
1238.51 1105.05 3650
1247.24 1105.05 3650
1255.97 1105.05 3650
1264.7 1105.05 3650
1270.63 1102.63 3642
1279.34 1102.63 3642
1288.05 1102.63 3642
1296.76 1102.63 3642
1308.34 1105.05 3650
1319.95 1107.47 3658
1328.7 1107.47 3658
1337.45 1107.47 3658
1346.2 1107.47 3658
1354.94 1107.47 3658
1363.69 1107.47 3658
1369.44 1105.05 3650
1378.16 1105.05 3650
1386.89 1105.05 3650
1395.62 1105.05 3650
1401.27 1102.63 3642
1404.17 1098.09 3627
1406.61 1093.25 3611
1415.25 1093.25 3611
1417.57 1088.4 3595
1417.05 1081.44 3572
1422.79 1079.32 3565
1428.11 1076.9 3557
1436.61 1076.9 3557
1441.87 1074.47 3549
1435.24 1063.27 3512
1437.47 1058.73 3497
1445.83 1058.73 3497
1436.31 1045.71 3454
1441.64 1043.59 3447
1444 1039.35 3433
1452.21 1039.35 3433
1460.42 1039.35 3433
1465.63 1037.24 3426
1473.82 1037.24 3426
1482.02 1037.24 3426
1487.16 1035.12 3419
1480.03 1024.52 3384
1473.17 1014.23 3350
1472.34 1008.17 3330
1480.3 1008.17 3330
1488.27 1008.17 3330
1490.39 1004.24 3317
1495.16 1002.12 3310
1503.07 1002.12 3310
1499.12 994.245 3284
1506.97 994.245 3284
1497.3 982.74 3246
1505.06 982.74 3246
1506.76 978.804 3233
1514.49 978.804 3233
1522.23 978.804 3233
1529.96 978.804 3233
1546.72 984.556 3252
1554.5 984.556 3252
1565.16 986.373 3258
1582.61 992.428 3278
1596.27 996.061 3290
1604.14 996.061 3290
1625.23 1004.24 3317
1639.56 1008.17 3330
1647.53 1008.17 3330
1655.49 1008.17 3330
1663.45 1008.17 3330
1664.89 1004.24 3317
1675.85 1006.05 3323
1683.8 1006.05 3323
1705.49 1014.23 3350
1720.15 1018.16 3363
1731.79 1020.28 3370
1739.85 1020.28 3370
1747.9 1020.28 3370
1752.32 1018.16 3363
1760.36 1018.16 3363
1761.56 1014.23 3350
1759.01 1008.17 3330
1760.08 1004.24 3317
1757.35 998.18 3297
1765.23 998.18 3297
1755.91 988.492 3265
1749.67 980.621 3239
1757.41 980.621 3239
1765.16 980.621 3239
2316.59 1202.54 3972
2326.09 1202.54 3972
2335.59 1202.54 3972
2345.09 1202.54 3972
2354.59 1202.54 3972
-2374.95 967.935 3172
-2367.37 967.935 3172
-2355.32 966.104 3166
-2343.3 964.273 3160
-2326.87 960.611 3148
-2323.77 962.442 3154
-2316.22 962.442 3154
-2313.07 964.273 3160
-2305.52 964.273 3160
-2302.32 966.104 3166
-2294.75 966.104 3166
-2304.52 973.427 3190
-2305.53 977.089 3202
-2306.49 980.751 3214
-2298.8 980.751 3214
-2300.38 984.718 3227
-2319.66 996.314 3265
-2334.51 1006.08 3297
-2326.63 1006.08 3297
-2327.89 1010.05 3310
-2348.01 1022.25 3350
-2363.75 1032.63 3384
-2355.66 1032.63 3384
-2362.13 1039.03 3405
-2363.67 1043.31 3419
-2355.49 1043.31 3419
-2366.54 1051.85 3447
-2358.3 1051.85 3447
-2350.05 1051.85 3447
-2341.81 1051.85 3447
-2333.57 1051.85 3447
-2325.33 1051.85 3447
-2317.08 1051.85 3447
-2304.15 1049.71 3440
-2291.25 1047.58 3433
-2278.39 1045.44 3426
-2270.2 1045.44 3426
-2289.73 1058.26 3468
-2281.44 1058.26 3468
-2278.39 1060.7 3476
-2274.65 1062.84 3483
-2275.43 1067.11 3497
-2267.07 1067.11 3497
-2263.87 1069.55 3505
-2260 1071.69 3512
-2256.73 1074.13 3520
-2248.31 1074.13 3520
-2239.89 1074.13 3520
-2231.48 1074.13 3520
-2223.06 1074.13 3520
-2214.64 1074.13 3520
-2215 1078.4 3534
-2211.54 1080.84 3542
-2203.07 1080.84 3542
-2194.6 1080.84 3542
-2195.39 1085.42 3557
-2186.88 1085.42 3557
-2183.28 1087.86 3565
-2174.75 1087.86 3565
-2170.48 1089.99 3572
-2161.94 1089.99 3572
-2153.4 1089.99 3572
-2144.86 1089.99 3572
-2136.31 1089.99 3572
-2127.77 1089.99 3572
-2119.23 1089.99 3572
-2110.69 1089.99 3572
-2102.15 1089.99 3572
-2089.5 1087.86 3565
-2080.98 1087.86 3565
-2067.8 1085.42 3557
-2063.93 1087.86 3565
-2055.4 1087.86 3565
-2046.88 1087.86 3565
-2033.78 1085.42 3557
-2020.72 1082.98 3549
-2008.26 1080.84 3542
-1999.79 1080.84 3542
-1986.82 1078.4 3534
-1978.37 1078.4 3534
-1966.02 1076.26 3527
-1957.59 1076.26 3527
-1949.15 1076.26 3527
-1940.72 1076.26 3527
-1936.12 1078.4 3534
-1935.85 1082.98 3549
-1927.36 1082.98 3549
-1918.88 1082.98 3549
-1919 1087.86 3565
-1914.23 1089.99 3572
-1905.69 1089.99 3572
-1909.36 1097.01 3595
-1900.77 1097.01 3595
-1896.38 1099.45 3603
-1887.76 1099.45 3603
-1883.32 1101.9 3611
-1894.93 1113.8 3650
-1903.26 1123.87 3683
-1894.45 1123.87 3683
-1897.93 1131.19 3707
-1901.81 1138.82 3732
-1905.56 1146.45 3757
-1896.58 1146.45 3757
-1887.59 1146.45 3757
-1896.11 1157.13 3792
-1887.04 1157.13 3792
-1877.97 1157.13 3792
-1868.91 1157.13 3792
-1851.01 1151.63 3774
-1841.99 1151.63 3774
-1820.82 1144.01 3749
-1803.64 1138.82 3732
-1778.84 1128.75 3699
-1770 1128.75 3699
-1761.15 1128.75 3699
-1752.31 1128.75 3699
-1716.6 1111.35 3642
-1707.89 1111.35 3642
-1688.45 1104.34 3619
-1672.37 1099.45 3603
-1649.44 1089.99 3572
-1617.01 1074.13 3520
-1608.59 1074.13 3520
-1593.35 1069.55 3505
-1578.19 1064.97 3490
-1556.8 1056.12 3461
-1548.52 1056.12 3461
-1537.13 1053.99 3454
-1525.77 1051.85 3447
-1502.12 1041.17 3412
-1493.96 1041.17 3412
-1482.75 1039.03 3405
-1471.58 1036.9 3398
-1463.45 1036.9 3398
-1455.33 1036.9 3398
-1447.2 1036.9 3398
-1442.04 1039.03 3405
-1448.64 1049.71 3440
-1440.41 1049.71 3440
-1432.19 1049.71 3440
-1429.76 1053.99 3454
-1424.38 1056.12 3461
-1425.1 1062.84 3483
-1416.77 1062.84 3483
-1408.44 1062.84 3483
-1400.12 1062.84 3483
-1391.79 1062.84 3483
-1383.46 1062.84 3483
-1377.89 1064.97 3490
-1369.55 1064.97 3490
-1367.05 1069.55 3505
-1358.67 1069.55 3505
-1358.76 1076.26 3527
-1353.01 1078.4 3534
-1344.56 1078.4 3534
-1336.11 1078.4 3534
-1327.66 1078.4 3534
-1319.21 1078.4 3534
-1310.76 1078.4 3534
-1299.73 1076.26 3527
-1285.8 1071.69 3512
-1274.86 1069.55 3505
-1266.47 1069.55 3505
-1258.09 1069.55 3505
-1246.86 1067.11 3497
-1233.54 1062.84 3483
-1219.93 1058.26 3468
-1211.64 1058.26 3468
-1203.35 1058.26 3468
-1192.64 1056.12 3461
-1181.97 1053.99 3454
-1173.71 1053.99 3454
-1163.09 1051.85 3447
-1147.81 1045.44 3426
-1134.96 1041.17 3412
-1126.8 1041.17 3412
-1109.46 1032.63 3384
-1103.65 1034.76 3391
-1095.54 1034.76 3391
-1087.43 1034.76 3391
-1079.32 1034.76 3391
-1071.21 1034.76 3391
-1069.69 1041.17 3412
-1061.53 1041.17 3412
-1053.37 1041.17 3412
-1045.21 1041.17 3412
-520.653 522.721 1713
-518.064 524.247 1718
-515.153 525.468 1722
-512.519 526.993 1727
-508.389 526.993 1727
-504.843 527.604 1729
-500.709 527.604 1729
-496.574 527.604 1729
-492.439 527.604 1729
-487.74 526.993 1727
-483.05 526.383 1725
-478.925 526.383 1725
-474.8 526.383 1725
-470.675 526.383 1725
-466.009 525.773 1723
-461.889 525.773 1723
-457.503 525.468 1722
-453.385 525.468 1722
-449.268 525.468 1722
-444.633 524.857 1720
-440.52 524.857 1720
-436.407 524.857 1720
-432.294 524.857 1720
-428.181 524.857 1720
-424.068 524.857 1720
-419.954 524.857 1720
-415.841 524.857 1720
-411.728 524.857 1720
-407.615 524.857 1720
-403.502 524.857 1720
-398.46 523.637 1716
-393.668 522.721 1713
-389.571 522.721 1713
-385.475 522.721 1713
-380.933 522.111 1711
-376.401 521.501 1709
-372.315 521.501 1709
-368.012 521.196 1708
-363.502 520.585 1706
-359.422 520.585 1706
-355.343 520.585 1706
-351.263 520.585 1706
-346.37 519.365 1702
-342.3 519.365 1702
-338.23 519.365 1702
-333.963 519.06 1701
-329.896 519.06 1701
-325.828 519.06 1701
-321.76 519.06 1701
-317.319 518.449 1699
-312.888 517.839 1697
-308.83 517.839 1697
-305.131 518.449 1699
-301.068 518.449 1699
-297.005 518.449 1699
-293.287 519.06 1701
-289.39 519.365 1702
-285.655 519.975 1704
-281.58 519.975 1704
-277.505 519.975 1704
-274.072 521.196 1708
-269.988 521.196 1708
-265.904 521.196 1708
-262.279 522.111 1711
-258.791 523.332 1715
-254.839 523.637 1716
-250.735 523.637 1716
-246.919 524.247 1718
-243.376 525.468 1722
-239.397 525.773 1723
-235.277 525.773 1723
-232.23 528.214 1731
-228.75 529.74 1736
-224.599 529.74 1736
-220.447 529.74 1736
-216.296 529.74 1736
-212.145 529.74 1736
-208.233 530.35 1738
-204.077 530.35 1738
-200.266 531.266 1741
-196.328 531.876 1743
-192.601 533.096 1747
-188.423 533.096 1747
-184.457 533.707 1749
-180.583 534.622 1752
-178.307 540.42 1771
-174.072 540.42 1771
-170.604 542.861 1779
-166.443 543.166 1780
-162.187 543.166 1780
-157.93 543.166 1780
-115.402 1123.87 3683
-106.594 1123.87 3683
-97.7873 1123.87 3683
-88.7869 1121.42 3675
-79.8247 1118.98 3667
-70.8814 1116.24 3658
-62.134 1116.24 3658
-53.3866 1116.24 3658
-44.6392 1116.24 3658
-35.8918 1116.24 3658
-27.1444 1116.24 3658
-18.3971 1116.24 3658
-9.64967 1116.24 3658
-0.902288 1116.24 3658
7.82794 1113.8 3650
16.5562 1113.8 3650
25.0143 1101.9 3611
33.5747 1099.45 3603
42.015 1094.88 3588
50.595 1094.88 3588
59.1749 1094.88 3588
67.7549 1094.88 3588
76.1647 1092.44 3580
84.7256 1092.44 3580
93.2865 1092.44 3580
101.847 1092.44 3580
110.161 1089.99 3572
118.703 1089.99 3572
126.996 1087.86 3565
135.521 1087.86 3565
144.046 1087.86 3565
152.571 1087.86 3565
160.734 1085.42 3557
169.24 1085.42 3557
177.746 1085.42 3557
186.671 1087.86 3565
195.196 1087.86 3565
203.721 1087.86 3565
212.246 1087.86 3565
220.771 1087.86 3565
229.746 1089.99 3572
238.287 1089.99 3572
246.829 1089.99 3572
255.371 1089.99 3572
263.913 1089.99 3572
272.454 1089.99 3572
280.445 1087.86 3565
289.538 1089.99 3572
298.08 1089.99 3572
306.621 1089.99 3572
315.869 1092.44 3580
325.789 1097.01 3595
336.618 1104.34 3619
345.272 1104.34 3619
355.491 1109.22 3635
364.184 1109.22 3635
372.876 1109.22 3635
379.889 1104.34 3619
385.966 1097.01 3595
391.27 1087.86 3565
399.795 1087.86 3565
403.968 1076.26 3527
408.076 1064.97 3490
414.751 1060.7 3476
419.534 1051.85 3447
427.776 1051.85 3447
432.478 1043.31 3419
438.849 1039.03 3405
443.316 1030.49 3377
451.391 1030.49 3377
457.562 1026.22 3363
462.835 1020.12 3343
469.984 1018.28 3337
477.964 1018.28 3337
483.905 1014.01 3323
491.851 1014.01 3323
498.895 1012.18 3317
506.827 1012.18 3317
514.759 1012.18 3317
521.588 1010.05 3310
529.503 1010.05 3310
537.418 1010.05 3310
547.475 1014.01 3323
555.421 1014.01 3323
563.368 1014.01 3323
571.314 1014.01 3323
579.26 1014.01 3323
587.207 1014.01 3323
595.153 1014.01 3323
603.099 1014.01 3323
612.333 1016.15 3330
620.296 1016.15 3330
628.259 1016.15 3330
636.222 1016.15 3330
644.185 1016.15 3330
652.148 1016.15 3330
660.111 1016.15 3330
669.478 1018.28 3337
677.458 1018.28 3337
685.438 1018.28 3337
693.418 1018.28 3337
702.659 1020.12 3343
710.653 1020.12 3343
718.647 1020.12 3343
726.641 1020.12 3343
734.635 1020.12 3343
741.296 1018.28 3337
752.195 1022.25 3350
760.206 1022.25 3350
769.822 1024.39 3357
777.85 1024.39 3357
785.877 1024.39 3357
793.905 1024.39 3357
803.366 1026.22 3363
811.408 1026.22 3363
821.155 1028.35 3370
829.214 1028.35 3370
837.273 1028.35 3370
845.331 1028.35 3370
853.39 1028.35 3370
859.659 1026.22 3363
869.507 1028.35 3370
879.389 1030.49 3377
891.144 1034.76 3391
899.252 1034.76 3391
916.727 1045.44 3426
930.589 1051.85 3447
944.551 1058.26 3468
952.844 1058.26 3468
965.294 1062.84 3483
981.73 1071.69 3512
1000.56 1082.98 3549
1009.05 1082.98 3549
1022.12 1087.86 3565
1037.29 1094.88 3588
1050.25 1099.45 3603
1061.21 1101.9 3611
1069.85 1101.9 3611
1090.13 1113.8 3650
1111.2 1126.31 3691
1124.88 1131.19 3707
1133.75 1131.19 3707
1145.39 1133.94 3716
1154.27 1133.94 3716
1163.16 1133.94 3716
1172.05 1133.94 3716
1180.93 1133.94 3716
1189.82 1133.94 3716
1198.7 1133.94 3716
1204.67 1131.19 3707
1205.67 1123.87 3683
1211.84 1121.42 3675
1220.63 1121.42 3675
1226.74 1118.98 3667
1232.48 1116.24 3658
1238.51 1113.8 3650
1247.24 1113.8 3650
1255.97 1113.8 3650
1261.92 1111.35 3642
1268.19 1109.22 3635
1276.88 1109.22 3635
1285.58 1109.22 3635
1294.27 1109.22 3635
1305.47 1111.35 3642
1317.07 1113.8 3650
1325.79 1113.8 3650
1334.52 1113.8 3650
1343.25 1113.8 3650
1349.02 1111.35 3642
1357.73 1111.35 3642
1366.43 1111.35 3642
1375.14 1111.35 3642
1383.85 1111.35 3642
1392.56 1111.35 3642
1398.58 1109.22 3635
1401.08 1104.34 3619
1406.61 1101.9 3611
1415.25 1101.9 3611
1417.57 1097.01 3595
1417.05 1089.99 3572
1419.6 1085.42 3557
1428.11 1085.42 3557
1436.61 1085.42 3557
1441.87 1082.98 3549
1435.24 1071.69 3512
1437.47 1067.11 3497
1445.83 1067.11 3497
1436.31 1053.99 3454
1441.64 1051.85 3447
1446.94 1049.71 3440
1455.17 1049.71 3440
1460.42 1047.58 3433
1465.63 1045.44 3426
1470.81 1043.31 3419
1478.99 1043.31 3419
1478.03 1036.9 3398
1470.85 1026.22 3363
1473.17 1022.25 3350
1472.34 1016.15 3330
1480.3 1016.15 3330
1488.27 1016.15 3330
1484.1 1007.91 3303
1489.29 1006.08 3297
1497.17 1006.08 3297
1505.05 1006.08 3297
1498.25 996.314 3265
1494.07 988.38 3239
1501.81 988.38 3239
1509.56 988.38 3239
1514.49 986.549 3233
1528.35 990.516 3246
1541.79 994.178 3258
1549.58 994.178 3258
1557.37 994.178 3258
1565.16 994.178 3258
1582.61 1000.28 3278
1609.37 1012.18 3317
1617.3 1012.18 3317
1631.6 1016.15 3330
1645.97 1020.12 3343
1653.96 1020.12 3343
1661.95 1020.12 3343
1663.45 1016.15 3330
1664.89 1012.18 3317
1675.85 1014.01 3323
1683.8 1014.01 3323
1698.87 1018.28 3337
1717.08 1024.39 3357
1728.19 1026.22 3363
1736.23 1026.22 3363
1744.27 1026.22 3363
1745.54 1022.25 3350
1753.55 1022.25 3350
1744.21 1012.18 3317
1748.45 1010.05 3310
1745.75 1003.94 3290
1740.29 996.314 3265
1748.1 996.314 3265
1741.92 988.38 3239
1746.43 986.549 3233
1743.85 980.751 3214
1751.54 980.751 3214
-2374.95 975.533 3172
-2367.37 975.533 3172
-2355.32 973.688 3166
-2343.3 971.843 3160
-2326.87 968.152 3148
-2323.77 969.997 3154
-2316.22 969.997 3154
-2317.47 973.688 3166
-2309.9 973.688 3166
-2306.69 975.533 3172
-2299.1 975.533 3172
-2304.52 981.069 3190
-2301.21 982.914 3196
-2302.18 986.605 3208
-2294.51 986.605 3208
-2296.11 990.603 3221
-2319.66 1004.13 3265
-2325.31 1009.98 3284
-2317.46 1009.98 3284
-2322.97 1015.82 3303
-2348.01 1030.28 3350
-2363.75 1040.73 3384
-2355.66 1040.73 3384
-2366.99 1049.34 3412
-2373.35 1055.8 3433
-2365.14 1055.8 3433
-2366.54 1060.11 3447
-2358.3 1060.11 3447
-2350.05 1060.11 3447
-2341.81 1060.11 3447
-2333.57 1060.11 3447
-2320.6 1057.96 3440
-2307.67 1055.8 3433
-2299.46 1055.8 3433
-2286.58 1053.65 3426
-2278.39 1053.65 3426
-2274.83 1055.8 3433
-2295.02 1069.03 3476
-2286.7 1069.03 3476
-2278.39 1069.03 3476
-2274.65 1071.18 3483
-2275.43 1075.49 3497
-2267.07 1075.49 3497
-2263.87 1077.95 3505
-2265.15 1082.56 3520
-2256.73 1082.56 3520
-2248.31 1082.56 3520
-2239.89 1082.56 3520
-2231.48 1082.56 3520
-2223.06 1082.56 3520
-2214.64 1082.56 3520
-2215 1086.86 3534
-2211.54 1089.32 3542
-2203.07 1089.32 3542
-2194.6 1089.32 3542
-2190.45 1091.48 3549
-2186.88 1093.94 3557
-2183.28 1096.4 3565
-2174.75 1096.4 3565
-2170.48 1098.55 3572
-2161.94 1098.55 3572
-2153.4 1098.55 3572
-2144.86 1098.55 3572
-2136.31 1098.55 3572
-2127.77 1098.55 3572
-2119.23 1098.55 3572
-2106.55 1096.4 3565
-2098.03 1096.4 3565
-2080.13 1091.48 3549
-2071.64 1091.48 3549
-2063.15 1091.48 3549
-2059.3 1093.94 3557
-2050.79 1093.94 3557
-2042.29 1093.94 3557
-2033.78 1093.94 3557
-2016.73 1089.32 3542
-2003.73 1086.86 3534
-1995.28 1086.86 3534
-1986.82 1086.86 3534
-1978.37 1086.86 3534
-1969.92 1086.86 3534
-1961.47 1086.86 3534
-1953.02 1086.86 3534
-1940.72 1084.71 3527
-1936.12 1086.86 3534
-1932.03 1089.32 3542
-1923.56 1089.32 3542
-1918.88 1091.48 3549
-1910.39 1091.48 3549
-1914.23 1098.55 3572
-1905.69 1098.55 3572
-1905.64 1103.47 3588
-1897.06 1103.47 3588
-1892.17 1105.62 3595
-1883.57 1105.62 3595
-1883.32 1110.55 3611
-1894.93 1122.54 3650
-1899.12 1130.23 3675
-1890.33 1130.23 3675
-1897.93 1140.07 3707
-1897.73 1145.3 3724
-1905.56 1155.45 3757
-1896.58 1155.45 3757
-1887.59 1155.45 3757
-1896.11 1166.21 3792
-1887.04 1166.21 3792
-1877.97 1166.21 3792
-1868.91 1166.21 3792
-1851.01 1160.68 3774
-1841.99 1160.68 3774
-1820.82 1152.99 3749
-1803.64 1147.76 3732
-1782.69 1140.07 3707
-1773.83 1140.07 3707
-1764.96 1140.07 3707
-1756.1 1140.07 3707
-1716.6 1120.08 3642
-1707.89 1120.08 3642
-1692.18 1115.47 3627
-1672.37 1108.09 3603
-1649.44 1098.55 3572
-1617.01 1082.56 3520
-1608.59 1082.56 3520
-1596.54 1080.1 3512
-1578.19 1073.33 3490
-1556.8 1064.41 3461
-1548.52 1064.41 3461
-1537.13 1062.26 3454
-1528.87 1062.26 3454
-1502.12 1049.34 3412
-1493.96 1049.34 3412
-1485.8 1049.34 3412
-1477.64 1049.34 3412
-1469.48 1049.34 3412
-1461.33 1049.34 3412
-1450.18 1047.19 3405
-1442.04 1047.19 3405
-1445.69 1055.8 3433
-1440.41 1057.96 3440
-1432.19 1057.96 3440
-1426.86 1060.11 3447
-1424.38 1064.41 3461
-1422.24 1069.03 3476
-1413.93 1069.03 3476
-1405.61 1069.03 3476
-1400.12 1071.18 3483
-1391.79 1071.18 3483
-1383.46 1071.18 3483
-1375.13 1071.18 3483
-1369.55 1073.33 3490
-1367.05 1077.95 3505
-1358.67 1077.95 3505
-1358.76 1084.71 3527
-1353.01 1086.86 3534
-1344.56 1086.86 3534
-1336.11 1086.86 3534
-1327.66 1086.86 3534
-1319.21 1086.86 3534
-1310.76 1086.86 3534
-1299.73 1084.71 3527
-1285.8 1080.1 3512
-1274.86 1077.95 3505
-1266.47 1077.95 3505
-1258.09 1077.95 3505
-1249.71 1077.95 3505
-1236.02 1073.33 3490
-1219.93 1066.57 3468
-1211.64 1066.57 3468
-1203.35 1066.57 3468
-1192.64 1064.41 3461
-1184.36 1064.41 3461
-1176.09 1064.41 3461
-1163.09 1060.11 3447
-1150.15 1055.8 3433
-1137.29 1051.5 3419
-1129.11 1051.5 3419
-1109.46 1040.73 3384
-1105.93 1045.04 3398
-1097.8 1045.04 3398
-1089.67 1045.04 3398
-1081.55 1045.04 3398
-1073.42 1045.04 3398
-1069.69 1049.34 3412
-1061.53 1049.34 3412
-1053.37 1049.34 3412
-1045.21 1049.34 3412
-519.437 525.595 1709
-516.557 526.825 1713
-513.956 528.363 1718
-511.925 530.515 1725
-507.8 530.515 1725
-504.259 531.13 1727
-500.129 531.13 1727
-496 531.13 1727
-491.87 531.13 1727
-487.175 530.515 1725
-482.21 529.593 1722
-478.37 529.9 1723
-474.25 529.9 1723
-470.13 529.9 1723
-466.009 529.9 1723
-461.889 529.9 1723
-456.972 528.978 1720
-452.859 528.978 1720
-448.746 528.978 1720
-444.633 528.978 1720
-440.52 528.978 1720
-436.407 528.978 1720
-432.294 528.978 1720
-428.181 528.978 1720
-424.068 528.978 1720
-419.954 528.978 1720
-415.841 528.978 1720
-411.728 528.978 1720
-407.615 528.978 1720
-403.502 528.978 1720
-398.46 527.747 1716
-393.668 526.825 1713
-389.571 526.825 1713
-385.475 526.825 1713
-380.933 526.21 1711
-376.401 525.595 1709
-372.315 525.595 1709
-368.012 525.287 1708
-363.502 524.672 1706
-359.422 524.672 1706
-355.343 524.672 1706
-351.263 524.672 1706
-346.37 523.442 1702
-342.3 523.442 1702
-338.23 523.442 1702
-333.963 523.134 1701
-329.896 523.134 1701
-325.828 523.134 1701
-321.76 523.134 1701
-317.319 522.519 1699
-312.888 521.904 1697
-308.83 521.904 1697
-305.131 522.519 1699
-301.068 522.519 1699
-297.005 522.519 1699
-293.287 523.134 1701
-289.39 523.442 1702
-285.655 524.057 1704
-281.58 524.057 1704
-277.505 524.057 1704
-274.072 525.287 1708
-269.988 525.287 1708
-265.904 525.287 1708
-262.279 526.21 1711
-258.791 527.44 1715
-254.839 527.747 1716
-250.735 527.747 1716
-246.919 528.363 1718
-243.376 529.593 1722
-239.397 529.9 1723
-235.277 529.9 1723
-232.23 532.361 1731
-228.75 533.898 1736
-224.599 533.898 1736
-220.447 533.898 1736
-216.296 533.898 1736
-212.145 533.898 1736
-208.233 534.513 1738
-204.077 534.513 1738
-200.266 535.436 1741
-196.328 536.051 1743
-192.601 537.281 1747
-188.423 537.281 1747
-184.457 537.896 1749
-180.583 538.819 1752
-178.307 544.662 1771
-174.072 544.662 1771
-170.604 547.123 1779
-166.443 547.43 1780
-162.187 547.43 1780
-157.93 547.43 1780
-115.151 1130.23 3675
-106.363 1130.23 3675
-97.5749 1130.23 3675
-88.5936 1127.77 3667
-79.4546 1122.54 3650
-70.7264 1122.54 3650
-62.134 1125 3658
-53.3866 1125 3658
-44.6392 1125 3658
-35.8918 1125 3658
-27.1444 1125 3658
-18.3971 1125 3658
-9.64967 1125 3658
-0.902288 1125 3658
7.82794 1122.54 3650
16.5562 1122.54 3650
25.0143 1110.55 3611
33.5747 1108.09 3603
42.015 1103.47 3588
50.595 1103.47 3588
59.1749 1103.47 3588
67.7549 1103.47 3588
76.1647 1101.01 3580
84.7256 1101.01 3580
93.2865 1101.01 3580
101.847 1101.01 3580
110.161 1098.55 3572
118.703 1098.55 3572
126.996 1096.4 3565
135.521 1096.4 3565
144.046 1096.4 3565
152.571 1096.4 3565
161.096 1096.4 3565
169.621 1096.4 3565
178.495 1098.55 3572
187.456 1101.01 3580
196.017 1101.01 3580
204.578 1101.01 3580
213.139 1101.01 3580
221.699 1101.01 3580
230.775 1103.47 3588
239.355 1103.47 3588
247.935 1103.47 3588
256.515 1103.47 3588
265.095 1103.47 3588
273.065 1101.01 3580
281.625 1101.01 3580
288.97 1096.4 3565
298.08 1098.55 3572
306.621 1098.55 3572
315.869 1101.01 3580
325.789 1105.62 3595
336.618 1113.01 3619
345.272 1113.01 3619
355.491 1117.93 3635
364.184 1117.93 3635
372.876 1117.93 3635
379.889 1113.01 3619
385.966 1105.62 3595
391.27 1096.4 3565
399.795 1096.4 3565
403.968 1084.71 3527
408.076 1073.33 3490
414.751 1069.03 3476
419.534 1060.11 3447
427.776 1060.11 3447
432.478 1051.5 3419
438.849 1047.19 3405
443.316 1038.58 3377
451.391 1038.58 3377
457.562 1034.27 3363
462.835 1028.12 3343
469.984 1026.28 3337
477.964 1026.28 3337
483.905 1021.97 3323
491.851 1021.97 3323
498.895 1020.13 3317
506.827 1020.13 3317
514.759 1020.13 3317
521.588 1017.97 3310
529.503 1017.97 3310
538.555 1020.13 3317
547.475 1021.97 3323
555.421 1021.97 3323
563.368 1021.97 3323
571.314 1021.97 3323
579.26 1021.97 3323
587.207 1021.97 3323
596.407 1024.13 3330
604.37 1024.13 3330
612.333 1024.13 3330
620.296 1024.13 3330
628.259 1024.13 3330
636.222 1024.13 3330
644.185 1024.13 3330
652.148 1024.13 3330
661.498 1026.28 3337
669.478 1026.28 3337
677.458 1026.28 3337
685.438 1026.28 3337
693.418 1026.28 3337
702.659 1028.12 3343
710.653 1028.12 3343
718.647 1028.12 3343
726.641 1028.12 3343
734.635 1028.12 3343
741.296 1026.28 3337
752.195 1030.28 3350
760.206 1030.28 3350
769.822 1032.43 3357
777.85 1032.43 3357
785.877 1032.43 3357
793.905 1032.43 3357
803.366 1034.27 3363
811.408 1034.27 3363
821.155 1036.43 3370
829.214 1036.43 3370
837.273 1036.43 3370
845.331 1036.43 3370
853.39 1036.43 3370
859.659 1034.27 3363
869.507 1036.43 3370
879.389 1038.58 3377
891.144 1042.89 3391
899.252 1042.89 3391
916.727 1053.65 3426
930.589 1060.11 3447
944.551 1066.57 3468
952.844 1066.57 3468
965.294 1071.18 3483
981.73 1080.1 3512
1000.56 1091.48 3549
1009.05 1091.48 3549
1022.12 1096.4 3565
1037.29 1103.47 3588
1050.25 1108.09 3603
1061.21 1110.55 3611
1069.85 1110.55 3611
1090.13 1122.54 3650
1113.61 1137.61 3699
1127.62 1142.84 3716
1136.5 1142.84 3716
1147.85 1145.3 3724
1156.76 1145.3 3724
1165.66 1145.3 3724
1174.57 1145.3 3724
1183.47 1145.3 3724
1192.38 1145.3 3724
1201.29 1145.3 3724
1207.59 1142.84 3716
1205.67 1132.69 3683
1214.48 1132.69 3683
1223.29 1132.69 3683
1229.42 1130.23 3675
1232.48 1125 3658
1238.51 1122.54 3650
1247.24 1122.54 3650
1255.97 1122.54 3650
1261.92 1120.08 3642
1268.19 1117.93 3635
1276.88 1117.93 3635
1285.58 1117.93 3635
1294.27 1117.93 3635
1305.47 1120.08 3642
1317.07 1122.54 3650
1325.79 1122.54 3650
1334.52 1122.54 3650
1343.25 1122.54 3650
1349.02 1120.08 3642
1357.73 1120.08 3642
1366.43 1120.08 3642
1375.14 1120.08 3642
1383.85 1120.08 3642
1392.56 1120.08 3642
1398.58 1117.93 3635
1401.08 1113.01 3619
1406.61 1110.55 3611
1415.25 1110.55 3611
1417.57 1105.62 3595
1417.05 1098.55 3572
1419.6 1093.94 3557
1428.11 1093.94 3557
1436.61 1093.94 3557
1441.87 1091.48 3549
1435.24 1080.1 3512
1437.47 1075.49 3497
1445.83 1075.49 3497
1436.31 1062.26 3454
1441.64 1060.11 3447
1446.94 1057.96 3440
1455.17 1057.96 3440
1460.42 1055.8 3433
1465.63 1053.65 3426
1470.81 1051.5 3419
1478.99 1051.5 3419
1478.03 1045.04 3398
1473.91 1036.43 3370
1473.17 1030.28 3350
1481.18 1030.28 3350
1489.19 1030.28 3350
1497.21 1030.28 3350
1505.22 1030.28 3350
1513.23 1030.28 3350
1521.24 1030.28 3350
1516.92 1021.97 3323
1518.9 1017.97 3310
1508.83 1005.98 3271
1516.65 1005.98 3271
1524.47 1005.98 3271
1547.29 1015.82 3303
1555.18 1015.82 3303
1566.4 1017.97 3310
1583.82 1024.13 3330
1591.79 1024.13 3330
1603.11 1026.28 3337
1627.02 1036.43 3370
1652.06 1047.19 3405
1660.21 1047.19 3405
1668.35 1047.19 3405
1676.49 1047.19 3405
1684.63 1047.19 3405
1685.82 1042.89 3391
1676.94 1032.43 3357
1677.94 1028.12 3343
1685.94 1028.12 3343
1687.34 1024.13 3330
1701.92 1028.12 3343
1717.08 1032.43 3357
1725.11 1032.43 3357
1733.13 1032.43 3357
1741.16 1032.43 3357
1741.89 1028.12 3343
1739.42 1021.97 3323
1747.37 1021.97 3323
1744.75 1015.82 3303
1745.75 1011.82 3290
1740.29 1004.13 3265
1748.1 1004.13 3265
1748.91 1000.14 3252
1756.69 1000.14 3252
1764.47 1000.14 3252
1772.24 1000.14 3252
-2379.45 984.991 3178
-2371.85 984.991 3178
-2355.32 981.272 3166
-2343.3 979.413 3160
-2326.87 975.693 3148
-2332.61 981.272 3166
-2325.04 981.272 3166
-2317.47 981.272 3166
-2309.9 981.272 3166
-2306.69 983.132 3172
-2299.1 983.132 3172
-2304.52 988.711 3190
-2301.21 990.57 3196
-2302.18 994.29 3208
-2294.51 994.29 3208
-2296.11 998.319 3221
-2319.66 1011.96 3265
-2325.31 1017.85 3284
-2317.46 1017.85 3284
-2322.97 1023.73 3303
-2348.01 1038.3 3350
-2363.75 1048.84 3384
-2355.66 1048.84 3384
-2366.99 1057.52 3412
-2373.35 1064.03 3433
-2365.14 1064.03 3433
-2366.54 1068.37 3447
-2358.3 1068.37 3447
-2350.05 1068.37 3447
-2341.81 1068.37 3447
-2333.57 1068.37 3447
-2320.6 1066.2 3440
-2307.67 1064.03 3433
-2299.46 1064.03 3433
-2277.24 1057.52 3412
-2273.73 1059.69 3419
-2274.83 1064.03 3433
-2295.02 1077.35 3476
-2286.7 1077.35 3476
-2278.39 1077.35 3476
-2274.65 1079.52 3483
-2275.43 1083.86 3497
-2267.07 1083.86 3497
-2263.87 1086.34 3505
-2265.15 1090.99 3520
-2256.73 1090.99 3520
-2248.31 1090.99 3520
-2239.89 1090.99 3520
-2231.48 1090.99 3520
-2223.06 1090.99 3520
-2214.64 1090.99 3520
-2215 1095.33 3534
-2211.54 1097.81 3542
-2203.07 1097.81 3542
-2194.6 1097.81 3542
-2186.13 1097.81 3542
-2186.88 1102.46 3557
-2183.28 1104.94 3565
-2174.75 1104.94 3565
-2170.48 1107.11 3572
-2161.94 1107.11 3572
-2153.4 1107.11 3572
-2144.86 1107.11 3572
-2136.31 1107.11 3572
-2127.77 1107.11 3572
-2119.23 1107.11 3572
-2106.55 1104.94 3565
-2098.03 1104.94 3565
-2080.13 1099.98 3549
-2076.31 1102.46 3557
-2067.8 1102.46 3557
-2059.3 1102.46 3557
-2050.79 1102.46 3557
-2042.29 1102.46 3557
-2033.78 1102.46 3557
-2016.73 1097.81 3542
-2003.73 1095.33 3534
-1995.28 1095.33 3534
-1986.82 1095.33 3534
-1978.37 1095.33 3534
-1969.92 1095.33 3534
-1961.47 1095.33 3534
-1953.02 1095.33 3534
-1936.87 1090.99 3520
-1932.28 1093.16 3527
-1927.67 1095.33 3534
-1919.22 1095.33 3534
-1910.77 1095.33 3534
-1910.39 1099.98 3549
-1906.19 1102.46 3557
-1897.69 1102.46 3557
-1893.43 1104.94 3565
-1888.6 1107.11 3572
-1888.48 1112.07 3588
-1879.9 1112.07 3588
-1874.97 1114.24 3595
-1887.14 1126.63 3635
-1890.34 1133.76 3658
-1881.59 1133.76 3658
-1889.74 1143.99 3691
-1897.73 1154.22 3724
-1892.88 1156.7 3732
-1883.96 1156.7 3732
-1887.59 1164.45 3757
-1896.11 1175.3 3792
-1887.04 1175.3 3792
-1877.97 1175.3 3792
-1868.91 1175.3 3792
-1847.09 1167.24 3766
-1838.08 1167.24 3766
-1820.82 1161.97 3749
-1799.77 1154.22 3724
-1782.69 1148.95 3707
-1773.83 1148.95 3707
-1764.96 1148.95 3707
-1756.1 1148.95 3707
-1724.14 1133.76 3658
-1715.39 1133.76 3658
-1692.18 1124.15 3627
-1676.08 1119.2 3611
-1649.44 1107.11 3572
-1620.22 1093.16 3527
-1611.79 1093.16 3527
-1600.17 1090.99 3520
-1581.35 1083.86 3497
-1559.95 1074.87 3468
-1551.65 1074.87 3468
-1537.13 1070.54 3454
-1528.87 1070.54 3454
-1508.28 1061.86 3426
-1500.09 1061.86 3426
-1485.8 1057.52 3412
-1480.67 1059.69 3419
-1472.5 1059.69 3419
-1464.32 1059.69 3419
-1453.17 1057.52 3412
-1445.01 1057.52 3412
-1445.69 1064.03 3433
-1437.48 1064.03 3433
-1429.27 1064.03 3433
-1423.96 1066.2 3440
-1421.5 1070.54 3454
-1422.24 1077.35 3476
-1413.93 1077.35 3476
-1405.61 1077.35 3476
-1397.3 1077.35 3476
-1391.79 1079.52 3483
-1383.46 1079.52 3483
-1375.13 1079.52 3483
-1369.55 1081.69 3490
-1363.93 1083.86 3497
-1355.57 1083.86 3497
-1358.76 1093.16 3527
-1353.01 1095.33 3534
-1344.56 1095.33 3534
-1336.11 1095.33 3534
-1327.66 1095.33 3534
-1319.21 1095.33 3534
-1310.76 1095.33 3534
-1299.73 1093.16 3527
-1285.8 1088.51 3512
-1280.31 1090.99 3520
-1271.89 1090.99 3520
-1263.48 1090.99 3520
-1255.06 1090.99 3520
-1236.02 1081.69 3490
-1219.93 1074.87 3468
-1211.64 1074.87 3468
-1203.35 1074.87 3468
-1192.64 1072.7 3461
-1184.36 1072.7 3461
-1176.09 1072.7 3461
-1165.45 1070.54 3454
-1154.85 1068.37 3447
-1139.62 1061.86 3426
-1131.42 1061.86 3426
-1114.05 1053.18 3398
-1108.2 1055.35 3405
-1100.06 1055.35 3405
-1091.92 1055.35 3405
-1081.55 1053.18 3398
-1073.42 1053.18 3398
-1069.69 1057.52 3412
-1061.53 1057.52 3412
-1053.37 1057.52 3412
-1045.21 1057.52 3412
-519.437 529.689 1709
-516.557 530.928 1713
-514.554 533.098 1720
-512.519 535.268 1727
-508.389 535.268 1727
-504.259 535.268 1727
-500.129 535.268 1727
-496 535.268 1727
-491.87 535.268 1727
-487.175 534.648 1725
-481.65 533.098 1720
-478.092 533.718 1722
-473.975 533.718 1722
-469.857 533.718 1722
-465.739 533.718 1722
-461.621 533.718 1722
-456.972 533.098 1720
-452.332 532.478 1718
-448.746 533.098 1720
-444.633 533.098 1720
-440.52 533.098 1720
-436.407 533.098 1720
-432.294 533.098 1720
-427.683 532.478 1718
-423.574 532.478 1718
-419.466 532.478 1718
-415.841 533.098 1720
-411.728 533.098 1720
-407.615 533.098 1720
-403.033 532.478 1718
-398.46 531.858 1716
-393.668 530.928 1713
-389.571 530.928 1713
-385.475 530.928 1713
-380.933 530.308 1711
-376.401 529.689 1709
-372.315 529.689 1709
-368.012 529.379 1708
-363.928 529.379 1708
-359.844 529.379 1708
-355.759 529.379 1708
-351.263 528.759 1706
-346.37 527.519 1702
-342.3 527.519 1702
-338.23 527.519 1702
-334.16 527.519 1702
-329.896 527.209 1701
-325.828 527.209 1701
-321.76 527.209 1701
-317.319 526.589 1699
-312.888 525.969 1697
-308.83 525.969 1697
-305.131 526.589 1699
-301.068 526.589 1699
-297.005 526.589 1699
-293.287 527.209 1701
-289.39 527.519 1702
-285.655 528.139 1704
-281.58 528.139 1704
-277.505 528.139 1704
-274.072 529.379 1708
-269.988 529.379 1708
-265.904 529.379 1708
-262.279 530.308 1711
