ply
format ascii 1.0
comment File generated
element vertex 2257
property float x
property float y
property float z
end_header
1843.83 1117.38 3061
1861.43 1123.59 3078
1868.79 1123.59 3078
1876.15 1123.59 3078
1879.84 1121.39 3072
1869.98 1111.17 3044
1877.26 1111.17 3044
1864.11 1099.13 3011
-2323.03 1169.91 3184
-2315.41 1169.91 3184
-2307.8 1169.91 3184
-2295.85 1167.7 3178
-2279.61 1163.29 3166
-2272.04 1163.29 3166
-2243.01 1152.27 3136
-1618.5 1287.85 3505
-1620.22 1295.94 3527
-1611.79 1295.94 3527
-1603.35 1295.94 3527
-1588.14 1290.42 3512
-1556.8 1271.69 3461
-1548.52 1271.69 3461
-1476.16 1218.77 3317
-1453.62 1206.65 3284
-1440.05 1201.87 3271
-1432.22 1201.87 3271
-1405.24 1185.71 3227
-1384.1 1174.32 3196
-1373.87 1172.11 3190
-1348.26 1156.68 3148
-1340.73 1156.68 3148
-1328.12 1152.27 3136
-1318.09 1150.06 3130
-1315.63 1154.47 3142
-1308.12 1154.47 3142
-1300.61 1154.47 3142
-1293.09 1154.47 3142
-1285.58 1154.47 3142
-1282.95 1158.88 3154
-1275.4 1158.88 3154
-1270.27 1161.09 3160
-1265.12 1163.29 3166
-1257.54 1163.29 3166
-1249.97 1163.29 3166
-1242.4 1163.29 3166
-587.508 653.663 1779
-583.254 653.663 1779
-579 653.663 1779
-574.746 653.663 1779
-567.285 649.989 1769
-563.055 649.989 1769
-558.825 649.989 1769
-554.595 649.989 1769
-550.364 649.989 1769
-546.134 649.989 1769
-541.904 649.989 1769
-537.674 649.989 1769
-533.443 649.989 1769
-527.119 647.417 1762
-522.906 647.417 1762
-518.692 647.417 1762
-514.771 647.784 1763
-511.134 648.519 1765
-506.913 648.519 1765
-502.693 648.519 1765
-499.602 649.989 1769
-496.492 651.458 1773
-493.362 652.928 1777
-489.113 652.928 1777
-485.682 654.031 1780
-483.049 656.235 1786
-480.386 658.44 1792
-476.101 658.44 1792
-472.342 659.175 1794
-469.096 660.644 1798
-465.313 661.379 1800
-461.009 661.379 1800
-457.72 662.849 1804
-454.16 663.951 1807
-449.839 663.951 1807
-445.517 663.951 1807
-441.685 664.686 1809
-437.359 664.686 1809
-433.033 664.686 1809
-428.233 663.951 1807
-423.443 663.216 1805
-418.894 662.849 1804
-414.58 662.849 1804
-409.812 662.114 1802
-404.602 660.644 1798
-399.412 659.175 1794
-395.122 659.175 1794
-388.654 655.5 1784
-381.587 650.724 1771
-374.156 645.212 1756
-368.903 643.375 1751
-364.716 643.375 1751
-358.47 639.701 1741
-353.289 637.863 1736
-346.523 633.087 1723
-342.403 633.087 1723
-338.086 632.719 1722
-332.611 630.147 1715
-328.127 629.413 1713
-324.03 629.413 1713
-319.934 629.413 1713
-315.469 628.678 1711
-311.378 628.678 1711
-307.286 628.678 1711
-303.549 629.413 1713
-299.453 629.413 1713
-295.701 630.147 1715
-292.11 631.25 1718
-288.337 631.985 1720
-284.224 631.985 1720
-280.437 632.719 1722
-276.479 633.087 1723
-273.624 636.026 1731
-269.484 636.026 1731
-265.345 636.026 1731
-262.564 639.333 1740
-259.146 641.17 1745
-254.973 641.17 1745
-251.662 643.375 1751
-248.747 646.682 1760
-245.233 648.519 1765
-241.012 648.519 1765
-238.67 653.663 1779
-234.548 654.031 1780
-231.585 657.705 1790
-227.304 657.705 1790
-223.273 658.44 1792
-220.454 662.849 1804
-217.219 666.156 1813
-212.883 666.156 1813
-209.238 668.36 1819
-205.114 669.095 1821
-200.98 669.83 1823
-196.62 669.83 1823
-192.472 670.565 1825
-188.314 671.3 1827
-184.348 672.77 1831
-179.969 672.77 1831
-175.782 673.504 1833
-171.96 675.709 1839
-168.109 677.914 1845
-163.697 677.914 1845
-159.717 679.751 1850
-155.461 680.486 1852
-151.359 681.955 1856
-146.92 681.955 1856
-142.482 681.955 1856
-140.607 1130.96 3078
-133.247 1130.96 3078
-125.887 1130.96 3078
-118.526 1130.96 3078
-111.166 1130.96 3078
-103.805 1130.96 3078
-96.2568 1128.75 3072
-88.766 1126.92 3067
-82.016 1135 3089
-75.0642 1141.61 3107
-67.6344 1141.61 3107
-60.2046 1141.61 3107
188.506 1118.47 3044
197.972 1130.96 3078
206.467 1137.2 3095
213.868 1137.2 3095
221.269 1137.2 3095
228.67 1137.2 3095
236.071 1137.2 3095
257.357 1133.16 3084
265.676 1137.2 3095
273.077 1137.2 3095
281.565 1141.61 3107
289.46 1143.45 3112
296.902 1143.45 3112
304.344 1143.45 3112
312.988 1147.86 3124
320.458 1147.86 3124
327.928 1147.86 3124
334.11 1143.45 3112
341.003 1141.61 3107
348.433 1141.61 3107
355.863 1141.61 3107
363.293 1141.61 3107
368.575 1135 3089
375.353 1133.16 3084
382.728 1133.16 3084
390.103 1133.16 3084
396.704 1130.96 3078
401.045 1122.51 3055
406.212 1116.63 3039
413.479 1116.63 3039
420.746 1116.63 3039
426.464 1112.59 3028
432.846 1110.38 3022
440.072 1110.38 3022
444.93 1104.5 3006
454.525 1110.38 3022
466.03 1120.67 3050
475.031 1124.71 3061
482.35 1124.71 3061
493.349 1133.16 3084
503.484 1139.41 3101
510.9 1139.41 3101
518.315 1139.41 3101
527.596 1143.45 3112
537.1 1147.86 3124
551.892 1163.29 3166
559.463 1163.29 3166
567.034 1163.29 3166
577.872 1169.91 3184
587.692 1174.32 3196
595.335 1174.32 3196
607.694 1183.5 3221
615.396 1183.5 3221
623.099 1183.5 3221
630.801 1183.5 3221
637.116 1180.93 3214
642.394 1176.52 3202
650.051 1176.52 3202
655.243 1172.11 3190
662.872 1172.11 3190
667.977 1167.7 3178
671.751 1161.09 3160
679.307 1161.09 3160
918.225 1120.67 3050
935.836 1133.16 3084
943.211 1133.16 3084
950.586 1133.16 3084
957.961 1133.16 3084
958.136 1124.71 3061
965.456 1124.71 3061
970.869 1122.51 3055
989.061 1135 3089
996.447 1135 3089
1003.83 1135 3089
1005.66 1128.75 3072
1011.35 1126.92 3067
1013.04 1120.67 3050
1020.33 1120.67 3050
1025.61 1118.47 3044
1031.19 1116.63 3039
1038.46 1116.63 3039
1045.72 1116.63 3039
1052.99 1116.63 3039
1048.74 1104.5 3006
1055.93 1104.5 3006
1055.34 1096.42 2984
1062.48 1096.42 2984
1058.5 1085.03 2953
1117.51 1108.55 3017
1145.23 1128.75 3072
1152.58 1128.75 3072
1159.92 1128.75 3072
1165.37 1126.92 3067
1166.2 1120.67 3050
1173.5 1120.67 3050
1178.47 1118.47 3044
1185.75 1118.47 3044
1193.03 1118.47 3044
1200.31 1118.47 3044
1205.6 1116.63 3039
1212.87 1116.63 3039
1220.14 1116.63 3039
1229.42 1118.47 3044
1257.42 1137.2 3095
1264.82 1137.2 3095
1289.08 1152.27 3136
1296.58 1152.27 3136
1304.07 1152.27 3136
1311.57 1152.27 3136
1316.55 1150.06 3130
1324.03 1150.06 3130
1339.18 1156.68 3148
1346.7 1156.68 3148
1372.3 1172.11 3190
1379.93 1172.11 3190
1387.56 1172.11 3190
1622.73 1187.91 3233
1630.46 1187.91 3233
1638.19 1187.91 3233
1645.92 1187.91 3233
1650.59 1185.71 3227
1658.3 1185.71 3227
1666.02 1185.71 3227
1673.74 1185.71 3227
1684.58 1187.91 3233
1702.26 1194.89 3252
1710.03 1194.89 3252
1717.81 1194.89 3252
1725.58 1194.89 3252
1720.04 1185.71 3227
1734.18 1190.12 3239
1741.92 1190.12 3239
1753.45 1192.69 3246
1761.21 1192.69 3246
1768.97 1192.69 3246
1776.74 1192.69 3246
1784.5 1192.69 3246
1792.26 1192.69 3246
1800.02 1192.69 3246
1793.86 1183.5 3221
1824.67 1183.5 3221
1832.37 1183.5 3221
1840.08 1183.5 3221
1826.55 1169.91 3184
1834.17 1169.91 3184
1807.07 1147.86 3124
1811.06 1145.66 3118
1818.52 1145.66 3118
1825.97 1145.66 3118
1833.43 1145.66 3118
1837.34 1143.45 3112
1831.15 1135 3089
1838.54 1135 3089
1845.92 1135 3089
1840.11 1126.92 3067
1843.83 1124.71 3061
1857.8 1128.75 3072
1865.15 1128.75 3072
1872.49 1128.75 3072
1862.71 1118.47 3044
1863.23 1114.42 3033
1870.48 1114.42 3033
1864.11 1106.34 3011
-2323.03 1177.53 3184
-2315.41 1177.53 3184
-2307.8 1177.53 3184
-2300.19 1177.53 3184
-2279.61 1170.88 3166
-2272.04 1170.88 3166
-2243.01 1159.78 3136
-1610.12 1296.25 3505
-1601.73 1296.25 3505
-1593.35 1296.25 3505
-1492.03 1226.72 3317
-1484.09 1226.72 3317
-1476.16 1226.72 3317
-1447.87 1209.71 3271
-1440.05 1209.71 3271
-1432.22 1209.71 3271
-1391.74 1181.97 3196
-1365.91 1166.44 3154
-1355.78 1164.22 3148
-1345.69 1162 3142
-1338.17 1162 3142
-1330.66 1162 3142
-1323.15 1162 3142
-1315.63 1162 3142
-1308.12 1162 3142
-1293.16 1155.34 3124
-1285.68 1155.34 3124
-1283.12 1159.78 3136
-1278.07 1162 3142
-1270.55 1162 3142
-1267.86 1166.44 3154
-1262.72 1168.66 3160
-1257.54 1170.88 3166
-1249.97 1170.88 3166
-1242.4 1170.88 3166
-586.848 657.185 1777
-582.599 657.185 1777
-578.349 657.185 1777
-574.1 657.185 1777
-567.285 654.226 1769
-563.055 654.226 1769
-559.457 654.966 1771
-555.222 654.966 1771
-551.609 655.706 1773
-547.369 655.706 1773
-543.129 655.706 1773
-538.889 655.706 1773
-534.047 654.966 1771
-527.418 652.007 1763
-523.202 652.007 1763
-518.987 652.007 1763
-515.355 652.747 1765
-512.292 654.226 1769
-508.637 654.966 1771
-504.402 654.966 1771
-500.731 655.706 1773
-497.612 657.185 1777
-494.195 658.295 1780
-489.939 658.295 1780
-487.319 660.513 1786
-484.671 662.732 1792
-480.922 663.472 1794
-476.632 663.472 1794
-473.922 665.691 1800
-470.139 666.431 1802
-466.347 667.17 1804
-462.033 667.17 1804
-458.481 668.28 1807
-454.662 669.02 1809
-450.336 669.02 1809
-446.011 669.02 1809
-442.173 669.759 1811
-437.842 669.759 1811
-433.512 669.759 1811
-429.181 669.759 1811
-424.381 669.02 1809
-419.127 667.54 1805
-414.81 667.54 1805
-410.267 667.17 1804
-405.503 666.431 1802
-400.303 664.951 1798
-396.003 664.951 1798
-389.961 661.993 1790
-383.31 657.925 1779
-375.434 651.638 1762
-369.956 649.419 1756
-365.757 649.419 1756
-358.881 644.611 1743
-354.103 643.501 1740
-347.328 638.694 1727
-343.198 638.694 1727
-338.283 637.214 1723
-332.805 634.625 1716
-328.51 634.256 1715
-324.409 634.256 1715
-319.934 633.516 1713
-315.838 633.516 1713
-311.741 633.516 1713
-307.645 633.516 1713
-303.549 633.516 1713
-299.453 633.516 1713
-295.874 634.625 1716
-292.45 636.105 1720
-288.672 636.844 1722
-284.555 636.844 1722
-280.6 637.214 1723
-276.8 637.954 1725
-273.624 640.173 1731
-269.484 640.173 1731
-265.805 641.282 1734
-262.715 643.871 1741
-259.146 645.351 1745
-254.973 645.351 1745
-251.806 647.939 1752
-248.747 650.898 1760
-245.511 653.487 1767
-241.286 653.487 1767
-238.804 658.295 1780
-234.811 659.034 1782
-231.585 661.993 1790
-227.304 661.993 1790
-223.522 663.472 1794
-220.454 667.17 1804
-216.979 669.759 1811
-212.649 669.759 1811
-209.008 671.978 1817
-204.888 672.718 1819
-200.759 673.458 1821
-196.404 673.458 1821
-192.261 674.197 1823
-188.314 675.676 1827
-184.146 676.416 1829
-179.773 676.416 1829
-175.782 677.895 1833
-171.773 679.375 1837
-167.563 680.114 1839
-163.165 680.114 1839
-159.285 682.333 1845
-155.293 684.182 1850
-151.032 684.922 1852
-146.604 684.922 1852
-142.175 684.922 1852
-132.987 1136.11 3072
-125.641 1136.11 3072
-118.526 1138.33 3078
-111.166 1138.33 3078
-103.805 1138.33 3078
-96.2568 1136.11 3072
-88.766 1134.26 3067
-81.724 1138.33 3078
-74.6293 1142.4 3089
-67.2426 1142.4 3089
-59.8558 1142.4 3089
128.647 1111.7 3006
135.835 1111.7 3006
143.024 1111.7 3006
150.212 1111.7 3006
156.824 1107.64 2995
163.712 1105.79 2990
172.405 1115.77 3017
179.62 1115.77 3017
188.506 1125.76 3044
197.972 1138.33 3078
205.733 1140.55 3084
213.108 1140.55 3084
221.269 1144.62 3095
228.67 1144.62 3095
236.071 1144.62 3095
243.472 1144.62 3095
250.873 1144.62 3095
258.274 1144.62 3095
265.676 1144.62 3095
273.077 1144.62 3095
281.565 1149.06 3107
289.46 1150.91 3112
296.902 1150.91 3112
304.344 1150.91 3112
312.988 1155.34 3124
320.458 1155.34 3124
327.928 1155.34 3124
334.11 1150.91 3112
341.003 1149.06 3107
347.087 1144.62 3095
354.489 1144.62 3095
361.89 1144.62 3095
367.978 1140.55 3084
374.623 1138.33 3078
381.983 1138.33 3078
387.952 1134.26 3067
393.74 1129.83 3055
398.945 1123.91 3039
403.94 1117.62 3022
411.166 1117.62 3022
418.393 1117.62 3022
423.366 1111.7 3006
430.554 1111.7 3006
437.742 1111.7 3006
441.674 1103.57 2984
450.464 1107.64 2995
457.626 1107.64 2995
468.202 1115.77 3017
475.417 1115.77 3017
485.191 1121.69 3033
496.016 1129.83 3055
503.321 1129.83 3055
510.627 1129.83 3055
519.966 1134.26 3067
527.301 1134.26 3067
534.635 1134.26 3067
541.969 1134.26 3067
554.318 1144.62 3095
569.16 1159.78 3136
581.072 1168.66 3160
588.629 1168.66 3160
601.845 1179.75 3190
609.474 1179.75 3190
617.102 1179.75 3190
624.73 1179.75 3190
632.358 1179.75 3190
638.783 1177.53 3184
642.743 1170.88 3166
650.314 1170.88 3166
646.663 1150.91 3112
654.105 1150.91 3112
648.367 1127.98 3050
655.66 1127.98 3050
918.225 1127.98 3050
934.016 1138.33 3078
941.376 1138.33 3078
948.736 1138.33 3078
956.097 1138.33 3078
958.136 1132.04 3061
965.456 1132.04 3061
970.869 1129.83 3055
983.617 1136.11 3072
990.964 1136.11 3072
998.31 1136.11 3072
998.454 1127.98 3050
1003.77 1125.76 3044
1011.05 1125.76 3044
1018.33 1125.76 3044
1021.9 1121.69 3033
1027.46 1119.84 3028
1027.18 1111.7 3006
1034.37 1111.7 3006
1039.48 1109.49 3000
1046.65 1109.49 3000
1050.31 1105.79 2990
1049.68 1097.65 2968
1056.78 1097.65 2968
1058.5 1092.1 2953
1117.51 1115.77 3017
1141.13 1132.04 3061
1148.45 1132.04 3061
1155.77 1132.04 3061
1158.91 1127.98 3050
1131.03 1093.95 2958
1140.02 1095.8 2963
1155.24 1103.57 2984
1164.71 1105.79 2990
1171.86 1105.79 2990
1179.01 1105.79 2990
1183.78 1103.57 2984
1186.93 1099.87 2974
1198.05 1103.57 2984
1214.07 1111.7 3006
1234.67 1123.91 3039
1241.94 1123.91 3039
1267.7 1140.55 3084
1275.08 1140.55 3084
1282.45 1140.55 3084
1289.83 1140.55 3084
1292.15 1136.11 3072
1309.23 1144.62 3095
1328.97 1155.34 3124
1336.44 1155.34 3124
1343.91 1155.34 3124
1426.21 1219.32 3297
1434.1 1219.32 3297
1441.98 1219.32 3297
1449.87 1219.32 3297
1457.75 1219.32 3297
1465.63 1219.32 3297
1622.73 1195.66 3233
1633.49 1197.87 3239
1641.23 1197.87 3239
1648.98 1197.87 3239
1650.59 1193.44 3227
1658.3 1193.44 3227
1666.02 1193.44 3227
1673.74 1193.44 3227
1684.58 1195.66 3233
1702.26 1202.68 3252
1710.03 1202.68 3252
1717.81 1202.68 3252
1725.58 1202.68 3252
1720.04 1193.44 3227
1734.18 1197.87 3239
1741.92 1197.87 3239
1753.45 1200.46 3246
1761.21 1200.46 3246
1768.97 1200.46 3246
1776.74 1200.46 3246
1784.5 1200.46 3246
1792.26 1200.46 3246
1800.02 1200.46 3246
1793.86 1191.22 3221
1824.67 1191.22 3221
1832.37 1191.22 3221
1840.08 1191.22 3221
1826.55 1177.53 3184
1834.17 1177.53 3184
1807.07 1155.34 3124
1811.06 1153.12 3118
1818.52 1153.12 3118
1825.97 1153.12 3118
1833.43 1153.12 3118
1837.34 1150.91 3112
1831.15 1142.4 3089
1838.54 1142.4 3089
1845.92 1142.4 3089
1840.11 1134.26 3067
1843.83 1132.04 3061
1857.8 1136.11 3072
1865.15 1136.11 3072
1872.49 1136.11 3072
1862.71 1125.76 3044
1863.23 1121.69 3033
1870.48 1121.69 3033
1864.11 1113.55 3011
1838.37 1093.95 2958
-2323.03 1185.16 3184
-2315.41 1185.16 3184
-2307.8 1185.16 3184
-2300.19 1185.16 3184
-2279.61 1178.46 3166
-2272.04 1178.46 3166
-2243.01 1167.29 3136
-1610.12 1304.64 3505
-1601.73 1304.64 3505
-1593.35 1304.64 3505
-1492.03 1234.67 3317
-1484.09 1234.67 3317
-1476.16 1234.67 3317
-1447.87 1217.54 3271
-1440.05 1217.54 3271
-1432.22 1217.54 3271
-1391.74 1189.63 3196
-1371.11 1178.46 3166
-1363.54 1178.46 3166
-1350.83 1173.99 3154
-1343.28 1173.99 3154
-1335.74 1173.99 3154
-1323.15 1169.53 3142
-1315.63 1169.53 3142
-1308.12 1169.53 3142
-1298.12 1167.29 3136
-1285.68 1162.83 3124
-1285.58 1169.53 3142
-1278.07 1169.53 3142
-1270.55 1169.53 3142
-1267.86 1173.99 3154
-1262.72 1176.23 3160
-1257.54 1178.46 3166
-1249.97 1178.46 3166
-1242.4 1178.46 3166
-1234.83 1178.46 3166
-1227.26 1178.46 3166
-586.848 661.442 1777
-582.599 661.442 1777
-578.349 661.442 1777
-574.1 661.442 1777
-567.285 658.464 1769
-563.055 658.464 1769
-560.088 659.953 1773
-555.849 659.953 1773
-551.609 659.953 1773
-547.369 659.953 1773
-543.129 659.953 1773
-538.889 659.953 1773
-534.65 659.953 1773
-528.017 656.975 1765
-523.796 656.975 1765
-518.987 656.231 1763
-516.523 658.464 1769
-512.872 659.208 1771
-509.211 659.953 1773
-504.971 659.953 1773
-501.296 660.697 1775
-498.172 662.186 1779
-495.306 664.047 1784
-491.04 664.047 1784
-487.865 665.536 1788
-485.212 667.77 1794
-482.531 670.003 1800
-478.226 670.003 1800
-473.922 670.003 1800
-470.661 671.492 1804
-466.606 671.864 1805
-462.29 671.864 1805
-458.988 673.353 1809
-455.165 674.097 1811
-451.332 674.842 1813
-446.997 674.842 1813
-443.15 675.586 1815
-438.809 675.586 1815
-434.469 675.586 1815
-429.655 674.842 1813
-424.85 674.097 1811
-420.055 673.353 1809
-415.729 673.353 1809
-410.949 672.609 1807
-405.953 671.492 1804
-400.748 670.003 1800
-396.444 670.003 1800
-390.832 667.77 1794
-384.388 664.047 1784
-376.926 658.464 1769
-370.378 654.37 1758
-366.174 654.37 1758
-359.705 650.275 1747
-354.306 648.042 1741
-348.132 644.32 1731
-343.993 644.32 1731
-338.675 642.086 1725
-333.193 639.481 1718
-328.701 638.736 1716
-324.598 638.736 1716
-320.308 638.364 1715
-315.838 637.62 1713
-311.741 637.62 1713
-307.645 637.62 1713
-303.903 638.364 1715
-299.802 638.364 1715
-295.874 638.736 1716
-292.45 640.225 1720
-288.84 641.342 1723
-284.72 641.342 1723
-280.6 641.342 1723
-276.8 642.086 1725
-273.782 644.692 1732
-269.64 644.692 1732
-265.805 645.436 1734
-263.017 648.786 1743
-259.146 649.531 1745
-254.973 649.531 1745
-252.093 652.881 1754
-248.747 655.114 1760
-245.511 657.72 1767
-241.286 657.72 1767
-238.804 662.559 1780
-235.075 664.047 1784
-231.844 667.025 1792
-227.558 667.025 1792
-223.772 668.514 1796
-220.577 671.864 1805
-216.979 674.097 1811
-212.649 674.097 1811
-209.008 676.331 1817
-204.888 677.075 1819
-200.539 677.075 1819
-196.189 677.075 1819
-192.05 677.82 1821
-188.108 679.309 1825
-183.945 680.053 1827
-179.576 680.053 1827
-175.782 682.286 1833
-171.399 682.286 1833
-167.38 683.775 1837
-162.988 683.775 1837
-158.94 685.264 1841
-154.873 686.753 1845
-150.462 686.753 1845
-146.05 686.753 1845
-149.602 1158.36 3112
-142.161 1158.36 3112
-134.719 1158.36 3112
-118.757 1147.94 3084
-111.382 1147.94 3084
-104.008 1147.94 3084
-96.2568 1143.47 3072
-88.9107 1143.47 3072
-81.724 1145.71 3078
-74.5085 1147.94 3084
-67.1337 1147.94 3084
-59.7589 1147.94 3084
121.459 1118.91 3006
129.332 1124.86 3022
137.055 1128.96 3033
144.308 1128.96 3033
151.561 1128.96 3033
157.4 1118.91 3006
164.26 1116.67 3000
172.405 1123 3017
179.62 1123 3017
188.506 1133.05 3044
197.972 1145.71 3078
205.733 1147.94 3084
213.108 1147.94 3084
220.84 1149.8 3089
228.67 1152.03 3095
236.071 1152.03 3095
243.472 1152.03 3095
250.873 1152.03 3095
258.274 1152.03 3095
265.676 1152.03 3095
273.077 1152.03 3095
281.565 1156.5 3107
289.46 1158.36 3112
296.902 1158.36 3112
304.344 1158.36 3112
311.785 1158.36 3112
319.227 1158.36 3112
326.669 1158.36 3112
333.574 1156.5 3107
339.686 1152.03 3095
346.415 1149.8 3089
353.801 1149.8 3089
360.603 1147.94 3084
367.262 1145.71 3078
373.284 1141.61 3067
380.618 1141.61 3067
386.434 1137.14 3055
391.678 1131.19 3039
396.057 1123 3017
400.331 1114.81 2995
407.493 1114.81 2995
414.655 1114.81 2995
420.267 1110.72 2984
426.687 1108.85 2979
433.81 1108.85 2979
439.306 1104.76 2968
444.899 1101.04 2958
451.209 1099.18 2953
461.529 1106.99 2974
468.641 1106.99 2974
475.753 1106.99 2974
486.274 1114.81 2995
494.26 1116.67 3000
501.434 1116.67 3000
512.337 1124.86 3022
520.595 1127.09 3028
527.836 1127.09 3028
535.077 1127.09 3028
542.318 1127.09 3028
557.545 1143.47 3072
576.659 1167.29 3136
584.158 1167.29 3136
598.449 1180.69 3172
608.327 1185.16 3184
615.941 1185.16 3184
623.555 1185.16 3184
631.169 1185.16 3184
635.172 1178.46 3166
637.87 1169.53 3142
645.384 1169.53 3142
646.663 1158.36 3112
654.105 1158.36 3112
648.367 1135.28 3050
655.66 1135.28 3050
918.225 1135.28 3050
928.857 1139.38 3061
936.177 1139.38 3061
943.496 1139.38 3061
950.816 1139.38 3061
958.136 1139.38 3061
965.456 1139.38 3061
970.869 1137.14 3055
978.174 1137.14 3055
983.867 1135.28 3050
991.16 1135.28 3050
996.49 1133.05 3044
1000.14 1128.96 3033
1005.73 1127.09 3028
1012.97 1127.09 3028
1018.19 1124.86 3022
1019.99 1118.91 3006
1027.18 1118.91 3006
1034.37 1118.91 3006
1039.48 1116.67 3000
1044.91 1114.81 2995
1050.31 1112.95 2990
1049.68 1104.76 2968
1056.78 1104.76 2968
1060.29 1101.04 2958
1067.36 1101.04 2958
1072.62 1099.18 2953
1079.68 1099.18 2953
1086.75 1099.18 2953
1117.51 1123 3017
1124.73 1123 3017
1131.94 1123 3017
1130.85 1114.81 2995
1138.01 1114.81 2995
1129.11 1099.18 2953
1140.02 1102.9 2963
1155.24 1110.72 2984
1162.37 1110.72 2984
1169.51 1110.72 2984
1170.34 1104.76 2968
1177.43 1104.76 2968
1182.54 1102.9 2963
1189.62 1102.9 2963
1196.71 1102.9 2963
1221.26 1118.91 3006
1228.45 1118.91 3006
1253.73 1135.28 3050
1265.57 1139.38 3061
1277.46 1143.47 3072
1284.81 1143.47 3072
1292.15 1143.47 3072
1309.23 1152.03 3095
1328.97 1162.83 3124
1336.44 1162.83 3124
1343.91 1162.83 3124
1426.21 1227.22 3297
1434.1 1227.22 3297
1441.98 1227.22 3297
1449.87 1227.22 3297
1457.75 1227.22 3297
1465.63 1227.22 3297
1622.73 1203.4 3233
1633.49 1205.63 3239
1641.23 1205.63 3239
1648.98 1205.63 3239
1647.52 1198.93 3221
1655.22 1198.93 3221
1662.92 1198.93 3221
1666.99 1196.33 3214
1684.58 1203.4 3233
1702.26 1210.47 3252
1710.03 1210.47 3252
1717.81 1210.47 3252
1725.58 1210.47 3252
1720.04 1201.17 3227
1730.97 1203.4 3233
1738.7 1203.4 3233
1753.45 1208.24 3246
1761.21 1208.24 3246
1768.97 1208.24 3246
1776.74 1208.24 3246
1784.5 1208.24 3246
1792.26 1208.24 3246
1800.02 1208.24 3246
1793.86 1198.93 3221
1824.67 1198.93 3221
1832.37 1198.93 3221
1840.08 1198.93 3221
1809.34 1173.99 3154
1816.89 1173.99 3154
1807.07 1162.83 3124
1807.57 1158.36 3112
1815.02 1158.36 3112
1822.46 1158.36 3112
1829.9 1158.36 3112
1837.34 1158.36 3112
1831.15 1149.8 3089
1835.56 1147.94 3084
1842.93 1147.94 3084
1840.11 1141.61 3067
1843.83 1139.38 3061
1844.5 1135.28 3050
1851.79 1135.28 3050
1855.43 1133.05 3044
1862.71 1133.05 3044
1849.71 1120.77 3011
1856.91 1120.77 3011
1841.21 1106.99 2974
1838.37 1101.04 2958
-2323.03 1192.79 3184
-2315.41 1192.79 3184
-2307.8 1192.79 3184
-2300.19 1192.79 3184
-2279.61 1186.05 3166
-2272.04 1186.05 3166
-2243.01 1174.81 3136
-1485.73 1237.37 3303
-1477.83 1237.37 3303
-1469.93 1237.37 3303
-1447.87 1225.38 3271
-1440.05 1225.38 3271
-1432.22 1225.38 3271
-1378.68 1186.05 3166
-1371.11 1186.05 3166
-1363.54 1186.05 3166
-1350.83 1181.55 3154
-1343.28 1181.55 3154
-1335.74 1181.55 3154
-1323.15 1177.05 3142
-1315.63 1177.05 3142
-1308.12 1177.05 3142
-1298.12 1174.81 3136
-1283.22 1168.06 3118
-1285.58 1177.05 3142
-1278.07 1177.05 3142
-1270.55 1177.05 3142
-1267.86 1181.55 3154
-1260.32 1181.55 3154
-1257.54 1186.05 3166
-1249.97 1186.05 3166
-1242.4 1186.05 3166
-1234.83 1186.05 3166
-1227.26 1186.05 3166
-583.546 661.953 1767
-579.976 662.702 1769
-575.746 662.702 1769
-571.515 662.702 1769
-566.644 661.953 1767
-563.055 662.702 1769
-560.088 664.2 1773
-555.849 664.2 1773
-551.609 664.2 1773
-547.369 664.2 1773
-543.129 664.2 1773
-538.889 664.2 1773
-534.65 664.2 1773
-528.017 661.203 1765
-523.796 661.203 1765
-518.987 660.454 1763
-516.523 662.702 1769
-512.872 663.451 1771
-509.211 664.2 1773
-504.971 664.2 1773
-501.296 664.949 1775
-498.172 666.448 1779
-495.306 668.321 1784
-491.04 668.321 1784
-487.865 669.82 1788
-485.212 672.067 1794
-482.531 674.315 1800
-478.226 674.315 1800
-473.922 674.315 1800
-470.661 675.813 1804
-466.606 676.188 1805
-462.29 676.188 1805
-458.988 677.687 1809
-455.165 678.436 1811
-451.332 679.185 1813
-446.997 679.185 1813
-443.15 679.934 1815
-438.809 679.934 1815
-434.469 679.934 1815
-430.129 679.934 1815
-425.789 679.934 1815
-420.52 678.436 1811
-416.189 678.436 1811
-411.404 677.687 1809
-406.628 676.937 1807
-400.748 674.315 1800
-396.444 674.315 1800
-390.832 672.067 1794
-384.388 668.321 1784
-377.352 663.451 1771
-371.221 660.079 1762
-367.007 660.079 1762
-360.117 655.209 1749
-355.12 653.711 1745
-348.333 648.841 1732
-344.191 648.841 1732
-339.068 646.968 1727
-333.581 644.345 1720
-329.084 643.596 1718
-324.976 643.596 1718
-320.494 642.847 1716
-316.207 642.472 1715
-311.741 641.723 1713
-307.645 641.723 1713
-304.081 642.847 1716
-299.977 642.847 1716
-295.874 642.847 1716
-292.45 644.345 1720
-288.84 645.469 1723
-284.72 645.469 1723
-280.925 646.218 1725
-276.8 646.218 1725
-274.098 649.59 1734
-269.951 649.59 1734
-265.805 649.59 1734
-263.318 653.711 1745
-259.443 654.46 1747
-255.265 654.46 1747
-252.381 657.832 1756
-248.747 659.33 1760
-245.511 661.953 1767
-241.286 661.953 1767
-239.072 667.572 1782
-235.075 668.321 1784
-232.102 672.067 1794
-227.812 672.067 1794
-224.021 673.566 1798
-220.821 676.937 1807
-216.979 678.436 1811
-212.649 678.436 1811
-209.238 681.433 1819
-204.888 681.433 1819
-200.759 682.182 1821
-196.404 682.182 1821
-192.05 682.182 1821
-188.108 683.68 1825
-183.945 684.43 1827
-179.576 684.43 1827
-175.782 686.677 1833
-171.399 686.677 1833
-167.38 688.176 1837
-162.988 688.176 1837
-158.94 689.674 1841
-154.873 691.173 1845
-150.462 691.173 1845
-146.05 691.173 1845
-170.381 1155.33 3084
-163.006 1155.33 3084
-155.631 1155.33 3084
-149.602 1165.82 3112
-142.161 1165.82 3112
-134.719 1165.82 3112
-127.073 1163.94 3107
-119.412 1161.69 3101
-111.996 1161.69 3101
-104.581 1161.69 3101
-96.2568 1150.83 3072
-88.9107 1150.83 3072
-81.724 1153.08 3078
-74.5085 1155.33 3084
-67.1337 1155.33 3084
-59.7589 1155.33 3084
107.652 1132.1 3022
114.879 1132.1 3022
122.105 1132.1 3022
130.059 1138.47 3039
137.327 1138.47 3039
144.594 1138.47 3039
151.861 1138.47 3039
158.552 1134.35 3028
165.793 1134.35 3028
172.691 1132.1 3022
179.918 1132.1 3022
188.506 1140.34 3044
197.972 1153.08 3078
205.733 1155.33 3084
213.108 1155.33 3084
220.84 1157.2 3089
229.113 1161.69 3101
236.529 1161.69 3101
243.944 1161.69 3101
251.36 1161.69 3101
258.274 1159.45 3095
265.676 1159.45 3095
273.077 1159.45 3095
280.478 1159.45 3095
288.995 1163.94 3107
296.425 1163.94 3107
303.855 1163.94 3107
311.284 1163.94 3107
318.714 1163.94 3107
326.144 1163.94 3107
332.93 1161.69 3101
339.028 1157.2 3089
345.854 1155.33 3084
353.229 1155.33 3084
359.902 1153.08 3078
366.546 1150.83 3072
371.823 1144.46 3055
379.129 1144.46 3055
385.043 1140.34 3044
388.842 1130.23 3017
394.613 1126.11 3006
399.662 1120.11 2990
406.812 1120.11 2990
412.439 1115.99 2979
418.014 1111.87 2968
423.679 1108.12 2958
430.752 1108.12 2958
437.086 1106.25 2953
442.493 1102.13 2942
448 1098.38 2932
455.011 1098.38 2932
462.023 1098.38 2932
469.034 1098.38 2932
476.045 1098.38 2932
484.704 1102.13 2942
494.414 1108.12 2958
501.487 1108.12 2958
508.561 1108.12 2958
515.634 1108.12 2958
522.708 1108.12 2958
528.885 1106.25 2953
535.947 1106.25 2953
569.12 1159.45 3095
576.521 1159.45 3095
598.449 1188.29 3172
606.035 1188.29 3172
613.62 1188.29 3172
621.205 1188.29 3172
628.79 1188.29 3172
633.968 1183.8 3160
639.088 1179.3 3148
647.849 1181.55 3154
655.391 1181.55 3154
662.933 1181.55 3154
644.753 1136.22 3033
652.006 1136.22 3033
918.225 1142.59 3050
927.036 1144.46 3055
936.177 1146.71 3061
943.496 1146.71 3061
950.816 1146.71 3061
958.136 1146.71 3061
965.456 1146.71 3061
972.776 1146.71 3061
982.016 1148.96 3067
989.351 1148.96 3067
996.685 1148.96 3067
1004.02 1148.96 3067
1007.4 1144.46 3055
1009.39 1138.47 3039
1016.65 1138.47 3039
1018.19 1132.1 3022
1021.69 1127.98 3011
1028.89 1127.98 3011
1036.09 1127.98 3011
1043.29 1127.98 3011
1048.74 1126.11 3006
1050.31 1120.11 2990
1047.91 1110 2963
1055 1110 2963
1060.29 1108.12 2958
1067.36 1108.12 2958
1074.44 1108.12 2958
1081.51 1108.12 2958
1086.75 1106.25 2953
1101.59 1114.12 2974
1108.7 1114.12 2974
1115.81 1114.12 2974
1122.92 1114.12 2974
1130.03 1114.12 2974
1129.11 1106.25 2953
1138.1 1108.12 2958
1153.3 1115.99 2979
1160.43 1115.99 2979
1167.55 1115.99 2979
1168.37 1110 2963
1175.45 1110 2963
1178.55 1106.25 2953
1179.18 1100.26 2937
1192.67 1106.25 2953
1208.26 1114.12 2974
1215.37 1114.12 2974
1249.2 1138.47 3039
1265.57 1146.71 3061
1277.46 1150.83 3072
1284.81 1150.83 3072
1297.2 1155.33 3084
1309.23 1159.45 3095
1339.18 1179.3 3148
1346.7 1179.3 3148
1377.46 1199.53 3202
1426.21 1235.12 3297
1434.1 1235.12 3297
1441.98 1235.12 3297
1449.87 1235.12 3297
1457.75 1235.12 3297
1465.63 1235.12 3297
1456.09 1220.51 3258
1433.33 1195.04 3190
1440.95 1195.04 3190
1448.58 1195.04 3190
1456.21 1195.04 3190
1469.35 1199.53 3202
1477 1199.53 3202
1484.66 1199.53 3202
1486.72 1195.04 3190
1491.54 1192.79 3184
1490.68 1186.05 3166
1633.49 1213.39 3239
1641.23 1213.39 3239
1648.98 1213.39 3239
1656.72 1213.39 3239
1664.47 1213.39 3239
1672.21 1213.39 3239
1666.99 1204.03 3214
1684.58 1211.14 3233
1702.26 1218.26 3252
1710.03 1218.26 3252
1717.81 1218.26 3252
1718.69 1213.39 3239
1720.04 1208.9 3227
1727.75 1208.9 3227
1735.47 1208.9 3227
1743.19 1208.9 3227
1777.81 1165.82 3112
1785.25 1165.82 3112
1792.69 1165.82 3112
1800.13 1165.82 3112
1801.18 1161.69 3101
1808.6 1161.69 3101
1822.46 1165.82 3112
1829.9 1165.82 3112
1837.34 1165.82 3112
1838.26 1161.69 3101
1828.42 1150.83 3072
1835.76 1150.83 3072
1836.51 1146.71 3061
1840.22 1144.46 3055
1840.87 1140.34 3044
1848.15 1140.34 3044
1852.38 1138.47 3039
1855.97 1136.22 3033
1836.81 1120.11 2990
1843.96 1120.11 2990
1841.21 1114.12 2974
1844.59 1111.87 2968
-1485.73 1245.28 3303
-1477.83 1245.28 3303
-1469.93 1245.28 3303
-1447.87 1233.22 3271
-1393.82 1193.63 3166
-1386.25 1193.63 3166
-1378.68 1193.63 3166
-1371.11 1193.63 3166
-1363.54 1193.63 3166
-1350.83 1189.1 3154
-1343.28 1189.1 3154
-1335.74 1189.1 3154
-1323.15 1184.58 3142
-1315.63 1184.58 3142
-1308.12 1184.58 3142
-1298.12 1182.32 3136
-1283.22 1175.53 3118
-1285.58 1184.58 3142
-1278.07 1184.58 3142
-1270.55 1184.58 3142
-1267.86 1189.1 3154
-1260.32 1189.1 3154
-1257.54 1193.63 3166
-1249.97 1193.63 3166
-1242.4 1193.63 3166
-1234.83 1193.63 3166
-1227.26 1193.63 3166
-573.793 664.677 1763
-569.577 664.677 1763
-566.644 666.185 1767
-563.055 666.939 1769
-560.088 668.447 1773
-555.849 668.447 1773
-551.609 668.447 1773
-547.369 668.447 1773
-543.129 668.447 1773
-538.889 668.447 1773
-534.65 668.447 1773
-528.017 665.431 1765
-523.796 665.431 1765
-518.987 664.677 1763
-517.107 667.693 1771
-513.451 668.447 1773
-509.785 669.201 1775
-505.541 669.201 1775
-501.296 669.201 1775
-498.452 671.087 1780
-495.306 672.595 1784
-491.04 672.595 1784
-487.865 674.103 1788
-485.212 676.365 1794
-482.531 678.627 1800
-478.226 678.627 1800
-474.449 679.381 1802
-470.661 680.135 1804
-467.64 682.02 1809
-463.314 682.02 1809
-459.496 682.774 1811
-456.17 684.282 1815
-452.328 685.036 1817
-447.983 685.036 1817
-443.638 685.036 1817
-439.293 685.036 1817
-434.948 685.036 1817
-430.603 685.036 1817
-425.789 684.282 1815
-420.52 682.774 1811
-416.189 682.774 1811
-411.404 682.02 1809
-406.628 681.266 1807
-400.748 678.627 1800
-396.444 678.627 1800
-390.832 676.365 1794
-384.388 672.595 1784
-377.352 667.693 1771
-371.221 664.3 1762
-367.007 664.3 1762
-360.117 659.399 1749
-355.12 657.891 1745
-348.333 652.99 1732
-344.191 652.99 1732
-339.068 651.105 1727
-333.581 648.466 1720
-329.084 647.712 1718
-324.976 647.712 1718
-320.494 646.958 1716
-316.207 646.581 1715
-311.741 645.827 1713
-307.645 645.827 1713
-304.081 646.958 1716
-299.977 646.958 1716
-295.874 646.958 1716
-292.45 648.466 1720
-288.84 649.597 1723
-284.72 649.597 1723
-280.925 650.351 1725
-276.8 650.351 1725
-274.098 653.744 1734
-269.951 653.744 1734
-265.805 653.744 1734
-263.318 657.891 1745
-259.443 658.645 1747
-255.265 658.645 1747
-252.381 662.038 1756
-248.747 663.546 1760
-245.511 666.185 1767
-241.286 666.185 1767
-239.072 671.841 1782
-235.075 672.595 1784
-232.102 676.365 1794
-227.812 676.365 1794
-224.021 677.873 1798
-220.821 681.266 1807
-216.979 682.774 1811
-212.649 682.774 1811
-209.238 685.79 1819
-204.888 685.79 1819
-200.759 686.544 1821
-196.404 686.544 1821
-192.05 686.544 1821
-187.695 686.544 1821
-183.744 688.052 1825
-179.379 688.052 1825
-175.399 689.56 1829
-171.399 691.068 1833
-167.198 691.822 1835
-162.81 691.822 1835
-158.767 693.33 1839
-154.706 694.839 1843
-150.298 694.839 1843
-145.891 694.839 1843
-170.381 1162.71 3084
-163.006 1162.71 3084
-155.631 1162.71 3084
-149.602 1173.27 3112
-142.161 1173.27 3112
-134.719 1173.27 3112
-127.073 1171.39 3107
-119.412 1169.12 3101
-111.996 1169.12 3101
-104.581 1169.12 3101
-96.2568 1158.19 3072
-88.9107 1158.19 3072
-81.724 1160.45 3078
-74.5085 1162.71 3084
-67.1337 1162.71 3084
-59.7589 1162.71 3084
107.652 1139.34 3022
114.879 1139.34 3022
122.105 1139.34 3022
130.273 1147.63 3044
137.553 1147.63 3044
144.832 1147.63 3044
152.111 1147.63 3044
158.814 1143.49 3033
166.067 1143.49 3033
173.034 1141.6 3028
180.275 1141.6 3028
188.506 1147.63 3044
197.265 1156.3 3067
205.733 1162.71 3084
213.108 1162.71 3084
220.84 1164.6 3089
229.113 1169.12 3101
236.529 1169.12 3101
243.944 1169.12 3101
251.36 1169.12 3101
258.274 1166.86 3095
265.676 1166.86 3095
273.077 1166.86 3095
280.478 1166.86 3095
288.995 1171.39 3107
296.425 1171.39 3107
303.855 1171.39 3107
311.284 1171.39 3107
318.714 1171.39 3107
326.144 1171.39 3107
332.93 1169.12 3101
339.028 1164.6 3089
345.854 1162.71 3084
353.229 1162.71 3084
359.902 1160.45 3078
366.546 1158.19 3072
371.823 1151.78 3055
379.129 1151.78 3055
385.043 1147.63 3044
390.26 1141.6 3028
394.613 1133.31 3006
399.662 1127.27 2990
406.812 1127.27 2990
412.439 1123.13 2979
418.859 1121.24 2974
423.679 1115.21 2958
430.752 1115.21 2958
437.086 1113.33 2953
442.493 1109.18 2942
448 1105.41 2932
455.011 1105.41 2932
462.023 1105.41 2932
469.034 1105.41 2932
476.045 1105.41 2932
484.704 1109.18 2942
494.414 1115.21 2958
501.487 1115.21 2958
508.561 1115.21 2958
515.634 1115.21 2958
522.708 1115.21 2958
528.885 1113.33 2953
535.947 1113.33 2953
569.12 1166.86 3095
576.521 1166.86 3095
598.449 1195.89 3172
606.035 1195.89 3172
613.62 1195.89 3172
621.205 1195.89 3172
628.79 1195.89 3172
633.968 1191.37 3160
639.088 1186.84 3148
647.849 1189.1 3154
655.391 1189.1 3154
662.933 1189.1 3154
644.753 1143.49 3033
652.006 1143.49 3033
903.638 1149.9 3050
910.932 1149.9 3050
918.225 1149.9 3050
927.036 1151.78 3055
936.177 1154.04 3061
943.496 1154.04 3061
950.816 1154.04 3061
958.136 1154.04 3061
965.456 1154.04 3061
972.776 1154.04 3061
982.016 1156.3 3067
989.351 1156.3 3067
996.685 1156.3 3067
1004.02 1156.3 3067
1007.4 1151.78 3055
1011.05 1147.63 3044
1018.33 1147.63 3044
1023.92 1145.75 3039
1029.15 1143.49 3033
1036.41 1143.49 3033
1043.66 1143.49 3033
1050.91 1143.49 3033
1052.58 1137.45 3017
1055.93 1133.31 3006
1047.91 1117.1 2963
1055 1117.1 2963
1060.29 1115.21 2958
1067.36 1115.21 2958
1074.44 1115.21 2958
1081.51 1115.21 2958
1086.75 1113.33 2953
1101.59 1121.24 2974
1108.7 1121.24 2974
1115.81 1121.24 2974
1122.92 1121.24 2974
1130.03 1121.24 2974
1129.11 1113.33 2953
1138.1 1115.21 2958
1153.3 1123.13 2979
1160.43 1123.13 2979
1167.55 1123.13 2979
1166.39 1115.21 2958
1173.47 1115.21 2958
1172.16 1107.29 2937
1173.16 1101.64 2922
1182.17 1103.52 2927
1203.79 1117.1 2963
1210.88 1117.1 2963
1246.74 1143.49 3033
1261.02 1149.9 3050
1277.46 1158.19 3072
1284.81 1158.19 3072
1297.2 1162.71 3084
1311.77 1169.12 3101
1344.28 1191.37 3160
1351.84 1191.37 3160
1390.8 1218.89 3233
1409.34 1228.31 3258
1434.1 1243.02 3297
1441.98 1243.02 3297
1449.87 1243.02 3297
1457.75 1243.02 3297
1465.63 1243.02 3297
1456.09 1228.31 3258
1433.33 1202.68 3190
1440.95 1202.68 3190
1448.58 1202.68 3190
1456.21 1202.68 3190
1469.35 1207.2 3202
1477 1207.2 3202
1484.66 1207.2 3202
1486.72 1202.68 3190
1491.54 1200.42 3184
1490.68 1193.63 3166
1648.98 1221.15 3239
1656.72 1221.15 3239
1664.47 1221.15 3239
1672.21 1221.15 3239
1702.26 1226.05 3252
1710.03 1226.05 3252
1717.81 1226.05 3252
1718.69 1221.15 3239
1723.23 1218.89 3233
1730.97 1218.89 3233
1735.47 1216.63 3227
1777.81 1173.27 3112
1785.25 1173.27 3112
1792.69 1173.27 3112
1800.13 1173.27 3112
1801.18 1169.12 3101
1808.6 1169.12 3101
1822.46 1173.27 3112
1829.9 1173.27 3112
1837.34 1173.27 3112
1838.26 1169.12 3101
1828.42 1158.19 3072
1835.76 1158.19 3072
1836.51 1154.04 3061
1840.22 1151.78 3055
1840.87 1147.63 3044
1848.15 1147.63 3044
1848.72 1143.49 3033
1852.91 1141.6 3028
1836.81 1127.27 2990
1843.96 1127.27 2990
1844.3 1123.13 2979
1851.43 1123.13 2979
-1416.01 1194.38 3148
-1408.48 1194.38 3148
-1400.95 1194.38 3148
-1393.42 1194.38 3148
-1383.25 1192.11 3142
-1375.74 1192.11 3142
-1370.84 1194.38 3148
-1363.31 1194.38 3148
-1355.78 1194.38 3148
-1350.83 1196.66 3154
-1343.28 1196.66 3154
-1335.74 1196.66 3154
-1323.15 1192.11 3142
-1315.63 1192.11 3142
-1308.12 1192.11 3142
-1288.19 1180.73 3112
-1278.69 1178.83 3107
-1280.67 1187.55 3130
-1275.62 1189.83 3136
-1268.13 1189.83 3136
-1260.63 1189.83 3136
-1253.13 1189.83 3136
-1250.4 1194.38 3148
-1242.87 1194.38 3148
-1237.69 1196.66 3154
-1230.15 1196.66 3154
-1222.61 1196.66 3154
-565.361 668.901 1763
-563.055 671.177 1769
-559.457 671.936 1771
-555.222 671.936 1771
-551.609 672.695 1773
-547.369 672.695 1773
-543.129 672.695 1773
-538.889 672.695 1773
-534.047 671.936 1771
-528.017 669.659 1765
-523.796 669.659 1765
-518.987 668.901 1763
-517.691 672.695 1773
-513.451 672.695 1773
-509.785 673.453 1775
-505.541 673.453 1775
-502.426 674.971 1779
-498.452 675.351 1780
-495.306 676.868 1784
-491.04 676.868 1784
-488.411 679.145 1790
-485.212 680.662 1794
-482.531 682.939 1800
-478.226 682.939 1800
-474.975 684.456 1804
-470.922 684.836 1805
-467.64 686.353 1809
-463.314 686.353 1809
-459.496 687.112 1811
-456.673 689.389 1817
-452.328 689.389 1817
-447.983 689.389 1817
-444.126 690.148 1819
-439.776 690.148 1819
-435.427 690.148 1819
-430.603 689.389 1817
-425.789 688.63 1815
-420.984 687.871 1813
-416.649 687.871 1813
-411.404 686.353 1809
-406.628 685.595 1807
-401.193 683.698 1802
-396.884 683.698 1802
-391.268 681.421 1796
-384.819 677.627 1786
-378.204 673.453 1775
-371.221 668.521 1762
-367.007 668.521 1762
-360.117 663.589 1749
-355.12 662.071 1745
-348.333 657.139 1732
-344.191 657.139 1732
-339.853 656.759 1731
-333.968 653.345 1722
-329.468 652.586 1720
-325.355 652.586 1720
-320.494 651.068 1716
-316.207 650.689 1715
-312.105 650.689 1715
-308.004 650.689 1715
-304.081 651.068 1716
-299.977 651.068 1716
-296.218 651.827 1718
-292.45 652.586 1720
-288.84 653.724 1723
-284.72 653.724 1723
-280.925 654.483 1725
-277.121 655.242 1727
-274.098 657.898 1734
-269.951 657.898 1734
-266.112 658.656 1736
-263.318 662.071 1745
-259.74 663.589 1749
-255.557 663.589 1749
-252.668 667.004 1758
-248.747 667.762 1760
-245.789 671.177 1769
-241.559 671.177 1769
-239.341 676.868 1784
-235.338 677.627 1786
-232.361 681.421 1796
-228.066 681.421 1796
-224.021 682.18 1798
-220.821 685.595 1807
-216.979 687.112 1811
-212.649 687.112 1811
-209.238 690.148 1819
-204.888 690.148 1819
-200.759 690.906 1821
-196.404 690.906 1821
-192.05 690.906 1821
-187.695 690.906 1821
-183.744 692.424 1825
-179.379 692.424 1825
-175.399 693.942 1829
-171.399 695.459 1833
-167.198 696.218 1835
-162.81 696.218 1835
-158.767 697.736 1839
-154.706 699.253 1843
-150.298 699.253 1843
-145.891 699.253 1843
-205.709 1161.38 3061
-200.204 1172 3089
-192.817 1172 3089
-185.43 1172 3089
-178.044 1172 3089
-170.381 1170.1 3084
-163.006 1170.1 3084
-155.631 1170.1 3084
-148.256 1170.1 3084
-141.932 1178.83 3107
-134.502 1178.83 3107
-127.073 1178.83 3107
-119.412 1176.55 3101
-111.996 1176.55 3101
-104.581 1176.55 3101
-96.1002 1163.65 3067
-88.766 1163.65 3067
-81.724 1167.83 3078
-74.5085 1170.1 3084
-67.1337 1170.1 3084
-59.7589 1170.1 3084
42.6983 1148.85 3028
49.9392 1148.85 3028
57.18 1148.85 3028
64.4209 1148.85 3028
70.7624 1134.44 2990
77.9124 1134.44 2990
84.4366 1126.09 2968
92.7059 1140.51 3006
99.8941 1140.51 3006
107.652 1146.58 3022
114.879 1146.58 3022
122.105 1146.58 3022
130.273 1154.93 3044
137.553 1154.93 3044
144.832 1154.93 3044
152.111 1154.93 3044
158.814 1150.75 3033
166.067 1150.75 3033
173.034 1148.85 3028
180.275 1148.85 3028
188.506 1154.93 3044
197.265 1163.65 3067
205.333 1167.83 3078
212.693 1167.83 3078
220.84 1172 3089
229.113 1176.55 3101
236.529 1176.55 3101
243.944 1176.55 3101
251.36 1176.55 3101
258.274 1174.28 3095
265.676 1174.28 3095
273.077 1174.28 3095
280.478 1174.28 3095
288.995 1178.83 3107
296.425 1178.83 3107
303.855 1178.83 3107
311.284 1178.83 3107
318.714 1178.83 3107
326.144 1178.83 3107
332.93 1176.55 3101
339.028 1172 3089
345.854 1170.1 3084
353.229 1170.1 3084
359.902 1167.83 3078
366.546 1165.55 3072
371.823 1159.1 3055
379.129 1159.1 3055
385.043 1154.93 3044
390.26 1148.85 3028
393.825 1138.23 3000
399.662 1134.44 2990
406.812 1134.44 2990
412.439 1130.26 2979
418.859 1128.37 2974
422.103 1118.12 2947
429.15 1118.12 2947
434.717 1114.33 2937
439.485 1108.64 2922
446.472 1108.64 2922
453.459 1108.64 2922
458.713 1104.46 2911
465.675 1104.46 2911
472.636 1104.46 2911
479.597 1104.46 2911
486.558 1104.46 2911
493.519 1104.46 2911
502.371 1108.64 2922
509.359 1108.64 2922
516.346 1108.64 2922
523.333 1108.64 2922
535.947 1120.4 2953
553.674 1142.4 3011
569.07 1159.1 3055
598.449 1203.49 3172
606.035 1203.49 3172
613.62 1203.49 3172
621.205 1203.49 3172
627.601 1201.21 3166
632.764 1196.66 3154
639.088 1194.38 3148
647.849 1196.66 3154
655.391 1196.66 3154
662.933 1196.66 3154
903.638 1157.2 3050
910.932 1157.2 3050
918.225 1157.2 3050
927.036 1159.1 3055
936.177 1161.38 3061
943.496 1161.38 3061
950.816 1161.38 3061
958.136 1161.38 3061
965.456 1161.38 3061
972.776 1161.38 3061
982.016 1163.65 3067
989.351 1163.65 3067
996.685 1163.65 3067
1004.02 1163.65 3067
1007.4 1159.1 3055
1011.05 1154.93 3044
1018.33 1154.93 3044
1023.92 1153.03 3039
1029.15 1150.75 3033
1036.41 1150.75 3033
1043.66 1150.75 3033
1050.91 1150.75 3033
1058.16 1150.75 3033
1055.93 1140.51 3006
1047.91 1124.19 2963
1055 1124.19 2963
1060.29 1122.3 2958
1067.36 1122.3 2958
1074.44 1122.3 2958
1081.51 1122.3 2958
1086.75 1120.4 2953
1101.59 1128.37 2974
1108.7 1128.37 2974
1115.81 1128.37 2974
1122.92 1128.37 2974
1130.03 1128.37 2974
1124.91 1116.23 2942
1131.94 1116.23 2942
1153.3 1130.26 2979
1160.43 1130.26 2979
1167.55 1130.26 2979
1166.39 1122.3 2958
1173.47 1122.3 2958
1172.16 1114.33 2937
1173.16 1108.64 2922
1182.17 1110.53 2927
1203.79 1124.19 2963
1210.88 1124.19 2963
1246.74 1150.75 3033
1261.02 1157.2 3050
1277.46 1165.55 3072
1284.81 1165.55 3072
1297.2 1170.1 3084
1311.77 1176.55 3101
1344.28 1198.94 3160
1351.84 1198.94 3160
1390.8 1226.63 3233
1409.34 1236.12 3258
1434.1 1250.92 3297
1441.98 1250.92 3297
1449.87 1250.92 3297
1457.75 1250.92 3297
1465.63 1250.92 3297
1456.09 1236.12 3258
1433.33 1210.32 3190
1440.95 1210.32 3190
1454.03 1214.87 3202
1461.69 1214.87 3202
1472.1 1217.15 3208
1479.77 1217.15 3208
1487.44 1217.15 3208
1486.72 1210.32 3190
1491.54 1208.04 3184
1490.68 1201.21 3166
1648.98 1228.91 3239
1656.72 1228.91 3239
1664.47 1228.91 3239
1672.21 1228.91 3239
1702.26 1233.84 3252
1710.03 1233.84 3252
1717.81 1233.84 3252
1718.69 1228.91 3239
1723.23 1226.63 3233
1730.97 1226.63 3233
1735.47 1224.36 3227
1777.81 1180.73 3112
1785.25 1180.73 3112
1792.69 1180.73 3112
1800.13 1180.73 3112
1801.18 1176.55 3101
1808.6 1176.55 3101
1822.46 1180.73 3112
1829.9 1180.73 3112
1837.34 1180.73 3112
1838.26 1176.55 3101
1831.99 1167.83 3078
1839.35 1167.83 3078
1836.51 1161.38 3061
1840.22 1159.1 3055
1840.87 1154.93 3044
1848.15 1154.93 3044
1848.72 1150.75 3033
1852.91 1148.85 3028
1849.71 1142.4 3011
1856.91 1142.4 3011
1857.3 1138.23 3000
1864.48 1138.23 3000
1871.65 1138.23 3000
1878.82 1138.23 3000
-1416.01 1201.93 3148
-1408.48 1201.93 3148
-1400.95 1201.93 3148
-1393.42 1201.93 3148
-1383.25 1199.63 3142
-1375.74 1199.63 3142
-1370.84 1201.93 3148
-1363.31 1201.93 3148
-1355.78 1201.93 3148
-1350.83 1204.22 3154
-1343.28 1204.22 3154
-1335.74 1204.22 3154
-1323.15 1199.63 3142
-1315.63 1199.63 3142
-1308.12 1199.63 3142
-1288.19 1188.18 3112
-1278.69 1186.27 3107
-1280.67 1195.05 3130
-1275.62 1197.34 3136
-1268.13 1197.34 3136
-1260.63 1197.34 3136
-1253.13 1197.34 3136
-1250.4 1201.93 3148
-1242.87 1201.93 3148
-1237.69 1204.22 3154
-1230.15 1204.22 3154
-1222.61 1204.22 3154
-1212.76 1201.93 3148
-565.361 673.124 1763
-563.055 675.415 1769
-559.457 676.178 1771
-555.222 676.178 1771
-551.609 676.942 1773
-547.369 676.942 1773
-543.129 676.942 1773
-538.889 676.942 1773
-534.047 676.178 1771
-528.017 673.887 1765
-524.389 674.651 1767
-520.164 674.651 1767
-517.691 676.942 1773
-514.609 678.469 1777
-510.934 679.233 1779
-506.68 679.233 1779
-502.426 679.233 1779
-498.452 679.615 1780
-495.861 681.905 1786
-491.59 681.905 1786
-488.411 683.433 1790
-485.753 685.723 1796
-483.067 688.014 1802
-478.758 688.014 1802
-474.975 688.778 1804
-471.444 689.923 1807
-468.157 691.451 1811
-463.826 691.451 1811
-460.51 692.978 1815
-456.673 693.741 1817
-452.826 694.505 1819
-448.476 694.505 1819
-444.615 695.269 1821
-440.26 695.269 1821
-435.905 695.269 1821
-431.077 694.505 1819
-426.258 693.741 1817
-420.984 692.214 1813
-416.649 692.214 1813
-411.858 691.451 1811
-406.628 689.923 1807
-401.193 688.014 1802
-396.884 688.014 1802
-391.268 685.723 1796
-384.819 681.905 1786
-378.63 678.469 1777
-372.274 674.651 1767
-368.048 674.651 1767
-360.735 668.924 1752
-355.527 667.015 1747
-348.333 661.288 1732
-344.191 661.288 1732
-339.853 660.906 1731
-333.968 657.47 1722
-329.468 656.706 1720
-325.355 656.706 1720
-320.494 655.179 1716
-316.391 655.179 1716
-312.287 655.179 1716
-308.184 655.179 1716
-304.081 655.179 1716
-299.977 655.179 1716
-296.218 655.943 1718
-292.79 657.47 1722
-289.175 658.615 1725
-285.05 658.615 1725
-281.251 659.379 1727
-277.121 659.379 1727
-274.098 662.052 1734
-269.951 662.052 1734
-266.418 663.579 1738
-263.62 667.015 1747
-260.037 668.542 1751
-255.849 668.542 1751
-252.956 671.978 1760
-249.171 673.124 1763
-246.345 676.942 1773
-242.105 676.942 1773
-239.609 681.905 1786
-235.338 681.905 1786
-232.361 685.723 1796
-228.066 685.723 1796
-224.021 686.487 1798
-220.821 689.923 1807
-216.979 691.451 1811
-212.649 691.451 1811
-209.238 694.505 1819
-204.888 694.505 1819
-200.759 695.269 1821
-196.404 695.269 1821
-192.05 695.269 1821
-187.695 695.269 1821
-183.744 696.796 1825
-179.379 696.796 1825
-175.399 698.323 1829
-171.399 699.85 1833
-167.198 700.614 1835
-162.81 700.614 1835
-158.767 702.141 1839
-154.706 703.668 1843
-150.298 703.668 1843
-145.891 703.668 1843
-217.541 1153.82 3022
-210.314 1153.82 3022
-205.709 1168.71 3061
-200.204 1179.4 3089
-192.817 1179.4 3089
-185.43 1179.4 3089
-178.044 1179.4 3089
-170.381 1177.49 3084
-163.006 1177.49 3084
-154.773 1171 3067
-147.439 1171 3067
-141.932 1186.27 3107
-134.502 1186.27 3107
-127.073 1186.27 3107
-119.412 1183.98 3101
-111.996 1183.98 3101
-104.581 1183.98 3101
-96.1002 1171 3067
-88.4187 1166.42 3055
-80.9805 1164.51 3050
-73.6871 1164.51 3050
-66.3936 1164.51 3050
-58.887 1160.31 3039
42.6983 1156.11 3028
49.9392 1156.11 3028
57.18 1156.11 3028
64.4209 1156.11 3028
70.7624 1141.6 2990
77.9124 1141.6 2990
84.4366 1133.2 2968
92.7059 1147.71 3006
99.8941 1147.71 3006
107.474 1151.91 3017
114.689 1151.91 3017
122.105 1153.82 3022
130.273 1162.22 3044
137.553 1162.22 3044
144.832 1162.22 3044
152.111 1162.22 3044
158.814 1158.02 3033
166.067 1158.02 3033
173.034 1156.11 3028
180.275 1156.11 3028
188.506 1162.22 3044
196.493 1166.42 3055
205.333 1175.2 3078
212.693 1175.2 3078
220.483 1177.49 3084
228.227 1179.4 3089
235.614 1179.4 3089
243 1179.4 3089
250.387 1179.4 3089
257.774 1179.4 3089
265.161 1179.4 3089
272.547 1179.4 3089
279.934 1179.4 3089
287.879 1181.69 3095
295.28 1181.69 3095
302.681 1181.69 3095
310.683 1183.98 3101
318.099 1183.98 3101
325.514 1183.98 3101
332.285 1181.69 3095
339.028 1179.4 3089
345.854 1177.49 3084
353.229 1177.49 3084
359.902 1175.2 3078
365.95 1171 3067
371.823 1166.42 3055
379.129 1166.42 3055
385.043 1162.22 3044
390.26 1156.11 3028
394.613 1147.71 3006
400.999 1145.42 3000
408.173 1145.42 3000
415.347 1145.42 3000
419.563 1137.4 2979
423.679 1129.38 2958
430.752 1129.38 2958
436.198 1125.18 2947
441.741 1121.36 2937
447.236 1117.55 2927
454.235 1117.55 2927
458.713 1111.44 2911
465.675 1111.44 2911
471.824 1109.53 2906
478.773 1109.53 2906
485.722 1109.53 2906
492.671 1109.53 2906
500.48 1111.44 2911
509.359 1115.64 2922
518.113 1119.45 2932
525.124 1119.45 2932
538.669 1133.2 2968
554.777 1151.91 3017
569.07 1166.42 3055
576.375 1166.42 3055
603.742 1206.51 3160
611.298 1206.51 3160
618.855 1206.51 3160
626.411 1206.51 3160
632.764 1204.22 3154
639.088 1201.93 3148
646.616 1201.93 3148
652.897 1199.63 3142
660.411 1199.63 3142
644.753 1158.02 3033
652.006 1158.02 3033
655.781 1151.91 3017
883.414 1147.71 3006
903.638 1164.51 3050
910.932 1164.51 3050
918.225 1164.51 3050
925.519 1164.51 3050
934.342 1166.42 3055
941.647 1166.42 3055
950.816 1168.71 3061
