ply
format ascii 1.0
comment File generated
element vertex 2257
property float x
property float y
property float z
end_header
90.368 185.958 3468
98.4619 185.583 3461
106.522 185.208 3454
114.782 185.208 3454
122.792 184.832 3447
131.035 184.832 3447
139.278 184.832 3447
147.521 184.832 3447
155.763 184.832 3447
163.007 183.706 3426
170.15 182.58 3405
176.46 180.704 3370
184.519 180.704 3370
192.177 180.328 3363
199.862 180.006 3357
208.695 180.704 3370
216.753 180.704 3370
224.812 180.704 3370
232.871 180.704 3370
244.433 183.331 3419
252.608 183.331 3419
260.784 183.331 3419
268.96 183.331 3419
277.136 183.331 3419
285.896 183.706 3426
294.089 183.706 3426
304.134 184.832 3447
312.377 184.832 3447
320.62 184.832 3447
328.863 184.832 3447
337.105 184.832 3447
344.647 184.457 3440
352.155 184.082 3433
360.364 184.082 3433
365.568 182.58 3405
372.173 181.83 3391
378.712 181.079 3377
386.788 181.079 3377
390.888 179.256 3343
396.495 178.183 3323
402.859 177.486 3310
410.775 177.486 3310
417.804 177.111 3303
425.703 177.111 3303
431.107 176.092 3284
438.96 176.092 3284
446.813 176.092 3284
457.297 177.111 3303
465.195 177.111 3303
473.094 177.111 3303
480.992 177.111 3303
486.078 176.092 3284
493.931 176.092 3284
502.701 176.414 3290
514.759 177.862 3317
522.691 177.862 3317
537.021 180.006 3357
548.296 181.079 3377
570.211 185.583 3461
578.487 185.583 3461
591.68 187.138 3490
600.026 187.138 3490
608.371 187.138 3490
616.717 187.138 3490
626.316 187.513 3497
636.131 187.942 3505
644.512 187.942 3505
652.894 187.942 3505
661.275 187.942 3505
669.657 187.942 3505
678.038 187.942 3505
686.42 187.942 3505
699.162 189.122 3527
707.597 189.122 3527
716.031 189.122 3527
724.465 189.122 3527
732.899 189.122 3527
741.333 189.122 3527
749.767 189.122 3527
758.201 189.122 3527
763.375 188.318 3512
770.235 187.942 3505
778.617 187.942 3505
786.998 187.942 3505
793.564 187.513 3497
805.366 188.318 3512
815.618 188.747 3520
827.313 189.497 3534
835.764 189.497 3534
846.126 189.926 3542
856.285 190.302 3549
864.772 190.302 3549
873.258 190.302 3549
881.745 190.302 3549
886.469 189.497 3534
894.92 189.497 3534
903.371 189.497 3534
915.692 190.302 3549
926.262 190.731 3557
936.87 191.16 3565
945.395 191.16 3565
953.92 191.16 3565
962.445 191.16 3565
970.97 191.16 3565
979.495 191.16 3565
992.177 191.964 3580
1004.93 192.768 3595
1013.53 192.768 3595
1022.12 192.768 3595
1030.72 192.768 3595
1037.29 192.393 3588
1045.87 192.393 3588
1056.51 192.768 3595
1065.11 192.768 3595
1078.48 193.626 3611
1089.53 194.055 3619
1098.18 194.055 3619
1106.84 194.055 3619
1115.49 194.055 3619
1124.14 194.055 3619
1132.8 194.055 3619
1141.45 194.055 3619
1152.65 194.484 3627
1161.32 194.484 3627
1174.83 195.288 3642
1183.54 195.288 3642
1194.87 195.717 3650
1206.24 196.146 3658
1214.98 196.146 3658
1223.73 196.146 3658
1229.78 195.717 3650
1249.71 197.487 3683
1258.52 197.487 3683
1267.32 197.487 3683
1276.13 197.487 3683
1279.36 196.629 3667
1288.12 196.629 3667
1296.89 196.629 3667
1305.66 196.629 3667
1311.21 196.146 3658
1317.07 195.717 3650
1325.79 195.717 3650
1334.52 195.717 3650
1343.25 195.717 3650
1354.94 196.146 3658
1363.69 196.146 3658
1372.44 196.146 3658
1378.16 195.717 3650
1381.19 194.913 3635
1389.89 194.913 3635
1398.58 194.913 3635
1407.27 194.913 3635
1415.96 194.913 3635
1424.65 194.913 3635
1430.19 194.484 3627
1429.34 193.197 3603
1428.78 191.964 3580
1437.34 191.964 3580
1445.9 191.964 3580
1454.46 191.964 3580
1463.02 191.964 3580
1477.75 192.768 3595
1499.58 194.484 3627
1508.25 194.484 3627
1516.93 194.484 3627
1522.23 194.055 3619
1530.89 194.055 3619
1532.74 193.197 3603
1534.93 192.393 3588
1543.51 192.393 3588
1552.09 192.393 3588
1560.67 192.393 3588
1569.25 192.393 3588
1577.83 192.393 3588
1586.41 192.393 3588
1594.99 192.393 3588
1603.57 192.393 3588
1626.08 194.055 3619
1638.35 194.484 3627
1650.66 194.913 3635
1659.35 194.913 3635
1668.04 194.913 3635
1673.04 194.484 3627
1681.72 194.484 3627
1686.66 194.055 3619
1691.57 193.626 3611
1689.37 192.393 3588
1697.95 192.393 3588
1702.73 191.964 3580
1700.3 190.731 3557
1704.96 190.302 3549
1713.44 190.302 3549
1721.93 190.302 3549
1730.42 190.302 3549
1738.91 190.302 3549
1736.56 189.122 3527
1744.99 189.122 3527
1753.43 189.122 3527
1761.86 189.122 3527
1766.78 188.747 3520
1775.2 188.747 3520
1771.96 187.513 3497
1773.2 186.763 3483
1770.27 185.583 3461
1782.15 185.958 3468
1790.44 185.958 3468
1798.73 185.958 3468
1811.2 186.387 3476
1826.84 187.138 3490
1835.18 187.138 3490
1851.45 187.942 3505
1875.22 189.497 3534
1883.67 189.497 3534
1896.41 189.926 3542
1904.88 189.926 3542
1917.13 190.302 3549
1929.95 190.731 3557
1946.63 191.535 3572
1955.18 191.535 3572
1972.51 192.393 3588
1989.38 193.197 3603
2002.43 193.626 3611
2011.06 193.626 3611
2028.65 194.484 3627
2045.75 195.288 3642
2082.1 197.916 3691
2090.92 197.916 3691
2108.85 198.774 3707
2117.72 198.774 3707
2126.58 198.774 3707
2126.23 197.916 3691
2135.05 197.916 3691
2143.88 197.916 3691
2157.37 198.345 3699
2170.9 198.774 3707
2179.77 198.774 3707
2188.63 198.774 3707
2197.5 198.774 3707
2206.36 198.774 3707
2215.23 198.774 3707
2219.29 198.345 3699
2213.68 197.058 3675
2222.47 197.058 3675
2226.4 196.629 3667
2235.17 196.629 3667
2253.73 197.487 3683
2262.53 197.487 3683
2271.34 197.487 3683
2280.15 197.487 3683
2273.42 196.146 3658
2287.78 196.629 3667
2296.55 196.629 3667
2315.38 197.487 3683
2324.18 197.487 3683
2332.99 197.487 3683
2341.8 197.487 3683
2345.5 197.058 3675
2354.29 197.058 3675
2363.08 197.058 3675
2371.86 197.058 3675
2380.65 197.058 3675
2405.04 198.345 3699
2413.89 198.345 3699
2422.74 198.345 3699
2431.58 198.345 3699
2440.43 198.345 3699
2438.68 197.487 3683
2447.48 197.487 3683
2456.29 197.487 3683
2454.39 196.629 3667
2463.16 196.629 3667
2471.93 196.629 3667
2480.7 196.629 3667
2483.36 196.146 3658
2492.1 196.146 3658
2500.85 196.146 3658
2509.6 196.146 3658
2518.34 196.146 3658
2516.04 195.288 3642
2519.9 194.913 3635
2528.59 194.913 3635
2514.94 193.197 3603
1994.05 152.66 2847
2000.86 152.66 2847
2007.67 152.66 2847
2014.48 152.66 2847
2021.29 152.66 2847
2017.41 151.855 2832
2014.17 151.105 2818
2007.29 150.086 2799
2013.98 150.086 2799
2014.18 149.603 2790
2013.6 149.067 2780
2020.25 149.067 2780
2037.11 149.818 2794
2047.45 150.086 2799
2054.14 150.086 2799
2064.51 150.354 2804
2074.91 150.622 2809
2081.63 150.622 2809
2088.35 150.622 2809
2101.78 151.105 2818
2112.26 151.373 2823
2119.01 151.373 2823
2125.76 151.373 2823
2136.29 151.641 2828
2143.05 151.641 2828
2149.81 151.641 2828
2156.57 151.641 2828
2163.34 151.641 2828
-2356.98 176.341 3148
-2349.46 176.341 3148
-2337.47 176.005 3142
-2325.5 175.668 3136
-2318 175.668 3136
-2319.35 176.341 3148
-2311.82 176.341 3148
-2308.68 176.677 3154
-2309.9 177.349 3166
-2306.69 177.685 3172
-2299.1 177.685 3172
-2295.85 178.021 3178
-2288.25 178.021 3178
-2284.96 178.357 3184
-2277.34 178.357 3184
-2269.73 178.357 3184
-2262.12 178.357 3184
-2254.5 178.357 3184
-2246.89 178.357 3184
-2239.27 178.357 3184
-2235.87 178.693 3190
-2232.43 179.029 3196
-2224.79 179.029 3196
-2217.14 179.029 3196
-2209.5 179.029 3196
-2205.99 179.366 3202
-2198.34 179.366 3202
-2194.78 179.702 3208
-2187.11 179.702 3208
-2179.44 179.702 3208
-2171.77 179.702 3208
-2168.15 180.038 3214
-2169.2 180.766 3227
-2169.52 181.438 3239
-2161.77 181.438 3239
-2154.03 181.438 3239
-2146.28 181.438 3239
-2138.54 181.438 3239
-2130.79 181.438 3239
-2123.05 181.438 3239
-2127.71 182.503 3258
-2128.38 183.231 3271
-2120.56 183.231 3271
-2117.26 183.623 3278
-2113.28 183.959 3284
-2113.76 184.687 3297
-2105.88 184.687 3297
-2097.99 184.687 3297
-2098.35 185.415 3310
-2090.43 185.415 3310
-2082.52 185.415 3310
-2066.45 184.687 3297
-2058.57 184.687 3297
-2050.69 184.687 3297
-2038.46 184.295 3290
-2018.87 183.231 3271
-2007.36 182.895 3265
-1999.55 182.895 3265
-1987.47 182.503 3258
-2003.38 184.687 3297
-1999.13 185.023 3303
-1999.67 185.807 3317
-1991.74 185.807 3317
-1983.81 185.807 3317
-1975.87 185.807 3317
-1967.94 185.807 3317
-1960.01 185.807 3317
-1943.84 185.023 3303
-1935.94 185.023 3303
-1928.04 185.023 3303
-1916.66 184.687 3297
-1908.77 184.687 3297
-1908.38 185.415 3310
-1900.47 185.415 3310
-1892.55 185.415 3310
-1884.64 185.415 3310
-1865.38 184.295 3290
-1857.51 184.295 3290
-1846.27 183.959 3284
-1838.42 183.959 3284
-1830.57 183.959 3284
-1822.72 183.959 3284
-1814.86 183.959 3284
-1807.01 183.959 3284
-1795.87 183.623 3278
-1784.21 183.231 3271
-1776.39 183.231 3271
-1765.32 182.895 3265
-1760.75 183.231 3271
-1752.92 183.231 3271
-1745.1 183.231 3271
-1737.28 183.231 3271
-1729.46 183.231 3271
-1721.64 183.231 3271
-1713.81 183.231 3271
-1705.99 183.231 3271
-1698.17 183.231 3271
-1697.07 183.959 3284
-1692.3 184.295 3290
-1684.43 184.295 3290
-1680.13 184.687 3297
-1695.58 187.264 3343
-1691.12 187.656 3350
-1683.11 187.656 3350
-1675.1 187.656 3350
-1670.57 188.048 3357
-1662.54 188.048 3357
-1654.51 188.048 3357
-1663.16 189.953 3391
-1655.05 189.953 3391
-1646.94 189.953 3391
-1635.45 189.561 3384
-1617.26 188.384 3363
-1609.22 188.384 3363
-1611.18 189.561 3384
-1603.08 189.561 3384
-1598.29 189.953 3391
-1590.18 189.953 3391
-1582.07 189.953 3391
-1573.96 189.953 3391
-1562.62 189.561 3384
-1554.53 189.561 3384
-1546.44 189.561 3384
-1538.35 189.561 3384
-1530.25 189.561 3384
-1515.87 188.776 3370
-1507.81 188.776 3370
-1496.63 188.384 3363
-1488.59 188.384 3363
-1477.91 188.048 3357
-1469.88 188.048 3357
-1461.85 188.048 3357
-1456.42 188.384 3363
-1457.43 189.561 3384
-1455.33 190.345 3398
-1447.2 190.345 3398
-1439.08 190.345 3398
-1430.95 190.345 3398
-1422.83 190.345 3398
-1414.7 190.345 3398
-1412.37 191.129 3412
-1415.73 192.698 3440
-1407.51 192.698 3440
-1399.28 192.698 3440
-1391.06 192.698 3440
-1382.83 192.698 3440
-1374.6 192.698 3440
-1363.6 192.305 3433
-1355.39 192.305 3433
-1347.18 192.305 3433
-1338.97 192.305 3433
-1330.76 192.305 3433
-1322.55 192.305 3433
-1314.34 192.305 3433
-1306.13 192.305 3433
-1297.92 192.305 3433
-1287.08 191.913 3426
-1273.67 191.129 3412
-1257.72 189.953 3391
-1249.61 189.953 3391
-1238.94 189.561 3384
-1225.75 188.776 3370
-1217.69 188.776 3370
-1209.64 188.776 3370
-1199.08 188.384 3363
-1191.04 188.384 3363
-1183 188.384 3363
-1174.95 188.384 3363
-640.188 103.351 1845
-635.776 103.351 1845
-631.365 103.351 1845
-626.953 103.351 1845
-622.541 103.351 1845
-614.108 102.679 1833
-607.064 102.231 1825
-599.397 101.67 1815
-595.057 101.67 1815
-588.113 101.222 1807
-583.792 101.222 1807
-576.585 100.718 1798
-569.739 100.27 1790
-565.459 100.27 1790
-559.297 99.9338 1784
-550.987 99.2056 1771
-541.503 98.2533 1754
-537.309 98.2533 1754
-529.163 97.5251 1741
-524.095 97.3571 1738
-517.247 96.8529 1729
-513.112 96.8529 1729
-506.328 96.3488 1720
-500.171 95.9567 1713
-494.917 95.7326 1709
-490.83 95.7326 1709
-485.319 95.4525 1704
-479.267 95.0604 1697
-473.249 94.6683 1690
-467.82 94.3882 1685
-463.79 94.3882 1685
-458.397 94.1081 1680
-453.027 93.828 1675
-447.145 93.4359 1668
-443.156 93.4359 1668
-437.588 93.0998 1662
-432.57 92.8757 1658
-426.537 92.4276 1650
-423.104 92.5396 1652
-419.153 92.5396 1652
-415.203 92.5396 1652
-411.252 92.5396 1652
-407.549 92.5957 1653
-403.596 92.5957 1653
-399.643 92.5957 1653
-395.69 92.5957 1653
-391.737 92.5957 1653
-387.784 92.5957 1653
-383.599 92.5396 1652
-379.649 92.5396 1652
-375.699 92.5396 1652
-371.748 92.5396 1652
-367.798 92.5396 1652
-363.407 92.4276 1650
-359.461 92.4276 1650
-355.516 92.4276 1650
-351.57 92.4276 1650
-347.624 92.4276 1650
-343.679 92.4276 1650
-339.733 92.4276 1650
-335.787 92.4276 1650
-331.842 92.4276 1650
-327.3 92.2596 1647
-323.361 92.2596 1647
-319.423 92.2596 1647
-315.484 92.2596 1647
-311.546 92.2596 1647
-307.607 92.2596 1647
-303.669 92.2596 1647
-299.73 92.2596 1647
-295.792 92.2596 1647
-292.031 92.3156 1648
-288.09 92.3156 1648
-284.149 92.3156 1648
-280.888 92.5396 1652
-276.938 92.5396 1652
-272.987 92.5396 1652
-269.851 92.8197 1657
-265.889 92.8197 1657
-261.926 92.8197 1657
-257.964 92.8197 1657
-254.002 92.8197 1657
-250.039 92.8197 1657
-246.077 92.8197 1657
-241.822 92.7077 1655
-237.865 92.7077 1655
-233.907 92.7077 1655
-229.949 92.7077 1655
-225.719 92.5957 1653
-221.363 92.4276 1650
-217.154 92.3156 1648
-212.696 92.0915 1644
-208.765 92.0915 1644
-204.833 92.0915 1644
-200.658 91.9795 1642
-196.731 91.9795 1642
-192.804 91.9795 1642
-188.533 91.8114 1639
-184.614 91.8114 1639
-180.143 91.5313 1634
-176.236 91.5313 1634
-172.328 91.5313 1634
-168.215 91.4193 1632
-164.513 91.5313 1634
-160.803 91.6434 1636
-156.89 91.6434 1636
-153.072 91.6994 1637
-149.339 91.8114 1639
-145.686 91.9795 1642
-141.76 91.9795 1642
-138.085 92.1475 1645
-134.559 92.4276 1650
-130.613 92.4276 1650
-126.668 92.4276 1650
-122.871 92.5396 1652
-118.92 92.5396 1652
-114.97 92.5396 1652
-111.02 92.5396 1652
-107.069 92.5396 1652
-102.869 92.3156 1648
-98.9282 92.3156 1648
-94.9873 92.3156 1648
-91.0464 92.3156 1648
-87.1056 92.3156 1648
-83.1143 92.2596 1647
-179.792 209.503 3740
-170.849 209.503 3740
-161.905 209.503 3740
-152.962 209.503 3740
-143.402 208.606 3724
-134.497 208.606 3724
-121.005 200.988 3588
-112.174 200.54 3580
-103.613 200.54 3580
-95.0526 200.54 3580
-86.4917 200.54 3580
-77.9308 200.54 3580
-69.0793 199.7 3565
-60.1636 198.411 3542
-51.6936 198.411 3542
-42.8576 196.731 3512
-34.3906 196.339 3505
-26.0091 196.339 3505
-17.6628 196.731 3512
-9.26453 196.731 3512
-0.866275 196.731 3512
7.54914 197.179 3520
15.9665 197.179 3520
24.3839 197.179 3520
32.6615 196.339 3505
41.043 196.339 3505
49.4246 196.339 3505
57.5587 195.498 3490
65.9043 195.498 3490
74.25 195.498 3490
82.5956 195.498 3490
90.5765 194.714 3476
98.8886 194.714 3476
106.738 193.874 3461
115.015 193.874 3461
123.041 193.482 3454
131.301 193.482 3454
139.561 193.482 3454
147.82 193.482 3454
156.08 193.482 3454
163.007 191.913 3426
169.8 190.345 3398
176.46 188.776 3370
184.519 188.776 3370
192.177 188.384 3363
199.862 188.048 3357
208.695 188.776 3370
216.753 188.776 3370
224.812 188.776 3370
233.355 189.169 3377
245.934 192.698 3440
254.16 192.698 3440
262.386 192.698 3440
270.612 192.698 3440
278.271 192.305 3433
287.649 193.09 3447
295.891 193.09 3447
308.546 195.891 3497
316.908 195.891 3497
325.271 195.891 3497
330.866 194.266 3468
338.475 193.874 3461
346.751 193.874 3461
355.027 193.874 3461
361.834 193.09 3447
367.822 191.913 3426
373.71 190.737 3405
378.712 189.169 3377
386.788 189.169 3377
392.525 188.048 3357
396.495 186.144 3323
402.859 185.415 3310
410.775 185.415 3310
417.804 185.023 3303
423.254 183.959 3284
430.319 183.623 3278
438.96 183.959 3284
446.813 183.959 3284
454.666 183.959 3284
462.519 183.959 3284
470.372 183.959 3284
478.225 183.959 3284
485.19 183.623 3278
491.976 183.231 3271
502.701 184.295 3290
510.569 184.295 3290
518.436 184.295 3290
537.021 188.048 3357
548.296 189.169 3377
570.211 193.874 3461
578.487 193.874 3461
591.68 195.498 3490
603.808 196.731 3512
613.601 197.179 3520
622.018 197.179 3520
630.436 197.179 3520
638.853 197.179 3520
647.271 197.179 3520
655.688 197.179 3520
662.596 196.731 3512
670.994 196.731 3512
685.196 198.411 3542
693.666 198.411 3542
702.136 198.411 3542
710.606 198.411 3542
719.076 198.411 3542
727.546 198.411 3542
736.016 198.411 3542
741.333 197.571 3527
749.767 197.571 3527
758.201 197.571 3527
766.635 197.571 3527
773.531 197.179 3520
781.949 197.179 3520
788.57 196.731 3512
796.968 196.731 3512
805.366 196.731 3512
815.618 197.179 3520
827.313 197.963 3534
835.764 197.963 3534
846.126 198.411 3542
856.285 198.803 3549
864.772 198.803 3549
873.258 198.803 3549
881.745 198.803 3549
890.232 198.803 3549
898.718 198.803 3549
905.416 198.411 3542
917.756 199.252 3557
928.345 199.7 3565
936.87 199.7 3565
945.395 199.7 3565
953.92 199.7 3565
962.445 199.7 3565
975.056 200.54 3580
983.616 200.54 3580
996.334 201.38 3595
1004.93 201.38 3595
1013.53 201.38 3595
1022.12 201.38 3595
1030.72 201.38 3595
1039.32 201.38 3595
1047.91 201.38 3595
1061.21 202.276 3611
1069.85 202.276 3611
1078.48 202.276 3611
1089.53 202.725 3619
1098.18 202.725 3619
1106.84 202.725 3619
1115.49 202.725 3619
1124.14 202.725 3619
1132.8 202.725 3619
1141.45 202.725 3619
1150.11 202.725 3619
1161.32 203.173 3627
1174.83 204.013 3642
1183.54 204.013 3642
1194.87 204.461 3650
1203.6 204.461 3650
1212.33 204.461 3650
1221.06 204.461 3650
1229.78 204.461 3650
1246.99 205.861 3675
1258.52 206.31 3683
1267.32 206.31 3683
1276.13 206.31 3683
1282.15 205.861 3675
1290.94 205.861 3675
1296.89 205.413 3667
1305.66 205.413 3667
1314.43 205.413 3667
1319.95 204.909 3658
1328.7 204.909 3658
1334.52 204.461 3650
1346.2 204.909 3658
1358.28 205.413 3667
1367.05 205.413 3667
1375.81 205.413 3667
1384.58 205.413 3667
1393.35 205.413 3667
1402.12 205.413 3667
1410.89 205.413 3667
1419.66 205.413 3667
1428.43 205.413 3667
1437.2 205.413 3667
1433.35 203.621 3635
1435.69 202.725 3619
1441.15 202.276 3611
1446.58 201.828 3603
1455.19 201.828 3603
1457.71 200.988 3588
1466.29 200.988 3588
1487.62 202.725 3619
1502.89 203.621 3635
1511.58 203.621 3635
1520.27 203.621 3635
1528.96 203.621 3635
1537.66 203.621 3635
1539.54 202.725 3619
1541.35 201.828 3603
1549.97 201.828 3603
1558.58 201.828 3603
1560.67 200.988 3588
1575.81 201.828 3603
1584.43 201.828 3603
1593.05 201.828 3603
1608.77 202.725 3619
1617.43 202.725 3619
1629.68 203.173 3627
1652.35 204.909 3658
1661.1 204.909 3658
1669.85 204.909 3658
1678.6 204.909 3658
1687.34 204.909 3658
1696.09 204.909 3658
1694.12 203.621 3635
1699.06 203.173 3627
1703.97 202.725 3619
1712.62 202.725 3619
1709.86 201.38 3595
1711.29 200.54 3580
1716.01 200.092 3572
1724.55 200.092 3572
1733.09 200.092 3572
1738.22 199.7 3565
1738.91 198.803 3549
1740.01 197.963 3534
1748.46 197.963 3534
1756.91 197.963 3534
1765.36 197.963 3534
1766.78 197.179 3520
1775.2 197.179 3520
1771.96 195.891 3497
1780.33 195.891 3497
1763.11 193.09 3447
1774.95 193.482 3454
1783.21 193.482 3454
1795.1 193.874 3461
1803.38 193.874 3461
1823.17 195.106 3483
1835.18 195.498 3490
1851.45 196.339 3505
1871.51 197.571 3527
1883.67 197.963 3534
1892.12 197.963 3534
1900.57 197.963 3534
1913.35 198.411 3542
1925.61 198.803 3549
1942.82 199.7 3565
1951.34 199.7 3565
1972.51 200.988 3588
1989.38 201.828 3603
2002.43 202.276 3611
2011.06 202.276 3611
2028.65 203.173 3627
2045.75 204.013 3642
2091.12 207.654 3707
2099.99 207.654 3707
2118.52 208.606 3724
2127.43 208.606 3724
2136.33 208.606 3724
2140.63 208.158 3716
2139.68 207.206 3699
2148.53 207.206 3699
2167.29 208.158 3716
2176.17 208.158 3716
2189.76 208.606 3724
2198.67 208.606 3724
2207.57 208.606 3724
2216.48 208.606 3724
2225.38 208.606 3724
2224.09 207.654 3707
2223.32 206.758 3691
2232.14 206.758 3691
2231.26 205.861 3675
2244.92 206.31 3683
2258.62 206.758 3691
2267.45 206.758 3691
2276.27 206.758 3691
2285.1 206.758 3691
2283.98 205.861 3675
2297.76 206.31 3683
2306.57 206.31 3683
2325.44 207.206 3699
2334.28 207.206 3699
2343.13 207.206 3699
2351.97 207.206 3699
2360.82 207.206 3699
2359.41 206.31 3683
2368.22 206.31 3683
2377.03 206.31 3683
2385.83 206.31 3683
2410.25 207.654 3707
2419.11 207.654 3707
2427.98 207.654 3707
2431.58 207.206 3699
2429.87 206.31 3683
2438.68 206.31 3683
2447.48 206.31 3683
2450.96 205.861 3675
2454.39 205.413 3667
2463.16 205.413 3667
2471.93 205.413 3667
2480.7 205.413 3667
2489.47 205.413 3667
2498.23 205.413 3667
2507 205.413 3667
2515.77 205.413 3667
2518.34 204.909 3658
2521.57 204.461 3650
2524.75 204.013 3642
2533.46 204.013 3642
2542.17 204.013 3642
1994.05 159.48 2847
2000.86 159.48 2847
2007.67 159.48 2847
2003.86 158.639 2832
2010.64 158.639 2832
2014.56 158.415 2828
2010.6 157.575 2813
2007.29 156.791 2799
2013.98 156.791 2799
2014.18 156.287 2790
2013.6 155.727 2780
2020.25 155.727 2780
2037.11 156.511 2794
2047.45 156.791 2799
2054.14 156.791 2799
2064.51 157.071 2804
2074.91 157.351 2809
2081.63 157.351 2809
2088.35 157.351 2809
2101.78 157.855 2818
2112.26 158.135 2823
2119.01 158.135 2823
2125.76 158.135 2823
2136.29 158.415 2828
2143.05 158.415 2828
2149.81 158.415 2828
2156.57 158.415 2828
2163.34 158.415 2828
-2356.98 183.882 3148
-2349.46 183.882 3148
-2337.47 183.531 3142
-2325.5 183.181 3136
-2318 183.181 3136
-2319.35 183.882 3148
-2311.82 183.882 3148
-2308.68 184.232 3154
-2309.9 184.933 3166
-2306.69 185.284 3172
-2299.1 185.284 3172
-2295.85 185.634 3178
-2288.25 185.634 3178
-2284.96 185.985 3184
-2277.34 185.985 3184
-2269.73 185.985 3184
-2262.12 185.985 3184
-2254.5 185.985 3184
-2246.89 185.985 3184
-2235.05 185.634 3178
-2231.66 185.985 3184
-2232.43 186.686 3196
-2224.79 186.686 3196
-2217.14 186.686 3196
-2209.5 186.686 3196
-2205.99 187.036 3202
-2198.34 187.036 3202
-2194.78 187.386 3208
-2187.11 187.386 3208
-2179.44 187.386 3208
-2171.77 187.386 3208
-2168.15 187.737 3214
-2169.2 188.496 3227
-2169.52 189.197 3239
-2161.77 189.197 3239
-2154.03 189.197 3239
-2146.28 189.197 3239
-2138.54 189.197 3239
-2130.79 189.197 3239
-2123.05 189.197 3239
-2127.71 190.307 3258
-2128.38 191.066 3271
-2120.56 191.066 3271
-2117.26 191.475 3278
-2113.28 191.826 3284
-2113.76 192.585 3297
-2105.88 192.585 3297
-2097.99 192.585 3297
-2098.35 193.345 3310
-2090.43 193.345 3310
-2082.52 193.345 3310
-2066.45 192.585 3297
-2058.57 192.585 3297
-2050.69 192.585 3297
-2038.46 192.176 3290
-2018.87 191.066 3271
-2007.36 190.716 3265
-1999.55 190.716 3265
-1987.47 190.307 3258
-2003.38 192.585 3297
-1999.13 192.936 3303
-1999.67 193.753 3317
-1991.74 193.753 3317
-1983.81 193.753 3317
-1975.87 193.753 3317
-1967.94 193.753 3317
-1960.01 193.753 3317
-1943.84 192.936 3303
-1935.94 192.936 3303
-1928.04 192.936 3303
-1916.66 192.585 3297
-1908.77 192.585 3297
-1908.38 193.345 3310
-1900.47 193.345 3310
-1892.55 193.345 3310
-1884.64 193.345 3310
-1865.38 192.176 3290
-1857.51 192.176 3290
-1846.27 191.826 3284
-1838.42 191.826 3284
-1830.57 191.826 3284
-1822.72 191.826 3284
-1814.86 191.826 3284
-1807.01 191.826 3284
-1795.87 191.475 3278
-1784.21 191.066 3271
-1776.39 191.066 3271
-1765.32 190.716 3265
-1760.75 191.066 3271
-1752.92 191.066 3271
-1745.1 191.066 3271
-1737.28 191.066 3271
-1729.46 191.066 3271
-1721.64 191.066 3271
-1713.81 191.066 3271
-1705.99 191.066 3271
-1698.17 191.066 3271
-1697.07 191.826 3284
-1692.3 192.176 3290
-1684.43 192.176 3290
-1680.13 192.585 3297
-1695.58 195.272 3343
-1691.12 195.681 3350
-1683.11 195.681 3350
-1675.1 195.681 3350
-1670.57 196.09 3357
-1662.54 196.09 3357
-1654.51 196.09 3357
-1663.16 198.076 3391
-1655.05 198.076 3391
-1646.94 198.076 3391
-1635.45 197.667 3384
-1617.26 196.44 3363
-1609.22 196.44 3363
-1611.18 197.667 3384
-1603.08 197.667 3384
-1598.29 198.076 3391
-1590.18 198.076 3391
-1582.07 198.076 3391
-1573.96 198.076 3391
-1562.62 197.667 3384
-1554.53 197.667 3384
-1546.44 197.667 3384
-1538.35 197.667 3384
-1530.25 197.667 3384
-1515.87 196.849 3370
-1507.81 196.849 3370
-1496.63 196.44 3363
-1488.59 196.44 3363
-1480.55 196.44 3363
-1472.51 196.44 3363
-1464.46 196.44 3363
-1465.52 197.667 3384
-1466.47 198.894 3405
-1458.33 198.894 3405
-1450.18 198.894 3405
-1442.04 198.894 3405
-1433.9 198.894 3405
-1425.76 198.894 3405
-1417.62 198.894 3405
-1418.17 200.12 3426
-1415.73 200.938 3440
-1410.37 201.347 3447
-1402.13 201.347 3447
-1393.89 201.347 3447
-1385.64 201.347 3447
-1377.4 201.347 3447
-1366.38 200.938 3440
-1360.92 201.347 3447
-1352.67 201.347 3447
-1344.43 201.347 3447
-1336.19 201.347 3447
-1327.94 201.347 3447
-1319.7 201.347 3447
-1311.46 201.347 3447
-1303.22 201.347 3447
-1292.34 200.938 3440
-1278.89 200.12 3426
-1262.91 198.894 3405
-1254.77 198.894 3405
-1241.5 198.076 3391
-1228.3 197.258 3377
-1217.69 196.849 3370
-1209.64 196.849 3370
-1199.08 196.44 3363
-1191.04 196.44 3363
-1183 196.44 3363
-1174.95 196.44 3363
-643.311 108.296 1854
-638.878 108.296 1854
-631.365 107.771 1845
-626.953 107.771 1845
-622.541 107.771 1845
-614.108 107.07 1833
-607.064 106.602 1825
-599.397 106.018 1815
-595.057 106.018 1815
-589.415 105.785 1811
-583.792 105.551 1807
-577.226 105.142 1800
-571.649 104.908 1796
-567.354 104.908 1796
-559.924 104.324 1786
-550.987 103.448 1771
-541.503 102.455 1754
-537.309 102.455 1754
-529.163 101.696 1741
-524.095 101.52 1738
-516.649 100.878 1727
-512.519 100.878 1727
-506.328 100.469 1720
-500.171 100.06 1713
-494.917 99.8265 1709
-490.83 99.8265 1709
-485.319 99.5345 1704
-479.267 99.1256 1697
-473.249 98.7167 1690
-467.82 98.4246 1685
-463.79 98.4246 1685
-458.397 98.1326 1680
-453.027 97.8405 1675
-447.145 97.4316 1668
-443.156 97.4316 1668
-437.588 97.0811 1662
-432.57 96.8475 1658
-427.054 96.497 1652
-423.104 96.497 1652
-419.153 96.497 1652
-415.203 96.497 1652
-411.252 96.497 1652
-407.549 96.5554 1653
-403.596 96.5554 1653
-399.643 96.5554 1653
-395.69 96.5554 1653
-391.737 96.5554 1653
-387.784 96.5554 1653
-383.599 96.497 1652
-379.649 96.497 1652
-375.699 96.497 1652
-371.748 96.497 1652
-367.798 96.497 1652
-363.407 96.3802 1650
-359.461 96.3802 1650
-355.516 96.3802 1650
-351.57 96.3802 1650
-347.624 96.3802 1650
-343.679 96.3802 1650
-339.733 96.3802 1650
-335.787 96.3802 1650
-331.842 96.3802 1650
-327.3 96.205 1647
-323.361 96.205 1647
-319.423 96.205 1647
-315.484 96.205 1647
-311.546 96.205 1647
-307.607 96.205 1647
-303.669 96.205 1647
-299.73 96.205 1647
-295.792 96.205 1647
-292.031 96.2634 1648
-288.09 96.2634 1648
-284.149 96.2634 1648
-280.888 96.497 1652
-276.938 96.497 1652
-272.987 96.497 1652
-269.851 96.7891 1657
-265.889 96.7891 1657
-261.926 96.7891 1657
-257.964 96.7891 1657
-254.002 96.7891 1657
-250.039 96.7891 1657
-246.077 96.7891 1657
-241.822 96.6723 1655
-237.865 96.6723 1655
-233.907 96.6723 1655
-229.949 96.6723 1655
-225.992 96.6723 1655
-221.363 96.3802 1650
-217.418 96.3802 1650
-212.825 96.0881 1645
-208.892 96.0881 1645
-204.833 96.0297 1644
-200.902 96.0297 1644
-196.971 96.0297 1644
-193.039 96.0297 1644
-188.878 95.9129 1642
-184.614 95.7377 1639
-180.474 95.6208 1637
-176.559 95.6208 1637
-172.539 95.5624 1636
-168.627 95.5624 1636
-164.715 95.5624 1636
-161.097 95.7377 1639
-157.178 95.7377 1639
-153.259 95.7377 1639
-149.613 95.9129 1642
-145.952 96.0881 1645
-142.019 96.0881 1645
-138.505 96.3802 1650
-134.804 96.5554 1653
-131.168 96.7891 1657
-127.205 96.7891 1657
-123.243 96.7891 1657
-119.28 96.7891 1657
-115.318 96.7891 1657
-111.356 96.7891 1657
-107.264 96.6723 1655
-103.181 96.5554 1653
-99.2283 96.5554 1653
-95.2755 96.5554 1653
-91.3227 96.5554 1653
-87.3699 96.5554 1653
-83.1143 96.205 1647
-181.426 220.448 3774
-172.402 220.448 3774
-163.377 220.448 3774
-154.352 220.448 3774
-143.402 217.527 3724
-134.497 217.527 3724
-121.005 209.583 3588
-112.174 209.116 3580
-103.845 209.583 3588
-95.265 209.583 3588
-86.685 209.583 3588
-78.105 209.583 3588
-69.215 208.649 3572
-60.4184 207.772 3557
-51.9126 207.772 3557
-43.2237 206.896 3542
-34.5378 205.611 3520
-26.1204 205.611 3520
-17.7734 206.429 3534
-9.32257 206.429 3534
-0.871702 206.429 3534
7.57916 206.429 3534
16.03 206.429 3534
24.4809 206.429 3534
32.8665 206.02 3527
41.3007 206.02 3527
49.7348 206.02 3527
57.9215 205.144 3512
66.4708 205.611 3520
74.8882 205.611 3520
83.3056 205.611 3520
91.1237 204.268 3497
99.4861 204.268 3497
107.417 203.45 3483
115.746 203.45 3483
123.291 202.165 3461
131.301 201.756 3454
139.561 201.756 3454
147.82 201.756 3454
156.08 201.756 3454
164.339 201.756 3454
169.8 198.485 3398
176.46 196.849 3370
184.519 196.849 3370
192.177 196.44 3363
199.862 196.09 3357
208.695 196.849 3370
216.753 196.849 3370
224.812 196.849 3370
238.192 201.347 3447
246.935 201.756 3454
255.194 201.756 3454
263.454 201.756 3454
271.714 201.756 3454
280.54 202.165 3461
291.821 204.268 3497
300.183 204.268 3497
309.252 204.735 3505
317.633 204.735 3505
326.015 204.735 3505
333.633 204.268 3497
339.942 203.041 3476
347.452 202.574 3468
355.745 202.574 3468
363.303 202.165 3461
368.574 200.529 3433
373.71 198.894 3405
381.852 198.894 3405
389.995 198.894 3405
392.525 196.09 3357
397.331 194.513 3330
403.711 193.753 3317
411.643 193.753 3317
417.804 192.936 3303
424.027 192.176 3290
430.319 191.475 3278
438.96 191.826 3284
446.813 191.826 3284
454.666 191.826 3284
462.519 191.826 3284
470.372 191.826 3284
478.225 191.826 3284
485.19 191.475 3278
491.976 191.066 3271
502.701 192.176 3290
510.569 192.176 3290
518.436 192.176 3290
537.021 196.09 3357
548.296 197.258 3377
570.211 202.165 3461
578.487 202.165 3461
595.41 205.144 3512
606.387 206.02 3527
614.821 206.02 3527
623.255 206.02 3527
634.376 206.896 3542
644.116 207.305 3549
652.603 207.305 3549
661.09 207.305 3549
669.577 207.305 3549
678.063 207.305 3549
686.55 207.305 3549
695.037 207.305 3549
709.669 209.116 3580
718.23 209.116 3580
726.79 209.116 3580
733.708 208.649 3572
740.795 208.24 3565
745.957 207.305 3549
754.444 207.305 3549
762.931 207.305 3549
769.896 206.896 3542
776.608 206.429 3534
785.059 206.429 3534
791.938 206.02 3527
796.968 205.144 3512
807.201 205.611 3520
817.24 206.02 3527
829.186 206.896 3542
837.656 206.896 3542
847.798 207.305 3549
858.215 207.772 3557
866.721 207.772 3557
875.227 207.772 3557
883.733 207.772 3557
892.238 207.772 3557
902.77 208.24 3565
911.295 208.24 3565
925.755 209.583 3588
936.157 209.992 3595
944.754 209.992 3595
953.351 209.992 3595
961.948 209.992 3595
970.544 209.992 3595
979.141 209.992 3595
987.738 209.992 3595
998.552 210.459 3603
1011.64 211.394 3619
1020.29 211.394 3619
1028.95 211.394 3619
1037.6 211.394 3619
1043.94 210.927 3611
1052.58 210.927 3611
1061.21 210.927 3611
1069.85 210.927 3611
1080.87 211.394 3619
1091.94 211.861 3627
1100.61 211.861 3627
1109.28 211.861 3627
1117.96 211.861 3627
1126.63 211.861 3627
1135.3 211.861 3627
1141.45 211.394 3619
1152.65 211.861 3627
1163.88 212.328 3635
1177.41 213.205 3650
1186.14 213.205 3650
1194.87 213.205 3650
1206.24 213.672 3658
1214.98 213.672 3658
1223.73 213.672 3658
1235.51 214.198 3667
1252.42 215.6 3691
1261.25 215.6 3691
1270.08 215.6 3691
1278.9 215.6 3691
1284.94 215.132 3683
1293.75 215.132 3683
1302.55 215.132 3683
1311.36 215.132 3683
1317.3 214.665 3675
1323.2 214.198 3667
1334.88 214.665 3675
1343.66 214.665 3675
1355.4 215.132 3683
1367.17 215.6 3691
1375.99 215.6 3691
1384.82 215.6 3691
1384.58 214.198 3667
1393.35 214.198 3667
1402.12 214.198 3667
1410.89 214.198 3667
1419.66 214.198 3667
1428.43 214.198 3667
1437.2 214.198 3667
1442.42 213.672 3658
1435.69 211.394 3619
1444.35 211.394 3619
1446.58 210.459 3603
1455.19 210.459 3603
1460.56 209.992 3595
1466.29 209.583 3588
1487.62 211.394 3619
1502.89 212.328 3635
1511.58 212.328 3635
1520.27 212.328 3635
1528.96 212.328 3635
1537.66 212.328 3635
1546.35 212.328 3635
1548.2 211.394 3619
1549.97 210.459 3603
1558.58 210.459 3603
1567.2 210.459 3603
1582.81 211.394 3619
1591.47 211.394 3619
1600.12 211.394 3619
1612.33 211.861 3627
1621 211.861 3627
1643.61 213.672 3658
1656.42 214.198 3667
1665.19 214.198 3667
1673.96 214.198 3667
1682.73 214.198 3667
1687.34 213.672 3658
1696.09 213.672 3658
1701.11 213.205 3650
1709.84 213.205 3650
1707.74 211.861 3627
1716.41 211.861 3627
1721.28 211.394 3619
1715.11 209.583 3588
1719.85 209.116 3580
1728.41 209.116 3580
1733.09 208.649 3572
1741.63 208.649 3572
1746.74 208.24 3565
1743.95 206.896 3542
1752.42 206.896 3542
1760.89 206.896 3542
1769.36 206.896 3542
1766.78 205.611 3520
1775.2 205.611 3520
1771.96 204.268 3497
1780.33 204.268 3497
1763.11 201.347 3447
1774.95 201.756 3454
1783.21 201.756 3454
1795.1 202.165 3461
1803.38 202.165 3461
1823.17 203.45 3483
1835.18 203.859 3490
1851.45 204.735 3505
1871.51 206.02 3527
1883.67 206.429 3534
1892.12 206.429 3534
1900.57 206.429 3534
1913.35 206.896 3542
1925.61 207.305 3549
1942.82 208.24 3565
1951.34 208.24 3565
1972.51 209.583 3588
1989.38 210.459 3603
2002.43 210.927 3611
2011.06 210.927 3611
2028.65 211.861 3627
2045.75 212.737 3642
2100.71 217.527 3724
2109.62 217.527 3724
2127.62 218.462 3740
2136.57 218.462 3740
2145.51 218.462 3740
2149.85 217.994 3732
2154.14 217.527 3724
2163.05 217.527 3724
2171.95 217.527 3724
2180.86 217.527 3724
2199.17 218.462 3740
2213.43 218.987 3749
2222.39 218.987 3749
2231.36 218.987 3749
2240.32 218.987 3749
2249.29 218.987 3749
2238.38 217.06 3716
2247.26 217.06 3716
2240.97 215.6 3691
2254.67 216.067 3699
2273.92 217.06 3716
2282.81 217.06 3716
2291.69 217.06 3716
2295.01 216.534 3707
2298.9 216.067 3699
2312.74 216.534 3707
2321.6 216.534 3707
2341.15 217.527 3724
2350.06 217.527 3724
2358.96 217.527 3724
2357.06 216.534 3707
2365.92 216.534 3707
2369.66 216.067 3699
2373.36 215.6 3691
2392.52 216.534 3707
2401.38 216.534 3707
2421.3 217.527 3724
2430.2 217.527 3724
2439.11 217.527 3724
2442.76 217.06 3716
2440.43 216.067 3699
2438.68 215.132 3683
2447.48 215.132 3683
2456.29 215.132 3683
2454.39 214.198 3667
2463.16 214.198 3667
2471.93 214.198 3667
2486.11 214.665 3675
2494.9 214.665 3675
2503.68 214.665 3675
2507 214.198 3667
2515.77 214.198 3667
2524.54 214.198 3667
2527.09 213.672 3658
2535.84 213.672 3658
2544.59 213.672 3658
2542.17 212.737 3642
1994.05 166.3 2847
2000.86 166.3 2847
2007.67 166.3 2847
2003.86 165.423 2832
2010.64 165.423 2832
2014.56 165.19 2828
2010.6 164.314 2813
2007.29 163.496 2799
2013.98 163.496 2799
2014.18 162.97 2790
2013.6 162.386 2780
2020.25 162.386 2780
2037.11 163.204 2794
2047.45 163.496 2799
2054.14 163.496 2799
2064.51 163.788 2804
2074.91 164.08 2809
2084.59 164.314 2813
2091.32 164.314 2813
2098.05 164.314 2813
2108.52 164.606 2818
2119.01 164.898 2823
2125.76 164.898 2823
2132.51 164.898 2823
2139.26 164.898 2823
2149.81 165.19 2828
2156.57 165.19 2828
2163.34 165.19 2828
-2356.98 191.423 3148
-2349.46 191.423 3148
-2337.47 191.058 3142
-2325.5 190.693 3136
-2309.13 189.963 3124
-2314.93 191.058 3142
-2307.41 191.058 3142
-2304.29 191.423 3148
-2309.9 192.517 3166
-2306.69 192.882 3172
-2299.1 192.882 3172
-2295.85 193.247 3178
-2288.25 193.247 3178
-2284.96 193.612 3184
-2277.34 193.612 3184
-2269.73 193.612 3184
-2262.12 193.612 3184
-2254.5 193.612 3184
-2242.65 193.247 3178
-2235.05 193.247 3178
-2231.66 193.612 3184
-2228.24 193.977 3190
-2220.61 193.977 3190
-2212.98 193.977 3190
-2209.5 194.342 3196
-2210.13 195.071 3208
-2202.45 195.071 3208
-2194.78 195.071 3208
-2187.11 195.071 3208
-2188.27 195.862 3221
-2180.57 195.862 3221
-2185.01 196.956 3239
-2190.04 198.112 3258
-2195.64 199.328 3278
-2187.8 199.328 3278
-2192.6 200.483 3297
-2184.72 200.483 3297
-2176.83 200.483 3297
-2164.34 200.057 3290
-2156.48 200.057 3290
-2148.61 200.057 3290
-2140.74 200.057 3290
-2132.87 200.057 3290
-2133.4 200.848 3303
-2130.01 201.274 3310
-2122.09 201.274 3310
-2114.18 201.274 3310
-2114.54 202.064 3323
-2119.27 203.28 3343
-2111.27 203.28 3343
-2103.28 203.28 3343
-2082.75 202.064 3323
-2071.06 201.699 3317
-2063.13 201.699 3317
-2055.19 201.699 3317
-2030.6 200.057 3290
-2007.36 198.537 3265
-1999.55 198.537 3265
-1991.74 198.537 3265
-2003.38 200.483 3297
-1999.13 200.848 3303
-1991.23 200.848 3303
-1983.33 200.848 3303
-1987.39 202.064 3323
-1983.62 202.49 3330
-1975.66 202.49 3330
-1967.69 202.49 3330
-1952.08 201.699 3317
-1940.04 201.274 3310
-1932.13 201.274 3310
-1920.14 200.848 3303
-1904.72 200.057 3290
-1908.38 201.274 3310
-1900.47 201.274 3310
-1892.55 201.274 3310
-1884.64 201.274 3310
-1872.75 200.848 3303
-1864.85 200.848 3303
-1860.89 201.274 3310
-1852.98 201.274 3310
-1845.06 201.274 3310
-1844.36 202.064 3323
-1836.42 202.064 3323
-1828.47 202.064 3323
-1809.57 200.848 3303
-1788.03 199.328 3278
-1780.19 199.328 3278
-1765.32 198.537 3265
-1767.74 199.693 3284
-1759.89 199.693 3284
-1755.24 200.057 3290
-1747.37 200.057 3290
-1739.5 200.057 3290
-1728.48 199.693 3284
-1720.63 199.693 3284
-1709.64 199.328 3278
-1701.8 199.328 3278
-1697.07 199.693 3284
-1692.3 200.057 3290
-1684.43 200.057 3290
-1683.19 200.848 3303
-1695.58 203.28 3343
-1691.12 203.706 3350
-1683.11 203.706 3350
-1678.6 204.132 3357
-1673.56 204.496 3363
-1679.38 206.199 3391
-1671.27 206.199 3391
-1666.6 206.625 3398
-1661.89 207.05 3405
-1653.74 207.05 3405
-1645.6 207.05 3405
-1630.73 206.199 3391
-1625.97 206.625 3398
-1621.17 207.05 3405
-1613.03 207.05 3405
-1611.49 207.902 3419
-1603.31 207.902 3419
-1595.14 207.902 3419
-1586.96 207.902 3419
-1569.09 206.625 3398
-1567.39 207.476 3412
-1559.23 207.476 3412
-1551.08 207.476 3412
-1542.92 207.476 3412
-1528.46 206.625 3398
-1520.33 206.625 3398
-1505.98 205.773 3384
-1497.89 205.773 3384
-1486.71 205.348 3377
-1478.64 205.348 3377
-1464.46 204.496 3363
-1465.52 205.773 3384
-1466.47 207.05 3405
-1458.33 207.05 3405
-1450.18 207.05 3405
-1442.04 207.05 3405
-1433.9 207.05 3405
-1425.76 207.05 3405
-1417.62 207.05 3405
-1418.17 208.327 3426
-1415.73 209.179 3440
-1410.37 209.604 3447
-1402.13 209.604 3447
-1393.89 209.604 3447
-1385.64 209.604 3447
-1377.4 209.604 3447
-1366.38 209.179 3440
-1360.92 209.604 3447
-1352.67 209.604 3447
-1344.43 209.604 3447
-1336.19 209.604 3447
-1327.94 209.604 3447
-1319.7 209.604 3447
-1311.46 209.604 3447
-1303.22 209.604 3447
-1292.34 209.179 3440
-1278.89 208.327 3426
-1262.91 207.05 3405
-1254.77 207.05 3405
-1241.5 206.199 3391
-1228.3 205.348 3377
-1217.69 204.922 3370
-1209.64 204.922 3370
-1199.08 204.496 3363
-1191.04 204.496 3363
-1183 204.496 3363
-1174.95 204.496 3363
-643.311 112.738 1854
-638.878 112.738 1854
-631.365 112.19 1845
-626.273 112.069 1843
-621.866 112.069 1843
-613.438 111.339 1831
-606.399 110.853 1823
-599.397 110.366 1815
-595.057 110.366 1815
-589.415 110.123 1811
-583.792 109.88 1807
-577.226 109.454 1800
-571.649 109.211 1796
-567.354 109.211 1796
-559.924 108.603 1786
-550.987 107.691 1771
-541.503 106.657 1754
-537.309 106.657 1754
-529.163 105.866 1741
-524.095 105.684 1738
-516.649 105.015 1727
-512.519 105.015 1727
-506.328 104.589 1720
-500.171 104.164 1713
-494.917 103.92 1709
-490.83 103.92 1709
-485.319 103.616 1704
-479.267 103.191 1697
-473.249 102.765 1690
-467.82 102.461 1685
-463.79 102.461 1685
-458.397 102.157 1680
-453.027 101.853 1675
-446.877 101.367 1667
-442.891 101.367 1667
-437.061 100.941 1660
-432.57 100.819 1658
-427.054 100.454 1652
-423.104 100.454 1652
-419.153 100.454 1652
-415.203 100.454 1652
-411.252 100.454 1652
-407.302 100.454 1652
-403.352 100.454 1652
-399.401 100.454 1652
-395.69 100.515 1653
-391.737 100.515 1653
-387.784 100.515 1653
-383.599 100.454 1652
-379.649 100.454 1652
-375.699 100.454 1652
-371.748 100.454 1652
-367.798 100.454 1652
-363.407 100.333 1650
-359.461 100.333 1650
-355.516 100.333 1650
-351.57 100.333 1650
-347.624 100.333 1650
-343.679 100.333 1650
-339.733 100.333 1650
-335.787 100.333 1650
-331.842 100.333 1650
-327.3 100.15 1647
-323.361 100.15 1647
-319.423 100.15 1647
-315.484 100.15 1647
-311.546 100.15 1647
-307.607 100.15 1647
-303.669 100.15 1647
-299.73 100.15 1647
-295.792 100.15 1647
-292.031 100.211 1648
-288.09 100.211 1648
-284.149 100.211 1648
-280.888 100.454 1652
-276.938 100.454 1652
-272.987 100.454 1652
-269.851 100.758 1657
-265.889 100.758 1657
-261.926 100.758 1657
-257.964 100.758 1657
-254.002 100.758 1657
-250.039 100.758 1657
-246.077 100.758 1657
-241.822 100.637 1655
-237.865 100.637 1655
-233.907 100.637 1655
-229.949 100.637 1655
-225.992 100.637 1655
-221.363 100.333 1650
-217.418 100.333 1650
-212.825 100.029 1645
-208.892 100.029 1645
-204.833 99.9679 1644
-200.902 99.9679 1644
-196.971 99.9679 1644
-193.039 99.9679 1644
-188.878 99.8463 1642
-184.614 99.6639 1639
-180.474 99.5423 1637
-176.559 99.5423 1637
-172.539 99.4815 1636
-168.627 99.4815 1636
-164.715 99.4815 1636
-161.097 99.6639 1639
-157.178 99.6639 1639
-153.259 99.6639 1639
-149.613 99.8463 1642
-145.952 100.029 1645
-142.019 100.029 1645
-138.505 100.333 1650
-134.804 100.515 1653
-131.168 100.758 1657
-127.205 100.758 1657
-123.243 100.758 1657
-119.28 100.758 1657
-115.318 100.758 1657
-111.356 100.758 1657
-107.264 100.637 1655
-103.181 100.515 1653
-99.2283 100.515 1653
-95.2755 100.515 1653
-91.3227 100.515 1653
-87.3699 100.515 1653
-181.426 229.488 3774
-172.402 229.488 3774
-163.377 229.488 3774
-154.352 229.488 3774
-143.402 226.448 3724
-134.497 226.448 3724
-121.005 218.178 3588
-112.174 217.692 3580
-103.845 218.178 3588
-95.265 218.178 3588
-86.685 218.178 3588
-78.105 218.178 3588
-69.215 217.205 3572
-60.4184 216.293 3557
-51.9126 216.293 3557
-43.2237 215.381 3542
-34.5378 214.043 3520
-26.1204 214.043 3520
-17.7734 214.895 3534
-9.32257 214.895 3534
-0.871702 214.895 3534
7.57916 214.895 3534
16.03 214.895 3534
24.4809 214.895 3534
32.8665 214.469 3527
41.3007 214.469 3527
49.7348 214.469 3527
57.9215 213.557 3512
66.4708 214.043 3520
74.8882 214.043 3520
83.3056 214.043 3520
91.1237 212.645 3497
99.4861 212.645 3497
107.417 211.793 3483
115.746 211.793 3483
123.291 210.456 3461
131.301 210.03 3454
139.561 210.03 3454
147.82 210.03 3454
156.08 210.03 3454
164.339 210.03 3454
169.8 206.625 3398
175.413 203.706 3350
183.424 203.706 3350
191.434 203.706 3350
216.753 204.922 3370
224.812 204.922 3370
238.192 209.604 3447
246.935 210.03 3454
255.194 210.03 3454
263.454 210.03 3454
271.714 210.03 3454
280.54 210.456 3461
291.821 212.645 3497
300.183 212.645 3497
309.252 213.131 3505
317.633 213.131 3505
326.015 213.131 3505
333.633 212.645 3497
339.942 211.368 3476
347.452 210.881 3468
355.745 210.881 3468
363.303 210.456 3461
368.574 208.753 3433
373.71 207.05 3405
381.852 207.05 3405
389.995 207.05 3405
392.525 204.132 3357
397.331 202.49 3330
403.711 201.699 3317
411.643 201.699 3317
417.804 200.848 3303
424.027 200.057 3290
430.319 199.328 3278
438.96 199.693 3284
446.813 199.693 3284
454.666 199.693 3284
462.519 199.693 3284
470.372 199.693 3284
478.225 199.693 3284
483.266 198.537 3265
490.021 198.112 3258
499.798 198.902 3271
510.569 200.057 3290
518.436 200.057 3290
535.902 203.706 3350
547.16 204.922 3370
567.904 209.604 3447
576.147 209.604 3447
595.41 213.557 3512
606.387 214.469 3527
614.821 214.469 3527
623.255 214.469 3527
634.376 215.381 3542
644.116 215.807 3549
652.603 215.807 3549
661.09 215.807 3549
669.577 215.807 3549
678.063 215.807 3549
686.55 215.807 3549
695.037 215.807 3549
709.669 217.692 3580
718.23 217.692 3580
726.79 217.692 3580
733.708 217.205 3572
740.795 216.78 3565
745.957 215.807 3549
754.444 215.807 3549
762.931 215.807 3549
769.896 215.381 3542
776.608 214.895 3534
785.059 214.895 3534
791.938 214.469 3527
796.968 213.557 3512
807.201 214.043 3520
817.24 214.469 3527
829.186 215.381 3542
837.656 215.381 3542
847.798 215.807 3549
858.215 216.293 3557
866.721 216.293 3557
875.227 216.293 3557
883.733 216.293 3557
892.238 216.293 3557
902.77 216.78 3565
911.295 216.78 3565
925.755 218.178 3588
936.157 218.604 3595
944.754 218.604 3595
953.351 218.604 3595
961.948 218.604 3595
970.544 218.604 3595
979.141 218.604 3595
987.738 218.604 3595
998.552 219.09 3603
1011.64 220.063 3619
1020.29 220.063 3619
1028.95 220.063 3619
1037.6 220.063 3619
1043.94 219.577 3611
1052.58 219.577 3611
1061.21 219.577 3611
1069.85 219.577 3611
1080.87 220.063 3619
1091.94 220.55 3627
1100.61 220.55 3627
1109.28 220.55 3627
1117.96 220.55 3627
1126.63 220.55 3627
1135.3 220.55 3627
1141.45 220.063 3619
1152.65 220.55 3627
1163.88 221.036 3635
1177.41 221.948 3650
1186.14 221.948 3650
1194.87 221.948 3650
1206.24 222.435 3658
1214.98 222.435 3658
1223.73 222.435 3658
1235.51 222.982 3667
1252.42 224.441 3691
1261.25 224.441 3691
1270.08 224.441 3691
1278.9 224.441 3691
1284.94 223.955 3683
1293.75 223.955 3683
1302.55 223.955 3683
1311.36 223.955 3683
1317.3 223.468 3675
1323.2 222.982 3667
1334.88 223.468 3675
1343.66 223.468 3675
1355.4 223.955 3683
1367.17 224.441 3691
1375.99 224.441 3691
1384.82 224.441 3691
1384.58 222.982 3667
1393.35 222.982 3667
1402.12 222.982 3667
1410.89 222.982 3667
1419.66 222.982 3667
1428.43 222.982 3667
1437.2 222.982 3667
1442.42 222.435 3658
1435.69 220.063 3619
1444.35 220.063 3619
1446.58 219.09 3603
1455.19 219.09 3603
1460.56 218.604 3595
1466.29 218.178 3588
1487.62 220.063 3619
1502.89 221.036 3635
1511.58 221.036 3635
1520.27 221.036 3635
1528.96 221.036 3635
1537.66 221.036 3635
1546.35 221.036 3635
1548.2 220.063 3619
1549.97 219.09 3603
1558.58 219.09 3603
1567.2 219.09 3603
1582.81 220.063 3619
1591.47 220.063 3619
1600.12 220.063 3619
1612.33 220.55 3627
1621 220.55 3627
1643.61 222.435 3658
1656.42 222.982 3667
1665.19 222.982 3667
1673.96 222.982 3667
1682.73 222.982 3667
1687.34 222.435 3658
1696.09 222.435 3658
1701.11 221.948 3650
1709.84 221.948 3650
1707.74 220.55 3627
1716.41 220.55 3627
1721.28 220.063 3619
1715.11 218.178 3588
1719.85 217.692 3580
1728.41 217.692 3580
1733.09 217.205 3572
1741.63 217.205 3572
1746.74 216.78 3565
1743.95 215.381 3542
1752.42 215.381 3542
1760.89 215.381 3542
1769.36 215.381 3542
1766.78 214.043 3520
1775.2 214.043 3520
1771.96 212.645 3497
1780.33 212.645 3497
1763.11 209.604 3447
1774.95 210.03 3454
1783.21 210.03 3454
1791.47 210.03 3454
1803.38 210.456 3461
1823.17 211.793 3483
1835.18 212.219 3490
1843.53 212.219 3490
1863.55 213.557 3512
1876.21 214.043 3520
1884.63 214.043 3520
1893.04 214.043 3520
1909.02 214.895 3534
1921.82 215.381 3542
1938.46 216.293 3557
1946.97 216.293 3557
1972.51 218.178 3588
1989.38 219.09 3603
2006.86 220.063 3619
2015.52 220.063 3619
2037.04 221.462 3642
2068.78 223.955 3683
2109.74 227.421 3740
2118.68 227.421 3740
2146.97 229.488 3774
2155.99 229.488 3774
2165.02 229.488 3774
2174.04 229.488 3774
2163.4 227.421 3740
2192.09 229.488 3774
2201.11 229.488 3774
2210.14 229.488 3774
2229.75 230.583 3792
2238.82 230.583 3792
2247.88 230.583 3792
2256.95 230.583 3792
2266.02 230.583 3792
2269.69 230.036 3783
2258.25 227.968 3749
2267.22 227.968 3749
2265.86 226.935 3732
2274.79 226.935 3732
2294.11 227.968 3749
2303.08 227.968 3749
2312.04 227.968 3749
2321.01 227.968 3749
2329.97 227.968 3749
2338.94 227.968 3749
2337.26 226.935 3732
2351.21 227.421 3740
2360.15 227.421 3740
2369.1 227.421 3740
2372.95 226.935 3732
2381.88 226.935 3732
2385.68 226.448 3724
2394.58 226.448 3724
2408.65 226.935 3732
2417.58 226.935 3732
2431.7 227.421 3740
2440.65 227.421 3740
2449.59 227.421 3740
2458.53 227.421 3740
2456.92 226.448 3724
2460.53 225.962 3716
2469.41 225.962 3716
2472.3 225.414 3707
2481.16 225.414 3707
2479.28 224.441 3691
2493.5 224.928 3699
2507.76 225.414 3707
2516.62 225.414 3707
2547.97 227.421 3740
2563.06 227.968 3749
2583.69 229.002 3766
2592.7 229.002 3766
2601.7 229.002 3766
2587.14 226.935 3732
2596.06 226.935 3732
2604.99 226.935 3732
1980.75 171.964 2828
1987.51 171.964 2828
1994.27 171.964 2828
1990.42 171.052 2813
1997.15 171.052 2813
2003.87 171.052 2813
2000.59 170.201 2799
2003.7 169.897 2794
2010.38 169.897 2794
2010.57 169.35 2785
2013.6 169.046 2780
2020.25 169.046 2780
2037.11 169.897 2794
2047.45 170.201 2799
2054.14 170.201 2799
2064.51 170.505 2804
2074.91 170.809 2809
2084.59 171.052 2813
2091.32 171.052 2813
2098.05 171.052 2813
2108.52 171.356 2818
2119.01 171.66 2823
2125.76 171.66 2823
2132.51 171.66 2823
2139.26 171.66 2823
2149.81 171.964 2828
2156.57 171.964 2828
2163.34 171.964 2828
-2356.98 198.964 3148
-2349.46 198.964 3148
-2333 198.205 3136
-2316.6 197.447 3124
-2309.13 197.447 3124
-2310.5 198.205 3136
-2303.01 198.205 3136
-2295.51 198.205 3136
-2296.76 198.964 3148
-2297.96 199.722 3160
-2290.4 199.722 3160
-2287.18 200.102 3166
-2279.61 200.102 3166
-2272.04 200.102 3166
-2264.47 200.102 3166
-2256.9 200.102 3166
-2253.59 200.481 3172
-2246.01 200.481 3172
-2238.42 200.481 3172
-2230.84 200.481 3172
-2231.66 201.239 3184
-2228.24 201.618 3190
-2220.61 201.618 3190
-2212.98 201.618 3190
-2205.35 201.618 3190
-2210.13 202.756 3208
-2202.45 202.756 3208
-2203.68 203.578 3221
-2195.97 203.578 3221
-2200.5 204.715 3239
-2192.76 204.715 3239
-2197.83 205.916 3258
-2203.48 207.18 3278
-2208.37 208.381 3297
-2200.48 208.381 3297
-2196.59 208.76 3303
-2188.69 208.76 3303
-2180.79 208.76 3303
-2172.9 208.76 3303
-2165 208.76 3303
-2157.1 208.76 3303
-2158.31 209.645 3317
-2150.38 209.645 3317
-2142.45 209.645 3317
-2138.37 210.024 3323
-2143.25 211.288 3343
-2135.26 211.288 3343
-2131.72 211.731 3350
