ply
format ascii 1.0
comment File generated
element vertex 2172
property float x
property float y
property float z
end_header
-1591.77 -20.7421 3310
-1583.86 -20.7421 3310
-1575.94 -20.7421 3310
-1561.87 -20.6606 3297
-1553.99 -20.6606 3297
-1548.92 -20.6982 3303
-1547.55 -20.786 3317
-1539.62 -20.786 3317
-1531.68 -20.786 3317
-1523.75 -20.786 3317
-1515.82 -20.786 3317
-1507.89 -20.786 3317
-1496.79 -20.7421 3310
-1492.03 -20.786 3317
-1489.91 -20.8674 3330
-1481.95 -20.8674 3330
-1473.98 -20.8674 3330
-1462.94 -20.8236 3323
-1454.99 -20.8236 3323
-1447.05 -20.8236 3323
-1436.5 -20.786 3317
-1428.57 -20.786 3317
-1420.64 -20.786 3317
-1412.71 -20.786 3317
-1396.3 -20.6606 3297
-1390.95 -20.6982 3303
-1385.98 -20.7421 3310
-1378.06 -20.7421 3310
-1370.15 -20.7421 3310
-1362.23 -20.7421 3310
-1351.45 -20.6982 3303
-1343.56 -20.6982 3303
-1333.23 -20.6606 3297
-1325.35 -20.6606 3297
-1317.46 -20.6606 3297
-1309.58 -20.6606 3297
-1301.69 -20.6606 3297
-1293.81 -20.6606 3297
-1280.86 -20.5792 3284
-1273 -20.5792 3284
-1257.83 -20.4601 3265
-1250.02 -20.4601 3265
-1242.21 -20.4601 3265
-1234.41 -20.4601 3265
-698.016 -11.6432 1858
-693.573 -11.6432 1858
-687.646 -11.6181 1854
-680.633 -11.5742 1847
-676.216 -11.5742 1847
-670.345 -11.5492 1843
-665.215 -11.5366 1841
-660.812 -11.5366 1841
-656.41 -11.5366 1841
-649.883 -11.499 1835
-645.495 -11.499 1835
-641.107 -11.499 1835
-636.719 -11.499 1835
-630.263 -11.4614 1829
-623.152 -11.4113 1821
-617.438 -11.3862 1817
-613.093 -11.3862 1817
-606.738 -11.3486 1811
-600.411 -11.311 1805
-592.462 -11.2421 1794
-584.238 -11.1669 1782
-579.977 -11.1669 1782
-570.869 -11.0729 1767
-564.399 -11.029 1760
-557.326 -10.9726 1751
-553.139 -10.9726 1751
-546.443 -10.9225 1743
-541.342 -10.9037 1740
-535.329 -10.8661 1734
-531.182 -10.8661 1734
-525.516 -10.8348 1729
-520.175 -10.8097 1725
-515.452 -10.7972 1723
-511.332 -10.7972 1723
-505.74 -10.7658 1718
-500.755 -10.747 1715
-495.496 -10.722 1711
-491.404 -10.722 1711
-486.458 -10.7032 1708
-481.809 -10.6906 1706
-477.17 -10.6781 1704
-472.54 -10.6656 1702
-468.47 -10.6656 1702
-464.127 -10.6593 1701
-459.518 -10.6468 1699
-454.919 -10.6342 1697
-450.861 -10.6342 1697
-446.277 -10.6217 1695
-441.962 -10.6154 1694
-437.912 -10.6154 1694
-433.861 -10.6154 1694
-428.034 -10.5716 1687
-423.497 -10.559 1685
-418.721 -10.5403 1682
-414.699 -10.5403 1682
-410.676 -10.5403 1682
-406.171 -10.5277 1680
-401.675 -10.5152 1678
-397.662 -10.5152 1678
-393.415 -10.5089 1677
-388.94 -10.4964 1675
-384.245 -10.4776 1672
-380.247 -10.4776 1672
-374.674 -10.4337 1665
-370.247 -10.4212 1663
-366.05 -10.4149 1662
-361.64 -10.4024 1660
-357.67 -10.4024 1660
-353.274 -10.3899 1658
-349.099 -10.3836 1657
-345.137 -10.3836 1657
-341.174 -10.3836 1657
-337.212 -10.3836 1657
-333.451 -10.3899 1658
-329.486 -10.3899 1658
-325.521 -10.3899 1658
-321.556 -10.3899 1658
-317.4 -10.3836 1657
-313.437 -10.3836 1657
-309.662 -10.3899 1658
-305.697 -10.3899 1658
-302.096 -10.4024 1660
-298.486 -10.4149 1662
-294.689 -10.4212 1663
-290.712 -10.4212 1663
-287.425 -10.4463 1667
-283.439 -10.4463 1667
-279.62 -10.4525 1668
-275.631 -10.4525 1668
-271.968 -10.4651 1670
-268.456 -10.4839 1673
-264.456 -10.4839 1673
-260.455 -10.4839 1673
-256.454 -10.4839 1673
-252.454 -10.4839 1673
-248.453 -10.4839 1673
-244.306 -10.4776 1672
-240.308 -10.4776 1672
-236.451 -10.4839 1673
-232.45 -10.4839 1673
-228.45 -10.4839 1673
-224.986 -10.5089 1677
-221.107 -10.5152 1678
-217.353 -10.5277 1680
-213.717 -10.5465 1683
-209.692 -10.5465 1683
-206.157 -10.5716 1687
-202.482 -10.5904 1690
-198.441 -10.5904 1690
-194.399 -10.5904 1690
-190.921 -10.6217 1695
-187.088 -10.6342 1697
-183.03 -10.6342 1697
-178.972 -10.6342 1697
-175.327 -10.6593 1701
-171.36 -10.6656 1702
-167.486 -10.6781 1704
-163.412 -10.6781 1704
-159.524 -10.6906 1706
-155.718 -10.7094 1709
-151.631 -10.7094 1709
-147.544 -10.7094 1709
-143.457 -10.7094 1709
-139.371 -10.7094 1709
-135.284 -10.7094 1709
-131.197 -10.7094 1709
-127.11 -10.7094 1709
-123.024 -10.7094 1709
-118.937 -10.7094 1709
-114.85 -10.7094 1709
-110.763 -10.7094 1709
-106.802 -10.722 1711
-102.71 -10.722 1711
-98.6185 -10.722 1711
-94.748 -10.747 1715
-90.6997 -10.7533 1716
-86.6972 -10.7658 1718
-82.5889 -10.7658 1718
-78.572 -10.7784 1720
-74.5456 -10.7909 1722
-70.4687 -10.7972 1723
-66.3484 -10.7972 1723
-62.3005 -10.8097 1725
-58.1755 -10.8097 1725
-54.1131 -10.8222 1727
-49.9833 -10.8222 1727
-45.8536 -10.8222 1727
-41.7721 -10.8348 1729
-37.6375 -10.8348 1729
-33.5611 -10.8536 1732
-29.4194 -10.8536 1732
-25.336 -10.8786 1736
-21.2091 -10.8912 1738
-17.0727 -10.9037 1740
-12.9118 -10.9037 1740
-8.75093 -10.9037 1740
-4.59006 -10.9037 1740
-0.429191 -10.9037 1740
42.5653 -22.7787 3635
51.582 -22.9229 3658
60.3294 -22.9229 3658
69.7 -23.1296 3691
78.6965 -23.1798 3699
87.7312 -23.2299 3707
96.5958 -23.2299 3707
105.46 -23.2299 3707
114.325 -23.2299 3707
123.189 -23.2299 3707
132.054 -23.2299 3707
140.919 -23.2299 3707
149.783 -23.2299 3707
158.648 -23.2299 3707
167.151 -23.1798 3699
175.616 -23.1296 3691
184.042 -23.0795 3683
192.849 -23.0795 3683
199.85 -22.8727 3650
208.121 -22.8226 3642
216.83 -22.8226 3642
225.105 -22.7787 3635
233.798 -22.7787 3635
242.49 -22.7787 3635
251.666 -22.8226 3642
261.519 -22.9229 3658
271.523 -23.0294 3675
280.311 -23.0294 3675
289.728 -23.0795 3683
299.184 -23.1296 3691
310.764 -23.3364 3724
319.669 -23.3364 3724
328.574 -23.3364 3724
337.48 -23.3364 3724
346.385 -23.3364 3724
355.29 -23.3364 3724
364.978 -23.3866 3732
373.902 -23.3866 3732
382.826 -23.3866 3732
391.751 -23.3866 3732
400.675 -23.3866 3732
407.843 -23.2863 3716
416.729 -23.2863 3716
424.585 -23.2299 3707
431.578 -23.1296 3691
438.495 -23.0294 3675
447.284 -23.0294 3675
453.962 -22.9229 3658
461.697 -22.8727 3650
468.492 -22.7787 3635
474.034 -22.6283 3611
482.669 -22.6283 3611
490.216 -22.5782 3603
496.755 -22.4842 3588
500.969 -22.2899 3557
509.475 -22.2899 3557
514.631 -22.1458 3534
522.046 -22.1019 3527
529.427 -22.0581 3520
537.844 -22.0581 3520
543.934 -21.9641 3505
552.316 -21.9641 3505
560.697 -21.9641 3505
569.079 -21.9641 3505
579.931 -22.0581 3520
588.349 -22.0581 3520
596.766 -22.0581 3520
605.184 -22.0581 3520
613.601 -22.0581 3520
622.018 -22.0581 3520
635.63 -22.2398 3549
644.116 -22.2398 3549
655.545 -22.3401 3565
664.07 -22.3401 3565
682.783 -22.6785 3619
692.966 -22.7286 3627
706.088 -22.8727 3650
714.817 -22.8727 3650
725.131 -22.9229 3658
733.878 -22.9229 3658
742.626 -22.9229 3658
751.373 -22.9229 3658
758.458 -22.8727 3650
762.352 -22.7286 3627
774.214 -22.8226 3642
782.923 -22.8226 3642
795.11 -22.9229 3658
809.351 -23.0795 3683
819.935 -23.1296 3691
828.762 -23.1296 3691
839.403 -23.1798 3699
848.249 -23.1798 3699
857.094 -23.1798 3699
864.067 -23.1296 3691
1443.36 -22.5281 3595
1451.96 -22.5281 3595
1460.56 -22.5281 3595
1459.76 -22.3839 3572
1455.97 -22.1959 3542
1464.44 -22.1959 3542
1442.13 -21.7322 3468
1427.01 -21.3813 3412
1426.33 -21.2497 3391
1434.44 -21.2497 3391
1445.53 -21.2936 3398
1453.65 -21.2936 3398
1467.8 -21.3813 3412
1482.02 -21.469 3426
1490.21 -21.469 3426
1498.4 -21.469 3426
1506.59 -21.469 3426
1520.98 -21.5568 3440
1529.2 -21.5568 3440
1537.43 -21.5568 3440
1545.66 -21.5568 3440
1553.88 -21.5568 3440
1562.11 -21.5568 3440
1567.14 -21.5129 3433
1568.92 -21.4252 3419
1593.24 -21.6445 3454
1607.99 -21.7322 3468
1616.29 -21.7322 3468
1634.89 -21.8701 3490
1643.23 -21.8701 3490
1651.58 -21.8701 3490
1659.92 -21.8701 3490
1647.71 -21.6006 3447
1679.98 -21.9139 3497
1692.2 -21.9641 3505
1700.58 -21.9641 3505
1708.96 -21.9641 3505
1717.35 -21.9641 3505
2359.51 -24.2576 3871
2368.77 -24.2576 3871
2378.03 -24.2576 3871
2376.18 -24.1448 3853
2368.68 -23.9756 3826
2356.7 -23.7626 3792
2365.77 -23.7626 3792
2342.27 -23.4367 3740
2330.47 -23.2299 3707
2339.33 -23.2299 3707
2348.19 -23.2299 3707
2357.06 -23.2299 3707
2365.92 -23.2299 3707
2374.79 -23.2299 3707
2389.44 -23.2863 3716
2398.33 -23.2863 3716
2407.21 -23.2863 3716
2405.04 -23.1798 3699
1815.63 -17.3081 2762
1828.18 -17.3645 2771
1834.8 -17.3645 2771
1841.43 -17.3645 2771
1845.39 -17.3394 2767
1852 -17.3394 2767
1855.26 -17.3081 2762
1855.8 -17.2517 2753
1852.91 -17.1639 2739
1871.68 -17.2767 2757
1885.09 -17.3394 2767
1891.7 -17.3394 2767
1898.32 -17.3394 2767
1917.33 -17.4522 2785
1927.44 -17.4835 2790
1934.12 -17.4835 2790
1943.57 -17.5086 2794
1957.23 -17.5713 2804
1967.44 -17.6026 2809
1974.16 -17.6026 2809
1987.22 -17.659 2818
2003.86 -17.7467 2832
2014.19 -17.7781 2837
2020.97 -17.7781 2837
2027.75 -17.7781 2837
2038.12 -17.8094 2842
2052.12 -17.8721 2852
2058.94 -17.8721 2852
2073 -17.9347 2862
2086.38 -17.9911 2871
2093.25 -17.9911 2871
2107.43 -18.0538 2881
2114.32 -18.0538 2881
2128.57 -18.1164 2891
2146.56 -18.2104 2906
2157.22 -18.2418 2911
2164.18 -18.2418 2911
2183.07 -18.342 2927
2225.24 -18.6366 2974
2236.1 -18.6679 2979
2243.23 -18.6679 2979
2274.52 -18.8684 3011
2315.07 -19.1442 3055
2335.3 -19.2507 3072
2342.64 -19.2507 3072
2349.99 -19.2507 3072
-2640.75 -13.653 3527
-2632.32 -13.653 3527
-2612.72 -13.5949 3512
-2599.14 -13.5678 3505
-2590.75 -13.5678 3505
-2576.48 -13.5369 3497
-2568.12 -13.5369 3497
-2554.63 -13.5098 3490
-2546.28 -13.5098 3490
-2532.85 -13.4827 3483
-2508.57 -13.3975 3461
-2505.35 -13.4246 3468
-2497.06 -13.4246 3468
-2488.77 -13.4246 3468
-2480.47 -13.4246 3468
-2467.19 -13.3975 3461
-2458.91 -13.3975 3461
-2440.73 -13.3433 3447
-2432.48 -13.3433 3447
-2429.16 -13.3704 3454
-2430.72 -13.4246 3468
-2432.9 -13.4827 3483
-2424.57 -13.4827 3483
-2425.95 -13.5369 3497
-2427.96 -13.5949 3512
-2419.56 -13.5949 3512
-2416.66 -13.6259 3520
-2408.24 -13.6259 3520
-2399.82 -13.6259 3520
-2400.92 -13.6801 3534
-2392.47 -13.6801 3534
-2389.41 -13.711 3542
-2380.94 -13.711 3542
-2377.16 -13.7381 3549
-2368.67 -13.7381 3549
-2370.83 -13.8001 3565
-2366.94 -13.8272 3572
-2363.68 -13.8581 3580
-2355.12 -13.8581 3580
-2351.8 -13.8891 3588
-2343.22 -13.8891 3588
-2334.64 -13.8891 3588
-2326.06 -13.8891 3588
-2317.48 -13.8891 3588
-2308.9 -13.8891 3588
-2300.32 -13.8891 3588
-2291.74 -13.8891 3588
-2283.16 -13.8891 3588
-2279.02 -13.9162 3595
-2275.48 -13.9472 3603
-2266.86 -13.9472 3603
-2268.27 -14.0091 3619
-2264.61 -14.0401 3627
-2255.94 -14.0401 3627
-2247.27 -14.0401 3627
-2238.59 -14.0401 3627
-2229.92 -14.0401 3627
-2221.25 -14.0401 3627
-2207.69 -14.0091 3619
-2194.18 -13.9781 3611
-2180.7 -13.9472 3603
-2172.09 -13.9472 3603
-2163.47 -13.9472 3603
-2164.42 -14.0091 3619
-2165.3 -14.071 3635
-2160.76 -14.0981 3642
-2152.05 -14.0981 3642
-2158.06 -14.1949 3667
-2149.29 -14.1949 3667
-2140.52 -14.1949 3667
-2131.75 -14.1949 3667
-2113.14 -14.1291 3650
-2095.76 -14.071 3635
-2087.07 -14.071 3635
-2078.38 -14.071 3635
-2051.46 -13.9472 3603
-2012.23 -13.7381 3549
-2003.74 -13.7381 3549
-1982.89 -13.653 3527
-1953.74 -13.5098 3490
-1933.13 -13.4246 3468
-1924.84 -13.4246 3468
-1881.73 -13.1807 3405
-1850.48 -13.0181 3363
-1831.48 -12.9407 3343
-1816.39 -12.8904 3330
-1808.43 -12.8904 3330
-1793.44 -12.8401 3317
-1767.74 -12.7123 3284
-1752.92 -12.662 3271
-1745.1 -12.662 3271
-1734.09 -12.6388 3265
-1722.58 -12.6117 3258
-1711.64 -12.5885 3252
-1703.86 -12.5885 3252
-1692.95 -12.5652 3246
-1681.56 -12.5381 3239
-1680.53 -12.5885 3252
-1672.75 -12.5885 3252
-1664.98 -12.5885 3252
-1660.26 -12.6117 3258
-1652.47 -12.6117 3258
-1644.68 -12.6117 3258
-1636.89 -12.6117 3258
-1632.59 -12.6388 3265
-1627.77 -12.662 3271
-1626.39 -12.7123 3284
-1618.54 -12.7123 3284
-1613.63 -12.7356 3290
-1609.18 -12.7627 3297
-1607.6 -12.813 3310
-1599.69 -12.813 3310
-1591.77 -12.813 3310
-1583.86 -12.813 3310
-1575.94 -12.813 3310
-1568.03 -12.813 3310
-1553.99 -12.7627 3297
-1552.2 -12.813 3310
-1547.55 -12.8401 3317
-1539.62 -12.8401 3317
-1531.68 -12.8401 3317
-1526.51 -12.8633 3323
-1518.56 -12.8633 3323
-1510.62 -12.8633 3323
-1505.84 -12.8904 3330
-1497.87 -12.8904 3330
-1495.73 -12.9407 3343
-1487.73 -12.9407 3343
-1479.74 -12.9407 3343
-1471.74 -12.9407 3343
-1463.75 -12.9407 3343
-1453.14 -12.9175 3337
-1439.1 -12.8633 3323
-1431.15 -12.8633 3323
-1423.21 -12.8633 3323
-1412.71 -12.8401 3317
-1398.84 -12.7859 3303
-1393.89 -12.813 3310
-1388.91 -12.8401 3317
-1380.98 -12.8401 3317
-1373.05 -12.8401 3317
-1362.23 -12.813 3310
-1351.45 -12.7859 3303
-1343.56 -12.7859 3303
-1333.23 -12.7627 3297
-1325.35 -12.7627 3297
-1317.46 -12.7627 3297
-1309.58 -12.7627 3297
-1301.69 -12.7627 3297
-1293.81 -12.7627 3297
-1278.52 -12.6891 3278
-1270.68 -12.6891 3278
-1252.82 -12.5885 3252
-1237.77 -12.5149 3233
-1230.04 -12.5149 3233
-1222.31 -12.5149 3233
-698.016 -7.1923 1858
-693.573 -7.1923 1858
-689.13 -7.1923 1858
-680.633 -7.14972 1847
-676.216 -7.14972 1847
-671.072 -7.14198 1845
-665.938 -7.13423 1843
-660.812 -7.12649 1841
-656.41 -7.12649 1841
-650.591 -7.11101 1837
-645.495 -7.10327 1835
-641.107 -7.10327 1835
-636.719 -7.10327 1835
-630.263 -7.08004 1829
-623.152 -7.04907 1821
-617.438 -7.03359 1817
-613.093 -7.03359 1817
-606.738 -7.01036 1811
-600.411 -6.98714 1805
-591.802 -6.93681 1792
-584.238 -6.8981 1782
-579.977 -6.8981 1782
-570.869 -6.84004 1767
-564.399 -6.81294 1760
-557.326 -6.7781 1751
-553.139 -6.7781 1751
-545.816 -6.73939 1741
-540.72 -6.72778 1738
-534.711 -6.70455 1732
-530.57 -6.70455 1732
-525.516 -6.69294 1729
-519.572 -6.66971 1723
-515.153 -6.66584 1722
-511.035 -6.66584 1722
-505.74 -6.65036 1718
-500.755 -6.63875 1715
-495.496 -6.62326 1711
-491.404 -6.62326 1711
-486.458 -6.61165 1708
-481.809 -6.60391 1706
-477.17 -6.59617 1704
-472.54 -6.58842 1702
-468.47 -6.58842 1702
-464.127 -6.58455 1701
-459.518 -6.57681 1699
-454.919 -6.56907 1697
-450.861 -6.56907 1697
-446.277 -6.56133 1695
-441.962 -6.55746 1694
-437.912 -6.55746 1694
-433.861 -6.55746 1694
-427.526 -6.52262 1685
-423.497 -6.52262 1685
-418.721 -6.511 1682
-414.699 -6.511 1682
-410.188 -6.50326 1680
-406.171 -6.50326 1680
-401.675 -6.49552 1678
-397.662 -6.49552 1678
-392.946 -6.48391 1675
-388.476 -6.47617 1673
-383.786 -6.46455 1670
-379.792 -6.46455 1670
-374.674 -6.4452 1665
-370.024 -6.43358 1662
-365.609 -6.42584 1660
-361.204 -6.4181 1658
-357.239 -6.4181 1658
-353.274 -6.4181 1658
-349.099 -6.41423 1657
-345.137 -6.41423 1657
-341.38 -6.4181 1658
-337.415 -6.4181 1658
-333.451 -6.4181 1658
-329.486 -6.4181 1658
-325.521 -6.4181 1658
-321.556 -6.4181 1658
-317.591 -6.4181 1658
-313.437 -6.41423 1657
-310.035 -6.42584 1660
-306.066 -6.42584 1660
-302.096 -6.42584 1660
-298.486 -6.43358 1662
-295.043 -6.4452 1665
-291.062 -6.4452 1665
-287.425 -6.45294 1667
-283.609 -6.45681 1668
-279.62 -6.45681 1668
-275.631 -6.45681 1668
-271.968 -6.46455 1670
-268.456 -6.47617 1673
-264.456 -6.47617 1673
-260.455 -6.47617 1673
-256.454 -6.47617 1673
-252.454 -6.47617 1673
-248.453 -6.47617 1673
-244.306 -6.47229 1672
-240.308 -6.47229 1672
-236.451 -6.47617 1673
-232.45 -6.47617 1673
-228.45 -6.47617 1673
-224.717 -6.48391 1675
-221.107 -6.49552 1678
-217.353 -6.50326 1680
-213.717 -6.51488 1683
-209.692 -6.51488 1683
-206.157 -6.53036 1687
-202.482 -6.54197 1690
-198.676 -6.54971 1692
-194.629 -6.54971 1692
-190.921 -6.56133 1695
-187.088 -6.56907 1697
-183.03 -6.56907 1697
-178.972 -6.56907 1697
-175.327 -6.58455 1701
-171.36 -6.58842 1702
-167.29 -6.58842 1702
-163.22 -6.58842 1702
-159.337 -6.59617 1704
-155.626 -6.61165 1708
-151.631 -6.61552 1709
-147.544 -6.61552 1709
-143.457 -6.61552 1709
-139.371 -6.61552 1709
-135.284 -6.61552 1709
-131.197 -6.61552 1709
-127.11 -6.61552 1709
-123.024 -6.61552 1709
-118.937 -6.61552 1709
-114.783 -6.61165 1708
-110.699 -6.61165 1708
-106.677 -6.61552 1709
-102.71 -6.62326 1711
-98.6185 -6.62326 1711
-94.6375 -6.63101 1713
-90.6997 -6.64262 1716
-86.6972 -6.65036 1718
-82.5889 -6.65036 1718
-78.4807 -6.65036 1718
-74.459 -6.6581 1720
-70.4278 -6.66584 1722
-66.3099 -6.66584 1722
-62.2282 -6.66971 1723
-58.108 -6.66971 1723
-54.0505 -6.67746 1725
-49.9833 -6.6852 1727
-45.8536 -6.6852 1727
-41.7238 -6.6852 1727
-37.594 -6.6852 1727
-33.503 -6.69294 1729
-29.3684 -6.69294 1729
-25.2776 -6.70455 1732
-21.1847 -6.72004 1736
-17.0727 -6.73552 1740
-12.9118 -6.73552 1740
-8.75093 -6.73552 1740
-4.59006 -6.73552 1740
-0.429191 -6.73552 1740
42.5653 -14.071 3635
51.582 -14.1601 3658
60.3294 -14.1601 3658
69.3978 -14.2259 3675
78.6965 -14.3188 3699
87.7312 -14.3498 3707
96.5958 -14.3498 3707
105.46 -14.3498 3707
114.325 -14.3498 3707
123.189 -14.3498 3707
132.054 -14.3498 3707
140.919 -14.3498 3707
149.783 -14.3498 3707
158.648 -14.3498 3707
166.789 -14.2878 3691
175.616 -14.2878 3691
183.243 -14.1949 3667
192.011 -14.1949 3667
199.85 -14.1291 3650
208.121 -14.0981 3642
216.83 -14.0981 3642
225.105 -14.071 3635
233.798 -14.071 3635
242.49 -14.071 3635
252.219 -14.1291 3650
262.735 -14.2259 3675
271.523 -14.2259 3675
280.311 -14.2259 3675
289.728 -14.2569 3683
298.535 -14.2569 3683
310.096 -14.3846 3716
318.982 -14.3846 3716
328.574 -14.4156 3724
337.48 -14.4156 3724
346.385 -14.4156 3724
355.29 -14.4156 3724
364.195 -14.4156 3724
373.1 -14.4156 3724
382.006 -14.4156 3724
390.071 -14.3846 3716
398.957 -14.3846 3716
407.843 -14.3846 3716
416.729 -14.3846 3716
424.585 -14.3498 3707
430.643 -14.2569 3683
437.541 -14.1949 3667
446.31 -14.1949 3667
452.969 -14.1291 3650
460.685 -14.0981 3642
465.399 -13.9781 3611
472.984 -13.9472 3603
481.6 -13.9472 3603
488.175 -13.8891 3588
495.647 -13.8581 3580
500.969 -13.7691 3557
509.475 -13.7691 3557
514.631 -13.6801 3534
521.01 -13.6259 3520
528.224 -13.5949 3512
536.622 -13.5949 3512
542.693 -13.5369 3497
551.055 -13.5369 3497
559.417 -13.5369 3497
567.78 -13.5369 3497
577.46 -13.5678 3505
585.842 -13.5678 3505
595.41 -13.5949 3512
603.808 -13.5949 3512
613.601 -13.6259 3520
622.018 -13.6259 3520
635.63 -13.7381 3549
644.116 -13.7381 3549
655.545 -13.8001 3565
664.07 -13.8001 3565
681.274 -13.9781 3611
692.966 -14.0401 3627
704.541 -14.0981 3642
713.25 -14.0981 3642
723.545 -14.1291 3650
732.273 -14.1291 3650
741.001 -14.1291 3650
749.73 -14.1291 3650
755.341 -14.071 3635
762.352 -14.0401 3627
774.214 -14.0981 3642
782.923 -14.0981 3642
795.11 -14.1601 3658
811.109 -14.2878 3691
819.935 -14.2878 3691
828.762 -14.2878 3691
837.588 -14.2878 3691
846.414 -14.2878 3691
855.241 -14.2878 3691
864.067 -14.2878 3691
1446.58 -13.9472 3603
1455.19 -13.9472 3603
1463.81 -13.9472 3603
1469.15 -13.9162 3595
1465.42 -13.8001 3565
1473.94 -13.8001 3565
1454.19 -13.5369 3497
1447.5 -13.3975 3461
1446.94 -13.3162 3440
1455.17 -13.3162 3440
1463.39 -13.3162 3440
1471.62 -13.3162 3440
1476.84 -13.2891 3433
1494.13 -13.3704 3454
1502.39 -13.3704 3454
1510.65 -13.3704 3454
1518.91 -13.3704 3454
1527.17 -13.3704 3454
1535.43 -13.3704 3454
1543.69 -13.3704 3454
1551.95 -13.3704 3454
1557.04 -13.3433 3447
1565.29 -13.3433 3447
1567.14 -13.2891 3433
1572.14 -13.262 3426
1596.47 -13.3975 3461
1618.19 -13.5098 3490
1626.54 -13.5098 3490
1634.89 -13.5098 3490
1643.23 -13.5098 3490
1651.58 -13.5098 3490
1659.92 -13.5098 3490
1668.27 -13.5098 3490
1683.82 -13.5678 3505
1695.58 -13.5949 3512
1703.98 -13.5949 3512
1712.38 -13.5949 3512
1717.35 -13.5678 3505
2341.23 -14.8104 3826
2350.38 -14.8104 3826
2359.53 -14.8104 3826
2347.63 -14.6788 3792
2329.97 -14.5123 3749
2338.94 -14.5123 3749
2327.24 -14.3846 3716
2325.44 -14.3188 3699
2334.28 -14.3188 3699
2343.13 -14.3188 3699
2351.97 -14.3188 3699
2360.82 -14.3188 3699
2369.66 -14.3188 3699
2389.44 -14.3846 3716
2398.33 -14.3846 3716
2407.21 -14.3846 3716
2405.04 -14.3188 3699
2361.68 -14.0091 3619
2370.34 -14.0091 3619
1818.94 -10.6723 2757
1825.53 -10.6723 2757
1832.12 -10.6723 2757
1838.72 -10.6723 2757
1845.31 -10.6723 2757
1849.22 -10.6568 2753
1837.6 -10.5523 2726
1844.12 -10.5523 2726
1862.86 -10.622 2744
1878.27 -10.6723 2757
1884.87 -10.6723 2757
1891.46 -10.6723 2757
1904.94 -10.711 2767
1923.99 -10.7807 2785
1930.65 -10.7807 2785
1940.79 -10.8001 2790
1950.25 -10.8155 2794
1963.94 -10.8543 2804
1970.64 -10.8543 2804
1987.22 -10.9084 2818
2003.86 -10.9626 2832
2010.64 -10.9626 2832
2017.41 -10.9626 2832
2027.75 -10.982 2837
2038.12 -11.0014 2842
2052.12 -11.0401 2852
2058.94 -11.0401 2852
2069.38 -11.0594 2857
2086.38 -11.1136 2871
2093.25 -11.1136 2871
2100.11 -11.1136 2871
2106.98 -11.1136 2871
2128.57 -11.191 2891
2142.87 -11.2297 2901
2153.51 -11.2491 2906
2160.46 -11.2491 2906
2171.14 -11.2685 2911
2190.07 -11.3304 2927
2236.1 -11.5317 2979
2243.23 -11.5317 2979
2274.52 -11.6556 3011
2315.07 -11.8259 3055
2335.3 -11.8917 3072
2342.64 -11.8917 3072
2349.99 -11.8917 3072
-2640.75 -5.20402 3527
-2632.32 -5.20402 3527
-2612.72 -5.18189 3512
-2599.14 -5.17156 3505
-2590.75 -5.17156 3505
-2576.48 -5.15976 3497
-2568.12 -5.15976 3497
-2554.63 -5.14943 3490
-2546.28 -5.14943 3490
-2532.85 -5.1391 3483
-2508.57 -5.10664 3461
-2505.35 -5.11697 3468
-2497.06 -5.11697 3468
-2488.77 -5.11697 3468
-2480.47 -5.11697 3468
-2467.19 -5.10664 3461
-2458.91 -5.10664 3461
-2440.73 -5.08598 3447
-2432.48 -5.08598 3447
-2429.16 -5.09631 3454
-2430.72 -5.11697 3468
-2432.9 -5.1391 3483
-2424.57 -5.1391 3483
-2425.95 -5.15976 3497
-2427.96 -5.18189 3512
-2419.56 -5.18189 3512
-2416.66 -5.19369 3520
-2408.24 -5.19369 3520
-2399.82 -5.19369 3520
-2400.92 -5.21435 3534
-2392.47 -5.21435 3534
-2389.41 -5.22615 3542
-2380.94 -5.22615 3542
-2377.16 -5.23648 3549
-2368.67 -5.23648 3549
-2370.83 -5.26009 3565
-2366.94 -5.27042 3572
-2363.68 -5.28222 3580
-2355.12 -5.28222 3580
-2351.8 -5.29402 3588
-2343.22 -5.29402 3588
-2334.64 -5.29402 3588
-2326.06 -5.29402 3588
-2317.48 -5.29402 3588
-2308.9 -5.29402 3588
-2300.32 -5.29402 3588
-2291.74 -5.29402 3588
-2283.16 -5.29402 3588
-2279.02 -5.30435 3595
-2275.48 -5.31616 3603
-2266.86 -5.31616 3603
-2268.27 -5.33977 3619
-2264.61 -5.35157 3627
-2255.94 -5.35157 3627
-2247.27 -5.35157 3627
-2238.59 -5.35157 3627
-2229.92 -5.35157 3627
-2221.25 -5.35157 3627
-2207.69 -5.33977 3619
-2194.18 -5.32796 3611
-2180.7 -5.31616 3603
-2172.09 -5.31616 3603
-2163.47 -5.31616 3603
-2164.42 -5.33977 3619
-2165.3 -5.36337 3635
-2160.76 -5.3737 3642
-2152.05 -5.3737 3642
-2158.06 -5.41059 3667
-2149.29 -5.41059 3667
-2140.52 -5.41059 3667
-2131.75 -5.41059 3667
-2113.14 -5.3855 3650
-2095.76 -5.36337 3635
-2087.07 -5.36337 3635
-2078.38 -5.36337 3635
-2051.46 -5.31616 3603
-2012.23 -5.23648 3549
-2003.74 -5.23648 3549
-1982.89 -5.20402 3527
-1953.74 -5.14943 3490
-1933.13 -5.11697 3468
-1924.84 -5.11697 3468
-1881.73 -5.02401 3405
-1850.48 -4.96204 3363
-1831.48 -4.93253 3343
-1816.39 -4.91335 3330
-1808.43 -4.91335 3330
-1793.44 -4.89417 3317
-1767.74 -4.84548 3284
-1752.92 -4.8263 3271
-1745.1 -4.8263 3271
-1734.09 -4.81744 3265
-1722.58 -4.80712 3258
-1714.79 -4.80712 3258
-1707 -4.80712 3258
-1696.08 -4.79826 3252
-1685.19 -4.78941 3246
-1680.53 -4.79826 3252
-1675.84 -4.80712 3258
-1668.05 -4.80712 3258
-1663.83 -4.81744 3265
-1656.02 -4.81744 3265
-1651.24 -4.8263 3271
-1643.42 -4.8263 3271
-1635.59 -4.8263 3271
-1634.24 -4.84548 3284
-1629.36 -4.85433 3290
-1621.49 -4.85433 3290
-1617.06 -4.86466 3297
-1615.52 -4.88384 3310
-1611 -4.89417 3317
-1603.07 -4.89417 3317
-1598.03 -4.90302 3323
-1590.08 -4.90302 3323
-1582.13 -4.90302 3323
-1568.03 -4.88384 3310
-1553.99 -4.86466 3297
-1555.48 -4.89417 3317
-1550.35 -4.90302 3323
-1542.4 -4.90302 3323
-1537.69 -4.91335 3330
-1532.94 -4.92368 3337
-1527.7 -4.93253 3343
-1519.71 -4.93253 3343
-1511.71 -4.93253 3343
-1503.72 -4.93253 3343
-1495.73 -4.93253 3343
-1487.73 -4.93253 3343
-1479.74 -4.93253 3343
-1471.74 -4.93253 3343
-1463.75 -4.93253 3343
-1455.76 -4.93253 3343
-1445.16 -4.92368 3337
-1437.18 -4.92368 3337
-1429.2 -4.92368 3337
-1415.26 -4.90302 3323
-1398.84 -4.87351 3303
-1396.84 -4.89417 3317
-1388.91 -4.89417 3317
-1380.98 -4.89417 3317
-1373.05 -4.89417 3317
-1365.11 -4.89417 3317
-1354.32 -4.88384 3310
-1346.4 -4.88384 3310
-1335.66 -4.87351 3303
-1327.76 -4.87351 3303
-1319.86 -4.87351 3303
-1311.96 -4.87351 3303
-1304.06 -4.87351 3303
-1293.81 -4.86466 3297
-1280.86 -4.84548 3284
-1273 -4.84548 3284
-1255.13 -4.80712 3258
-1245.04 -4.79826 3252
-1230.04 -4.77023 3233
-1222.31 -4.77023 3233
-698.016 -2.74144 1858
-693.573 -2.74144 1858
-689.13 -2.74144 1858
-680.633 -2.72521 1847
-676.216 -2.72521 1847
-671.072 -2.72226 1845
-666.66 -2.72226 1845
-660.812 -2.71636 1841
-656.41 -2.71636 1841
-650.591 -2.71046 1837
-645.495 -2.70751 1835
-641.107 -2.70751 1835
-636.719 -2.70751 1835
-630.263 -2.69865 1829
-623.152 -2.68685 1821
-617.438 -2.68095 1817
-613.093 -2.68095 1817
-606.738 -2.6721 1811
-600.411 -2.66324 1805
-591.802 -2.64406 1792
-584.238 -2.62931 1782
-579.977 -2.62931 1782
-570.869 -2.60717 1767
-564.399 -2.59685 1760
-557.326 -2.58357 1751
-553.139 -2.58357 1751
-545.816 -2.56881 1741
-540.72 -2.56439 1738
-534.711 -2.55553 1732
-530.57 -2.55553 1732
-525.516 -2.55111 1729
-519.572 -2.54225 1723
-515.153 -2.54078 1722
-511.035 -2.54078 1722
-505.74 -2.53488 1718
-500.755 -2.53045 1715
-495.496 -2.52455 1711
-491.404 -2.52455 1711
-486.458 -2.52012 1708
-481.809 -2.51717 1706
-477.17 -2.51422 1704
-472.54 -2.51127 1702
-468.47 -2.51127 1702
-464.127 -2.50979 1701
-459.518 -2.50684 1699
-454.919 -2.50389 1697
-450.861 -2.50389 1697
-446.277 -2.50094 1695
-441.962 -2.49946 1694
-437.912 -2.49946 1694
-433.861 -2.49946 1694
-428.034 -2.48914 1687
-423.497 -2.48619 1685
-418.721 -2.48176 1682
-414.699 -2.48176 1682
-410.188 -2.47881 1680
-406.171 -2.47881 1680
-401.675 -2.47586 1678
-397.662 -2.47586 1678
-392.946 -2.47143 1675
-388.476 -2.46848 1673
-383.786 -2.46405 1670
-379.792 -2.46405 1670
-374.674 -2.45668 1665
-370.024 -2.45225 1662
-365.609 -2.4493 1660
-361.204 -2.44635 1658
-357.239 -2.44635 1658
-353.274 -2.44635 1658
-349.099 -2.44487 1657
-345.137 -2.44487 1657
-341.38 -2.44635 1658
-337.415 -2.44635 1658
-333.853 -2.4493 1660
-329.883 -2.4493 1660
-325.914 -2.4493 1660
-321.944 -2.4493 1660
-317.591 -2.44635 1658
-313.437 -2.44487 1657
-310.035 -2.4493 1660
-306.066 -2.4493 1660
-302.096 -2.4493 1660
-298.486 -2.45225 1662
-295.043 -2.45668 1665
-291.062 -2.45668 1665
-287.425 -2.45963 1667
-283.609 -2.4611 1668
-279.955 -2.46405 1670
-275.962 -2.46405 1670
-272.294 -2.467 1672
-268.456 -2.46848 1673
-264.456 -2.46848 1673
-260.455 -2.46848 1673
-256.454 -2.46848 1673
-252.454 -2.46848 1673
-248.453 -2.46848 1673
-244.452 -2.46848 1673
-240.452 -2.46848 1673
-236.451 -2.46848 1673
-232.45 -2.46848 1673
-228.45 -2.46848 1673
-224.717 -2.47143 1675
-221.107 -2.47586 1678
-217.353 -2.47881 1680
-213.717 -2.48323 1683
-209.692 -2.48323 1683
-206.401 -2.49209 1689
-202.482 -2.49356 1690
-198.676 -2.49651 1692
-194.629 -2.49651 1692
-190.921 -2.50094 1695
-187.088 -2.50389 1697
-183.03 -2.50389 1697
-178.972 -2.50389 1697
-175.327 -2.50979 1701
-171.36 -2.51127 1702
-167.29 -2.51127 1702
-163.22 -2.51127 1702
-159.337 -2.51422 1704
-155.626 -2.52012 1708
-151.631 -2.5216 1709
-147.544 -2.5216 1709
-143.457 -2.5216 1709
-139.371 -2.5216 1709
-135.284 -2.5216 1709
-131.197 -2.5216 1709
-127.11 -2.5216 1709
-123.024 -2.5216 1709
-118.937 -2.5216 1709
-114.783 -2.52012 1708
-110.699 -2.52012 1708
-106.677 -2.5216 1709
-102.71 -2.52455 1711
-98.6185 -2.52455 1711
-94.6375 -2.5275 1713
-90.6997 -2.53192 1716
-86.6972 -2.53488 1718
-82.5889 -2.53488 1718
-78.4807 -2.53488 1718
-74.459 -2.53783 1720
-70.4278 -2.54078 1722
-66.3099 -2.54078 1722
-62.2282 -2.54225 1723
-58.108 -2.54225 1723
-54.0505 -2.5452 1725
-49.9833 -2.54816 1727
-45.8536 -2.54816 1727
-41.7238 -2.54816 1727
-37.594 -2.54816 1727
-33.503 -2.55111 1729
-29.3684 -2.55111 1729
-25.2776 -2.55553 1732
-21.1847 -2.56143 1736
-17.0727 -2.56734 1740
-12.9118 -2.56734 1740
-8.75093 -2.56734 1740
-4.59006 -2.56734 1740
-0.429191 -2.56734 1740
42.5653 -5.36337 3635
51.582 -5.39731 3658
60.3294 -5.39731 3658
69.3978 -5.42239 3675
78.6965 -5.4578 3699
87.7312 -5.46961 3707
96.5958 -5.46961 3707
105.46 -5.46961 3707
114.325 -5.46961 3707
123.189 -5.46961 3707
132.054 -5.46961 3707
140.919 -5.46961 3707
149.783 -5.46961 3707
158.648 -5.46961 3707
166.789 -5.446 3691
175.616 -5.446 3691
183.243 -5.41059 3667
192.011 -5.41059 3667
199.85 -5.3855 3650
208.121 -5.3737 3642
216.83 -5.3737 3642
225.539 -5.3737 3642
234.248 -5.3737 3642
242.49 -5.36337 3635
252.219 -5.3855 3650
262.735 -5.42239 3675
271.523 -5.42239 3675
280.311 -5.42239 3675
289.728 -5.4342 3683
298.535 -5.4342 3683
310.096 -5.48289 3716
318.982 -5.48289 3716
328.574 -5.49469 3724
338.204 -5.50649 3732
347.129 -5.50649 3732
356.053 -5.50649 3732
364.195 -5.49469 3724
373.1 -5.49469 3724
382.006 -5.49469 3724
390.071 -5.48289 3716
398.957 -5.48289 3716
407.843 -5.48289 3716
416.729 -5.48289 3716
424.585 -5.46961 3707
430.643 -5.4342 3683
437.541 -5.41059 3667
446.31 -5.41059 3667
452.969 -5.3855 3650
460.685 -5.3737 3642
465.399 -5.32796 3611
472.984 -5.31616 3603
481.6 -5.31616 3603
488.175 -5.29402 3588
495.647 -5.28222 3580
500.969 -5.24829 3557
509.475 -5.24829 3557
514.631 -5.21435 3534
521.01 -5.19369 3520
528.224 -5.18189 3512
536.622 -5.18189 3512
542.693 -5.15976 3497
551.055 -5.15976 3497
559.417 -5.15976 3497
567.78 -5.15976 3497
577.46 -5.17156 3505
585.842 -5.17156 3505
595.41 -5.18189 3512
603.808 -5.18189 3512
613.601 -5.19369 3520
622.018 -5.19369 3520
635.63 -5.23648 3549
644.116 -5.23648 3549
655.545 -5.26009 3565
664.07 -5.26009 3565
681.274 -5.32796 3611
692.966 -5.35157 3627
704.541 -5.3737 3642
713.25 -5.3737 3642
723.545 -5.3855 3650
732.273 -5.3855 3650
741.001 -5.3855 3650
749.73 -5.3855 3650
755.341 -5.36337 3635
762.352 -5.35157 3627
774.214 -5.3737 3642
782.923 -5.3737 3642
795.11 -5.39731 3658
811.109 -5.446 3691
825.489 -5.48289 3716
834.375 -5.48289 3716
843.261 -5.48289 3716
850.083 -5.46961 3707
858.948 -5.46961 3707
864.067 -5.446 3691
1456.72 -5.3855 3650
1465.45 -5.3855 3650
1474.18 -5.3855 3650
1473.56 -5.35157 3627
1475.69 -5.32796 3611
1471.59 -5.28222 3580
1480.15 -5.28222 3580
1466.67 -5.20402 3527
1459.63 -5.14943 3490
1458.72 -5.11697 3468
1467.01 -5.11697 3468
1475.31 -5.11697 3468
1477.61 -5.09631 3454
1485.87 -5.09631 3454
1500.18 -5.11697 3468
1508.48 -5.11697 3468
1516.77 -5.11697 3468
1525.06 -5.11697 3468
1533.36 -5.11697 3468
1541.65 -5.11697 3468
1549.94 -5.11697 3468
1558.24 -5.11697 3468
1566.53 -5.11697 3468
1574.82 -5.11697 3468
1576.72 -5.09631 3454
1584.98 -5.09631 3454
1606.62 -5.1391 3483
1621.44 -5.15976 3497
1629.8 -5.15976 3497
1641.91 -5.17156 3505
1650.29 -5.17156 3505
1658.68 -5.17156 3505
1663.25 -5.15976 3497
1668.27 -5.14943 3490
1687.18 -5.18189 3512
1699.44 -5.19369 3520
1707.86 -5.19369 3520
1716.28 -5.19369 3520
1717.35 -5.17156 3505
2341.23 -5.64519 3826
2350.38 -5.64519 3826
2359.53 -5.64519 3826
2347.63 -5.59502 3792
2329.97 -5.53158 3749
2338.94 -5.53158 3749
2327.24 -5.48289 3716
2325.44 -5.4578 3699
2334.28 -5.4578 3699
2343.13 -5.4578 3699
2351.97 -5.4578 3699
2360.82 -5.4578 3699
2369.66 -5.4578 3699
2389.44 -5.48289 3716
2398.33 -5.48289 3716
2407.21 -5.48289 3716
2405.04 -5.4578 3699
2361.68 -5.33977 3619
2370.34 -5.33977 3619
1818.94 -4.0679 2757
1825.53 -4.0679 2757
1832.12 -4.0679 2757
1838.72 -4.0679 2757
1845.31 -4.0679 2757
1849.22 -4.062 2753
1837.6 -4.02216 2726
1844.12 -4.02216 2726
1862.86 -4.04872 2744
1878.27 -4.0679 2757
1884.87 -4.0679 2757
1891.46 -4.0679 2757
1904.94 -4.08266 2767
1923.99 -4.10921 2785
1930.65 -4.10921 2785
1940.79 -4.11659 2790
1950.25 -4.12249 2794
1963.94 -4.13725 2804
1970.64 -4.13725 2804
1987.22 -4.15791 2818
2003.86 -4.17856 2832
2010.64 -4.17856 2832
2017.41 -4.17856 2832
2027.75 -4.18594 2837
2038.12 -4.19332 2842
2052.12 -4.20807 2852
2058.94 -4.20807 2852
2069.38 -4.21545 2857
2086.38 -4.23611 2871
2093.25 -4.23611 2871
2100.11 -4.23611 2871
2106.98 -4.23611 2871
2128.57 -4.26561 2891
2142.87 -4.28037 2901
2153.51 -4.28775 2906
2160.46 -4.28775 2906
2171.14 -4.29512 2911
2190.07 -4.31873 2927
2236.1 -4.39546 2979
2243.23 -4.39546 2979
2274.52 -4.44267 3011
2315.07 -4.50759 3055
2335.3 -4.53268 3072
2342.64 -4.53268 3072
2349.99 -4.53268 3072
-2629.52 3.23114 3512
-2621.12 3.23114 3512
-2601.56 3.21734 3497
-2588.01 3.2109 3490
-2579.67 3.2109 3490
-2571.32 3.2109 3490
-2562.97 3.2109 3490
-2549.51 3.20446 3483
-2541.18 3.20446 3483
-2527.76 3.19802 3476
-2493.35 3.1649 3440
-2500.3 3.18422 3461
-2492.02 3.18422 3461
-2483.74 3.18422 3461
-2460.45 3.1649 3440
-2452.22 3.1649 3440
-2444 3.1649 3440
-2435.77 3.1649 3440
-2427.54 3.1649 3440
-2419.32 3.1649 3440
-2420.9 3.17778 3454
-2422.42 3.19066 3468
-2414.13 3.19066 3468
-2411.39 3.19802 3476
-2412.75 3.2109 3490
-2409.23 3.21734 3497
-2400.87 3.21734 3497
-2392.51 3.21734 3497
-2389.6 3.2247 3505
-2391.41 3.2385 3520
-2382.99 3.2385 3520
-2379.29 3.24494 3527
-2380.94 3.25874 3542
-2372.47 3.25874 3542
-2364 3.25874 3542
-2360.19 3.26518 3549
-2362.3 3.2799 3565
-2358.4 3.28634 3572
-2349.86 3.28634 3572
-2346.56 3.2937 3580
-2338 3.2937 3580
-2329.44 3.2937 3580
-2320.88 3.2937 3580
-2312.32 3.2937 3580
-2303.76 3.2937 3580
-2295.19 3.2937 3580
-2286.63 3.2937 3580
-2283.16 3.30106 3588
-2274.58 3.30106 3588
-2270.42 3.3075 3595
-2261.83 3.3075 3595
-2258.25 3.31486 3603
-2259.62 3.32958 3619
-2250.97 3.32958 3619
-2242.31 3.32958 3619
-2228.72 3.32222 3611
-2220.08 3.32222 3611
-2211.45 3.32222 3611
-2202.81 3.32222 3611
-2184.46 3.3075 3595
-2171.62 3.30106 3588
-2163.04 3.30106 3588
-2149.66 3.2937 3580
-2154.85 3.31486 3603
-2151 3.32222 3611
-2156.61 3.3443 3635
-2147.92 3.3443 3635
-2143.34 3.35074 3642
-2134.63 3.35074 3642
-2125.93 3.35074 3642
-2117.22 3.35074 3642
-2104.45 3.3443 3635
-2095.76 3.3443 3635
-2087.07 3.3443 3635
-2073.8 3.33694 3627
-2051.46 3.31486 3603
-2012.23 3.26518 3549
-2003.74 3.26518 3549
-1978.95 3.2385 3520
-1953.74 3.2109 3490
-1933.13 3.19066 3468
-1924.84 3.19066 3468
-1881.73 3.1327 3405
-1850.48 3.09405 3363
-1831.48 3.07565 3343
-1816.39 3.06369 3330
-1808.43 3.06369 3330
-1793.44 3.05173 3317
-1767.74 3.02137 3284
-1752.92 3.00941 3271
-1745.1 3.00941 3271
-1734.09 3.00389 3265
-1722.58 2.99745 3258
-1714.79 2.99745 3258
-1707 2.99745 3258
-1696.08 2.99193 3252
-1685.19 2.98641 3246
-1680.53 2.99193 3252
-1675.84 2.99745 3258
-1668.05 2.99745 3258
-1663.83 3.00389 3265
-1656.02 3.00389 3265
-1651.24 3.00941 3271
-1643.42 3.00941 3271
-1635.59 3.00941 3271
-1634.24 3.02137 3284
-1629.36 3.02689 3290
-1621.49 3.02689 3290
-1617.06 3.03333 3297
-1615.52 3.04529 3310
-1611 3.05173 3317
-1603.07 3.05173 3317
-1598.03 3.05725 3323
-1590.08 3.05725 3323
-1582.13 3.05725 3323
-1568.03 3.04529 3310
-1553.99 3.03333 3297
-1555.48 3.05173 3317
-1550.35 3.05725 3323
-1542.4 3.05725 3323
-1537.69 3.06369 3330
-1532.94 3.07013 3337
-1527.7 3.07565 3343
-1519.71 3.07565 3343
-1511.71 3.07565 3343
-1503.72 3.07565 3343
-1495.73 3.07565 3343
-1487.73 3.07565 3343
-1479.74 3.07565 3343
-1471.74 3.07565 3343
-1463.75 3.07565 3343
-1455.76 3.07565 3343
-1445.16 3.07013 3337
-1437.18 3.07013 3337
-1429.2 3.07013 3337
-1415.26 3.05725 3323
-1398.84 3.03885 3303
-1396.84 3.05173 3317
-1388.91 3.05173 3317
-1380.98 3.05173 3317
-1373.05 3.05173 3317
-1365.11 3.05173 3317
-1354.32 3.04529 3310
-1346.4 3.04529 3310
-1335.66 3.03885 3303
-1327.76 3.03885 3303
-1319.86 3.03885 3303
-1311.96 3.03885 3303
-1304.06 3.03885 3303
-1293.81 3.03333 3297
-1280.86 3.02137 3284
-1273 3.02137 3284
-1255.13 2.99745 3258
-1245.04 2.99193 3252
-702.459 1.70941 1858
-698.016 1.70941 1858
-693.573 1.70941 1858
-689.13 1.70941 1858
-680.633 1.69929 1847
-676.216 1.69929 1847
-671.072 1.69745 1845
-666.66 1.69745 1845
-660.812 1.69377 1841
-656.41 1.69377 1841
-650.591 1.69009 1837
-645.495 1.68825 1835
-641.107 1.68825 1835
-636.719 1.68825 1835
-630.263 1.68273 1829
-623.152 1.67537 1821
-617.438 1.67169 1817
-613.093 1.67169 1817
-606.068 1.66433 1809
-600.079 1.65973 1804
-590.481 1.64501 1788
-582.599 1.63489 1777
-578.349 1.63489 1777
-569.577 1.62201 1763
-562.475 1.61373 1754
-554.779 1.60361 1743
-550.611 1.60361 1743
-544.876 1.59901 1738
-539.475 1.59533 1734
-533.785 1.59073 1729
-529.651 1.59073 1729
-524.908 1.58889 1727
-519.572 1.58521 1723
-515.153 1.58429 1722
-511.035 1.58429 1722
-505.74 1.58061 1718
-500.171 1.57601 1713
-495.496 1.57417 1711
-491.404 1.57417 1711
-486.458 1.57141 1708
-481.809 1.56957 1706
-477.17 1.56773 1704
-472.262 1.56497 1701
-468.194 1.56497 1701
-464.127 1.56497 1701
-459.518 1.56313 1699
-454.919 1.56129 1697
-450.861 1.56129 1697
-446.277 1.55945 1695
-441.962 1.55853 1694
-437.912 1.55853 1694
-433.861 1.55853 1694
-428.034 1.55209 1687
-423.497 1.55025 1685
-418.721 1.54749 1682
-414.699 1.54749 1682
-410.188 1.54565 1680
-406.171 1.54565 1680
-401.675 1.54381 1678
-397.662 1.54381 1678
-392.946 1.54105 1675
-388.476 1.53921 1673
-383.786 1.53645 1670
-379.792 1.53645 1670
-374.674 1.53185 1665
-370.024 1.52909 1662
-365.169 1.52541 1658
-361.204 1.52541 1658
-357.239 1.52541 1658
-353.061 1.52449 1657
-349.099 1.52449 1657
-345.137 1.52449 1657
-341.38 1.52541 1658
-337.415 1.52541 1658
-333.853 1.52725 1660
-329.883 1.52725 1660
-325.914 1.52725 1660
-321.944 1.52725 1660
-317.591 1.52541 1658
-313.437 1.52449 1657
-310.035 1.52725 1660
-306.066 1.52725 1660
-302.096 1.52725 1660
-298.486 1.52909 1662
-295.043 1.53185 1665
-291.062 1.53185 1665
-287.425 1.53369 1667
-283.609 1.53461 1668
-279.955 1.53645 1670
-275.962 1.53645 1670
-272.294 1.53829 1672
-268.296 1.53829 1672
-264.297 1.53829 1672
-260.299 1.53829 1672
-256.301 1.53829 1672
-252.303 1.53829 1672
-248.453 1.53921 1673
-244.452 1.53921 1673
-240.452 1.53921 1673
-236.451 1.53921 1673
-232.45 1.53921 1673
-228.45 1.53921 1673
-224.717 1.54105 1675
-221.107 1.54381 1678
-217.353 1.54565 1680
-213.717 1.54841 1683
-209.692 1.54841 1683
-206.401 1.55393 1689
-202.482 1.55485 1690
-198.676 1.55669 1692
-194.629 1.55669 1692
-190.921 1.55945 1695
-187.088 1.56129 1697
-183.03 1.56129 1697
-178.972 1.56129 1697
-175.327 1.56497 1701
-171.259 1.56497 1701
-167.29 1.56589 1702
-163.22 1.56589 1702
-159.337 1.56773 1704
-155.444 1.56957 1706
-151.542 1.57141 1708
-147.458 1.57141 1708
-143.373 1.57141 1708
-139.371 1.57233 1709
-135.284 1.57233 1709
-131.197 1.57233 1709
-127.11 1.57233 1709
-123.024 1.57233 1709
-118.937 1.57233 1709
-114.783 1.57141 1708
-110.699 1.57141 1708
-106.614 1.57141 1708
-102.59 1.57233 1709
-98.5032 1.57233 1709
-94.527 1.57417 1711
-90.6469 1.57785 1715
-86.5963 1.57877 1716
-82.4928 1.57877 1716
-78.4807 1.58061 1718
-74.459 1.58245 1720
-70.4278 1.58429 1722
-66.3099 1.58429 1722
-62.1921 1.58429 1722
-58.108 1.58521 1723
-53.9878 1.58521 1723
-49.8676 1.58521 1723
-45.7474 1.58521 1723
-41.6755 1.58705 1725
-37.5505 1.58705 1725
-33.4642 1.58889 1727
-29.3344 1.58889 1727
-25.263 1.59257 1731
-21.1359 1.59349 1732
-17.0138 1.59533 1734
-12.8673 1.59533 1734
-8.72075 1.59533 1734
-4.57423 1.59533 1734
-0.427711 1.59533 1734
51.582 3.36546 3658
60.3294 3.36546 3658
69.2468 3.37374 3667
78.1859 3.3811 3675
86.9739 3.3811 3675
95.7619 3.3811 3675
104.778 3.38846 3683
113.585 3.38846 3683
122.392 3.38846 3683
130.914 3.3811 3675
139.702 3.3811 3675
148.49 3.3811 3675
157.278 3.3811 3675
165.705 3.37374 3667
174.474 3.37374 3667
182.793 3.36546 3658
191.54 3.36546 3658
199.85 3.3581 3650
208.121 3.35074 3642
216.83 3.35074 3642
225.539 3.35074 3642
234.248 3.35074 3642
242.49 3.3443 3635
252.219 3.3581 3650
262.735 3.3811 3675
271.523 3.3811 3675
280.311 3.3811 3675
289.728 3.38846 3683
298.535 3.38846 3683
310.096 3.41882 3716
318.982 3.41882 3716
328.574 3.42618 3724
338.204 3.43354 3732
347.129 3.43354 3732
356.053 3.43354 3732
364.195 3.42618 3724
372.299 3.41882 3716
381.185 3.41882 3716
390.071 3.41882 3716
398.957 3.41882 3716
405.977 3.40318 3699
414.823 3.40318 3699
423.668 3.40318 3699
428.772 3.37374 3667
435.513 3.3581 3650
444.241 3.3581 3650
450.115 3.33694 3627
458.788 3.33694 3627
464.368 3.31486 3603
471.015 3.30106 3588
479.595 3.30106 3588
487.086 3.2937 3580
493.57 3.2799 3565
499.842 3.26518 3549
508.329 3.26518 3549
513.612 3.24494 3527
521.01 3.2385 3520
527.171 3.2247 3505
535.553 3.2247 3505
541.606 3.2109 3490
549.952 3.2109 3490
558.298 3.2109 3490
566.643 3.2109 3490
574.989 3.2109 3490
583.334 3.2109 3490
592.867 3.21734 3497
602.605 3.2247 3505
612.206 3.23114 3512
620.605 3.23114 3512
630.436 3.2385 3520
644.116 3.26518 3549
654.074 3.27254 3557
662.58 3.27254 3557
678.255 3.3075 3595
689.909 3.32222 3611
700.092 3.32958 3619
708.746 3.32958 3619
718.986 3.33694 3627
729.264 3.3443 3635
737.956 3.3443 3635
746.649 3.3443 3635
753.679 3.33694 3627
762.352 3.33694 3627
774.214 3.35074 3642
782.923 3.35074 3642
793.371 3.3581 3650
811.109 3.39582 3691
825.489 3.41882 3716
834.375 3.41882 3716
843.261 3.41882 3716
850.083 3.41054 3707
858.948 3.41054 3707
864.067 3.39582 3691
1456.72 3.3581 3650
1465.45 3.3581 3650
1474.18 3.3581 3650
1473.56 3.33694 3627
1475.69 3.32222 3611
1471.59 3.2937 3580
1480.15 3.2937 3580
1466.67 3.24494 3527
1459.63 3.2109 3490
1458.72 3.19066 3468
1467.01 3.19066 3468
1475.31 3.19066 3468
1477.61 3.17778 3454
1485.87 3.17778 3454
1500.18 3.19066 3468
1508.48 3.19066 3468
1516.77 3.19066 3468
1525.06 3.19066 3468
1533.36 3.19066 3468
1541.65 3.19066 3468
1549.94 3.19066 3468
1558.24 3.19066 3468
1566.53 3.19066 3468
1574.82 3.19066 3468
1576.72 3.17778 3454
1584.98 3.17778 3454
1606.62 3.20446 3483
1621.44 3.21734 3497
1629.8 3.21734 3497
1641.91 3.2247 3505
1650.29 3.2247 3505
1658.68 3.2247 3505
1663.25 3.21734 3497
1668.27 3.2109 3490
1687.18 3.23114 3512
1699.44 3.2385 3520
1707.86 3.2385 3520
1716.28 3.2385 3520
1713.43 3.21734 3497
2283.71 3.43354 3732
2292.64 3.43354 3732
2301.56 3.43354 3732
2310.48 3.43354 3732
2319.41 3.43354 3732
2328.33 3.43354 3732
2316.59 3.40318 3699
2315.38 3.38846 3683
2329.23 3.39582 3691
2338.06 3.39582 3691
2351.97 3.40318 3699
2360.82 3.40318 3699
2369.66 3.40318 3699
2378.51 3.40318 3699
2387.35 3.40318 3699
2396.2 3.40318 3699
2373.19 3.3581 3650
2361.68 3.32958 3619
2370.34 3.32958 3619
1814.18 2.51168 2730
1820.71 2.51168 2730
1827.24 2.51168 2730
1831.08 2.508 2726
1837.6 2.508 2726
1829.23 2.48776 2704
1856.75 2.51628 2735
1872.14 2.52824 2748
1878.71 2.52824 2748
1888.72 2.53284 2753
1898.05 2.53652 2757
1920.54 2.55768 2780
1927.18 2.55768 2780
1937.31 2.56228 2785
1947.46 2.56688 2790
1960.43 2.57516 2799
1967.13 2.57516 2799
1987.22 2.59264 2818
2001.03 2.60184 2828
2010.64 2.60552 2832
2017.41 2.60552 2832
2027.75 2.61012 2837
2038.12 2.61472 2842
2052.12 2.62392 2852
2058.94 2.62392 2852
2069.38 2.62852 2857
2079.84 2.63312 2862
2093.25 2.6414 2871
2100.11 2.6414 2871
2106.98 2.6414 2871
2113.84 2.6414 2871
2135.48 2.6598 2891
2149.81 2.669 2901
2156.74 2.669 2901
2167.41 2.6736 2906
2178.1 2.6782 2911
2200.83 2.69752 2932
2207.84 2.69752 2932
2250.35 2.74076 2979
2273.39 2.76008 3000
2301.85 2.78584 3028
2309.09 2.78584 3028
2316.33 2.78584 3028
-2580.85 11.4287 3447
-2572.61 11.4287 3447
-2559.16 11.4054 3440
-2540.55 11.359 3426
-2558.23 11.4751 3461
-2549.95 11.4751 3461
-2541.68 11.4751 3461
-2533.4 11.4751 3461
-2525.13 11.4751 3461
-2496.49 11.3822 3433
-2483.2 11.359 3426
-2459.84 11.2894 3405
-2451.7 11.2894 3405
-2443.56 11.2894 3405
-2435.41 11.2894 3405
-2422.28 11.2662 3398
-2424.1 11.3126 3412
-2420.9 11.3358 3419
-2412.72 11.3358 3419
-2404.55 11.3358 3419
-2406.18 11.3822 3433
-2397.98 11.3822 3433
-2389.77 11.3822 3433
-2405.84 11.4983 3468
-2397.54 11.4983 3468
-2399.58 11.548 3483
-2391.26 11.548 3483
-2382.93 11.548 3483
-2379.37 11.5712 3490
-2371.02 11.5712 3490
-2362.68 11.5712 3490
-2374.57 11.6707 3520
-2366.15 11.6707 3520
-2362.43 11.6939 3527
-2353.99 11.6939 3527
-2355.53 11.7436 3542
-2351.7 11.7668 3549
-2353.78 11.8199 3565
-2345.25 11.8199 3565
-2336.73 11.8199 3565
-2328.2 11.8199 3565
-2319.68 11.8199 3565
-2305.97 11.7934 3557
-2302.63 11.8199 3565
-2294.1 11.8199 3565
-2285.58 11.8199 3565
-2277.05 11.8199 3565
-2272.98 11.8431 3572
-2264.44 11.8431 3572
-2260.95 11.8696 3580
-2252.39 11.8696 3580
-2248.84 11.8961 3588
-2244.63 11.9194 3595
-2236.04 11.9194 3595
-2227.44 11.9194 3595
-2218.84 11.9194 3595
-2205.94 11.8961 3588
-2197.36 11.8961 3588
-2188.78 11.8961 3588
-2170.48 11.8431 3572
-2157.7 11.8199 3565
-2149.18 11.8199 3565
-2140.65 11.8199 3565
-2141.1 11.8696 3580
-2146.24 11.9459 3603
-2142.37 11.9724 3611
-2133.73 11.9724 3611
-2139.22 12.052 3635
-2130.53 12.052 3635
-2121.84 12.052 3635
-2113.15 12.052 3635
-2104.45 12.052 3635
-2091.15 12.0255 3627
-2082.48 12.0255 3627
-2060.08 11.9459 3603
-2042.92 11.8961 3588
-1999.76 11.6939 3527
-1991.32 11.6939 3527
-1970.52 11.621 3505
-1949.82 11.548 3483
-1921.43 11.4287 3447
-1913.18 11.4287 3447
-1881.73 11.2894 3405
-1843.33 11.107 3350
-1831.48 11.0838 3343
-1812.58 11.0175 3323
-1804.63 11.0175 3323
-1793.44 10.9976 3317
-1767.74 10.8882 3284
-1749.71 10.8252 3265
-1741.9 10.8252 3265
-1734.09 10.8252 3265
-1722.58 10.802 3258
-1714.79 10.802 3258
-1707 10.802 3258
-1696.08 10.7821 3252
-1685.19 10.7622 3246
-1680.53 10.7821 3252
-1675.84 10.802 3258
-1668.05 10.802 3258
-1663.83 10.8252 3265
-1656.02 10.8252 3265
-1651.24 10.8451 3271
-1643.42 10.8451 3271
-1635.59 10.8451 3271
-1634.24 10.8882 3284
-1629.36 10.9081 3290
-1621.49 10.9081 3290
-1617.06 10.9313 3297
-1615.52 10.9744 3310
-1611 10.9976 3317
-1603.07 10.9976 3317
-1598.03 11.0175 3323
-1590.08 11.0175 3323
-1582.13 11.0175 3323
-1568.03 10.9744 3310
-1553.99 10.9313 3297
-1555.48 10.9976 3317
-1550.35 11.0175 3323
-1542.4 11.0175 3323
-1537.69 11.0407 3330
-1532.94 11.0639 3337
-1527.7 11.0838 3343
-1519.71 11.0838 3343
-1511.71 11.0838 3343
-1503.72 11.0838 3343
-1495.73 11.0838 3343
-1487.73 11.0838 3343
-1479.74 11.0838 3343
-1471.74 11.0838 3343
-1463.75 11.0838 3343
-1455.76 11.0838 3343
-1447.76 11.0838 3343
-1437.18 11.0639 3337
-1429.2 11.0639 3337
-1418.24 11.0407 3330
-1398.84 10.9512 3303
-1396.84 10.9976 3317
-1391.42 11.0175 3323
-1383.48 11.0175 3323
-1375.53 11.0175 3323
-1365.11 10.9976 3317
-1354.32 10.9744 3310
-1346.4 10.9744 3310
-1335.66 10.9512 3303
-1327.76 10.9512 3303
-1319.86 10.9512 3303
-1311.96 10.9512 3303
-1304.06 10.9512 3303
-1293.81 10.9313 3297
-1283.2 10.9081 3290
-1275.33 10.9081 3290
-1255.13 10.802 3258
-1245.04 10.7821 3252
-702.459 6.16027 1858
-698.016 6.16027 1858
-693.573 6.16027 1858
-688.388 6.15364 1856
-680.633 6.1238 1847
-676.216 6.1238 1847
-671.8 6.1238 1847
-666.66 6.11717 1845
-661.53 6.11053 1843
-657.123 6.11053 1843
-649.883 6.08401 1835
-645.495 6.08401 1835
-641.107 6.08401 1835
-636.719 6.08401 1835
-630.263 6.06412 1829
-622.467 6.03096 1819
-616.758 6.0177 1815
-612.418 6.0177 1815
-605.398 5.99118 1807
-598.083 5.96134 1798
-591.141 5.93481 1790
-581.287 5.87845 1773
-577.047 5.87845 1773
-568.608 5.83534 1760
-561.834 5.80882 1752
-554.779 5.77898 1743
-550.611 5.77898 1743
-544.876 5.7624 1738
-539.475 5.74914 1734
-533.785 5.73256 1729
-529.651 5.73256 1729
-524.3 5.7193 1725
-519.271 5.70935 1722
-514.554 5.70272 1720
-510.441 5.70272 1720
-505.74 5.69609 1718
-500.171 5.67951 1713
-495.496 5.67288 1711
-491.404 5.67288 1711
-485.889 5.65631 1706
-481.809 5.65631 1706
-477.17 5.64967 1704
-472.262 5.63973 1701
-468.194 5.63973 1701
-464.127 5.63973 1701
-459.518 5.6331 1699
-454.919 5.62647 1697
-450.861 5.62647 1697
-446.277 5.61983 1695
-441.962 5.61652 1694
-437.912 5.61652 1694
-433.861 5.61652 1694
-428.034 5.59331 1687
-423.497 5.58668 1685
-418.721 5.57673 1682
-414.699 5.57673 1682
-410.188 5.5701 1680
-406.171 5.5701 1680
-401.675 5.56347 1678
-397.662 5.56347 1678
-392.946 5.55352 1675
-388.476 5.54689 1673
-383.786 5.53695 1670
-379.792 5.53695 1670
-374.223 5.51374 1663
-370.024 5.51042 1662
-365.169 5.49716 1658
-361.204 5.49716 1658
-357.239 5.49716 1658
-353.061 5.49384 1657
-349.099 5.49384 1657
-345.345 5.49716 1658
-341.792 5.50379 1660
-337.822 5.50379 1660
-333.853 5.50379 1660
-329.883 5.50379 1660
-325.914 5.50379 1660
-321.944 5.50379 1660
-317.4 5.49384 1657
-313.437 5.49384 1657
-310.035 5.50379 1660
-306.066 5.50379 1660
-302.46 5.51042 1662
-298.486 5.51042 1662
-295.043 5.52037 1665
-291.062 5.52037 1665
-287.597 5.53032 1668
-283.609 5.53032 1668
-279.955 5.53695 1670
-275.962 5.53695 1670
-272.294 5.54358 1672
-268.296 5.54358 1672
