ply
format ascii 1.0
comment File generated
element vertex 2247
property float x
property float y
property float z
end_header
-1971.11 212.553 3363
-1963.07 212.553 3363
-1951.54 212.173 3357
-1939.46 211.731 3350
-1942.98 212.995 3370
-1934.92 212.995 3370
-1926.86 212.995 3370
-1911.4 212.173 3357
-1884.09 210.024 3323
-1876.15 210.024 3323
-1864.83 209.645 3317
-1856.9 209.645 3317
-1848.96 209.645 3317
-1841.03 209.645 3317
-1833.1 209.645 3317
-1825.17 209.645 3317
-1817.24 209.645 3317
-1801.67 208.76 3303
-1793.77 208.76 3303
-1785.87 208.76 3303
-1788.74 210.024 3323
-1780.79 210.024 3323
-1780.31 210.909 3337
-1772.33 210.909 3337
-1764.35 210.909 3337
-1756.37 210.909 3337
-1748.39 210.909 3337
-1740.41 210.909 3337
-1718.42 209.203 3310
-1714.12 209.645 3317
-1712.87 210.467 3330
-1704.91 210.467 3330
-1700.52 210.909 3337
-1705.72 212.553 3363
-1701.22 212.995 3370
-1693.16 212.995 3370
-1685.1 212.995 3370
-1677.04 212.995 3370
-1675.91 213.88 3384
-1667.82 213.88 3384
-1670.03 215.207 3405
-1661.89 215.207 3405
-1653.74 215.207 3405
-1645.6 215.207 3405
-1640.83 215.65 3412
-1632.67 215.65 3412
-1627.84 216.092 3419
-1619.66 216.092 3419
-1611.49 216.092 3419
-1609.88 216.977 3433
-1601.67 216.977 3433
-1593.46 216.977 3433
-1588.48 217.419 3440
-1580.26 217.419 3440
-1572.03 217.419 3440
-1563.8 217.419 3440
-1555.58 217.419 3440
-1547.35 217.419 3440
-1539.13 217.419 3440
-1527.78 216.977 3433
-1519.58 216.977 3433
-1508.28 216.534 3426
-1500.09 216.534 3426
-1488.85 216.092 3419
-1480.67 216.092 3419
-1475.51 216.534 3426
-1470.32 216.977 3433
-1462.11 216.977 3433
-1453.9 216.977 3433
-1445.69 216.977 3433
-1443.34 217.862 3447
-1435.1 217.862 3447
-1438.86 219.695 3476
-1430.55 219.695 3476
-1422.24 219.695 3476
-1413.93 219.695 3476
-1405.61 219.695 3476
-1397.3 219.695 3476
-1388.99 219.695 3476
-1380.68 219.695 3476
-1375.13 220.137 3483
-1366.8 220.137 3483
-1358.47 220.137 3483
-1352.86 220.579 3490
-1344.51 220.579 3490
-1344.59 221.97 3512
-1336.19 221.97 3512
-1327.79 221.97 3512
-1313.76 221.022 3497
-1302.78 220.579 3490
-1289.24 219.695 3476
-1280.93 219.695 3476
-1267.13 218.746 3461
-1256.31 218.304 3454
-1237.93 216.534 3426
-1229.74 216.534 3426
-1214.06 215.207 3405
-1198.48 213.88 3384
-1190.38 213.88 3384
-1182.29 213.88 3384
-1169.34 212.995 3370
-1156.8 212.173 3357
-1148.78 212.173 3357
-1140.75 212.173 3357
-562.179 106.055 1678
-558.166 106.055 1678
-554.154 106.055 1678
-550.141 106.055 1678
-546.128 106.055 1678
-541.793 105.992 1677
-537.782 105.992 1677
-534.091 106.055 1678
-531.342 106.308 1682
-527.319 106.308 1682
-523.297 106.308 1682
-519.275 106.308 1682
-515.253 106.308 1682
-510.623 106.181 1680
-506.605 106.181 1680
-502.588 106.181 1680
-497.977 106.055 1678
-493.965 106.055 1678
-489.952 106.055 1678
-485.939 106.055 1678
-481.639 105.992 1677
-477.629 105.992 1677
-473.054 105.865 1675
-468.209 105.676 1672
-463.655 105.549 1670
-459.662 105.549 1670
-455.668 105.549 1670
-450.863 105.36 1667
-445.805 105.107 1663
-441.828 105.107 1663
-437.588 105.044 1662
-433.092 104.917 1660
-426.537 104.285 1650
-422.592 104.285 1650
-418.138 104.159 1648
-413.946 104.096 1647
-409.51 103.969 1645
-405.576 103.969 1645
-400.91 103.78 1642
-395.533 103.401 1636
-391.621 103.401 1636
-387.709 103.401 1636
-382.623 103.085 1631
-378.259 102.958 1629
-374.363 102.958 1629
-369.786 102.768 1626
-365.897 102.768 1626
-362.009 102.768 1626
-357.68 102.642 1624
-353.579 102.579 1623
-349.698 102.579 1623
-345.391 102.452 1621
-341.514 102.452 1621
-337.43 102.389 1620
-333.556 102.389 1620
-329.275 102.263 1618
-325.205 102.2 1617
-320.941 102.073 1615
-317.079 102.073 1615
-312.829 101.947 1613
-308.972 101.947 1613
-305.114 101.947 1613
-301.257 101.947 1613
-296.847 101.757 1610
-292.451 101.568 1607
-288.608 101.568 1607
-284.765 101.568 1607
-280.748 101.504 1606
-276.907 101.504 1606
-272.217 101.188 1601
-268.388 101.188 1601
-264.56 101.188 1601
-260.406 101.062 1599
-256.582 101.062 1599
-252.758 101.062 1599
-248.934 101.062 1599
-245.111 101.062 1599
-241.287 101.062 1599
-237.76 101.188 1601
-234.37 101.378 1604
-230.535 101.378 1604
-226.982 101.504 1606
-223.558 101.694 1609
-220.12 101.884 1612
-216.265 101.884 1612
-213.069 102.2 1617
-209.591 102.389 1620
-206.225 102.642 1624
-202.341 102.642 1624
-198.947 102.895 1628
-195.773 103.274 1634
-192.57 103.653 1640
-188.648 103.653 1640
-185.627 104.159 1648
-183.009 104.917 1660
-180.442 105.739 1673
-176.441 105.739 1673
-173.368 106.308 1682
-169.85 106.624 1687
-166.307 106.94 1692
-162.261 106.94 1692
-158.495 107.13 1695
-155.08 107.572 1702
-151.542 107.951 1708
-147.458 107.951 1708
-143.793 108.267 1713
-140.268 108.71 1720
-136.709 109.152 1727
-132.579 109.152 1727
-128.598 109.278 1729
-124.463 109.278 1729
-120.329 109.278 1729
-204.154 223.866 3542
-196.07 224.308 3549
-187.584 224.308 3549
-179.097 224.308 3549
-170.61 224.308 3549
-162.123 224.308 3549
-153.637 224.308 3549
-145.15 224.308 3549
-136.663 224.308 3549
-128.176 224.308 3549
-119.69 224.308 3549
-110.984 223.866 3542
-102.948 224.814 3557
-94.4419 224.814 3557
-86.1293 225.32 3565
-77.6043 225.32 3565
-69.0793 225.32 3565
-60.4184 224.814 3557
-51.9126 224.814 3557
-43.3091 224.308 3549
-34.8223 224.308 3549
-26.395 224.814 3557
-17.9293 225.32 3565
-9.40434 225.32 3565
-0.879348 225.32 3565
7.64565 225.32 3565
16.1706 225.32 3565
24.6956 225.32 3565
33.2206 225.32 3565
41.7456 225.32 3565
50.2706 225.32 3565
58.6637 224.814 3557
67.1695 224.814 3557
76.1647 226.268 3580
84.7256 226.268 3580
93.2865 226.268 3580
101.847 226.268 3580
110.408 226.268 3580
118.969 226.268 3580
126.711 224.814 3557
136.091 226.268 3580
145.258 227.216 3595
153.854 227.216 3595
162.451 227.216 3595
171.048 227.216 3595
177.346 224.308 3549
183.11 221.022 3497
191.472 221.022 3497
231.74 227.721 3603
240.355 227.721 3603
249.524 228.227 3611
258.159 228.227 3611
266.794 228.227 3611
274.819 227.721 3603
282.255 226.773 3588
292.699 228.227 3611
301.334 228.227 3611
309.969 228.227 3611
318.604 228.227 3611
327.239 228.227 3611
335.874 228.227 3611
342.315 226.773 3588
349.33 225.762 3572
354.866 223.866 3542
363.336 223.866 3542
370.232 222.918 3527
376.304 221.527 3505
380.624 219.189 3468
384.992 216.977 3433
393.202 216.977 3433
396.5 214.322 3391
402.939 213.437 3377
405.294 210.467 3330
413.257 210.467 3330
419.575 209.645 3317
425.703 208.76 3303
433.601 208.76 3303
441.5 208.76 3303
448.582 208.381 3297
456.466 208.381 3297
464.35 208.381 3297
472.234 208.381 3297
479.099 207.939 3290
483.266 206.359 3265
489.118 205.537 3252
498.881 206.359 3265
510.569 207.939 3290
518.436 207.939 3290
534.782 211.288 3343
550.569 214.322 3391
571.364 219.189 3468
579.657 219.189 3468
596.766 222.475 3520
608.966 223.866 3542
617.436 223.866 3542
625.906 223.866 3542
637.062 224.814 3557
645.568 224.814 3557
654.074 224.814 3557
662.58 224.814 3557
671.086 224.814 3557
676.726 223.866 3542
686.55 224.308 3549
695.037 224.308 3549
705.109 224.814 3557
713.615 224.814 3557
722.121 224.814 3557
730.627 224.814 3557
739.133 224.814 3557
749.32 225.32 3565
757.845 225.32 3565
766.37 225.32 3565
769.896 223.866 3542
778.366 223.866 3542
788.391 224.308 3549
796.878 224.308 3549
807.18 224.814 3557
817.52 225.32 3565
829.521 226.268 3580
839.955 226.773 3588
848.535 226.773 3588
862.609 228.227 3611
871.244 228.227 3611
881.828 228.733 3619
890.482 228.733 3619
899.136 228.733 3619
907.791 228.733 3619
916.445 228.733 3619
925.099 228.733 3619
937.881 229.744 3635
950.48 230.692 3650
959.208 230.692 3650
967.936 230.692 3650
974.524 230.186 3642
983.233 230.186 3642
991.942 230.186 3642
1000.65 230.186 3642
1009.36 230.186 3642
1020.31 230.692 3650
1029.03 230.692 3650
1037.76 230.692 3650
1048.78 231.198 3658
1057.53 231.198 3658
1066.28 231.198 3658
1072.68 230.692 3650
1081.4 230.692 3650
1092.52 231.198 3658
1103.98 231.766 3667
1112.75 231.766 3667
1121.52 231.766 3667
1130.28 231.766 3667
1136.26 231.198 3658
1145.01 231.198 3658
1153.75 231.198 3658
1162.5 231.198 3658
1171.25 231.198 3658
1185.48 232.272 3675
1194.27 232.272 3675
1203.05 232.272 3675
1211.84 232.272 3675
1220.63 232.272 3675
1229.42 232.272 3675
1240.9 232.778 3683
1249.71 232.778 3683
1258.52 232.778 3683
1264.57 232.272 3675
1273.36 232.272 3675
1279.36 231.766 3667
1288.12 231.766 3667
1293.71 231.198 3658
1302.46 231.198 3658
1308.34 230.692 3650
1314.18 230.186 3642
1322.89 230.186 3642
1329.04 229.744 3635
1337.73 229.744 3635
1351.98 230.692 3650
1360.71 230.692 3650
1369.44 230.692 3650
1378.16 230.692 3650
1393.35 231.766 3667
1402.12 231.766 3667
1410.89 231.766 3667
1419.66 231.766 3667
1421.81 230.692 3650
1430.53 230.692 3650
1436.11 230.186 3642
1438.87 229.238 3627
1434.77 227.216 3595
1440.55 226.773 3588
1449.13 226.773 3588
1457.71 226.773 3588
1459.76 225.762 3572
1468.3 225.762 3572
1486.35 227.216 3595
1494.95 227.216 3595
1503.54 227.216 3595
1512.14 227.216 3595
1520.74 227.216 3595
1529.33 227.216 3595
1537.93 227.216 3595
1540.07 226.268 3580
1548.63 226.268 3580
1553.71 225.762 3572
1562.26 225.762 3572
1570.8 225.762 3572
1579.34 225.762 3572
1598.11 227.216 3595
1606.7 227.216 3595
1636.42 230.186 3642
1652.35 231.198 3658
1665.19 231.766 3667
1673.96 231.766 3667
1686.4 232.272 3675
1695.19 232.272 3675
1703.97 232.272 3675
1712.76 232.272 3675
1721.55 232.272 3675
1726.57 231.766 3667
1735.34 231.766 3667
1739.83 231.198 3658
1740.93 230.186 3642
1746.27 229.744 3635
1758.35 230.186 3642
1767.05 230.186 3642
1775.76 230.186 3642
1784.47 230.186 3642
1793.18 230.186 3642
1801.89 230.186 3642
1810.6 230.186 3642
1819.31 230.186 3642
1812.46 228.227 3611
1821.09 228.227 3611
1814.02 226.268 3580
1818.51 225.762 3572
1804.03 222.918 3527
1812.47 222.918 3527
1817.29 222.475 3520
1821.56 221.97 3512
1834.12 222.475 3520
1846.2 222.918 3527
1854.64 222.918 3527
1874.69 224.308 3549
1887.42 224.814 3557
1895.93 224.814 3557
1904.44 224.814 3557
1912.94 224.814 3557
1921.45 224.814 3557
1929.95 224.814 3557
1946.63 225.762 3572
1955.18 225.762 3572
1972.51 226.773 3588
1993.79 228.227 3611
2006.86 228.733 3619
2015.52 228.733 3619
2037.04 230.186 3642
2059.79 231.766 3667
2105.22 235.875 3732
2114.15 235.875 3732
2137.3 237.455 3757
2146.28 237.455 3757
2155.26 237.455 3757
2164.25 237.455 3757
2168.6 236.949 3749
2187.44 238.023 3766
2201.11 238.529 3774
2210.14 238.529 3774
2224.46 239.098 3783
2233.5 239.098 3783
2242.55 239.098 3783
2251.6 239.098 3783
2260.64 239.098 3783
2269.69 239.098 3783
2258.25 236.949 3749
2267.22 236.949 3749
2276.18 236.949 3749
2290.03 237.455 3757
2299.01 237.455 3757
2307.99 237.455 3757
2316.98 237.455 3757
2325.96 237.455 3757
2334.95 237.455 3757
2343.93 237.455 3757
2342.27 236.38 3740
2351.21 236.38 3740
2360.15 236.38 3740
2369.1 236.38 3740
2372.95 235.875 3732
2371.67 234.863 3716
2374.79 234.294 3707
2389.44 234.863 3716
2403.49 235.369 3724
2412.39 235.369 3724
2426.5 235.875 3732
2435.43 235.875 3732
2444.35 235.875 3732
2453.27 235.875 3732
2445.7 234.294 3707
2454.57 234.294 3707
2463.43 234.294 3707
2456.29 232.778 3683
2454.39 231.766 3667
2446.37 230.186 3642
2455.08 230.186 3642
2463.78 230.186 3642
2472.49 230.186 3642
2486.65 230.692 3650
2495.38 230.692 3650
2504.11 230.692 3650
2512.84 230.692 3650
2473.21 226.268 3580
1987.59 177.538 2809
1994.31 177.538 2809
2001.02 177.538 2809
1994.16 176.337 2790
1990.79 175.452 2776
1997.43 175.452 2776
2000.46 175.136 2771
2004.19 174.883 2767
2013.71 175.136 2771
2026.9 175.705 2780
2040.86 176.337 2790
2047.53 176.337 2790
2057.15 176.59 2794
2067.53 176.906 2799
2077.92 177.222 2804
2084.63 177.222 2804
2091.34 177.222 2804
2104.77 177.791 2813
2115.25 178.107 2818
2121.99 178.107 2818
2128.73 178.107 2818
2143.05 178.739 2828
2156.65 179.308 2837
2163.44 179.308 2837
2170.22 179.308 2837
-2321.79 203.422 3101
-2314.38 203.422 3101
-2302.5 203.028 3095
-2290.65 202.635 3089
-2283.26 202.635 3089
-2284.72 203.422 3101
-2277.3 203.422 3101
-2269.89 203.422 3101
-2262.47 203.422 3101
-2259.42 203.815 3107
-2251.99 203.815 3107
-2252.51 204.537 3118
-2253.69 205.324 3130
-2246.21 205.324 3130
-2238.72 205.324 3130
-2231.24 205.324 3130
-2223.75 205.324 3130
-2216.27 205.324 3130
-2208.78 205.324 3130
-2209.74 206.111 3142
-2210.63 206.899 3154
-2211.47 207.686 3166
-2203.9 207.686 3166
-2196.33 207.686 3166
-2197.06 208.473 3178
-2197.72 209.26 3190
-2190.1 209.26 3190
-2186.57 209.654 3196
-2178.93 209.654 3196
-2175.36 210.047 3202
-2167.71 210.047 3202
-2164.1 210.441 3208
-2173.23 212.081 3233
-2165.5 212.081 3233
-2157.77 212.081 3233
-2154.03 212.474 3239
-2146.28 212.474 3239
-2138.54 212.474 3239
-2130.79 212.474 3239
-2123.05 212.474 3239
-2119.87 212.934 3246
-2116.01 213.327 3252
-2108.24 213.327 3252
-2100.46 213.327 3252
-2092.69 213.327 3252
-2088.76 213.721 3258
-2080.96 213.721 3258
-2089.72 215.426 3284
-2085.67 215.82 3290
-2098.64 217.985 3323
-2090.7 217.985 3323
-2082.75 217.985 3323
-2074.8 217.985 3323
-2066.86 217.985 3323
-2058.91 217.985 3323
-2034.92 216.279 3297
-2022.73 215.82 3290
-2031.4 217.591 3317
-2023.47 217.591 3317
-2035.59 219.756 3350
-2043.92 221.527 3377
-2056.94 223.823 3412
-2048.78 223.823 3412
-2061.56 226.119 3447
-2057.48 226.578 3454
-2049.22 226.578 3454
-2040.96 226.578 3454
-2007.99 223.823 3412
-1987.52 222.445 3391
-1979.41 222.445 3391
-1967.23 221.986 3384
-1955.09 221.527 3377
-1959.12 222.905 3398
-1950.99 222.905 3398
-1942.87 222.905 3398
-1934.74 222.905 3398
-1914.71 221.527 3377
-1906.63 221.527 3377
-1890.69 220.609 3363
-1882.65 220.609 3363
-1874.6 220.609 3363
-1866.56 220.609 3363
-1855.2 220.215 3357
-1847.18 220.215 3357
-1828.19 218.903 3337
-1816.39 218.444 3330
-1808.43 218.444 3330
-1789.65 217.132 3310
-1792.51 218.444 3330
-1795.26 219.756 3350
-1787.25 219.756 3350
-1779.24 219.756 3350
-1774.93 220.215 3357
-1766.9 220.215 3357
-1758.87 220.215 3357
-1750.85 220.215 3357
-1735.55 219.297 3343
-1727.56 219.297 3343
-1719.56 219.297 3343
-1711.57 219.297 3343
-1713.77 220.609 3363
-1716.37 221.986 3384
-1708.28 221.986 3384
-1700.19 221.986 3384
-1692.1 221.986 3384
-1684.01 221.986 3384
-1689.78 223.823 3412
-1681.62 223.823 3412
-1680.33 224.741 3426
-1672.14 224.741 3426
-1663.94 224.741 3426
-1655.75 224.741 3426
-1644.19 224.282 3419
-1636.02 224.282 3419
-1634.51 225.201 3433
-1626.3 225.201 3433
-1618.09 225.201 3433
-1619.73 226.578 3454
-1611.47 226.578 3454
-1603.21 226.578 3454
-1594.95 226.578 3454
-1586.69 226.578 3454
-1578.43 226.578 3454
-1566.99 226.119 3447
-1558.74 226.119 3447
-1550.5 226.119 3447
-1551.65 227.497 3468
-1543.36 227.497 3468
-1535.07 227.497 3468
-1523.69 227.037 3461
-1515.42 227.037 3461
-1501.04 226.119 3447
-1495.83 226.578 3454
-1493.6 227.497 3468
-1485.31 227.497 3468
-1477.02 227.497 3468
-1468.72 227.497 3468
-1460.43 227.497 3468
-1455.49 228.021 3476
-1447.17 228.021 3476
-1441.76 228.48 3483
-1439.19 229.399 3497
-1430.83 229.399 3497
-1422.47 229.399 3497
-1414.11 229.399 3497
-1411.77 230.383 3512
-1403.38 230.383 3512
-1394.98 230.383 3512
-1386.58 230.383 3512
-1378.18 230.383 3512
-1369.78 230.383 3512
-1361.38 230.383 3512
-1352.99 230.383 3512
-1350.33 231.367 3527
-1341.9 231.367 3527
-1333.46 231.367 3527
-1319.39 230.383 3512
-1310.99 230.383 3512
-1294.44 228.94 3490
-1286.09 228.94 3490
-1272.62 228.021 3476
-1261.4 227.497 3468
-1248.05 226.578 3454
-1239.79 226.578 3454
-1221.54 224.741 3426
-1205.91 223.364 3405
-1192.85 222.445 3391
-1184.74 222.445 3391
-1174.2 221.986 3384
-1163.69 221.527 3377
-1150.83 220.609 3363
-1142.79 220.609 3363
-561.844 110.009 1677
-557.834 110.009 1677
-554.154 110.075 1678
-550.141 110.075 1678
-546.128 110.075 1678
-541.793 110.009 1677
-537.782 110.009 1677
-534.091 110.075 1678
-531.342 110.337 1682
-527.319 110.337 1682
-523.297 110.337 1682
-519.275 110.337 1682
-515.253 110.337 1682
-510.623 110.206 1680
-506.002 110.075 1678
-501.99 110.075 1678
-497.977 110.075 1678
-493.965 110.075 1678
-489.952 110.075 1678
-485.65 110.009 1677
-481.639 110.009 1677
-477.629 110.009 1677
-473.054 109.878 1675
-468.209 109.681 1672
-464.21 109.681 1672
-460.212 109.681 1672
-456.214 109.681 1672
-450.863 109.353 1667
-445.805 109.091 1663
-441.828 109.091 1663
-437.588 109.025 1662
-433.092 108.894 1660
-426.537 108.238 1650
-422.592 108.238 1650
-418.138 108.107 1648
-413.946 108.041 1647
-409.51 107.91 1645
-405.576 107.91 1645
-401.398 107.844 1644
-395.533 107.32 1636
-391.621 107.32 1636
-387.709 107.32 1636
-382.623 106.992 1631
-378.723 106.992 1631
-374.363 106.86 1629
-370.241 106.795 1628
-366.347 106.795 1628
-362.009 106.664 1626
-357.68 106.532 1624
-353.579 106.467 1623
-349.698 106.467 1623
-345.391 106.336 1621
-341.514 106.336 1621
-337.43 106.27 1620
-333.556 106.27 1620
-329.275 106.139 1618
-325.205 106.073 1617
-320.941 105.942 1615
-317.079 105.942 1615
-312.829 105.811 1613
-308.972 105.811 1613
-305.114 105.811 1613
-301.257 105.811 1613
-296.847 105.614 1610
-292.451 105.417 1607
-288.608 105.417 1607
-284.765 105.417 1607
-280.923 105.417 1607
-276.907 105.352 1606
-272.557 105.155 1603
-268.388 105.024 1601
-264.56 105.024 1601
-260.731 105.024 1601
-256.903 105.024 1601
-253.074 105.024 1601
-249.246 105.024 1601
-245.417 105.024 1601
-241.891 105.155 1603
-238.206 105.22 1604
-234.663 105.352 1606
-230.822 105.352 1606
-227.406 105.548 1609
-223.975 105.745 1612
-220.803 106.073 1617
-216.936 106.073 1617
-213.465 106.27 1620
-210.108 106.532 1624
-206.86 106.86 1629
-202.964 106.86 1629
-199.68 107.188 1634
-196.491 107.582 1640
-193.509 108.107 1648
-189.568 108.107 1648
-186.641 108.697 1657
-183.781 109.353 1667
-180.981 110.075 1678
-176.969 110.075 1678
-173.471 110.403 1683
-170.152 110.862 1690
-166.602 111.19 1695
-162.548 111.19 1695
-158.682 111.321 1697
-155.08 111.649 1702
-151.542 112.043 1708
-147.458 112.043 1708
-143.793 112.371 1713
-140.268 112.83 1720
-136.709 113.289 1727
-132.579 113.289 1727
-128.449 113.289 1727
-124.319 113.289 1727
-120.19 113.289 1727
-207.208 235.828 3595
-198.612 235.828 3595
-190.015 235.828 3595
-181.418 235.828 3595
-172.485 235.368 3588
-163.905 235.368 3588
-155.325 235.368 3588
-146.745 235.368 3588
-138.165 235.368 3588
-129.585 235.368 3588
-120.735 234.844 3580
-112.174 234.844 3580
-104.048 235.828 3595
-95.4508 235.828 3595
-86.8541 235.828 3595
-78.2574 235.828 3595
-69.6606 235.828 3595
-61.0639 235.828 3595
-52.4672 235.828 3595
-43.6874 234.844 3580
-35.1265 234.844 3580
-26.625 235.368 3588
-18.0802 235.828 3595
-9.48348 235.828 3595
-0.886748 235.828 3595
7.70999 235.828 3595
16.3067 235.828 3595
24.9035 235.828 3595
33.5002 235.828 3595
42.015 235.368 3588
50.595 235.368 3588
59.1749 235.368 3588
67.8871 235.828 3595
76.9945 237.402 3619
86.0273 238.452 3635
94.7196 238.452 3635
103.412 238.452 3635
112.104 238.452 3635
120.797 238.452 3635
129.489 238.452 3635
138.182 238.452 3635
145.258 235.828 3595
153.854 235.828 3595
162.451 235.828 3595
171.048 235.828 3595
177.346 232.81 3549
231.74 236.352 3603
240.355 236.352 3603
249.524 236.877 3611
258.159 236.877 3611
270.267 239.96 3658
279.014 239.96 3658
287.761 239.96 3658
294.645 238.452 3635
303.337 238.452 3635
312.029 238.452 3635
320.016 237.927 3627
328.689 237.927 3627
337.362 237.927 3627
345.272 237.402 3619
350.895 235.368 3588
357.872 234.319 3572
366.414 234.319 3572
374.22 233.86 3565
378.666 231.367 3527
384.685 229.924 3505
389.815 228.021 3476
398.127 228.021 3476
401.411 225.201 3433
404.609 222.445 3391
410.162 221.068 3370
418.221 221.068 3370
422.864 219.297 3343
428.281 217.985 3323
433.601 216.673 3303
441.5 216.673 3303
449.398 216.673 3303
457.297 216.673 3303
465.195 216.673 3303
473.094 216.673 3303
479.099 215.82 3290
483.266 214.18 3265
490.021 213.721 3258
498.881 214.18 3265
512.586 216.673 3303
520.485 216.673 3303
539.101 221.068 3370
557.389 225.201 3433
576.142 229.399 3497
584.505 229.399 3497
603.039 233.335 3557
616.875 235.368 3588
625.455 235.368 3588
634.035 235.368 3588
642.615 235.368 3588
651.195 235.368 3588
659.775 235.368 3588
668.355 235.368 3588
673.916 234.319 3572
681.12 233.86 3565
690.999 234.319 3572
699.541 234.319 3572
709.669 234.844 3580
718.23 234.844 3580
726.79 234.844 3580
735.351 234.844 3580
743.912 234.844 3580
749.32 233.86 3565
757.845 233.86 3565
766.37 233.86 3565
774.895 233.86 3565
783.42 233.86 3565
791.945 233.86 3565
798.674 233.335 3557
812.399 234.844 3580
822.795 235.368 3588
831.375 235.368 3588
845.339 236.877 3611
853.974 236.877 3611
866.431 237.927 3627
877.034 238.452 3635
887.432 238.911 3642
896.142 238.911 3642
904.851 238.911 3642
913.56 238.911 3642
928.6 240.551 3667
937.369 240.551 3667
946.138 240.551 3667
954.906 240.551 3667
963.675 240.551 3667
972.444 240.551 3667
981.213 240.551 3667
989.982 240.551 3667
998.751 240.551 3667
1007.52 240.551 3667
1013.79 239.96 3658
1022.54 239.96 3658
1031.29 239.96 3658
1040.04 239.96 3658
1051.36 240.551 3667
1060.13 240.551 3667
1068.9 240.551 3667
1075.03 239.96 3658
1083.77 239.96 3658
1095.21 240.551 3667
1106.39 241.075 3675
1115.17 241.075 3675
1123.96 241.075 3675
1132.75 241.075 3675
1139.05 240.551 3667
1147.82 240.551 3667
1156.59 240.551 3667
1165.36 240.551 3667
1176.69 241.075 3675
1185.48 241.075 3675
1194.27 241.075 3675
1203.05 241.075 3675
1214.48 241.6 3683
1223.29 241.6 3683
1232.1 241.6 3683
1243.6 242.125 3691
1252.42 242.125 3691
1261.25 242.125 3691
1270.08 242.125 3691
1278.9 242.125 3691
1282.15 241.075 3675
1290.94 241.075 3675
1296.89 240.551 3667
1305.66 240.551 3667
1308.34 239.436 3650
1317.07 239.436 3650
1325.79 239.436 3650
1334.52 239.436 3650
1343.25 239.436 3650
1358.28 240.551 3667
1367.05 240.551 3667
1375.81 240.551 3667
1384.58 240.551 3667
1396.39 241.075 3675
1408.24 241.6 3683
1417.05 241.6 3683
1425.85 241.6 3683
1431.54 241.075 3675
1440.33 241.075 3675
1439.26 239.436 3650
1444.82 238.911 3642
1447.54 237.927 3627
1453 237.402 3619
1461.65 237.402 3619
1463.81 236.352 3603
1472.42 236.352 3603
1481.04 236.352 3603
1499.58 237.927 3627
1508.25 237.927 3627
1516.93 237.927 3627
1518.87 236.877 3611
1527.5 236.877 3611
1536.14 236.877 3611
1541.35 236.352 3603
1549.97 236.352 3603
1558.58 236.352 3603
1563.72 235.828 3595
1565.76 234.844 3580
1574.32 234.844 3580
1582.88 234.844 3580
1601.66 236.352 3603
1610.28 236.352 3603
1643.61 239.96 3658
1656.42 240.551 3667
1668.82 241.075 3675
1677.61 241.075 3675
1686.4 241.075 3675
1695.19 241.075 3675
1703.97 241.075 3675
1712.76 241.075 3675
1721.55 241.075 3675
1726.57 240.551 3667
1735.34 240.551 3667
1739.83 239.96 3658
1740.93 238.911 3642
1746.27 238.452 3635
1758.35 238.911 3642
1767.05 238.911 3642
1775.76 238.911 3642
1784.47 238.911 3642
1793.18 238.911 3642
1801.89 238.911 3642
1807.12 238.452 3635
1815.81 238.452 3635
1804.43 235.828 3595
1813.02 235.828 3595
1814.02 234.844 3580
1818.51 234.319 3572
1804.03 231.367 3527
1812.47 231.367 3527
1817.29 230.908 3520
1821.56 230.383 3512
1837.77 231.367 3527
1849.87 231.826 3534
1858.32 231.826 3534
1874.69 232.81 3549
1887.42 233.335 3557
1900.19 233.86 3565
1908.72 233.86 3565
1917.24 233.86 3565
1925.77 233.86 3565
1929.95 233.335 3557
1946.63 234.319 3572
1955.18 234.319 3572
1976.36 235.828 3595
2002.63 237.927 3627
2019.62 238.911 3642
2028.33 238.911 3642
2051.02 240.551 3667
2082.26 243.175 3707
2119.33 246.455 3757
2128.31 246.455 3757
2181.67 251.571 3835
2190.84 251.571 3835
2200.01 251.571 3835
2199.39 250.456 3818
2183.07 247.57 3774
2207.19 249.275 3800
2241.94 252.162 3844
2251.13 252.162 3844
2260.33 252.162 3844
2264.2 251.571 3835
2273.37 251.571 3835
2282.55 251.571 3835
2291.72 251.571 3835
2290.69 250.456 3818
2278.73 248.16 3783
2287.78 248.16 3783
2291.36 247.57 3774
2311.36 248.751 3792
2320.43 248.751 3792
2329.49 248.751 3792
2338.56 248.751 3792
2347.63 248.751 3792
2356.7 248.751 3792
2365.77 248.751 3792
2374.83 248.751 3792
2383.9 248.751 3792
2392.97 248.751 3792
2402.04 248.751 3792
2411.11 248.751 3792
2386.98 245.339 3740
2401.69 245.93 3749
2421.59 247.045 3766
2430.6 247.045 3766
2439.6 247.045 3766
2470.71 249.275 3800
2479.8 249.275 3800
2488.89 249.275 3800
2497.97 249.275 3800
2501.78 248.751 3792
2504.89 248.16 3783
2513.94 248.16 3783
2511.65 247.045 3766
2497.9 244.815 3732
2501.45 244.29 3724
2510.35 244.29 3724
2524.67 244.815 3732
2533.59 244.815 3732
2547.97 245.339 3740
2556.91 245.339 3740
2565.85 245.339 3740
2574.8 245.339 3740
1954.55 180.593 2753
1961.13 180.593 2753
1974.15 181.184 2762
1980.75 181.184 2762
1987.36 181.184 2762
1990.35 180.856 2757
1996.95 180.856 2757
2003.54 180.856 2757
2020.34 181.774 2771
2033.55 182.365 2780
2040.2 182.365 2780
2054.21 183.021 2790
2067.53 183.611 2799
2074.22 183.611 2799
2080.91 183.611 2799
2091.34 183.939 2804
2101.78 184.267 2809
2115.25 184.857 2818
2121.99 184.857 2818
2128.73 184.857 2818
2135.47 184.857 2818
2156.65 186.104 2837
2163.44 186.104 2837
2170.22 186.104 2837
-2321.79 210.85 3101
-2314.38 210.85 3101
-2302.5 210.442 3095
-2290.65 210.034 3089
-2283.26 210.034 3089
-2284.72 210.85 3101
-2277.3 210.85 3101
-2269.89 210.85 3101
-2262.47 210.85 3101
-2259.42 211.258 3107
-2251.99 211.258 3107
-2252.51 212.006 3118
-2253.69 212.822 3130
-2246.21 212.822 3130
-2238.72 212.822 3130
-2231.24 212.822 3130
-2223.75 212.822 3130
-2216.27 212.822 3130
-2208.78 212.822 3130
-2201.3 212.822 3130
-2206.43 214.046 3148
-2207.28 214.862 3160
-2199.73 214.862 3160
-2192.17 214.862 3160
-2184.61 214.862 3160
-2189.46 216.086 3178
-2181.86 216.086 3178
-2182.47 216.902 3190
-2174.84 216.902 3190
-2171.29 217.31 3196
-2163.65 217.31 3196
-2164.1 218.126 3208
-2173.23 219.825 3233
-2165.5 219.825 3233
-2157.77 219.825 3233
-2154.03 220.233 3239
-2146.28 220.233 3239
-2138.54 220.233 3239
-2130.79 220.233 3239
-2123.05 220.233 3239
-2119.87 220.709 3246
-2116.01 221.117 3252
-2108.24 221.117 3252
-2100.46 221.117 3252
-2092.69 221.117 3252
-2088.76 221.525 3258
-2080.96 221.525 3258
-2089.72 223.293 3284
-2085.67 223.701 3290
-2098.64 225.945 3323
-2090.7 225.945 3323
-2082.75 225.945 3323
-2074.8 225.945 3323
-2066.86 225.945 3323
-2058.91 225.945 3323
-2034.92 224.177 3297
-2022.73 223.701 3290
-2031.4 225.537 3317
-2023.47 225.537 3317
-2035.59 227.781 3350
-2043.92 229.617 3377
-2056.94 231.996 3412
-2048.78 231.996 3412
-2061.56 234.376 3447
-2057.48 234.852 3454
-2049.22 234.852 3454
-2040.96 234.852 3454
-2007.99 231.996 3412
-1987.52 230.569 3391
-1979.41 230.569 3391
-1967.23 230.093 3384
-1955.09 229.617 3377
-1959.12 231.045 3398
-1950.99 231.045 3398
-1942.87 231.045 3398
-1934.74 231.045 3398
-1914.71 229.617 3377
-1906.63 229.617 3377
-1890.69 228.665 3363
-1882.65 228.665 3363
-1874.6 228.665 3363
-1866.56 228.665 3363
-1855.2 228.257 3357
-1847.18 228.257 3357
-1828.19 226.897 3337
-1816.39 226.421 3330
-1808.43 226.421 3330
-1789.65 225.061 3310
-1821.57 230.093 3384
-1828.49 231.996 3412
-1820.33 231.996 3412
-1812.17 231.996 3412
-1811.41 232.948 3426
-1803.22 232.948 3426
-1795.03 232.948 3426
-1786.83 232.948 3426
-1764.1 231.045 3398
-1759.6 231.521 3405
-1751.45 231.521 3405
-1743.31 231.521 3405
-1735.17 231.521 3405
-1744.78 233.9 3440
-1736.55 233.9 3440
-1728.33 233.9 3440
-1720.1 233.9 3440
-1704.91 232.948 3426
-1707.11 234.376 3447
-1698.87 234.376 3447
-1690.63 234.376 3447
-1682.39 234.376 3447
-1674.14 234.376 3447
-1665.9 234.376 3447
-1654.29 233.9 3440
-1646.07 233.9 3440
-1641.17 234.376 3447
-1632.93 234.376 3447
-1631.28 235.328 3461
-1623.01 235.328 3461
-1614.73 235.328 3461
-1606.46 235.328 3461
-1598.18 235.328 3461
-1589.9 235.328 3461
-1581.63 235.328 3461
-1573.35 235.328 3461
-1565.07 235.328 3461
-1563.55 236.348 3476
-1558.36 236.824 3483
-1550.04 236.824 3483
-1541.71 236.824 3483
-1533.38 236.824 3483
-1525.05 236.824 3483
-1510.19 235.804 3468
-1505.36 236.348 3476
-1497.05 236.348 3476
-1488.74 236.348 3476
-1480.42 236.348 3476
-1472.11 236.348 3476
-1466.75 236.824 3483
-1461.35 237.3 3490
-1453 237.3 3490
-1450.87 238.32 3505
-1445.37 238.796 3512
-1436.97 238.796 3512
-1428.57 238.796 3512
-1420.17 238.796 3512
-1417.8 239.816 3527
-1415.36 240.836 3542
-1406.89 240.836 3542
-1401.19 241.312 3549
-1392.7 241.312 3549
-1384.21 241.312 3549
-1375.73 241.312 3549
-1373.4 242.4 3565
-1370.62 243.42 3580
-1362.06 243.42 3580
-1353.5 243.42 3580
-1341.93 242.876 3572
-1330.78 242.4 3565
-1322.25 242.4 3565
-1310.78 241.856 3557
-1299.35 241.312 3549
-1288.31 240.836 3542
-1271.89 239.34 3520
-1263.48 239.34 3520
-1246.86 237.776 3497
-1238.5 237.776 3497
-1225.21 236.824 3483
-1216.88 236.824 3483
-1206.12 236.348 3476
-1192.64 235.328 3461
-1150.83 228.665 3363
-1142.79 228.665 3363
-561.844 114.026 1677
-557.834 114.026 1677
-554.154 114.094 1678
-550.141 114.094 1678
-546.128 114.094 1678
-541.793 114.026 1677
-537.782 114.026 1677
-534.727 114.23 1680
-531.342 114.366 1682
-527.319 114.366 1682
-523.297 114.366 1682
-519.275 114.366 1682
-515.253 114.366 1682
-510.623 114.23 1680
-506.002 114.094 1678
-501.99 114.094 1678
-497.977 114.094 1678
-493.965 114.094 1678
-489.952 114.094 1678
-485.65 114.026 1677
-481.639 114.026 1677
-477.629 114.026 1677
-473.054 113.89 1675
-468.209 113.686 1672
-464.21 113.686 1672
-460.212 113.686 1672
-456.214 113.686 1672
-450.863 113.346 1667
-446.341 113.21 1665
-442.359 113.21 1665
-437.588 113.006 1662
-433.092 112.87 1660
-426.537 112.191 1650
-422.592 112.191 1650
-418.138 112.055 1648
-413.946 111.987 1647
-409.51 111.851 1645
-405.576 111.851 1645
-401.398 111.783 1644
-395.533 111.239 1636
-391.621 111.239 1636
-387.709 111.239 1636
-382.623 110.899 1631
-378.723 110.899 1631
-374.363 110.763 1629
-370.241 110.695 1628
-366.347 110.695 1628
-362.009 110.559 1626
-357.68 110.423 1624
-353.579 110.355 1623
-349.698 110.355 1623
-345.391 110.219 1621
-341.514 110.219 1621
-337.43 110.151 1620
-333.556 110.151 1620
-329.275 110.015 1618
-325.205 109.947 1617
-320.941 109.811 1615
-317.079 109.811 1615
-312.829 109.675 1613
-308.972 109.675 1613
-305.114 109.675 1613
-301.257 109.675 1613
-296.847 109.471 1610
-292.451 109.267 1607
-288.608 109.267 1607
-284.765 109.267 1607
-280.923 109.267 1607
-276.907 109.199 1606
-272.557 108.995 1603
-268.724 108.995 1603
-264.89 108.995 1603
-261.057 108.995 1603
-257.224 108.995 1603
-253.39 108.995 1603
-249.557 108.995 1603
-245.724 108.995 1603
-242.042 109.063 1604
-238.503 109.199 1606
-235.101 109.403 1609
-231.253 109.403 1609
-227.971 109.675 1613
-224.392 109.811 1615
-221.213 110.151 1620
-217.339 110.151 1620
-213.992 110.423 1624
-211.014 110.899 1631
-207.495 111.103 1634
-203.587 111.103 1634
-200.413 111.511 1640
-197.09 111.851 1645
-194.096 112.395 1653
-190.143 112.395 1653
-187.317 113.074 1663
-184.112 113.55 1670
-180.981 114.094 1678
-176.969 114.094 1678
-173.677 114.57 1685
-170.353 115.046 1692
-166.602 115.25 1695
-162.548 115.25 1695
-158.869 115.522 1699
-155.08 115.726 1702
-151.631 116.202 1709
-147.544 116.202 1709
-143.961 116.61 1715
-140.268 116.95 1720
-136.709 117.426 1727
-132.579 117.426 1727
-128.449 117.426 1727
-124.319 117.426 1727
-120.19 117.426 1727
-209.053 246.615 3627
-200.38 246.615 3627
-191.706 246.615 3627
-183.033 246.615 3627
-173.591 245.527 3611
-164.956 245.527 3611
-156.321 245.527 3611
-148.013 246.071 3619
-139.359 246.071 3619
-130.705 246.071 3619
-121.511 244.983 3603
-112.895 244.983 3603
-104.742 246.071 3619
-96.0881 246.071 3619
-87.4339 246.071 3619
-78.7798 246.071 3619
-70.1257 246.071 3619
-61.6074 246.615 3627
-52.9342 246.615 3627
-44.2609 246.615 3627
-35.5877 246.615 3627
-27.0257 247.635 3642
-18.3166 247.635 3642
-9.60747 247.635 3642
-0.898341 247.635 3642
7.79577 247.159 3635
16.4882 247.159 3635
25.1805 247.159 3635
33.7238 246.071 3619
42.378 246.071 3619
51.0321 246.071 3619
59.6862 246.071 3619
68.4914 246.615 3627
77.8242 248.723 3658
87.5419 251.511 3699
96.3873 251.511 3699
105.233 251.511 3699
114.325 252.055 3707
123.189 252.055 3707
132.054 252.055 3707
140.919 252.055 3707
145.258 244.439 3595
153.854 244.439 3595
162.451 244.439 3595
171.048 244.439 3595
177.346 241.312 3549
231.74 244.983 3603
240.355 244.983 3603
249.524 245.527 3611
258.159 245.527 3611
270.267 248.723 3658
279.014 248.723 3658
295.549 255.454 3757
304.534 255.454 3757
313.518 255.454 3757
322.502 255.454 3757
329.986 254.299 3740
335.939 252.055 3707
344.803 252.055 3707
348.993 248.723 3658
356.176 247.635 3642
362.581 246.071 3619
371.235 246.071 3619
374.955 242.876 3572
382.745 242.4 3565
387.1 239.816 3527
393.067 238.32 3505
401.448 238.32 3505
406.439 236.348 3476
407.95 232.472 3419
411.866 230.093 3384
419.958 230.093 3384
426.279 229.141 3370
430.858 227.305 3343
436.227 225.945 3323
444.173 225.945 3323
450.351 225.061 3310
457.297 224.585 3303
465.195 224.585 3303
473.094 224.585 3303
480.992 224.585 3303
483.266 222.001 3265
491.074 222.001 3265
503.771 224.177 3297
514.759 225.537 3317
522.691 225.537 3317
541.341 230.093 3384
559.662 234.376 3447
577.46 238.32 3505
585.842 238.32 3505
608.295 243.963 3588
622.204 246.071 3619
630.859 246.071 3619
640.926 246.615 3627
649.6 246.615 3627
658.273 246.615 3627
666.946 246.615 3627
675.619 246.615 3627
681.274 245.527 3611
689.909 245.527 3611
698.544 245.527 3611
707.179 245.527 3611
718.986 246.615 3627
727.659 246.615 3627
736.332 246.615 3627
745.005 246.615 3627
753.679 246.615 3627
762.352 246.615 3627
771.025 246.615 3627
779.698 246.615 3627
788.372 246.615 3627
797.045 246.615 3627
805.718 246.615 3627
814.391 246.615 3627
826.469 247.635 3642
835.178 247.635 3642
843.887 247.635 3642
852.596 247.635 3642
865.089 248.723 3658
881.72 250.967 3691
890.546 250.967 3691
899.372 250.967 3691
908.198 250.967 3691
915.037 250.423 3683
923.844 250.423 3683
934.677 250.967 3691
943.504 250.967 3691
952.33 250.967 3691
961.156 250.967 3691
969.983 250.967 3691
978.809 250.967 3691
985.495 250.423 3683
994.302 250.423 3683
1003.11 250.423 3683
1009.72 249.879 3675
1018.51 249.879 3675
1027.29 249.879 3675
1036.08 249.879 3675
1044.87 249.879 3675
1053.66 249.879 3675
1062.45 249.879 3675
1071.23 249.879 3675
1077.67 249.335 3667
1086.44 249.335 3667
1099.99 250.423 3683
1108.79 250.423 3683
1117.6 250.423 3683
1126.41 250.423 3683
1135.22 250.423 3683
1144.02 250.423 3683
1152.83 250.423 3683
1159.11 249.879 3675
1167.9 249.879 3675
1181.81 250.967 3691
1193.22 251.511 3699
1202.07 251.511 3699
1210.91 251.511 3699
1219.76 251.511 3699
1228.6 251.511 3699
1237.45 251.511 3699
1252.02 252.667 3716
1260.91 252.667 3716
1269.79 252.667 3716
1272.83 251.511 3699
1281.67 251.511 3699
1287.73 250.967 3691
1296.56 250.967 3691
1302.55 250.423 3683
1311.36 250.423 3683
1317.3 249.879 3675
1323.2 249.335 3667
1331.97 249.335 3667
1340.74 249.335 3667
1352.45 249.879 3675
1364.2 250.423 3683
1373.01 250.423 3683
1381.82 250.423 3683
1390.62 250.423 3683
1405.51 251.511 3699
1414.36 251.511 3699
1423.2 251.511 3699
1432.05 251.511 3699
1440.89 251.511 3699
1449.74 251.511 3699
1452.27 250.423 3683
1451.16 248.723 3658
1453.53 247.635 3642
1456.21 246.615 3627
1464.89 246.615 3627
1470.31 246.071 3619
1482.23 246.615 3627
1500.36 248.179 3650
1512.4 248.723 3658
1521.14 248.723 3658
1529.89 248.723 3658
1535.27 248.179 3650
1544 248.179 3650
1552.73 248.179 3650
1561.46 248.179 3650
1566.74 247.635 3642
1575.45 247.635 3642
1574.16 246.071 3619
1579.31 245.527 3611
1584.43 244.983 3603
1593.05 244.983 3603
1626.11 248.723 3658
1634.86 248.723 3658
1662.03 251.511 3699
1674.49 252.055 3707
1683.35 252.055 3707
1692.22 252.055 3707
1701.08 252.055 3707
1706.26 251.511 3699
1715.1 251.511 3699
1720.22 250.967 3691
1729.04 250.967 3691
1734.1 250.423 3683
1742.91 250.423 3683
1751.72 250.423 3683
1744.75 248.179 3650
1753.48 248.179 3650
1762.21 248.179 3650
1770.94 248.179 3650
1779.66 248.179 3650
1784.47 247.635 3642
1797.12 248.179 3650
1805.85 248.179 3650
1814.58 248.179 3650
1823.31 248.179 3650
1812.46 245.527 3611
1821.09 245.527 3611
1821.62 244.439 3595
1822.58 243.42 3580
1815.29 241.312 3549
1823.77 241.312 3549
1820.9 239.816 3527
1829.34 239.816 3527
1841.42 240.292 3534
1854.06 240.836 3542
1862.53 240.836 3542
1878.92 241.856 3557
1891.67 242.4 3565
1900.19 242.4 3565
1912.47 242.876 3572
1921.01 242.876 3572
1929.55 242.876 3572
1934.29 242.4 3565
1946.63 242.876 3572
1955.18 242.876 3572
1993.95 246.615 3627
2010.91 247.635 3642
2024.06 248.179 3650
2032.78 248.179 3650
2064.44 250.967 3691
2100.79 254.299 3740
2119.33 255.454 3757
2128.31 255.454 3757
2181.67 260.758 3835
2190.84 260.758 3835
2200.01 260.758 3835
2199.39 259.602 3818
2183.07 256.61 3774
2274.57 266.266 3916
2283.93 266.266 3916
2293.3 266.266 3916
2302.66 266.266 3916
2296.09 264.43 3889
2305.39 264.43 3889
2314.69 264.43 3889
2323.99 264.43 3889
2317.09 262.594 3862
2304.64 260.146 3826
2313.79 260.146 3826
2312.61 258.99 3809
2327.21 259.602 3818
2341.23 260.146 3826
2350.38 260.146 3826
2359.53 260.146 3826
2368.68 260.146 3826
2372.86 259.602 3818
2392.59 260.758 3835
2401.76 260.758 3835
2427.91 262.594 3862
2437.14 262.594 3862
2446.38 262.594 3862
2455.61 262.594 3862
2425.28 258.378 3800
2429.24 257.834 3792
2449.24 258.99 3809
2475.13 260.758 3835
2484.3 260.758 3835
2493.47 260.758 3835
2502.64 260.758 3835
2511.81 260.758 3835
2520.98 260.758 3835
2518.94 259.602 3818
2528.07 259.602 3818
2537.2 259.602 3818
2540.32 258.99 3809
2520.65 256.066 3766
2518.24 254.911 3749
2532.6 255.454 3757
2553.08 256.61 3774
2562.11 256.61 3774
2577.26 257.222 3783
2586.31 257.222 3783
2595.35 257.222 3783
2598.21 256.61 3774
1951 186.848 2748
1957.57 186.848 2748
1967.71 187.188 2753
1974.3 187.188 2753
1980.88 187.188 2753
1983.86 186.848 2748
1990.43 186.848 2748
1994.09 186.576 2744
2013.78 187.8 2762
2030.62 188.752 2776
2037.26 188.752 2776
2046.84 189.024 2780
2067.53 190.316 2799
2074.22 190.316 2799
2080.91 190.316 2799
2091.34 190.656 2804
2101.78 190.996 2809
2115.25 191.608 2818
2121.99 191.608 2818
2128.73 191.608 2818
2135.47 191.608 2818
2156.65 192.9 2837
2163.44 192.9 2837
2170.22 192.9 2837
-2330.03 219.053 3112
-2322.59 219.053 3112
-2306.96 218.279 3101
-2299.55 218.279 3101
-2287.7 217.856 3095
-2284.72 218.279 3101
-2277.3 218.279 3101
-2274.28 218.701 3107
-2266.85 218.701 3107
-2263.06 219.053 3112
-2255.61 219.053 3112
-2261.18 220.32 3130
-2253.69 220.32 3130
-2250.51 220.742 3136
-2243.01 220.742 3136
-2235.51 220.742 3136
-2228.01 220.742 3136
-2220.51 220.742 3136
-2208.78 220.32 3130
-2201.3 220.32 3130
-2206.43 221.587 3148
-2207.28 222.432 3160
-2199.73 222.432 3160
-2192.17 222.432 3160
-2184.61 222.432 3160
-2185.32 223.276 3172
-2177.74 223.276 3172
-2174.26 223.699 3178
-2174.84 224.543 3190
-2171.29 224.966 3196
-2163.65 224.966 3196
-2164.1 225.81 3208
-2173.23 227.57 3233
-2169.52 227.993 3239
-2161.77 227.993 3239
-2166.66 229.33 3258
-2158.87 229.33 3258
-2151.08 229.33 3258
-2143.29 229.33 3258
-2135.5 229.33 3258
-2127.71 229.33 3258
-2132.93 230.738 3278
-2125.09 230.738 3278
-2117.26 230.738 3278
-2104.91 230.245 3271
-2105.42 231.16 3284
-2097.57 231.16 3284
-2101.81 232.497 3303
-2111.03 234.398 3330
-2111.27 235.313 3343
-2103.28 235.313 3343
-2095.29 235.313 3343
-2087.29 235.313 3343
-2079.3 235.313 3343
-2071.3 235.313 3343
-2063.31 235.313 3343
-2055.31 235.313 3343
-2051.61 235.806 3350
-2043.6 235.806 3350
-2056.25 238.199 3384
-2065.1 240.17 3412
-2086.48 243.619 3461
-2078.21 243.619 3461
-2069.93 243.619 3461
-2061.65 243.619 3461
-2053.38 243.619 3461
-2045.1 243.619 3461
-2032.7 243.126 3454
-2008.03 241.155 3426
-1999.84 241.155 3426
-1987.58 240.663 3419
-1975.35 240.17 3412
-1983.33 242.141 3440
-1975.11 242.141 3440
-1966.88 242.141 3440
-1958.66 242.141 3440
-1946.46 241.648 3433
-1938.25 241.648 3433
-1930.04 241.648 3433
-1921.83 241.648 3433
-1913.62 241.648 3433
-1905.41 241.648 3433
-1885.6 240.17 3412
-1873.59 239.677 3405
-1846.27 237.214 3370
-1838.21 237.214 3370
-1823.09 236.299 3357
-1807.5 235.313 3343
-1821.57 238.199 3384
-1828.49 240.17 3412
-1820.33 240.17 3412
-1812.17 240.17 3412
-1811.41 241.155 3426
-1803.22 241.155 3426
-1795.03 241.155 3426
-1786.83 241.155 3426
-1764.1 239.184 3398
-1759.6 239.677 3405
-1751.45 239.677 3405
-1743.31 239.677 3405
-1735.17 239.677 3405
-1744.78 242.141 3440
-1736.55 242.141 3440
-1728.33 242.141 3440
-1720.1 242.141 3440
-1704.91 241.155 3426
-1707.11 242.634 3447
-1698.87 242.634 3447
-1690.63 242.634 3447
-1682.39 242.634 3447
-1674.14 242.634 3447
-1665.9 242.634 3447
-1654.29 242.141 3440
-1646.07 242.141 3440
-1641.17 242.634 3447
-1632.93 242.634 3447
-1631.28 243.619 3461
-1623.01 243.619 3461
-1614.73 243.619 3461
-1606.46 243.619 3461
-1598.18 243.619 3461
-1589.9 243.619 3461
-1581.63 243.619 3461
-1573.35 243.619 3461
-1565.07 243.619 3461
-1563.55 244.675 3476
-1558.36 245.168 3483
-1550.04 245.168 3483
-1541.71 245.168 3483
-1533.38 245.168 3483
-1525.05 245.168 3483
-1510.19 244.112 3468
-1505.36 244.675 3476
-1497.05 244.675 3476
-1488.74 244.675 3476
-1480.42 244.675 3476
-1472.11 244.675 3476
-1466.75 245.168 3483
-1461.35 245.66 3490
-1453 245.66 3490
-1450.87 246.716 3505
-1445.37 247.209 3512
-1436.97 247.209 3512
-1428.57 247.209 3512
-1420.17 247.209 3512
-1417.8 248.265 3527
-1415.36 249.321 3542
-1406.89 249.321 3542
-1401.19 249.813 3549
-1392.7 249.813 3549
-1384.21 249.813 3549
-1375.73 249.813 3549
-1373.4 250.94 3565
-1370.62 251.995 3580
-1362.06 251.995 3580
-1353.5 251.995 3580
-1341.93 251.432 3572
-1330.78 250.94 3565
-1322.25 250.94 3565
-1310.78 250.376 3557
-1299.35 249.813 3549
-1288.31 249.321 3542
-1271.89 247.772 3520
-1263.48 247.772 3520
-1246.86 246.153 3497
-1238.5 246.153 3497
-1225.21 245.168 3483
-1216.88 245.168 3483
-1206.12 244.675 3476
-1192.64 243.619 3461
-1150.83 236.721 3363
-1142.79 236.721 3363
-560.504 117.762 1673
-556.503 117.762 1673
-554.154 118.114 1678
-550.141 118.114 1678
-546.128 118.114 1678
-541.793 118.044 1677
-537.782 118.044 1677
-534.727 118.255 1680
-531.342 118.396 1682
-527.319 118.396 1682
-523.297 118.396 1682
-519.275 118.396 1682
-515.253 118.396 1682
-510.015 118.114 1678
-506.002 118.114 1678
-501.99 118.114 1678
-497.977 118.114 1678
-493.965 118.114 1678
-489.952 118.114 1678
-485.65 118.044 1677
-481.639 118.044 1677
-477.629 118.044 1677
-473.054 117.903 1675
-468.209 117.692 1672
-464.21 117.692 1672
-460.212 117.692 1672
-456.214 117.692 1672
-450.863 117.34 1667
-446.341 117.199 1665
-442.359 117.199 1665
-437.588 116.988 1662
-433.092 116.847 1660
-426.537 116.143 1650
-422.592 116.143 1650
-418.138 116.002 1648
-413.946 115.932 1647
-409.51 115.791 1645
-405.576 115.791 1645
-401.398 115.721 1644
-395.533 115.158 1636
-391.621 115.158 1636
-387.709 115.158 1636
-382.623 114.806 1631
-378.723 114.806 1631
-374.363 114.665 1629
-370.241 114.595 1628
-366.347 114.595 1628
-362.009 114.454 1626
-357.68 114.313 1624
-353.579 114.243 1623
-349.698 114.243 1623
-345.391 114.102 1621
-341.514 114.102 1621
-337.013 113.891 1618
-333.144 113.891 1618
-329.072 113.82 1617
-325.205 113.82 1617
-320.941 113.68 1615
-317.079 113.68 1615
-312.829 113.539 1613
-308.972 113.539 1613
-305.114 113.539 1613
-301.257 113.539 1613
-296.847 113.328 1610
-292.451 113.116 1607
-288.608 113.116 1607
-284.765 113.116 1607
-280.923 113.116 1607
-276.907 113.046 1606
-272.557 112.835 1603
-268.724 112.835 1603
-264.89 112.835 1603
-261.057 112.835 1603
-257.224 112.835 1603
-253.39 112.835 1603
-249.557 112.835 1603
-245.724 112.835 1603
-242.042 112.905 1604
-238.503 113.046 1606
-235.101 113.257 1609
-231.253 113.257 1609
-227.971 113.539 1613
-224.392 113.68 1615
-221.213 114.031 1620
-217.339 114.031 1620
-213.992 114.313 1624
-211.014 114.806 1631
-207.495 115.017 1634
-203.587 115.017 1634
-200.413 115.439 1640
-197.09 115.791 1645
-194.096 116.354 1653
-190.143 116.354 1653
-187.317 117.058 1663
-184.112 117.551 1670
-180.981 118.114 1678
-176.969 118.114 1678
-173.677 118.607 1685
-170.353 119.1 1692
-166.602 119.311 1695
-162.548 119.311 1695
-158.869 119.592 1699
-155.08 119.803 1702
-151.631 120.296 1709
-147.544 120.296 1709
-143.961 120.718 1715
-140.268 121.07 1720
-136.155 121.07 1720
-132.042 121.07 1720
-127.929 121.07 1720
-209.053 255.304 3627
-200.38 255.304 3627
-191.706 255.304 3627
-183.033 255.304 3627
-173.591 254.178 3611
-164.956 254.178 3611
-156.321 254.178 3611
-148.013 254.741 3619
-139.359 254.741 3619
-130.705 254.741 3619
-121.511 253.614 3603
-112.895 253.614 3603
-104.742 254.741 3619
-96.0881 254.741 3619
-87.4339 254.741 3619
-78.7798 254.741 3619
-70.1257 254.741 3619
-61.6074 255.304 3627
-52.9342 255.304 3627
-44.2609 255.304 3627
-35.5877 255.304 3627
-27.0257 256.36 3642
-18.3166 256.36 3642
-9.60747 256.36 3642
-0.898341 256.36 3642
7.79577 255.867 3635
16.4882 255.867 3635
25.1805 255.867 3635
33.7238 254.741 3619
42.378 254.741 3619
51.0321 254.741 3619
59.6862 254.741 3619
68.4914 255.304 3627
77.8242 257.486 3658
87.5419 260.372 3699
96.3873 260.372 3699
105.233 260.372 3699
114.325 260.935 3707
123.189 260.935 3707
132.054 260.935 3707
140.919 260.935 3707
270.267 257.486 3658
279.014 257.486 3658
295.549 264.454 3757
304.534 264.454 3757
313.518 264.454 3757
322.502 264.454 3757
329.986 263.258 3740
335.939 260.935 3707
344.803 260.935 3707
348.993 257.486 3658
356.176 256.36 3642
362.581 254.741 3619
371.235 254.741 3619
374.955 251.432 3572
382.745 250.94 3565
387.1 248.265 3527
393.067 246.716 3505
401.448 246.716 3505
406.439 244.675 3476
407.95 240.663 3419
411.866 238.199 3384
419.958 238.199 3384
426.279 237.214 3370
430.858 235.313 3343
436.227 233.905 3323
444.173 233.905 3323
450.351 232.99 3310
457.297 232.497 3303
465.195 232.497 3303
473.094 232.497 3303
480.992 232.497 3303
483.266 229.823 3265
491.074 229.823 3265
503.771 232.075 3297
514.759 233.483 3317
522.691 233.483 3317
541.341 238.199 3384
559.662 242.634 3447
577.46 246.716 3505
585.842 246.716 3505
608.295 252.559 3588
622.204 254.741 3619
630.859 254.741 3619
640.926 255.304 3627
649.6 255.304 3627
658.273 255.304 3627
666.946 255.304 3627
675.619 255.304 3627
681.274 254.178 3611
689.909 254.178 3611
698.544 254.178 3611
707.179 254.178 3611
718.986 255.304 3627
727.659 255.304 3627
736.332 255.304 3627
745.005 255.304 3627
753.679 255.304 3627
762.352 255.304 3627
771.025 255.304 3627
779.698 255.304 3627
788.372 255.304 3627
797.045 255.304 3627
805.718 255.304 3627
814.391 255.304 3627
826.469 256.36 3642
835.178 256.36 3642
843.887 256.36 3642
852.596 256.36 3642
865.089 257.486 3658
881.72 259.809 3691
890.546 259.809 3691
899.372 259.809 3691
908.198 259.809 3691
915.037 259.246 3683
923.844 259.246 3683
934.677 259.809 3691
943.504 259.809 3691
952.33 259.809 3691
961.156 259.809 3691
969.983 259.809 3691
978.809 259.809 3691
985.495 259.246 3683
994.302 259.246 3683
1003.11 259.246 3683
1009.72 258.682 3675
1018.51 258.682 3675
1027.29 258.682 3675
1036.08 258.682 3675
1044.87 258.682 3675
1053.66 258.682 3675
1062.45 258.682 3675
1071.23 258.682 3675
1077.67 258.119 3667
1086.44 258.119 3667
1099.99 259.246 3683
1108.79 259.246 3683
1117.6 259.246 3683
1126.41 259.246 3683
1135.22 259.246 3683
1144.02 259.246 3683
1152.83 259.246 3683
1159.11 258.682 3675
1167.9 258.682 3675
1181.81 259.809 3691
1193.22 260.372 3699
1202.07 260.372 3699
1210.91 260.372 3699
1219.76 260.372 3699
1228.6 260.372 3699
1237.45 260.372 3699
1252.02 261.568 3716
1260.91 261.568 3716
1269.79 261.568 3716
1272.83 260.372 3699
1281.67 260.372 3699
1287.73 259.809 3691
1296.56 259.809 3691
1302.55 259.246 3683
1311.36 259.246 3683
1317.3 258.682 3675
1323.2 258.119 3667
1331.97 258.119 3667
1340.74 258.119 3667
1352.45 258.682 3675
1364.2 259.246 3683
1373.01 259.246 3683
1381.82 259.246 3683
1390.62 259.246 3683
1418.05 262.695 3732
1426.97 262.695 3732
1435.9 262.695 3732
1444.82 262.695 3732
1450.63 262.132 3724
1459.54 262.132 3724
1461.74 260.935 3707
1464.26 259.809 3691
1459.91 257.486 3658
1468.66 257.486 3658
1470.94 256.36 3642
1473.56 255.304 3627
