ply
format ascii 1.0
comment File generated
element vertex 2257
property float x
property float y
property float z
end_header
-271.004 245.084 1640
-266.92 244.935 1639
-262.68 244.636 1637
-258.765 244.636 1637
-254.85 244.636 1637
-250.936 244.636 1637
-246.267 243.889 1632
-242.364 243.889 1632
-238.462 243.889 1632
-234.559 243.889 1632
-230.656 243.889 1632
-226.754 243.889 1632
-222.851 243.889 1632
-218.949 243.889 1632
-215.309 244.188 1634
-211.661 244.486 1636
-208.257 245.084 1640
-204.335 245.084 1640
-202.002 247.027 1653
-198.888 248.073 1660
-195.74 249.119 1667
-191.754 249.119 1667
-188.443 250.016 1673
-185.435 251.361 1682
-182.275 252.556 1690
-178.234 252.556 1690
-174.399 252.855 1692
-170.655 253.303 1695
-166.995 253.901 1699
-162.932 253.901 1699
-158.869 253.901 1699
-154.989 254.2 1701
-150.921 254.2 1701
-146.853 254.2 1701
-142.87 254.35 1702
-138.8 254.35 1702
-134.73 254.35 1702
-130.583 254.2 1701
-126.218 253.602 1697
-122.16 253.602 1697
-118.102 253.602 1697
-113.842 253.154 1694
-228.419 592.237 3963
-218.942 592.237 3963
-209.466 592.237 3963
-199.989 592.237 3963
-190.512 592.237 3963
-181.035 592.237 3963
-171.559 592.237 3963
-162.082 592.237 3963
-152.22 590.743 3953
-143.454 593.582 3972
-133.955 593.582 3972
-125.648 599.261 4010
-116.637 602.25 4030
-108.036 608.078 4069
-98.3058 608.078 4069
-88.7933 609.572 4079
-79.0391 609.572 4079
-69.285 609.572 4079
212.537 606.583 4059
222.244 606.583 4059
231.95 606.583 4059
241.656 606.583 4059
251.363 606.583 4059
258.56 600.755 4020
264.971 593.582 3972
272.535 589.398 3944
281.966 589.398 3944
287.334 581.178 3889
292.515 573.108 3835
299.64 569.223 3809
308.019 567.878 3800
317.106 567.878 3800
325.506 566.682 3792
336.074 569.223 3809
347.539 573.108 3835
356.709 573.108 3835
365.88 573.108 3835
374.17 571.763 3826
381.616 569.223 3809
390.725 569.223 3809
397.104 565.337 3783
401.534 558.911 3740
402.465 548.002 3667
411.234 548.002 3667
417.14 544.266 3642
422.224 539.634 3611
427.16 535.001 3580
431.096 529.322 3542
439.566 529.322 3542
444.241 524.839 3512
449.804 521.551 3490
455.262 518.263 3468
463.555 518.263 3468
468.991 515.125 3447
476.264 514.079 3440
484.49 514.079 3440
492.716 514.079 3440
500.943 514.079 3440
510.205 515.125 3447
519.5 516.171 3454
527.76 516.171 3454
536.019 516.171 3454
549.952 521.551 3490
564.216 527.08 3527
582.555 536.196 3588
591.135 536.196 3588
604.896 540.829 3619
620.162 546.657 3658
640.257 556.52 3724
649.162 556.52 3724
668.493 565.337 3783
680.584 567.878 3800
696.023 573.108 3835
705.194 573.108 3835
714.365 573.108 3835
723.535 573.108 3835
732.706 573.108 3835
741.876 573.108 3835
751.047 573.108 3835
767.354 578.488 3871
776.611 578.488 3871
785.868 578.488 3871
795.124 578.488 3871
813.732 585.213 3916
824.988 586.558 3925
834.374 586.558 3925
843.76 586.558 3925
859.232 590.743 3953
879.233 597.916 4001
888.8 597.916 4001
898.368 597.916 4001
907.935 597.916 4001
919.567 599.261 4010
929.156 599.261 4010
938.745 599.261 4010
948.334 599.261 4010
953.385 596.421 3991
962.928 596.421 3991
963.213 590.743 3953
968.237 588.053 3935
972.926 585.213 3916
982.29 585.213 3916
984.817 581.178 3889
989.516 578.488 3871
996.45 577.143 3862
1005.69 577.143 3862
1014.92 577.143 3862
1019.38 574.453 3844
1028.57 574.453 3844
1030.75 570.568 3818
1039.88 570.568 3818
1049.01 570.568 3818
1053.15 567.878 3800
1060 566.682 3792
1069.07 566.682 3792
1075.58 565.337 3783
1084.62 565.337 3783
1091.07 563.992 3774
1100.09 563.992 3774
1109.12 563.992 3774
1118.14 563.992 3774
1129.85 565.337 3783
1141.61 566.682 3792
1150.68 566.682 3792
1164.95 569.223 3809
1174.05 569.223 3809
1183.16 569.223 3809
1192.27 569.223 3809
1201.38 569.223 3809
1210.49 569.223 3809
1227.92 573.108 3835
1242.9 575.798 3853
1252.11 575.798 3853
1267.22 578.488 3871
1276.47 578.488 3871
1291.71 581.178 3889
1301.01 581.178 3889
1310.31 581.178 3889
1319.61 581.178 3889
1328.91 581.178 3889
1338.21 581.178 3889
1347.51 581.178 3889
1356.81 581.178 3889
1366.11 581.178 3889
1375.41 581.178 3889
1384.71 581.178 3889
1377.88 574.453 3844
1387.07 574.453 3844
1396.26 574.453 3844
1402.16 573.108 3835
1431.21 581.178 3889
1440.51 581.178 3889
1449.81 581.178 3889
1459.11 581.178 3889
1510.69 597.916 4001
1520.26 597.916 4001
1540.92 602.25 4030
1550.56 602.25 4030
1571.42 606.583 4059
1585.02 608.078 4069
1598.67 609.572 4079
1608.42 609.572 4079
1618.18 609.572 4079
1627.93 609.572 4079
1637.69 609.572 4079
1627.65 602.25 4030
1637.29 602.25 4030
1642.84 600.755 4020
1652.45 600.755 4020
1662.06 600.755 4020
1667.52 599.261 4010
1665.4 595.076 3982
1674.92 595.076 3982
1676.4 592.237 3963
1685.88 592.237 3963
1691.08 590.743 3953
1700.53 590.743 3953
1709.99 590.743 3953
1715.52 589.398 3944
1733.26 592.237 3963
1742.74 592.237 3963
1756.2 593.582 3972
1765.7 593.582 3972
1775.19 593.582 3972
1784.69 593.582 3972
1798.71 595.076 3982
1808.23 595.076 3982
1817.75 595.076 3982
1822.69 593.582 3972
1832.18 593.582 3972
1841.68 593.582 3972
1851.18 593.582 3972
1865.36 595.076 3982
1892.78 600.755 4020
1907.12 602.25 4030
1916.76 602.25 4030
1926.4 602.25 4030
1922.1 597.916 4001
1931.67 597.916 4001
1936.38 596.421 3991
1927.4 590.743 3953
1918.72 585.213 3916
1928.09 585.213 3916
1888.97 570.568 3818
1851.37 556.52 3724
1827.3 546.657 3658
1812.46 539.634 3611
1821.09 539.634 3611
1829.73 539.634 3611
1830.22 537.242 3595
1827.05 533.805 3572
1835.59 533.805 3572
1840.52 532.759 3565
1852.68 533.805 3572
1873.2 537.242 3595
1890.17 539.634 3611
1898.81 539.634 3611
1907.44 539.634 3611
1916.08 539.634 3611
1928.98 540.829 3619
1937.63 540.829 3619
1958.66 544.266 3642
1980.87 548.002 3667
1993.98 549.198 3675
2020.21 553.98 3707
2029.07 553.98 3707
2098.96 570.568 3818
2137.35 578.488 3871
2151.6 579.833 3880
2160.88 579.833 3880
2190.29 585.213 3916
2220.44 590.743 3953
2229.89 590.743 3953
2239.34 590.743 3953
2259.61 593.582 3972
2269.1 593.582 3972
2278.6 593.582 3972
2288.1 593.582 3972
2297.6 593.582 3972
2312.9 595.076 3982
2333.51 597.916 4001
2343.08 597.916 4001
2363.82 600.755 4020
2373.43 600.755 4020
2383.04 600.755 4020
2392.66 600.755 4020
2402.27 600.755 4020
2417.88 602.25 4030
2427.52 602.25 4030
2437.15 602.25 4030
2458.33 605.089 4049
2486.3 609.572 4079
2496.05 609.572 4079
2511.95 611.067 4089
2521.73 611.067 4089
2531.5 611.067 4089
2532.34 606.583 4059
2542.05 606.583 4059
2551.76 606.583 4059
2555.15 605.089 4049
2564.83 605.089 4049
2549.72 599.261 4010
2547.18 596.421 3991
2550.96 595.076 3982
2560.48 595.076 3982
2563.55 593.582 3972
521.839 110.587 740
523.609 110.587 740
525.378 110.587 740
527.148 110.587 740
528.202 110.437 739
529.97 110.437 739
531.737 110.437 739
533.504 110.437 739
534.547 110.288 738
536.312 110.288 738
538.076 110.288 738
540.573 110.437 739
542.34 110.437 739
544.107 110.437 739
545.135 110.288 738
546.9 110.288 738
548.665 110.288 738
550.43 110.288 738
552.195 110.288 738
553.959 110.288 738
555.724 110.288 738
557.489 110.288 738
559.254 110.288 738
561.019 110.288 738
562.783 110.288 738
564.548 110.288 738
-2317.3 469.936 3095
-2309.9 469.936 3095
-2298.04 469.025 3089
-2290.65 469.025 3089
-2283.26 469.025 3089
-2275.88 469.025 3089
-2264.82 468.266 3084
-2253.05 467.355 3078
-2245.69 467.355 3078
-2263.06 472.517 3112
-2255.61 472.517 3112
-2261.18 475.25 3130
-2266.65 477.983 3148
-2302.18 487.093 3208
-2294.51 487.093 3208
-2341.02 498.633 3284
-2333.16 498.633 3284
-2325.31 498.633 3284
-2572.63 555.42 3658
-2587.02 560.431 3691
-2578.19 560.431 3691
-2580.5 562.86 3707
-2612.57 571.818 3766
-2609.09 573.033 3774
-2600.07 573.033 3774
-2591.04 573.033 3774
-2582.02 573.033 3774
-2572.99 573.033 3774
-2563.97 573.033 3774
-2538.02 569.237 3749
-2517.59 566.656 3732
-2508.66 566.656 3732
-2477.63 561.645 3699
-2458.11 559.216 3683
-2454.62 560.431 3691
-2451.1 561.645 3699
-2442.25 561.645 3699
-2433.41 561.645 3699
-2424.56 561.645 3699
-2415.71 561.645 3699
-2406.87 561.645 3699
-2398.02 561.645 3699
-2389.18 561.645 3699
-2380.33 561.645 3699
-2350.97 556.787 3667
-2342.2 556.787 3667
-2327.71 555.42 3658
-2318.96 555.42 3658
-2295.69 551.928 3635
-2286.99 551.928 3635
-2278.3 551.928 3635
-2269.61 551.928 3635
-2260.92 551.928 3635
-2252.22 551.928 3635
-2243.53 551.928 3635
-2229.92 550.713 3627
-2221.25 550.713 3627
-2197.93 547.069 3603
-2184.46 545.854 3595
-2148.02 538.87 3549
-2144.36 540.085 3557
-2135.85 540.085 3557
-2132.13 541.299 3565
-2137.3 544.791 3588
-2132.88 545.854 3595
-2124.28 545.854 3595
-2115.68 545.854 3595
-1973.63 564.227 3716
-1964.74 564.227 3716
-1955.85 564.227 3716
-1938.06 561.645 3699
-1929.22 561.645 3699
-1929.2 564.227 3716
-1963.72 576.981 3800
-1954.63 576.981 3800
-1958.86 580.929 3826
-1981.81 590.494 3889
-1977.08 591.861 3898
-1967.76 591.861 3898
-1972 595.961 3925
-1976.61 600.212 3953
-1976.62 603.097 3972
-1967.12 603.097 3972
-1957.62 603.097 3972
-1948.12 603.097 3972
-1938.62 603.097 3972
-1901.93 594.594 3916
-1901.75 597.479 3935
-1896.66 598.845 3944
-1905.42 604.615 3982
-1895.89 604.615 3982
-1890.64 605.982 3991
-1881.09 605.982 3991
-1871.55 605.982 3991
-1857.81 604.615 3982
-1843.64 603.097 3972
-1829.99 601.73 3963
-1820.51 601.73 3963
-1789.56 594.594 3916
-1780.19 594.594 3916
-1758.62 590.494 3889
-1749.32 590.494 3889
-1731.96 587.761 3871
-1722.71 587.761 3871
-1701.5 583.662 3844
-1692.31 583.662 3844
-1683.12 583.662 3844
-1673.92 583.662 3844
-1664.73 583.662 3844
-1655.54 583.662 3844
-1646.35 583.662 3844
-1637.15 583.662 3844
-1627.96 583.662 3844
-1622.56 585.028 3853
-1639.73 594.594 3916
-1630.36 594.594 3916
-1632.59 598.845 3944
-1623.16 598.845 3944
-1613.72 598.845 3944
-1592.9 594.594 3916
-1561.7 586.395 3862
-1577.79 595.961 3925
-1613.96 613.27 4039
-1604.3 613.27 4039
-1594.64 613.27 4039
-1584.99 613.27 4039
-1575.33 613.27 4039
-1565.67 613.27 4039
-1548.69 610.385 4020
-1539.08 610.385 4020
-1536.69 613.27 4039
-1527.04 613.27 4039
-1517.38 613.27 4039
-1496.89 608.867 4010
-1487.3 608.867 4010
-1477.71 608.867 4010
-1468.13 608.867 4010
-1455.26 607.5 4001
-1445.7 607.5 4001
-1429.31 604.615 3982
-1416.22 603.097 3972
-1410.26 604.615 3982
-1400.74 604.615 3982
-1391.22 604.615 3982
-1381.7 604.615 3982
-1372.17 604.615 3982
-1362.65 604.615 3982
-1343.28 600.212 3953
-596.087 272.092 1792
-592.462 272.396 1794
-591.451 273.914 1804
-587.137 273.914 1804
-582.823 273.914 1804
-578.509 273.914 1804
-574.195 273.914 1804
-570.197 274.066 1805
-565.881 274.066 1805
-561.565 274.066 1805
-556.322 273.61 1802
-552.013 273.61 1802
-547.096 273.307 1800
-542.188 273.003 1798
-537.291 272.699 1796
-532.996 272.699 1796
-528.701 272.699 1796
-523.822 272.396 1794
-518.953 272.092 1792
-514.668 272.092 1792
-509.243 271.485 1788
-501.296 269.511 1775
-495.372 268.6 1769
-491.141 268.6 1769
-482.232 266.019 1752
-477.769 265.867 1751
-469.525 263.589 1736
-465.374 263.589 1736
-459.894 262.83 1731
-454.702 262.223 1727
-448.224 260.856 1718
-443.34 260.401 1715
-439.239 260.401 1715
-434.123 259.793 1711
-428.775 259.034 1706
-424.197 258.73 1704
-420.123 258.73 1704
-413.85 257.364 1695
-407.863 256.149 1687
-401.675 254.783 1678
-397.662 254.783 1678
-392.946 254.327 1675
-388.476 254.023 1673
-384.245 253.872 1672
-380.247 253.872 1672
-375.799 253.568 1670
-370.024 252.353 1662
-365.609 252.05 1660
-361.64 252.05 1660
-356.593 251.29 1655
-351.996 250.835 1652
-347.624 250.531 1650
-343.262 250.228 1648
-339.321 250.228 1648
-335.38 250.228 1648
-331.238 250.076 1647
-326.902 249.772 1645
-322.969 249.772 1645
-319.035 249.772 1645
-315.484 250.076 1647
-311.546 250.076 1647
-307.607 250.076 1647
-303.669 250.076 1647
-299.73 250.076 1647
-295.792 250.076 1647
-291.853 250.076 1647
-287.565 249.772 1645
-283.114 249.316 1642
-278.848 249.013 1640
-274.926 249.013 1640
-271.004 249.013 1640
-266.92 248.861 1639
-263 248.861 1639
-259.081 248.861 1639
-255.162 248.861 1639
-250.936 248.557 1637
-246.87 248.405 1636
-242.958 248.405 1636
-239.046 248.405 1636
-235.134 248.405 1636
-231.222 248.405 1636
-227.31 248.405 1636
-223.397 248.405 1636
-219.485 248.405 1636
-215.573 248.405 1636
-212.178 249.013 1640
-209.145 250.076 1647
-205.207 250.076 1647
-202.613 251.746 1658
-199.487 252.809 1665
-196.327 253.872 1672
-192.329 253.872 1672
-188.894 254.631 1677
-185.766 255.845 1685
-182.491 256.908 1692
-178.445 256.908 1692
-174.708 257.364 1695
-170.655 257.364 1695
-166.995 257.971 1699
-162.932 257.971 1699
-158.869 257.971 1699
-154.989 258.275 1701
-150.921 258.275 1701
-146.853 258.275 1701
-142.87 258.427 1702
-138.8 258.427 1702
-134.73 258.427 1702
-130.583 258.275 1701
-126.218 257.668 1697
-122.16 257.668 1697
-118.102 257.668 1697
-113.842 257.212 1694
-229.514 604.615 3982
-219.992 604.615 3982
-210.47 604.615 3982
-200.443 603.097 3972
-190.945 603.097 3972
-181.447 603.097 3972
-171.559 601.73 3963
-162.082 601.73 3963
-152.605 601.73 3963
-144.501 607.5 4001
-134.933 607.5 4001
-125.961 610.385 4020
-117.477 616.307 4059
-108.567 620.862 4089
-98.789 620.862 4089
-89.0109 620.862 4089
194.076 619.343 4079
203.831 619.343 4079
213.585 619.343 4079
222.244 616.307 4059
231.95 616.307 4059
239.334 610.385 4020
248.947 610.385 4020
256.695 605.982 3991
263.704 600.212 3953
271.222 595.961 3925
280.608 595.961 3925
286.004 587.761 3871
289.845 576.981 3800
298.932 576.981 3800
307.371 575.766 3792
316.438 575.766 3792
325.506 575.766 3792
334.574 575.766 3792
345.182 578.347 3809
354.291 578.347 3809
363.399 578.347 3809
372.508 578.347 3809
379.913 575.766 3792
388.981 575.766 3792
395.32 571.818 3766
399.816 565.441 3724
401.478 555.42 3658
410.225 555.42 3658
414.505 549.498 3619
422.224 548.284 3611
427.16 543.577 3580
431.096 537.807 3542
439.566 537.807 3542
443.356 532.189 3505
449.804 529.911 3490
455.262 526.571 3468
463.555 526.571 3468
468.991 523.382 3447
475.295 521.257 3433
484.49 522.32 3440
492.716 522.32 3440
500.943 522.32 3440
509.169 522.32 3440
519.5 524.445 3454
527.76 524.445 3454
536.019 524.445 3454
546.485 526.571 3468
564.216 535.529 3527
581.256 543.577 3580
589.817 543.577 3580
602.222 547.069 3603
616.263 551.928 3635
634.583 560.431 3691
643.409 560.431 3691
658.067 565.441 3724
677.539 574.4 3783
689.671 576.981 3800
698.758 576.981 3800
709.521 578.347 3809
718.63 578.347 3809
727.738 578.347 3809
736.847 578.347 3809
745.955 578.347 3809
758.434 580.929 3826
767.583 580.929 3826
776.732 580.929 3826
784.238 579.714 3818
798.771 583.662 3844
809.854 585.028 3853
819.068 585.028 3853
828.282 585.028 3853
841.408 587.761 3871
854.62 590.494 3889
869.918 594.594 3916
879.282 594.594 3916
892.958 597.479 3935
902.368 597.479 3935
911.778 597.479 3935
916.74 594.594 3916
926.104 594.594 3916
933.318 593.227 3907
942.661 593.227 3907
947.618 590.494 3889
950.274 586.395 3862
957.273 585.028 3853
966.487 585.028 3853
973.422 583.662 3844
980.313 582.295 3835
989.484 582.295 3835
998.655 582.295 3835
1007.83 582.295 3835
1014.61 580.929 3826
1023.76 580.929 3826
1028.32 578.347 3809
1037.43 578.347 3809
1046.53 578.347 3809
1050.93 575.766 3792
1057.48 574.4 3783
1066.53 574.4 3783
1073.02 573.033 3774
1082.04 573.033 3774
1088.75 571.818 3766
1097.76 571.818 3766
1106.77 571.818 3766
1113.1 570.452 3757
1124.78 571.818 3766
1138.9 574.4 3783
1147.95 574.4 3783
1156.99 574.4 3783
1168.81 575.766 3792
1177.88 575.766 3792
1186.95 575.766 3792
1193.18 574.4 3783
1202.22 574.4 3783
1216.71 576.981 3800
1228.7 578.347 3809
1237.81 578.347 3809
1255.43 582.295 3835
1264.6 582.295 3835
1273.77 582.295 3835
1282.94 582.295 3835
1292.12 582.295 3835
1301.29 582.295 3835
1310.46 582.295 3835
1319.63 582.295 3835
1328.8 582.295 3835
1337.97 582.295 3835
1347.14 582.295 3835
1353.13 580.929 3826
1362.28 580.929 3826
1362.11 576.981 3800
1380.57 580.929 3826
1392.99 582.295 3835
1402.16 582.295 3835
1431.21 590.494 3889
1440.51 590.494 3889
1449.81 590.494 3889
1459.11 590.494 3889
1465.01 589.128 3880
1484.54 593.227 3907
1497.33 594.594 3916
1506.69 594.594 3916
1516.06 594.594 3916
1543.73 601.73 3963
1556.73 603.097 3972
1566.23 603.097 3972
1583.27 605.982 3991
1592.81 605.982 3991
1602.36 605.982 3991
1611.9 605.982 3991
1602.35 598.845 3944
1604.01 595.961 3925
1613.4 595.961 3925
1622.79 595.961 3925
1632.17 595.961 3925
1641.56 595.961 3925
1650.94 595.961 3925
1652.72 593.227 3907
1662.06 593.227 3907
1671.4 593.227 3907
1676.87 591.861 3898
1686.19 591.861 3898
1695.52 591.861 3898
1721.02 597.479 3935
1730.43 597.479 3935
1739.84 597.479 3935
1749.25 597.479 3935
1758.66 597.479 3935
1768.07 597.479 3935
1785.61 600.212 3953
1795.06 600.212 3953
1809.08 601.73 3963
1822.69 603.097 3972
1832.18 603.097 3972
1841.68 603.097 3972
1851.18 603.097 3972
1865.36 604.615 3982
1883.83 607.5 4001
1893.4 607.5 4001
1902.97 607.5 4001
1912.53 607.5 4001
1917.3 605.982 3991
1926.84 605.982 3991
1927.17 603.097 3972
1918.62 597.479 3935
1914.31 593.227 3907
1923.66 593.227 3907
1884.51 578.347 3809
1851.37 565.441 3724
1827.3 555.42 3658
1812.46 548.284 3611
1821.09 548.284 3611
1829.73 548.284 3611
1830.22 545.854 3595
1827.05 542.362 3572
1835.59 542.362 3572
1840.52 541.299 3565
1852.68 542.362 3572
1873.2 545.854 3595
1890.17 548.284 3611
1898.81 548.284 3611
1907.44 548.284 3611
1916.08 548.284 3611
1928.98 549.498 3619
1937.63 549.498 3619
1958.66 552.991 3642
1980.87 556.787 3667
1993.98 558.001 3675
2020.21 562.86 3707
2029.07 562.86 3707
2098.96 579.714 3818
2137.35 587.761 3871
2151.6 589.128 3880
2160.88 589.128 3880
2190.29 594.594 3916
2215.38 598.845 3944
2229.89 600.212 3953
2239.34 600.212 3953
2259.61 603.097 3972
2269.1 603.097 3972
2278.6 603.097 3972
2288.1 603.097 3972
2297.6 603.097 3972
2312.9 604.615 3982
2322.43 604.615 3982
2331.95 604.615 3982
2352.64 607.5 4001
2362.21 607.5 4001
2383.04 610.385 4020
2392.66 610.385 4020
2402.27 610.385 4020
2411.88 610.385 4020
2421.49 610.385 4020
2431.11 610.385 4020
2458.33 614.788 4049
2486.3 619.343 4079
2496.05 619.343 4079
2511.95 620.862 4089
2521.73 620.862 4089
2531.5 620.862 4089
2532.34 616.307 4059
2542.05 616.307 4059
2551.76 616.307 4059
2555.15 614.788 4049
2564.83 614.788 4049
2549.72 608.867 4010
2547.18 605.982 3991
2550.96 604.615 3982
2560.48 604.615 3982
2563.55 603.097 3972
522.193 112.056 738
524.668 112.208 739
526.435 112.208 739
528.202 112.208 739
529.97 112.208 739
531.737 112.208 739
533.504 112.208 739
534.547 112.056 738
536.312 112.056 738
538.076 112.056 738
539.841 112.056 738
541.606 112.056 738
543.371 112.056 738
545.135 112.056 738
546.9 112.056 738
548.665 112.056 738
549.684 111.904 737
551.446 111.904 737
553.209 111.904 737
554.971 111.904 737
556.734 111.904 737
558.496 111.904 737
561.019 112.056 738
562.783 112.056 738
564.548 112.056 738
-2321.79 478.275 3101
-2314.38 478.275 3101
-2298.04 476.424 3089
-2290.65 476.424 3089
-2283.26 476.424 3089
-2275.88 476.424 3089
-2268.49 476.424 3089
-2257.44 475.653 3084
-2250.07 475.653 3084
-2267.42 480.897 3118
-2259.96 480.897 3118
-2265.51 483.673 3136
-2266.65 485.524 3148
-2302.18 494.778 3208
-2294.51 494.778 3208
-2341.02 506.5 3284
-2333.16 506.5 3284
-2325.31 506.5 3284
-2572.63 564.183 3658
-2587.02 569.273 3691
-2578.19 569.273 3691
-2597.9 575.596 3732
-2612.57 580.84 3766
-2609.09 582.074 3774
-2600.07 582.074 3774
-2591.04 582.074 3774
-2582.02 582.074 3774
-2572.99 582.074 3774
-2563.97 582.074 3774
-2538.02 578.218 3749
-2517.59 575.596 3732
-2508.66 575.596 3732
-2482.99 571.74 3707
-2463.45 569.273 3691
-2454.62 569.273 3691
-2456.4 571.74 3707
-2447.53 571.74 3707
-2455.11 575.596 3732
-2446.19 575.596 3732
-2437.27 575.596 3732
-2428.34 575.596 3732
-2414.23 574.362 3724
-2389.18 570.506 3699
-2380.33 570.506 3699
-2361.23 568.039 3683
-2342.2 565.571 3667
-2327.71 564.183 3658
-2318.96 564.183 3658
-2295.69 560.635 3635
-2286.99 560.635 3635
-2278.3 560.635 3635
-2269.61 560.635 3635
-2260.92 560.635 3635
-2252.22 560.635 3635
-2243.53 560.635 3635
-2229.92 559.402 3627
-2221.25 559.402 3627
-2197.93 555.7 3603
-2184.46 554.466 3595
-2148.02 547.371 3549
-2144.36 548.605 3557
-2135.85 548.605 3557
-2132.13 549.839 3565
-2137.3 553.387 3588
-2132.88 554.466 3595
-2124.28 554.466 3595
-2115.68 554.466 3595
-1991.4 573.128 3716
-1982.51 573.128 3716
-1973.63 573.128 3716
-1964.74 573.128 3716
-1955.85 573.128 3716
-1938.06 570.506 3699
-1929.22 570.506 3699
-1929.2 573.128 3716
-1963.72 586.084 3800
-1954.63 586.084 3800
-1958.86 590.094 3826
-1981.81 599.811 3889
-1977.08 601.199 3898
-1967.76 601.199 3898
-1972 605.363 3925
-1976.61 609.681 3953
-1976.62 612.612 3972
-1967.12 612.612 3972
-1957.62 612.612 3972
-1948.12 612.612 3972
-1938.62 612.612 3972
-1901.93 603.975 3916
-1901.75 606.905 3935
-1896.66 608.293 3944
-1909.72 615.542 3991
-1900.18 615.542 3991
-1890.64 615.542 3991
-1881.09 615.542 3991
-1871.55 615.542 3991
-1862 615.542 3991
-1852.46 615.542 3991
-1834.14 612.612 3972
-1824.64 612.612 3972
-1806.46 609.681 3953
-1792.92 608.293 3944
-1766.76 602.587 3907
-1757.41 602.587 3907
-1740.02 599.811 3889
-1722.71 597.034 3871
-1709.47 595.646 3862
-1700.23 595.646 3862
-1691 595.646 3862
-1681.76 595.646 3862
-1672.53 595.646 3862
-1663.29 595.646 3862
-1654.06 595.646 3862
-1640.99 594.258 3853
-1631.77 594.258 3853
-1630.14 597.034 3871
-1651.45 608.293 3944
-1642.02 608.293 3944
-1636.31 609.681 3953
-1626.86 609.681 3953
-1617.41 609.681 3953
-1607.95 609.681 3953
-1576.26 601.199 3898
-1577.79 605.363 3925
-1621.95 626.03 4059
-1612.25 626.03 4059
-1602.54 626.03 4059
-1600.68 629.115 4079
-1590.93 629.115 4079
-1581.17 629.115 4079
-1563.72 626.03 4059
-1554.01 626.03 4059
-1544.3 626.03 4059
-1534.6 626.03 4059
-1524.89 626.03 4059
-1507.72 622.945 4039
-1498.06 622.945 4039
-1481.4 620.015 4020
-1471.79 620.015 4020
-1458.54 618.473 4010
-1448.95 618.473 4010
-1436.13 617.085 4001
-1419.79 614.154 3982
-1413.45 615.542 3991
-1407.42 617.085 4001
-1397.86 617.085 4001
-1388.29 617.085 4001
-1378.72 617.085 4001
-1369.15 617.085 4001
-1359.59 617.085 4001
-592.462 276.693 1794
-591.451 278.236 1804
-587.137 278.236 1804
-582.823 278.236 1804
-578.509 278.236 1804
-574.513 278.39 1805
-570.197 278.39 1805
-565.881 278.39 1805
-561.565 278.39 1805
-557.248 278.39 1805
-552.932 278.39 1805
-548.312 278.236 1804
-542.792 277.619 1800
-538.487 277.619 1800
-534.183 277.619 1800
-528.701 277.002 1796
-524.406 277.002 1796
-519.532 276.693 1794
-515.242 276.693 1794
-509.813 276.076 1790
-502.426 274.38 1779
-495.932 273.146 1771
-491.697 273.146 1771
-483.333 270.832 1756
-477.769 270.061 1751
-470.607 268.365 1740
-466.446 268.365 1740
-460.16 267.131 1732
-455.228 266.668 1729
-448.224 264.972 1718
-443.34 264.509 1715
-439.239 264.509 1715
-434.123 263.892 1711
-428.775 263.121 1706
-424.197 262.812 1704
-420.123 262.812 1704
-413.85 261.424 1695
-407.863 260.19 1687
-401.675 258.802 1678
-397.662 258.802 1678
-392.946 258.34 1675
-388.94 258.34 1675
-384.245 257.877 1672
-380.247 257.877 1672
-375.799 257.568 1670
-370.247 256.489 1663
-366.05 256.335 1662
-362.075 256.335 1662
-357.024 255.563 1657
-352.635 255.255 1655
-348.046 254.792 1652
-343.679 254.484 1650
-339.733 254.484 1650
-335.787 254.484 1650
-331.439 254.175 1648
-327.3 254.021 1647
-323.361 254.021 1647
-319.423 254.021 1647
-315.676 254.175 1648
-311.735 254.175 1648
-307.794 254.175 1648
-303.853 254.175 1648
-299.912 254.175 1648
-295.792 254.021 1647
-291.853 254.021 1647
-287.915 254.021 1647
-283.459 253.558 1644
-278.848 252.941 1640
-274.926 252.941 1640
-271.004 252.941 1640
-266.92 252.787 1639
-263 252.787 1639
-259.081 252.787 1639
-255.162 252.787 1639
-250.936 252.479 1637
-246.87 252.325 1636
-242.958 252.325 1636
-239.192 252.479 1637
-235.278 252.479 1637
-231.646 252.787 1639
-227.726 252.787 1639
-223.807 252.787 1639
-219.888 252.787 1639
-215.968 252.787 1639
-212.696 253.558 1644
-209.526 254.484 1650
-205.581 254.484 1650
-203.468 256.797 1665
-199.846 257.26 1668
-196.679 258.34 1675
-192.674 258.34 1675
-189.232 259.111 1680
-185.766 259.882 1685
-182.707 261.27 1694
-178.656 261.27 1694
-174.708 261.424 1695
-170.856 261.733 1697
-166.995 262.041 1699
-162.932 262.041 1699
-159.056 262.35 1701
-154.989 262.35 1701
-150.921 262.35 1701
-146.853 262.35 1701
-142.87 262.504 1702
-138.8 262.504 1702
-134.73 262.504 1702
-130.583 262.35 1701
-126.218 261.733 1697
-122.16 261.733 1697
-118.102 261.733 1697
-114.044 261.733 1697
-229.514 614.154 3982
-219.992 614.154 3982
-210.47 614.154 3982
-200.948 614.154 3982
-191.426 614.154 3982
-181.447 612.612 3972
-171.559 611.224 3963
-162.082 611.224 3963
-152.952 612.612 3972
-144.501 617.085 4001
-134.933 617.085 4001
-125.961 620.015 4020
-117.477 626.03 4059
-108.567 630.657 4089
-98.789 630.657 4089
-89.0109 630.657 4089
164.006 626.03 4059
173.712 626.03 4059
183.418 626.03 4059
194.076 629.115 4079
203.831 629.115 4079
213.585 629.115 4079
222.244 626.03 4059
230.293 621.557 4030
237.608 615.542 3991
247.152 615.542 3991
254.251 609.681 3953
261.836 605.363 3925
268.734 599.811 3889
278.034 599.811 3889
285.339 595.646 3862
289.845 586.084 3800
298.932 586.084 3800
308.019 586.084 3800
317.106 586.084 3800
325.506 584.85 3792
334.574 584.85 3792
345.182 587.472 3809
354.291 587.472 3809
363.399 587.472 3809
372.508 587.472 3809
379.913 584.85 3792
388.981 584.85 3792
395.32 580.84 3766
398.957 573.128 3716
401.478 564.183 3658
410.225 564.183 3658
414.505 558.168 3619
421.289 555.7 3603
427.16 552.153 3580
431.096 546.292 3542
439.566 546.292 3542
443.356 540.585 3505
449.804 538.272 3490
455.262 534.879 3468
463.555 534.879 3468
468.991 531.64 3447
475.295 529.48 3433
483.504 529.48 3433
491.714 529.48 3433
499.923 529.48 3433
509.169 530.56 3440
519.5 532.719 3454
528.83 533.799 3461
537.106 533.799 3461
546.485 534.879 3468
564.216 543.978 3527
578.82 549.839 3565
587.345 549.839 3565
600.885 554.466 3595
616.263 560.635 3635
631.832 566.805 3675
640.62 566.805 3675
652.236 569.273 3691
666.972 574.362 3724
677.33 575.596 3732
686.254 575.596 3732
696.668 576.83 3740
705.612 576.83 3740
714.555 576.83 3740
725.24 578.218 3749
734.205 578.218 3749
743.17 578.218 3749
752.135 578.218 3749
761.1 578.218 3749
770.065 578.218 3749
780.692 579.452 3757
793.25 582.074 3774
802.274 582.074 3774
811.299 582.074 3774
822.28 583.462 3783
833.304 584.85 3792
853.924 592.87 3844
863.116 592.87 3844
876.393 595.646 3862
889.756 598.422 3880
901.119 599.811 3889
910.419 599.811 3889
919.719 599.811 3889
926.869 598.422 3880
936.147 598.422 3880
938.846 594.258 3853
945.845 592.87 3844
952.801 591.482 3835
961.972 591.482 3835
968.864 590.094 3826
975.968 588.86 3818
985.098 588.86 3818
994.228 588.86 3818
1003.36 588.86 3818
1010.1 587.472 3809
1019.21 587.472 3809
1025.89 586.084 3800
1034.98 586.084 3800
1041.86 584.85 3792
1045.94 582.074 3774
1054.97 582.074 3774
1063.99 582.074 3774
1070.74 580.84 3766
1079.75 580.84 3766
1086.15 579.452 3757
1095.14 579.452 3757
1104.12 579.452 3757
1110.73 578.218 3749
1122.09 579.452 3757
1133.78 580.84 3766
1145.22 582.074 3774
1154.24 582.074 3774
1163.27 582.074 3774
1172.29 582.074 3774
1181.31 582.074 3774
1190.34 582.074 3774
1196.82 580.84 3766
1205.83 580.84 3766
1223.22 584.85 3792
1232.29 584.85 3792
1243.98 586.084 3800
1253.06 586.084 3800
1262.15 586.084 3800
1271.24 586.084 3800
1280.32 586.084 3800
1286.7 584.85 3792
1295.76 584.85 3792
1304.83 584.85 3792
1313.9 584.85 3792
1322.97 584.85 3792
1334.84 586.084 3800
1343.93 586.084 3800
1353.02 586.084 3800
1352.79 582.074 3774
1361.81 582.074 3774
1367.93 580.84 3766
1376.94 580.84 3766
1392.2 583.462 3783
1401.24 583.462 3783
1410.29 583.462 3783
1419.34 583.462 3783
1428.38 583.462 3783
1437.43 583.462 3783
1446.47 583.462 3783
1455.52 583.462 3783
1484.7 591.482 3835
1493.87 591.482 3835
1510.09 594.258 3853
1519.31 594.258 3853
1542.8 599.811 3889
1552.1 599.811 3889
1561.4 599.811 3889
1570.7 599.811 3889
1580 599.811 3889
1563.56 590.094 3826
1576.41 591.482 3835
1585.58 591.482 3835
1594.75 591.482 3835
1603.92 591.482 3835
1620.66 594.258 3853
1629.87 594.258 3853
1639.09 594.258 3853
1648.3 594.258 3853
1657.51 594.258 3853
1666.73 594.258 3853
1675.94 594.258 3853
1700.9 599.811 3889
1714.16 601.199 3898
1727.46 602.587 3907
1736.8 602.587 3907
1746.14 602.587 3907
1768.07 606.905 3935
1777.48 606.905 3935
1786.89 606.905 3935
1796.3 606.905 3935
1818.56 611.224 3963
1828.03 611.224 3963
1837.51 611.224 3963
1846.99 611.224 3963
1856.46 611.224 3963
1874.89 614.154 3982
1888.67 615.542 3991
1898.21 615.542 3991
1907.75 615.542 3991
1908.17 612.612 3972
1917.67 612.612 3972
1909.21 606.905 3935
1909.36 603.975 3916
1892.27 595.646 3862
1901.5 595.646 3862
1876.1 584.85 3792
1842.91 571.74 3707
1827.3 564.183 3658
1816.47 558.168 3619
1825.13 558.168 3619
1829.73 556.934 3611
1834.29 555.7 3603
1831.14 552.153 3580
1839.7 552.153 3580
1848.26 552.153 3580
1860.97 553.387 3588
1881.54 556.934 3611
1898.55 559.402 3627
1907.22 559.402 3627
1915.9 559.402 3627
1924.57 559.402 3627
1937.51 560.635 3635
1946.2 560.635 3635
1967.26 564.183 3658
1980.87 565.571 3667
2011.34 571.74 3707
2047.45 579.452 3757
2056.44 579.452 3757
2123.15 595.646 3862
2137.35 597.034 3871
2151.6 598.422 3880
2180.93 603.975 3916
2190.29 603.975 3916
2215.38 608.293 3944
2229.89 609.681 3953
2239.34 609.681 3953
2259.61 612.612 3972
2269.1 612.612 3972
2278.6 612.612 3972
2288.1 612.612 3972
2297.6 612.612 3972
2312.9 614.154 3982
2322.43 614.154 3982
2331.95 614.154 3982
2352.64 617.085 4001
2362.21 617.085 4001
2377.11 618.473 4010
2386.7 618.473 4010
2396.29 618.473 4010
2411.88 620.015 4020
2421.49 620.015 4020
2431.11 620.015 4020
2458.33 624.488 4049
2486.3 629.115 4079
2496.05 629.115 4079
2511.95 630.657 4089
2521.73 630.657 4089
2531.5 630.657 4089
2535.07 629.115 4079
2544.82 629.115 4079
2554.57 629.115 4079
2545.47 624.488 4049
2548.84 622.945 4039
2558.5 622.945 4039
2537.64 615.542 3991
2541.44 614.154 3982
2550.96 614.154 3982
2560.48 614.154 3982
2563.55 612.612 3972
522.193 113.824 738
524.668 113.978 739
526.435 113.978 739
528.202 113.978 739
529.97 113.978 739
531.737 113.978 739
533.504 113.978 739
534.547 113.824 738
536.312 113.824 738
538.076 113.824 738
539.841 113.824 738
541.606 113.824 738
543.371 113.824 738
545.135 113.824 738
546.9 113.824 738
547.922 113.669 737
549.684 113.669 737
551.446 113.669 737
553.209 113.669 737
554.971 113.669 737
556.734 113.669 737
558.496 113.669 737
560.258 113.669 737
562.783 113.824 738
564.548 113.824 738
-2321.79 485.704 3101
-2314.38 485.704 3101
-2298.04 483.824 3089
-2290.65 483.824 3089
-2283.26 483.824 3089
-2275.88 483.824 3089
-2268.49 483.824 3089
-2257.44 483.041 3084
-2250.07 483.041 3084
-2267.42 488.366 3118
-2259.96 488.366 3118
-2265.51 491.186 3136
-2266.65 493.065 3148
-2302.18 502.463 3208
-2294.51 502.463 3208
-2341.02 514.367 3284
-2333.16 514.367 3284
-2325.31 514.367 3284
-2572.63 572.946 3658
-2587.02 578.114 3691
-2578.19 578.114 3691
-2597.9 584.536 3732
-2612.57 589.861 3766
-2609.09 591.114 3774
-2600.07 591.114 3774
-2591.04 591.114 3774
-2582.02 591.114 3774
-2572.99 591.114 3774
-2563.97 591.114 3774
-2538.02 587.199 3749
-2517.59 584.536 3732
-2508.66 584.536 3732
-2482.99 580.62 3707
-2463.45 578.114 3691
-2454.62 578.114 3691
-2456.4 580.62 3707
-2447.53 580.62 3707
-2455.11 584.536 3732
-2446.19 584.536 3732
-2437.27 584.536 3732
-2428.34 584.536 3732
-2414.23 583.283 3724
-2389.18 579.367 3699
-2380.33 579.367 3699
-2361.23 576.861 3683
-2342.2 574.355 3667
-2327.71 572.946 3658
-2318.96 572.946 3658
-2295.69 569.343 3635
-2286.99 569.343 3635
-2278.3 569.343 3635
-2269.61 569.343 3635
-2260.92 569.343 3635
-2252.22 569.343 3635
-2243.53 569.343 3635
-2225 566.837 3619
-2216.35 566.837 3619
-2197.93 564.331 3603
-2175.34 560.729 3580
-2143.78 554.777 3542
-2144.36 557.126 3557
-2135.85 557.126 3557
-2132.13 558.379 3565
-2127.77 559.476 3572
-2128.72 561.982 3588
-2120.14 561.982 3588
-2111.56 561.982 3588
-1991.4 582.03 3716
-1982.51 582.03 3716
-1973.63 582.03 3716
-1964.74 582.03 3716
-1955.85 582.03 3716
-1938.06 579.367 3699
-1929.22 579.367 3699
-1929.2 582.03 3716
-1963.72 595.187 3800
-1954.63 595.187 3800
-1958.86 599.259 3826
-1981.81 609.127 3889
-1977.08 610.536 3898
-1967.76 610.536 3898
-1972 614.765 3925
-1976.61 619.151 3953
-1972.14 620.717 3963
-1962.66 620.717 3963
-1953.18 620.717 3963
-1943.71 620.717 3963
-1934.23 620.717 3963
-1901.93 613.356 3916
-1901.75 616.332 3935
-1896.66 617.741 3944
-1909.72 625.103 3991
-1900.18 625.103 3991
-1890.64 625.103 3991
-1881.09 625.103 3991
-1871.55 625.103 3991
-1862 625.103 3991
-1852.46 625.103 3991
-1838.76 623.693 3982
-1829.24 623.693 3982
-1806.46 619.151 3953
-1792.92 617.741 3944
-1766.76 611.946 3907
-1757.41 611.946 3907
-1740.02 609.127 3889
-1722.71 606.307 3871
-1709.47 604.898 3862
-1700.23 604.898 3862
-1691 604.898 3862
-1681.76 604.898 3862
-1672.53 604.898 3862
-1667.17 606.307 3871
-1657.91 606.307 3871
-1648.65 606.307 3871
-1639.4 606.307 3871
-1630.14 606.307 3871
-1651.45 617.741 3944
-1642.02 617.741 3944
-1636.31 619.151 3953
-1626.86 619.151 3953
-1625.18 622.127 3972
-1615.68 622.127 3972
-1606.18 622.127 3972
-1631.66 635.753 4059
-1621.95 635.753 4059
-1612.25 635.753 4059
-1602.54 635.753 4059
-1600.68 638.886 4079
-1590.93 638.886 4079
-1581.17 638.886 4079
-1571.42 638.886 4079
-1561.67 638.886 4079
-1551.91 638.886 4079
-1542.16 638.886 4079
-1532.4 638.886 4079
-1515.18 635.753 4059
-1505.48 635.753 4059
-1488.4 632.621 4039
-1478.74 632.621 4039
-1465.81 631.211 4030
-1456.17 631.211 4030
-1442.95 629.645 4020
-1426.56 626.669 4001
-1416.99 626.669 4001
-1407.42 626.669 4001
-1397.86 626.669 4001
-1388.29 626.669 4001
-1378.72 626.669 4001
-1369.15 626.669 4001
-1359.59 626.669 4001
-596.752 280.991 1794
-592.462 280.991 1794
-591.451 282.557 1804
-587.137 282.557 1804
-582.823 282.557 1804
-578.509 282.557 1804
-574.513 282.714 1805
-570.197 282.714 1805
-565.881 282.714 1805
-561.565 282.714 1805
-557.248 282.714 1805
-552.932 282.714 1805
-548.312 282.557 1804
-543.998 282.557 1804
-538.487 281.931 1800
-534.183 281.931 1800
-529.878 281.931 1800
-524.99 281.617 1798
-520.111 281.304 1796
-515.817 281.304 1796
-509.813 280.364 1790
-502.426 278.641 1779
-497.052 278.015 1775
-492.807 278.015 1775
-483.333 275.039 1756
-478.588 274.726 1754
-470.878 272.69 1741
-466.714 272.69 1741
-460.16 271.28 1732
-455.228 270.81 1729
-448.224 269.087 1718
-443.34 268.617 1715
-439.239 268.617 1715
-434.123 267.991 1711
-428.775 267.208 1706
-424.197 266.894 1704
-420.123 266.894 1704
-414.339 265.798 1697
-408.347 264.545 1689
-402.153 263.135 1680
-398.136 263.135 1680
-393.415 262.665 1677
-388.94 262.352 1675
-384.935 262.352 1675
-380.929 262.352 1675
-376.249 261.882 1672
-370.692 260.786 1665
-366.05 260.316 1662
-362.075 260.316 1662
-357.239 259.689 1658
-352.635 259.22 1655
-348.256 258.906 1653
-344.095 258.75 1652
-340.145 258.75 1652
-335.787 258.436 1650
-331.842 258.436 1650
-327.499 258.123 1648
-323.558 258.123 1648
-319.617 258.123 1648
-316.059 258.436 1650
-312.113 258.436 1650
-308.168 258.436 1650
-304.222 258.436 1650
-300.276 258.436 1650
-295.972 258.123 1648
-292.031 258.123 1648
-287.915 257.966 1647
-283.459 257.497 1644
-278.848 256.87 1640
-274.926 256.87 1640
-271.004 256.87 1640
-267.083 256.87 1640
-263.161 256.87 1640
-259.239 256.87 1640
-255.317 256.87 1640
-251.396 256.87 1640
-247.323 256.713 1639
-243.404 256.713 1639
-239.484 256.713 1639
-235.565 256.713 1639
-231.646 256.713 1639
-227.726 256.713 1639
-223.944 256.87 1640
-220.022 256.87 1640
-216.364 257.183 1642
-213.213 258.123 1648
-210.415 259.533 1657
-206.453 259.533 1657
-203.713 261.099 1667
-200.325 261.882 1672
-196.914 262.665 1677
-192.904 262.665 1677
-189.457 263.448 1682
-185.986 264.232 1687
-182.707 265.328 1694
-178.656 265.328 1694
-174.708 265.485 1695
-171.259 266.424 1701
-167.29 266.581 1702
-163.22 266.581 1702
-159.15 266.581 1702
-155.08 266.581 1702
-151.01 266.581 1702
-146.94 266.581 1702
-142.87 266.581 1702
-138.8 266.581 1702
-134.73 266.581 1702
-130.66 266.581 1702
-126.515 266.424 1701
-122.16 265.798 1697
-118.102 265.798 1697
-114.044 265.798 1697
-229.514 623.693 3982
-219.992 623.693 3982
-210.47 623.693 3982
-200.948 623.693 3982
-191.426 623.693 3982
-181.903 623.693 3982
-171.559 620.717 3963
-162.082 620.717 3963
-153.337 623.693 3982
-144.501 626.669 4001
-134.933 626.669 4001
-125.961 629.645 4020
-117.477 635.753 4059
-108.567 640.452 4089
-98.789 640.452 4089
-89.0109 640.452 4089
154.3 635.753 4059
164.006 635.753 4059
173.712 635.753 4059
183.418 635.753 4059
194.076 638.886 4079
203.831 638.886 4079
213.585 638.886 4079
222.244 635.753 4059
230.293 631.211 4030
237.608 625.103 3991
247.152 625.103 3991
254.251 619.151 3953
261.836 614.765 3925
268.734 609.127 3889
278.034 609.127 3889
285.339 604.898 3862
289.845 595.187 3800
298.932 595.187 3800
308.019 595.187 3800
317.106 595.187 3800
325.506 593.934 3792
334.574 593.934 3792
345.182 596.596 3809
354.291 596.596 3809
363.399 596.596 3809
372.508 596.596 3809
379.913 593.934 3792
388.981 593.934 3792
395.32 589.861 3766
398.957 582.03 3716
401.478 572.946 3658
410.225 572.946 3658
414.505 566.837 3619
421.289 564.331 3603
427.16 560.729 3580
431.096 554.777 3542
439.566 554.777 3542
443.356 548.982 3505
449.804 546.632 3490
455.262 543.186 3468
463.555 543.186 3468
468.991 539.897 3447
475.295 537.704 3433
483.504 537.704 3433
491.714 537.704 3433
499.923 537.704 3433
509.169 538.801 3440
519.5 540.993 3454
528.83 542.09 3461
537.106 542.09 3461
546.485 543.186 3468
564.216 552.427 3527
578.82 558.379 3565
587.345 558.379 3565
600.885 563.078 3595
616.263 569.343 3635
631.832 575.608 3675
640.62 575.608 3675
652.236 578.114 3691
666.972 583.283 3724
677.33 584.536 3732
686.254 584.536 3732
696.668 585.789 3740
705.612 585.789 3740
714.555 585.789 3740
717.115 580.62 3707
725.98 580.62 3707
734.844 580.62 3707
743.709 580.62 3707
752.573 580.62 3707
761.438 580.62 3707
772.173 582.03 3716
784.422 584.536 3732
793.346 584.536 3732
802.27 584.536 3732
814.89 587.199 3749
823.855 587.199 3749
838.373 591.114 3774
847.398 591.114 3774
860.508 593.934 3792
873.474 596.596 3809
886.521 599.259 3826
895.671 599.259 3826
904.82 599.259 3826
913.969 599.259 3826
923.118 599.259 3826
930.318 598.006 3818
935.019 595.187 3800
944.106 595.187 3800
953.193 595.187 3800
955.696 591.114 3774
962.675 589.861 3766
971.681 589.861 3766
980.687 589.861 3766
991.795 591.114 3774
1000.82 591.114 3774
1009.84 591.114 3774
1018.87 591.114 3774
1027.89 591.114 3774
1036.92 591.114 3774
1041.23 588.452 3757
1050.22 588.452 3757
1059.2 588.452 3757
1068.18 588.452 3757
1077.17 588.452 3757
1083.84 587.199 3749
1092.8 587.199 3749
1099.12 585.789 3740
1108.07 585.789 3740
1119.7 587.199 3749
1133.78 589.861 3766
1145.22 591.114 3774
1154.24 591.114 3774
1163.27 591.114 3774
1172.29 591.114 3774
1181.31 591.114 3774
1190.34 591.114 3774
1196.82 589.861 3766
1205.83 589.861 3766
1217.41 591.114 3774
1226.44 591.114 3774
1235.46 591.114 3774
1244.49 591.114 3774
1253.51 591.114 3774
1262.54 591.114 3774
1265.83 588.452 3757
1274.82 588.452 3757
1283.8 588.452 3757
1292.79 588.452 3757
1304.89 589.861 3766
1313.9 589.861 3766
1325.71 591.114 3774
1334.74 591.114 3774
1343.76 591.114 3774
1346.69 588.452 3757
1346.66 584.536 3732
1361.75 587.199 3749
1370.72 587.199 3749
1379.68 587.199 3749
1391.61 588.452 3757
1400.6 588.452 3757
1409.58 588.452 3757
1418.57 588.452 3757
1434.01 591.114 3774
1446.47 592.524 3783
1455.52 592.524 3783
1464.57 592.524 3783
1487.25 598.006 3818
1503.04 600.669 3835
1512.21 600.669 3835
1528.52 603.488 3853
1537.74 603.488 3853
1546.95 603.488 3853
1556.16 603.488 3853
1554.41 599.259 3826
1556.61 596.596 3809
1565.72 596.596 3809
1574.83 596.596 3809
1583.93 596.596 3809
1593.04 596.596 3809
1598.37 595.187 3800
1611.26 596.596 3809
1620.37 596.596 3809
1629.48 596.596 3809
1638.59 596.596 3809
1647.69 596.596 3809
1656.8 596.596 3809
1681.22 602.078 3844
1690.41 602.078 3844
1703.58 603.488 3853
1712.8 603.488 3853
1722.01 603.488 3853
1731.22 603.488 3853
1748.57 606.307 3871
1757.82 606.307 3871
1775.3 609.127 3889
1792.86 611.946 3907
1802.2 611.946 3907
1811.54 611.946 3907
1820.89 611.946 3907
1838.66 614.765 3925
1861.23 619.151 3953
1870.68 619.151 3953
1880.14 619.151 3953
1889.59 619.151 3953
1885.59 614.765 3925
1894.98 614.765 3925
1900 613.356 3916
1891.81 607.717 3880
1879.04 600.669 3835
1888.21 600.669 3835
1863.24 589.861 3766
1842.91 580.62 3707
1827.3 572.946 3658
1820.49 568.09 3627
1829.16 568.09 3627
1829.73 565.584 3611
1834.29 564.331 3603
1831.14 560.729 3580
1843.81 561.982 3588
1852.39 561.982 3588
1860.97 561.982 3588
1881.54 565.584 3611
1898.55 568.09 3627
1907.22 568.09 3627
1915.9 568.09 3627
1924.57 568.09 3627
1945.5 571.693 3650
1954.23 571.693 3650
1967.26 572.946 3658
1993.83 578.114 3691
2011.34 580.62 3707
2047.45 588.452 3757
2056.44 588.452 3757
2123.15 604.898 3862
2162.2 613.356 3916
2171.56 613.356 3916
2180.93 613.356 3916
2195.32 614.765 3925
2220.44 619.151 3953
2235.53 620.717 3963
2245.01 620.717 3963
2254.49 620.717 3963
2269.1 622.127 3972
2284.34 623.693 3982
2293.86 623.693 3982
2303.38 623.693 3982
2318.13 625.103 3991
2327.68 625.103 3991
2337.22 625.103 3991
2346.76 625.103 3991
2362.21 626.669 4001
2377.11 628.079 4010
2386.7 628.079 4010
2402.27 629.645 4020
2411.88 629.645 4020
2421.49 629.645 4020
2431.11 629.645 4020
2452.26 632.621 4039
2474.11 635.753 4059
2489.93 637.32 4069
2505.8 638.886 4079
2515.56 638.886 4079
2525.31 638.886 4079
2535.07 638.886 4079
2544.82 638.886 4079
2554.57 638.886 4079
2545.47 634.187 4049
2548.84 632.621 4039
2558.5 632.621 4039
2537.64 625.103 3991
2547.18 625.103 3991
2556.72 625.103 3991
2566.27 625.103 3991
2575.81 625.103 3991
2573.05 622.127 3972
524.668 115.748 739
526.435 115.748 739
528.202 115.748 739
529.97 115.748 739
531.737 115.748 739
533.504 115.748 739
534.547 115.592 738
536.312 115.592 738
538.076 115.592 738
539.841 115.592 738
541.606 115.592 738
543.371 115.592 738
544.397 115.435 737
546.159 115.435 737
547.922 115.435 737
549.684 115.435 737
551.446 115.435 737
553.209 115.435 737
554.971 115.435 737
556.734 115.435 737
558.496 115.435 737
560.258 115.435 737
562.021 115.435 737
563.783 115.435 737
-2326.29 494.086 3107
-2318.86 494.086 3107
-2302.5 492.178 3095
-2295.1 492.178 3095
-2287.7 492.178 3095
-2280.3 492.178 3095
-2272.9 492.178 3095
-2261.1 491.224 3089
-2258.09 492.178 3095
-2267.42 495.836 3118
-2259.96 495.836 3118
-2265.51 498.698 3136
-2266.65 500.606 3148
-2302.18 510.148 3208
-2294.51 510.148 3208
-2341.02 522.234 3284
-2333.16 522.234 3284
-2325.31 522.234 3284
-2572.63 581.708 3658
-2587.02 586.956 3691
-2578.19 586.956 3691
-2597.9 593.476 3732
-2612.57 598.883 3766
-2609.09 600.155 3774
-2600.07 600.155 3774
-2591.04 600.155 3774
-2582.02 600.155 3774
-2572.99 600.155 3774
-2563.97 600.155 3774
-2538.02 596.18 3749
-2517.59 593.476 3732
-2508.66 593.476 3732
-2482.99 589.501 3707
-2468.79 588.228 3699
-2465.26 589.501 3707
-2467.66 592.204 3724
-2458.76 592.204 3724
-2455.11 593.476 3732
-2457.33 596.18 3749
-2448.37 596.18 3749
-2439.4 596.18 3749
-2430.44 596.18 3749
-2415.66 594.748 3740
-2406.72 594.748 3740
-2382.39 590.932 3716
-2367.75 589.501 3707
-2333.43 583.14 3667
-2324.67 583.14 3667
-2310.21 581.708 3658
-2301.47 581.708 3658
-2292.72 581.708 3658
-2283.97 581.708 3658
-2275.22 581.708 3658
-2266.48 581.708 3658
-2243.53 578.051 3635
-2215.17 572.962 3603
-2206.55 572.962 3603
-2193.05 571.69 3595
-2161.37 565.647 3557
-2138.94 561.989 3534
-2144.36 565.647 3557
-2135.85 565.647 3557
-2127.34 565.647 3557
-2123.6 566.919 3565
-2128.72 570.577 3588
-2120.14 570.577 3588
-2111.56 570.577 3588
-1991.4 590.932 3716
-1982.51 590.932 3716
-1973.63 590.932 3716
-1964.74 590.932 3716
-1955.85 590.932 3716
-1938.06 588.228 3699
-1929.22 588.228 3699
-1929.2 590.932 3716
-1963.72 604.29 3800
-1954.63 604.29 3800
-1950.15 605.721 3809
-1977.23 617.012 3880
-1967.95 617.012 3880
-1958.67 617.012 3880
-1958.43 619.874 3898
-1953.61 621.305 3907
-1972.14 630.211 3963
-1962.66 630.211 3963
-1953.18 630.211 3963
-1943.71 630.211 3963
-1934.23 630.211 3963
-1888.81 618.443 3889
-1892.56 622.736 3916
-1892.34 625.758 3935
-1909.72 634.663 3991
-1900.18 634.663 3991
-1890.64 634.663 3991
-1881.09 634.663 3991
-1871.55 634.663 3991
-1862 634.663 3991
-1852.46 634.663 3991
-1838.76 633.232 3982
-1829.24 633.232 3982
-1806.46 628.62 3953
-1792.92 627.189 3944
-1766.76 621.305 3907
-1757.41 621.305 3907
-1740.02 618.443 3889
-1722.71 615.58 3871
-1709.47 614.149 3862
-1700.23 614.149 3862
-1691 614.149 3862
-1681.76 614.149 3862
-1672.53 614.149 3862
-1667.17 615.58 3871
-1657.91 615.58 3871
-1648.65 615.58 3871
-1639.4 615.58 3871
-1630.14 615.58 3871
-1651.45 627.189 3944
-1642.02 627.189 3944
-1636.31 628.62 3953
-1626.86 628.62 3953
-1625.18 631.642 3972
-1615.68 631.642 3972
-1606.18 631.642 3972
-1631.66 645.477 4059
-1621.95 645.477 4059
-1612.25 645.477 4059
-1602.54 645.477 4059
-1600.68 648.657 4079
-1590.93 648.657 4079
-1581.17 648.657 4079
-1571.42 648.657 4079
-1561.67 648.657 4079
-1551.91 648.657 4079
-1542.16 648.657 4079
-1532.4 648.657 4079
-1515.18 645.477 4059
-1505.48 645.477 4059
-1488.4 642.296 4039
-1478.74 642.296 4039
-1465.81 640.865 4030
-1456.17 640.865 4030
-1442.95 639.275 4020
-1426.56 636.253 4001
-1416.99 636.253 4001
-1407.42 636.253 4001
-1397.86 636.253 4001
-1388.29 636.253 4001
-1378.72 636.253 4001
-1369.15 636.253 4001
-1359.59 636.253 4001
-596.752 285.288 1794
-592.462 285.288 1794
-591.451 286.879 1804
-587.137 286.879 1804
-582.823 286.879 1804
-578.509 286.879 1804
-574.513 287.038 1805
-570.197 287.038 1805
-565.881 287.038 1805
-561.565 287.038 1805
-557.248 287.038 1805
-552.932 287.038 1805
-548.312 286.879 1804
-543.998 286.879 1804
-538.487 286.242 1800
-534.183 286.242 1800
-529.878 286.242 1800
-524.99 285.924 1798
-520.111 285.606 1796
-515.817 285.606 1796
-509.813 284.652 1790
-502.426 282.903 1779
-497.052 282.267 1775
-492.807 282.267 1775
-483.333 279.245 1756
-478.588 278.927 1754
-470.878 276.86 1741
-466.714 276.86 1741
-460.16 275.429 1732
-455.228 274.952 1729
-448.224 273.203 1718
-443.34 272.725 1715
-439.239 272.725 1715
-434.123 272.089 1711
-428.775 271.294 1706
-424.197 270.976 1704
-420.123 270.976 1704
-414.339 269.863 1697
-408.347 268.591 1689
-402.153 267.16 1680
-398.136 267.16 1680
-393.415 266.683 1677
-388.94 266.365 1675
-384.935 266.365 1675
-380.929 266.365 1675
-376.249 265.887 1672
-370.692 264.774 1665
-366.05 264.297 1662
-362.075 264.297 1662
-357.239 263.661 1658
-352.635 263.184 1655
-348.256 262.866 1653
-344.095 262.707 1652
-340.145 262.707 1652
-335.787 262.389 1650
-331.842 262.389 1650
-327.499 262.071 1648
-323.558 262.071 1648
-319.617 262.071 1648
-316.059 262.389 1650
-312.113 262.389 1650
-308.168 262.389 1650
-304.222 262.389 1650
-300.276 262.389 1650
-295.972 262.071 1648
-292.031 262.071 1648
-287.915 261.912 1647
-283.459 261.435 1644
-278.848 260.799 1640
-274.926 260.799 1640
-271.004 260.799 1640
-267.083 260.799 1640
-263.161 260.799 1640
-259.239 260.799 1640
-255.317 260.799 1640
-251.396 260.799 1640
-247.323 260.64 1639
-243.404 260.64 1639
-239.484 260.64 1639
-235.565 260.64 1639
-231.646 260.64 1639
-227.726 260.64 1639
-223.944 260.799 1640
-220.022 260.799 1640
-216.364 261.117 1642
-213.213 262.071 1648
-210.415 263.502 1657
-206.453 263.502 1657
-203.713 265.092 1667
-200.325 265.887 1672
-196.914 266.683 1677
-192.904 266.683 1677
-189.457 267.478 1682
-185.986 268.273 1687
-182.707 269.386 1694
-178.656 269.386 1694
-174.708 269.545 1695
-171.259 270.499 1701
-167.29 270.658 1702
-163.22 270.658 1702
-159.15 270.658 1702
-155.08 270.658 1702
-151.01 270.658 1702
-146.94 270.658 1702
-142.87 270.658 1702
-138.8 270.658 1702
-134.73 270.658 1702
-130.66 270.658 1702
