ply
format ascii 1.0
comment File generated
element vertex 2248
property float x
property float y
property float z
end_header
169.954 1081.44 3572
178.495 1081.44 3572
187.037 1081.44 3572
195.579 1081.44 3572
204.121 1081.44 3572
212.246 1079.32 3565
219.78 1074.47 3549
228.266 1074.47 3549
236.753 1074.47 3549
245.24 1074.47 3549
254.299 1076.9 3557
262.804 1076.9 3557
271.31 1076.9 3557
280.445 1079.32 3565
289.538 1081.44 3572
298.08 1081.44 3572
306.621 1081.44 3572
314.545 1079.32 3565
323.705 1081.44 3572
333.735 1086.28 3588
342.315 1086.28 3588
352.362 1090.82 3603
360.978 1090.82 3603
369.593 1090.82 3603
377.37 1088.4 3595
384.356 1083.86 3580
389.514 1074.47 3549
398.001 1074.47 3549
400.532 1058.73 3497
406.439 1052.37 3476
412.961 1047.83 3461
418.682 1041.47 3440
426.908 1041.47 3440
432.478 1035.12 3419
437.045 1026.64 3391
443.316 1022.4 3377
451.391 1022.4 3377
455.793 1014.23 3350
461.035 1008.17 3330
468.012 1006.05 3323
475.958 1006.05 3323
483.031 1004.24 3317
490.963 1004.24 3317
498.895 1004.24 3317
506.827 1004.24 3317
514.759 1004.24 3317
520.485 999.997 3303
528.383 999.997 3303
536.281 999.997 3303
545.333 1002.12 3310
553.248 1002.12 3310
561.164 1002.12 3310
569.079 1002.12 3310
576.994 1002.12 3310
583.672 999.997 3303
591.571 999.997 3303
600.74 1002.12 3310
608.655 1002.12 3310
616.57 1002.12 3310
626.938 1006.05 3323
634.884 1006.05 3323
642.831 1006.05 3323
650.777 1006.05 3323
660.111 1008.17 3330
668.074 1008.17 3330
676.037 1008.17 3330
684 1008.17 3330
693.418 1010.29 3337
701.397 1010.29 3337
709.377 1010.29 3337
717.357 1010.29 3337
725.337 1010.29 3337
731.778 1008.17 3330
741.296 1010.29 3337
752.195 1014.23 3350
760.206 1014.23 3350
769.822 1016.35 3357
777.85 1016.35 3357
785.877 1016.35 3357
793.905 1016.35 3357
800.26 1014.23 3350
806.582 1012.11 3343
814.576 1012.11 3343
822.57 1012.11 3343
830.565 1012.11 3343
837.054 1010.29 3337
846.553 1012.11 3343
854.547 1012.11 3343
867.701 1018.16 3363
879.389 1022.4 3377
891.144 1026.64 3391
899.252 1026.64 3391
918.6 1039.35 3433
932.478 1045.71 3454
942.645 1047.83 3461
950.921 1047.83 3461
965.294 1054.49 3483
977.537 1058.73 3497
998.586 1072.36 3542
1007.06 1072.36 3542
1019.83 1076.9 3557
1028.33 1076.9 3557
1045.87 1086.28 3588
1058.86 1090.82 3603
1067.48 1090.82 3603
1085.65 1100.51 3635
1103.98 1110.2 3667
1112.75 1110.2 3667
1121.52 1110.2 3667
1130.28 1110.2 3667
1139.05 1110.2 3667
1147.82 1110.2 3667
1156.59 1110.2 3667
1165.36 1110.2 3667
1174.13 1110.2 3667
1182.9 1110.2 3667
1191.67 1110.2 3667
1200.44 1110.2 3667
1206.24 1107.47 3658
1214.98 1107.47 3658
1221.06 1105.05 3650
1229.78 1105.05 3650
1241.23 1107.47 3658
1249.97 1107.47 3658
1258.72 1107.47 3658
1267.47 1107.47 3658
1273.43 1105.05 3650
1282.15 1105.05 3650
1293.71 1107.47 3658
1302.46 1107.47 3658
1317.3 1112.62 3675
1326.09 1112.62 3675
1334.88 1112.62 3675
1343.66 1112.62 3675
1352.45 1112.62 3675
1361.24 1112.62 3675
1370.03 1112.62 3675
1378.82 1112.62 3675
1387.6 1112.62 3675
1393.35 1110.2 3667
1402.12 1110.2 3667
1407.43 1107.47 3658
1407.27 1100.51 3635
1409.73 1095.67 3619
1418.38 1095.67 3619
1417.57 1088.4 3595
1420.22 1083.86 3580
1428.78 1083.86 3580
1437.34 1083.86 3580
1445.9 1083.86 3580
1451.21 1081.44 3572
1447.5 1072.36 3542
1449.8 1067.81 3527
1458.23 1067.81 3527
1457.52 1061.15 3505
1459.63 1056.61 3490
1465.03 1054.49 3483
1473.36 1054.49 3483
1478.71 1052.37 3476
1483.6 1049.95 3468
1491.89 1049.95 3468
1500.18 1049.95 3468
1502.39 1045.71 3454
1504.52 1041.47 3440
1491.2 1026.64 3391
1499.31 1026.64 3391
1507.42 1026.64 3391
1515.53 1026.64 3391
1526.78 1028.76 3398
1534.91 1028.76 3398
1543.03 1028.76 3398
1541.57 1022.4 3377
1501.01 990.309 3271
1815.74 1127.46 3724
1824.65 1127.46 3724
1833.56 1127.46 3724
1830.09 1119.89 3699
1830.98 1115.04 3683
1788.34 1083.86 3580
1773.81 1069.93 3534
1782.26 1069.93 3534
1776.02 1061.15 3505
1784.4 1061.15 3505
1788.69 1058.73 3497
1797.05 1058.73 3497
1805.41 1058.73 3497
1810.14 1056.61 3490
1814.84 1054.49 3483
1823.17 1054.49 3483
1827.82 1052.37 3476
1836.13 1052.37 3476
1844.44 1052.37 3476
1852.76 1052.37 3476
1861.07 1052.37 3476
1857.55 1045.71 3454
1865.81 1045.71 3454
1866.47 1041.47 3440
1874.7 1041.47 3440
1879.09 1039.35 3433
-2365.97 964.273 3160
-2358.41 964.273 3160
-2346.39 962.442 3154
-2338.85 962.442 3154
-2326.87 960.611 3148
-2319.35 960.611 3148
-2311.82 960.611 3148
-2304.29 960.611 3148
-2301.14 962.442 3154
-2297.96 964.273 3160
-2290.4 964.273 3160
-2295.85 969.766 3178
-2292.57 971.596 3184
-2293.57 975.258 3196
-2285.93 975.258 3196
-2286.84 978.92 3208
-2314.69 994.178 3258
-2325.31 1002.11 3284
-2317.46 1002.11 3284
-2313.82 1003.94 3290
-2338.9 1018.28 3337
-2353.97 1028.35 3370
-2365.4 1036.9 3398
-2381.56 1047.58 3433
-2383.03 1051.85 3447
-2374.78 1051.85 3447
-2366.54 1051.85 3447
-2353.51 1049.71 3440
-2345.28 1049.71 3440
-2337.06 1049.71 3440
-2333.57 1051.85 3447
-2334.77 1056.12 3461
-2326.49 1056.12 3461
-2322.91 1058.26 3468
-2314.61 1058.26 3468
-2311.64 1060.7 3476
-2307.97 1062.84 3483
-2304.26 1064.97 3490
-2295.91 1064.97 3490
-2292.16 1067.11 3497
-2283.79 1067.11 3497
-2294.95 1076.26 3527
-2286.52 1076.26 3527
-2278.08 1076.26 3527
-2269.65 1076.26 3527
-2261.22 1076.26 3527
-2252.78 1076.26 3527
-2239.89 1074.13 3520
-2240.35 1078.4 3534
-2236.95 1080.84 3542
-2228.48 1080.84 3542
-2229.41 1085.42 3557
-2220.91 1085.42 3557
-2221.73 1089.99 3572
-2213.19 1089.99 3572
-2204.65 1089.99 3572
-2196.11 1089.99 3572
-2187.57 1089.99 3572
-2174.75 1087.86 3565
-2161.37 1085.42 3557
-2152.86 1085.42 3557
-2144.36 1085.42 3557
-2135.85 1085.42 3557
-2127.34 1085.42 3557
-2118.84 1085.42 3557
-2110.33 1085.42 3557
-2101.83 1085.42 3557
-2088.61 1082.98 3549
-2071.33 1078.4 3534
-2062.88 1078.4 3534
-2054.43 1078.4 3534
-2045.98 1078.4 3534
-2037.53 1078.4 3534
-2029.08 1078.4 3534
-2020.63 1078.4 3534
-2008.19 1076.26 3527
-1995.79 1074.13 3520
-1987.37 1074.13 3520
-1974.46 1071.69 3512
-1957.66 1067.11 3497
-1949.3 1067.11 3497
-1940.94 1067.11 3497
-1932.57 1067.11 3497
-1920.36 1064.97 3490
-1912.01 1064.97 3490
-1903.67 1064.97 3490
-1895.32 1064.97 3490
-1895.09 1069.55 3505
-1894.78 1074.13 3520
-1893.87 1078.4 3534
-1885.41 1078.4 3534
-1884.93 1082.98 3549
-1880.67 1085.42 3557
-1876.38 1087.86 3565
-1867.85 1087.86 3565
-1867.15 1092.44 3580
-1870.53 1099.45 3603
-1882.07 1111.35 3642
-1873.36 1111.35 3642
-1881.55 1121.42 3675
-1876.84 1123.87 3683
-1884.77 1133.94 3716
-1875.88 1133.94 3716
-1866.99 1133.94 3716
-1849.61 1128.75 3699
-1849.22 1133.94 3716
-1840.34 1133.94 3716
-1835.39 1136.38 3724
-1826.49 1136.38 3724
-1817.58 1136.38 3724
-1796.53 1128.75 3699
-1779.96 1123.87 3683
-1755.28 1113.8 3650
-1746.55 1113.8 3650
-1730.68 1109.22 3635
-1710.62 1101.9 3611
-1694.44 1097.01 3595
-1682.56 1094.88 3588
-1673.98 1094.88 3588
-1657.98 1089.99 3572
-1638.82 1082.98 3549
-1610.12 1069.55 3505
-1601.73 1069.55 3505
-1576.53 1058.26 3468
-1568.24 1058.26 3468
-1550.5 1051.85 3447
-1542.26 1051.85 3447
-1527.78 1047.58 3433
-1519.58 1047.58 3433
-1495.96 1036.9 3398
-1487.83 1036.9 3398
-1479.71 1036.9 3398
-1471.58 1036.9 3398
-1463.45 1036.9 3398
-1461.33 1041.17 3412
-1453.17 1041.17 3412
-1447.97 1043.31 3419
-1451.59 1051.85 3447
-1443.34 1051.85 3447
-1435.1 1051.85 3447
-1429.76 1053.99 3454
-1424.38 1056.12 3461
-1422.24 1060.7 3476
-1413.93 1060.7 3476
-1405.61 1060.7 3476
-1397.3 1060.7 3476
-1391.79 1062.84 3483
-1383.46 1062.84 3483
-1377.89 1064.97 3490
-1375.43 1069.55 3505
-1369.78 1071.69 3512
-1361.38 1071.69 3512
-1361.46 1078.4 3534
-1356.07 1080.84 3542
-1347.6 1080.84 3542
-1339.13 1080.84 3542
-1330.66 1080.84 3542
-1319.21 1078.4 3534
-1310.76 1078.4 3534
-1302.3 1078.4 3534
-1288.73 1074.13 3520
-1280.31 1074.13 3520
-1269 1071.69 3512
-1260.6 1071.69 3512
-1252.21 1071.69 3512
-1238.5 1067.11 3497
-1219.93 1058.26 3468
-1211.64 1058.26 3468
-1203.35 1058.26 3468
-1192.64 1056.12 3461
-1184.36 1056.12 3461
-1176.09 1056.12 3461
-1167.81 1056.12 3461
-1152.5 1049.71 3440
-1141.95 1047.58 3433
-1133.74 1047.58 3433
-1123.23 1045.44 3426
-1115.04 1045.44 3426
-1111.37 1049.71 3440
-1103.14 1049.71 3440
-1094.92 1049.71 3440
-1082.27 1045.44 3426
-549.892 535.232 1754
-546.32 535.843 1756
-542.121 535.843 1756
-537.922 535.843 1756
-533.722 535.843 1756
-528.317 534.622 1752
-523.828 534.317 1751
-519.641 534.317 1751
-514.865 533.707 1749
-508.347 531.266 1741
-504.184 531.266 1741
-500.02 531.266 1741
-495.572 530.96 1740
-490.847 530.35 1738
-486.131 529.74 1736
-481.979 529.74 1736
-477.277 529.13 1734
-472.312 528.214 1731
-467.632 527.604 1729
-463.498 527.604 1729
-458.3 526.383 1725
-454.175 526.383 1725
-449.528 525.773 1723
-445.15 525.468 1722
-441.032 525.468 1722
-435.899 524.247 1718
-431.791 524.247 1718
-426.936 523.332 1715
-422.835 523.332 1715
-418.245 522.721 1713
-412.94 521.196 1708
-408.377 520.585 1706
-404.298 520.585 1706
-399.749 519.975 1704
-394.513 518.449 1699
-389.301 516.924 1694
-385.25 516.924 1694
-380.299 515.703 1690
-375.59 514.787 1687
-371.115 514.177 1685
-367.086 514.177 1685
-362.41 513.262 1682
-357.962 512.651 1680
-353.945 512.651 1680
-349.927 512.651 1680
-345.91 512.651 1680
-342.299 513.262 1682
-338.478 513.567 1683
-334.454 513.567 1683
-330.822 514.177 1685
-326.793 514.177 1685
-322.763 514.177 1685
-319.491 515.398 1689
-315.452 515.398 1689
-311.413 515.398 1689
-307.556 515.703 1690
-304.233 516.924 1694
-300.182 516.924 1694
-296.131 516.924 1694
-292.598 517.839 1697
-289.39 519.365 1702
-285.32 519.365 1702
-281.25 519.365 1702
-277.505 519.975 1704
-273.752 520.585 1706
-269.672 520.585 1706
-265.592 520.585 1706
-261.819 521.196 1708
-258.188 522.111 1711
-254.69 523.332 1715
-250.589 523.332 1715
-247.207 524.857 1720
-243.376 525.468 1722
-240.509 528.214 1731
-236.37 528.214 1731
-232.633 529.13 1734
-230.858 534.622 1752
-227.186 535.843 1756
-222.987 535.843 1756
-218.788 535.843 1756
-214.833 536.453 1758
-211.947 539.81 1769
-207.717 539.81 1769
-204.177 541.641 1775
-199.932 541.641 1775
-195.688 541.641 1775
-143.094 1133.94 3716
-134.208 1133.94 3716
-125.322 1133.94 3716
-116.154 1131.19 3707
-106.826 1126.31 3691
-97.9997 1126.31 3691
-88.1829 1113.8 3650
-79.4546 1113.8 3650
-70.4357 1109.22 3635
-61.7433 1109.22 3635
-53.0509 1109.22 3635
-44.3585 1109.22 3635
-35.6662 1109.22 3635
-26.9738 1109.22 3635
-18.1607 1101.9 3611
-9.52569 1101.9 3611
-0.890695 1101.9 3611
7.7443 1101.9 3611
16.3793 1101.9 3611
24.9589 1099.45 3603
33.5747 1099.45 3603
42.1906 1099.45 3603
50.8065 1099.45 3603
59.4223 1099.45 3603
67.7549 1094.88 3588
76.3349 1094.88 3588
84.9149 1094.88 3588
93.4949 1094.88 3588
102.075 1094.88 3588
110.408 1092.44 3580
118.969 1092.44 3580
127.53 1092.44 3580
136.091 1092.44 3580
144.328 1089.99 3572
152.87 1089.99 3572
161.412 1089.99 3572
169.954 1089.99 3572
178.495 1089.99 3572
187.037 1089.99 3572
195.579 1089.99 3572
204.121 1089.99 3572
212.246 1087.86 3565
219.78 1082.98 3549
228.266 1082.98 3549
236.753 1082.98 3549
245.24 1082.98 3549
254.299 1085.42 3557
262.804 1085.42 3557
271.31 1085.42 3557
280.445 1087.86 3565
289.538 1089.99 3572
298.08 1089.99 3572
306.621 1089.99 3572
314.545 1087.86 3565
322.345 1085.42 3557
332.247 1089.99 3572
340.788 1089.99 3572
350.112 1092.44 3580
358.673 1092.44 3580
367.234 1092.44 3580
375.795 1092.44 3580
381.028 1082.98 3549
385.454 1071.69 3512
393.852 1071.69 3512
398.127 1060.7 3476
403.048 1051.85 3447
409.62 1047.58 3433
415.274 1041.17 3412
423.433 1041.17 3412
428.936 1034.76 3391
435.24 1030.49 3377
440.69 1024.39 3357
448.718 1024.39 3357
454.841 1020.12 3343
460.066 1014.01 3323
468.012 1014.01 3323
475.958 1014.01 3323
483.031 1012.18 3317
490.963 1012.18 3317
498.895 1012.18 3317
506.827 1012.18 3317
514.759 1012.18 3317
520.485 1007.91 3303
528.383 1007.91 3303
536.281 1007.91 3303
545.333 1010.05 3310
553.248 1010.05 3310
561.164 1010.05 3310
569.079 1010.05 3310
576.994 1010.05 3310
584.909 1010.05 3310
592.825 1010.05 3310
600.74 1010.05 3310
609.942 1012.18 3317
617.874 1012.18 3317
626.938 1014.01 3323
634.884 1014.01 3323
642.831 1014.01 3323
650.777 1014.01 3323
660.111 1016.15 3330
668.074 1016.15 3330
676.037 1016.15 3330
684 1016.15 3330
693.418 1018.28 3337
701.397 1018.28 3337
709.377 1018.28 3337
717.357 1018.28 3337
725.337 1018.28 3337
733.317 1018.28 3337
741.296 1018.28 3337
752.195 1022.25 3350
760.206 1022.25 3350
769.822 1024.39 3357
777.85 1024.39 3357
785.877 1024.39 3357
793.905 1024.39 3357
800.26 1022.25 3350
806.582 1020.12 3343
814.576 1020.12 3343
822.57 1020.12 3343
830.565 1020.12 3343
837.054 1018.28 3337
846.553 1020.12 3343
854.547 1020.12 3343
867.701 1026.22 3363
877.566 1028.35 3370
891.144 1034.76 3391
899.252 1034.76 3391
914.854 1043.31 3419
926.809 1047.58 3433
942.645 1056.12 3461
950.921 1056.12 3461
959.197 1056.12 3461
977.537 1067.11 3497
992.383 1074.13 3520
1000.8 1074.13 3520
1015.53 1080.84 3542
1028.33 1085.42 3557
1045.87 1094.88 3588
1056.51 1097.01 3595
1065.11 1097.01 3595
1083.26 1106.78 3627
1101.27 1116.24 3658
1112.75 1118.98 3667
1121.52 1118.98 3667
1130.28 1118.98 3667
1136.26 1116.24 3658
1145.01 1116.24 3658
1153.75 1116.24 3658
1159.96 1113.8 3650
1168.69 1113.8 3650
1177.41 1113.8 3650
1186.14 1113.8 3650
1194.87 1113.8 3650
1200.96 1111.35 3642
1209.67 1111.35 3642
1218.38 1111.35 3642
1229.78 1113.8 3650
1238.51 1113.8 3650
1247.24 1113.8 3650
1255.97 1113.8 3650
1264.7 1113.8 3650
1270.63 1111.35 3642
1279.34 1111.35 3642
1293.71 1116.24 3658
1302.46 1116.24 3658
1314.43 1118.98 3667
1326.09 1121.42 3675
1334.88 1121.42 3675
1343.66 1121.42 3675
1352.45 1121.42 3675
1361.24 1121.42 3675
1370.03 1121.42 3675
1378.82 1121.42 3675
1387.6 1121.42 3675
1393.35 1118.98 3667
1402.12 1118.98 3667
1407.43 1116.24 3658
1407.27 1109.22 3635
1409.73 1104.34 3619
1418.38 1104.34 3619
1417.57 1097.01 3595
1420.22 1092.44 3580
1428.78 1092.44 3580
1437.34 1092.44 3580
1445.9 1092.44 3580
1451.21 1089.99 3572
1447.5 1080.84 3542
1449.8 1076.26 3527
1458.23 1076.26 3527
1457.52 1069.55 3505
1459.63 1064.97 3490
1465.03 1062.84 3483
1473.36 1062.84 3483
1478.71 1060.7 3476
1483.6 1058.26 3468
1485.87 1053.99 3454
1494.13 1053.99 3454
1496.3 1049.71 3440
1483.09 1034.76 3391
1481.97 1028.35 3370
1466.59 1012.18 3317
1474.53 1012.18 3317
1473.52 1006.08 3297
1475.56 1002.11 3284
1477.54 998.145 3271
1485.36 998.145 3271
1493.19 998.145 3271
1501.01 998.145 3271
1823.55 1141.26 3740
1832.49 1141.26 3740
1841.43 1141.26 3740
1842.46 1136.38 3724
1834.96 1126.31 3691
1795.83 1097.01 3595
1781.34 1082.98 3549
1789.83 1082.98 3549
1783.62 1074.13 3520
1792.04 1074.13 3520
1788.69 1067.11 3497
1797.05 1067.11 3497
1805.41 1067.11 3497
1810.14 1064.97 3490
1807.03 1058.26 3468
1815.32 1058.26 3468
1823.61 1058.26 3468
1836.13 1060.7 3476
1844.44 1060.7 3476
1852.76 1060.7 3476
1861.07 1060.7 3476
1857.55 1053.99 3454
1865.81 1053.99 3454
1870.27 1051.85 3447
1878.51 1051.85 3447
1879.09 1047.58 3433
-2370.46 973.688 3166
-2362.89 973.688 3166
-2350.86 971.843 3160
-2338.85 969.997 3154
-2326.87 968.152 3148
-2319.35 968.152 3148
-2311.82 968.152 3148
-2313.07 971.843 3160
-2305.52 971.843 3160
-2306.69 975.533 3172
-2299.1 975.533 3172
-2291.52 975.533 3172
-2292.57 979.224 3184
-2293.57 982.914 3196
-2285.93 982.914 3196
-2286.84 986.605 3208
-2310.43 1000.14 3252
-2325.31 1009.98 3284
-2317.46 1009.98 3284
-2313.82 1011.82 3290
-2348.01 1030.28 3350
-2340 1030.28 3350
-2365.4 1045.04 3398
-2396.12 1062.26 3454
-2397.54 1066.57 3468
-2389.25 1066.57 3468
-2380.96 1066.57 3468
-2363.09 1062.26 3454
-2354.83 1062.26 3454
-2337.06 1057.96 3440
-2343.05 1064.41 3461
-2339.49 1066.57 3468
-2336.58 1069.03 3476
-2328.26 1069.03 3476
-2319.95 1069.03 3476
-2311.64 1069.03 3476
-2312.61 1073.33 3490
-2308.88 1075.49 3497
-2300.52 1075.49 3497
-2292.16 1075.49 3497
-2289.02 1077.95 3505
-2294.95 1084.71 3527
-2286.52 1084.71 3527
-2282.61 1086.86 3534
-2274.15 1086.86 3534
-2265.7 1086.86 3534
-2257.25 1086.86 3534
-2239.89 1082.56 3520
-2235.91 1084.71 3527
-2231.9 1086.86 3534
-2223.45 1086.86 3534
-2224.4 1091.48 3549
-2220.91 1093.94 3557
-2221.73 1098.55 3572
-2213.19 1098.55 3572
-2204.65 1098.55 3572
-2196.11 1098.55 3572
-2187.57 1098.55 3572
-2174.75 1096.4 3565
-2161.37 1093.94 3557
-2152.86 1093.94 3557
-2144.36 1093.94 3557
-2135.85 1093.94 3557
-2127.34 1093.94 3557
-2118.84 1093.94 3557
-2110.33 1093.94 3557
-2101.83 1093.94 3557
-2088.61 1091.48 3549
-2071.33 1086.86 3534
-2062.88 1086.86 3534
-2054.43 1086.86 3534
-2050.61 1089.32 3542
-2042.14 1089.32 3542
-2033.67 1089.32 3542
-2025.2 1089.32 3542
-2008.19 1084.71 3527
-1991.25 1080.1 3512
-1982.85 1080.1 3512
-1974.46 1080.1 3512
-1957.66 1075.49 3497
-1949.3 1075.49 3497
-1940.94 1075.49 3497
-1932.57 1075.49 3497
-1920.36 1073.33 3490
-1908.18 1071.18 3483
-1903.67 1073.33 3490
-1895.32 1073.33 3490
-1886.98 1073.33 3490
-1886.71 1077.95 3505
-1890.11 1084.71 3527
-1881.68 1084.71 3527
-1876.96 1086.86 3534
-1872.74 1089.32 3542
-1872.17 1093.94 3557
-1863.66 1093.94 3557
-1855.16 1093.94 3557
-1858.59 1101.01 3580
-1874.32 1115.47 3627
-1865.64 1115.47 3627
-1872.84 1125 3658
-1872.76 1130.23 3675
-1863.97 1130.23 3675
-1855.18 1130.23 3675
-1846.39 1130.23 3675
-1833.61 1127.77 3667
-1824.84 1127.77 3667
-1816.07 1127.77 3667
-1811.24 1130.23 3675
-1802.45 1130.23 3675
-1793.67 1130.23 3675
-1784.88 1130.23 3675
-1767.87 1125 3658
-1755.28 1122.54 3650
-1746.55 1122.54 3650
-1726.87 1115.47 3627
-1706.83 1108.09 3603
-1694.44 1105.62 3595
-1675.06 1098.55 3572
-1666.52 1098.55 3572
-1657.98 1098.55 3572
-1638.82 1091.48 3549
-1610.12 1077.95 3505
-1601.73 1077.95 3505
-1576.53 1066.57 3468
-1561.91 1062.26 3454
-1547.35 1057.96 3440
-1539.13 1057.96 3440
-1527.78 1055.8 3433
-1519.58 1055.8 3433
-1495.96 1045.04 3398
-1487.83 1045.04 3398
-1479.71 1045.04 3398
-1471.58 1045.04 3398
-1466.47 1047.19 3405
-1461.33 1049.34 3412
-1453.17 1049.34 3412
-1447.97 1051.5 3419
-1448.64 1057.96 3440
-1443.34 1060.11 3447
-1435.1 1060.11 3447
-1426.86 1060.11 3447
-1424.38 1064.41 3461
-1418.97 1066.57 3468
-1410.67 1066.57 3468
-1405.61 1069.03 3476
-1400.12 1071.18 3483
-1391.79 1071.18 3483
-1383.46 1071.18 3483
-1375.13 1071.18 3483
-1372.29 1075.49 3497
-1369.78 1080.1 3512
-1361.38 1080.1 3512
-1358.76 1084.71 3527
-1353.01 1086.86 3534
-1344.56 1086.86 3534
-1336.11 1086.86 3534
-1327.66 1086.86 3534
-1319.21 1086.86 3534
-1310.76 1086.86 3534
-1299.73 1084.71 3527
-1288.73 1082.56 3520
-1277.4 1080.1 3512
-1269 1080.1 3512
-1260.6 1080.1 3512
-1252.21 1080.1 3512
-1238.5 1075.49 3497
-1222.75 1069.03 3476
-1214.43 1069.03 3476
-1203.35 1066.57 3468
-1195.05 1066.57 3468
-1186.76 1066.57 3468
-1178.47 1066.57 3468
-1170.17 1066.57 3468
-1152.5 1057.96 3440
-1141.95 1055.8 3433
-1133.74 1055.8 3433
-1123.23 1053.65 3426
-1117.32 1055.8 3433
-1111.37 1057.96 3440
-1103.14 1057.96 3440
-1094.92 1057.96 3440
-1082.27 1053.65 3426
-549.265 538.819 1752
-545.075 538.819 1752
-542.121 540.049 1756
-537.922 540.049 1756
-533.722 540.049 1756
-528.016 538.512 1751
-523.23 537.896 1749
-519.048 537.896 1749
-514.276 537.281 1747
-508.347 535.436 1741
-503.894 535.129 1740
-499.733 535.129 1740
-495.003 534.513 1738
-490.847 534.513 1738
-485.57 533.283 1734
-481.424 533.283 1734
-476.727 532.668 1732
-472.312 532.361 1731
-467.632 531.746 1729
-463.498 531.746 1729
-458.3 530.515 1725
-454.175 530.515 1725
-449.528 529.9 1723
-445.15 529.593 1722
-441.032 529.593 1722
-435.899 528.363 1718
-431.791 528.363 1718
-426.936 527.44 1715
-422.835 527.44 1715
-418.245 526.825 1713
-412.94 525.287 1708
-408.377 524.672 1706
-404.298 524.672 1706
-399.749 524.057 1704
-394.513 522.519 1699
-389.301 520.982 1694
-385.25 520.982 1694
-380.299 519.751 1690
-375.59 518.829 1687
-371.115 518.214 1685
-367.086 518.214 1685
-362.41 517.291 1682
-357.962 516.676 1680
-353.945 516.676 1680
-349.927 516.676 1680
-345.91 516.676 1680
-342.299 517.291 1682
-338.277 517.291 1682
-334.454 517.599 1683
-330.822 518.214 1685
-326.793 518.214 1685
-322.763 518.214 1685
-319.491 519.444 1689
-315.452 519.444 1689
-311.413 519.444 1689
-307.556 519.751 1690
-304.233 520.982 1694
-300.182 520.982 1694
-296.131 520.982 1694
-292.598 521.904 1697
-289.39 523.442 1702
-285.32 523.442 1702
-281.25 523.442 1702
-277.505 524.057 1704
-273.752 524.672 1706
-269.672 524.672 1706
-265.592 524.672 1706
-261.819 525.287 1708
-258.188 526.21 1711
-254.69 527.44 1715
-250.589 527.44 1715
-247.207 528.978 1720
-243.376 529.593 1722
-240.509 532.361 1731
-236.37 532.361 1731
-232.633 533.283 1734
-230.858 538.819 1752
-227.186 540.049 1756
-222.987 540.049 1756
-218.788 540.049 1756
-214.833 540.664 1758
-211.947 544.047 1769
-207.717 544.047 1769
-204.177 545.893 1775
-199.932 545.893 1775
-195.688 545.893 1775
-96.3005 1115.47 3627
-87.6272 1115.47 3627
-78.9539 1115.47 3627
-70.2807 1115.47 3627
-61.7433 1117.93 3635
-53.0509 1117.93 3635
-44.3585 1117.93 3635
-35.5877 1115.47 3627
-26.9144 1115.47 3627
-18.1607 1110.55 3611
-9.50459 1108.09 3603
-0.888721 1108.09 3603
7.72714 1108.09 3603
16.343 1108.09 3603
24.9589 1108.09 3603
33.5747 1108.09 3603
42.1906 1108.09 3603
50.8065 1108.09 3603
59.4223 1108.09 3603
67.7549 1103.47 3588
76.3349 1103.47 3588
84.9149 1103.47 3588
93.4949 1103.47 3588
102.075 1103.47 3588
110.408 1101.01 3580
118.969 1101.01 3580
127.53 1101.01 3580
136.091 1101.01 3580
144.328 1098.55 3572
152.87 1098.55 3572
161.412 1098.55 3572
169.954 1098.55 3572
178.495 1098.55 3572
187.037 1098.55 3572
195.579 1098.55 3572
204.121 1098.55 3572
212.246 1096.4 3565
219.78 1091.48 3549
228.266 1091.48 3549
236.286 1089.32 3542
244.756 1089.32 3542
253.727 1091.48 3549
262.213 1091.48 3549
270.7 1091.48 3549
279.187 1091.48 3549
287.674 1091.48 3549
296.16 1091.48 3549
304.647 1091.48 3549
313.134 1091.48 3549
322.345 1093.94 3557
332.247 1098.55 3572
340.788 1098.55 3572
350.112 1101.01 3580
358.673 1101.01 3580
367.234 1101.01 3580
375.795 1101.01 3580
381.028 1091.48 3549
385.454 1080.1 3512
393.852 1080.1 3512
398.127 1069.03 3476
403.048 1060.11 3447
409.62 1055.8 3433
415.274 1049.34 3412
423.433 1049.34 3412
428.936 1042.89 3391
435.24 1038.58 3377
440.69 1032.43 3357
448.718 1032.43 3357
454.841 1028.12 3343
460.066 1021.97 3323
468.012 1021.97 3323
475.958 1021.97 3323
483.031 1020.13 3317
490.963 1020.13 3317
498.895 1020.13 3317
506.827 1020.13 3317
514.759 1020.13 3317
520.485 1015.82 3303
528.383 1015.82 3303
537.418 1017.97 3310
546.487 1020.13 3317
554.419 1020.13 3317
562.35 1020.13 3317
570.282 1020.13 3317
578.214 1020.13 3317
586.146 1020.13 3317
594.078 1020.13 3317
602.01 1020.13 3317
611.045 1021.97 3323
618.992 1021.97 3323
626.938 1021.97 3323
636.222 1024.13 3330
644.185 1024.13 3330
652.148 1024.13 3330
660.111 1024.13 3330
669.478 1026.28 3337
677.458 1026.28 3337
685.438 1026.28 3337
693.418 1026.28 3337
701.397 1026.28 3337
709.377 1026.28 3337
717.357 1026.28 3337
725.337 1026.28 3337
733.317 1026.28 3337
741.296 1026.28 3337
752.195 1030.28 3350
760.206 1030.28 3350
769.822 1032.43 3357
777.85 1032.43 3357
785.877 1032.43 3357
793.905 1032.43 3357
800.26 1030.28 3350
806.582 1028.12 3343
814.576 1028.12 3343
822.57 1028.12 3343
830.565 1028.12 3343
837.054 1026.28 3337
846.553 1028.12 3343
854.547 1028.12 3343
867.701 1034.27 3363
877.566 1036.43 3370
891.144 1042.89 3391
899.252 1042.89 3391
914.854 1051.5 3419
926.809 1055.8 3433
942.645 1064.41 3461
950.921 1064.41 3461
959.197 1064.41 3461
977.537 1075.49 3497
992.383 1082.56 3520
1000.8 1082.56 3520
1015.53 1089.32 3542
1028.33 1093.94 3557
1045.87 1103.47 3588
1056.51 1105.62 3595
1065.11 1105.62 3595
1083.26 1115.47 3627
1101.27 1125 3658
1112.75 1127.77 3667
1121.52 1127.77 3667
1130.28 1127.77 3667
1136.26 1125 3658
1145.01 1125 3658
1153.75 1125 3658
1159.96 1122.54 3650
1168.69 1122.54 3650
1177.41 1122.54 3650
1186.14 1122.54 3650
1194.87 1122.54 3650
1200.96 1120.08 3642
1209.67 1120.08 3642
1218.38 1120.08 3642
1229.78 1122.54 3650
1238.51 1122.54 3650
1247.24 1122.54 3650
1255.97 1122.54 3650
1264.7 1122.54 3650
1270.63 1120.08 3642
1279.34 1120.08 3642
1293.71 1125 3658
1302.46 1125 3658
1314.43 1127.77 3667
1326.09 1130.23 3675
1334.88 1130.23 3675
1343.66 1130.23 3675
1352.45 1130.23 3675
1361.24 1130.23 3675
1370.03 1130.23 3675
1378.82 1130.23 3675
1387.6 1130.23 3675
1393.35 1127.77 3667
1402.12 1127.77 3667
1407.43 1125 3658
1407.27 1117.93 3635
1409.73 1113.01 3619
1418.38 1113.01 3619
1417.57 1105.62 3595
1420.22 1101.01 3580
1428.78 1101.01 3580
1437.34 1101.01 3580
1445.9 1101.01 3580
1451.21 1098.55 3572
1447.5 1089.32 3542
1449.8 1084.71 3527
1458.23 1084.71 3527
1457.52 1077.95 3505
1459.63 1073.33 3490
1465.03 1071.18 3483
1473.36 1071.18 3483
1478.71 1069.03 3476
1483.6 1066.57 3468
1485.87 1062.26 3454
1494.13 1062.26 3454
1496.3 1057.96 3440
1483.09 1042.89 3391
1481.97 1036.43 3370
1466.59 1020.13 3317
1474.53 1020.13 3317
1473.52 1013.98 3297
1467.02 1004.13 3265
1477.54 1005.98 3271
1485.36 1005.98 3271
1493.19 1005.98 3271
1501.01 1005.98 3271
1827.93 1152.99 3749
1836.9 1152.99 3749
1845.86 1152.99 3749
1850.38 1150.22 3740
1838.94 1137.61 3699
1799.83 1108.09 3603
1804.43 1105.62 3595
1813.02 1105.62 3595
1798.31 1091.48 3549
1799.16 1086.86 3534
1800.45 1082.56 3520
1808.87 1082.56 3520
1817.29 1082.56 3520
1810.14 1073.33 3490
1807.03 1066.57 3468
1819.51 1069.03 3476
1827.82 1069.03 3476
1836.13 1069.03 3476
1848.16 1071.18 3483
1856.49 1071.18 3483
1864.82 1071.18 3483
1869.38 1069.03 3476
1865.81 1062.26 3454
1874.07 1062.26 3454
1882.33 1062.26 3454
1886.76 1060.11 3447
-2374.95 983.132 3172
-2367.37 983.132 3172
-2355.32 981.272 3166
-2338.85 977.553 3154
-2331.31 977.553 3154
-2323.77 977.553 3154
-2316.22 977.553 3154
-2317.47 981.272 3166
-2309.9 981.272 3166
-2306.69 983.132 3172
-2299.1 983.132 3172
-2291.52 983.132 3172
-2296.89 988.711 3190
-2293.57 990.57 3196
-2285.93 990.57 3196
-2291.12 996.149 3214
-2310.43 1007.93 3252
-2325.31 1017.85 3284
-2317.46 1017.85 3284
-2318.75 1021.87 3297
-2348.01 1038.3 3350
-2340 1038.3 3350
-2365.4 1053.18 3398
-2400.98 1072.7 3461
-2403.07 1077.35 3476
-2394.76 1077.35 3476
-2386.45 1077.35 3476
-2378.14 1077.35 3476
-2369.83 1077.35 3476
-2337.06 1066.2 3440
-2343.05 1072.7 3461
-2339.49 1074.87 3468
-2341.28 1079.52 3483
-2332.95 1079.52 3483
-2324.62 1079.52 3483
-2320.95 1081.69 3490
-2312.61 1081.69 3490
-2308.88 1083.86 3497
-2300.52 1083.86 3497
-2292.16 1083.86 3497
-2289.02 1086.34 3505
-2294.95 1093.16 3527
-2286.52 1093.16 3527
-2282.61 1095.33 3534
-2274.15 1095.33 3534
-2265.7 1095.33 3534
-2257.25 1095.33 3534
-2239.89 1090.99 3520
-2231.48 1090.99 3520
-2231.9 1095.33 3534
-2223.45 1095.33 3534
-2224.4 1099.98 3549
-2215.91 1099.98 3549
-2221.73 1107.11 3572
-2213.19 1107.11 3572
-2204.65 1107.11 3572
-2196.11 1107.11 3572
-2187.57 1107.11 3572
-2174.75 1104.94 3565
-2161.37 1102.46 3557
-2152.86 1102.46 3557
-2144.36 1102.46 3557
-2135.85 1102.46 3557
-2127.34 1102.46 3557
-2114.07 1099.98 3549
-2105.59 1099.98 3549
-2097.1 1099.98 3549
-2088.61 1099.98 3549
-2071.33 1095.33 3534
-2062.88 1095.33 3534
-2054.43 1095.33 3534
-2050.61 1097.81 3542
-2042.14 1097.81 3542
-2033.67 1097.81 3542
-2025.2 1097.81 3542
-2008.19 1093.16 3527
-1991.25 1088.51 3512
-1982.85 1088.51 3512
-1974.46 1088.51 3512
-1957.66 1083.86 3497
-1949.3 1083.86 3497
-1940.94 1083.86 3497
-1932.57 1083.86 3497
-1920.36 1081.69 3490
-1908.18 1079.52 3483
-1899.85 1079.52 3483
-1887.72 1077.35 3476
-1879.41 1077.35 3476
-1878.63 1081.69 3490
-1878.32 1086.34 3505
-1869.94 1086.34 3505
-1873.25 1093.16 3527
-1868.51 1095.33 3534
-1860.06 1095.33 3534
-1851.61 1095.33 3534
-1847.33 1097.81 3542
-1846.65 1102.46 3557
-1866.05 1119.2 3611
-1857.41 1119.2 3611
-1861.07 1126.63 3635
-1864.1 1133.76 3658
-1859.91 1136.55 3667
-1851.14 1136.55 3667
-1842.38 1136.55 3667
-1829.11 1133.76 3658
-1820.36 1133.76 3658
-1803.69 1128.8 3642
-1802.86 1133.76 3658
-1794.12 1133.76 3658
-1785.37 1133.76 3658
-1772.74 1131.28 3650
-1764.01 1131.28 3650
-1740.37 1121.68 3619
-1731.72 1121.68 3619
-1719.25 1119.2 3611
-1703.04 1114.24 3595
-1683.6 1107.11 3572
-1675.06 1107.11 3572
-1666.52 1107.11 3572
-1654.73 1104.94 3565
-1631.89 1095.33 3534
-1603.23 1081.69 3490
-1594.88 1081.69 3490
-1576.53 1074.87 3468
-1558.74 1068.37 3447
-1547.35 1066.2 3440
-1539.13 1066.2 3440
-1527.78 1064.03 3433
-1516.48 1061.86 3426
-1505.2 1059.69 3419
-1497.03 1059.69 3419
-1479.71 1053.18 3398
-1474.61 1055.35 3405
-1469.48 1057.52 3412
-1461.33 1057.52 3412
-1453.17 1057.52 3412
-1447.97 1059.69 3419
-1442.74 1061.86 3426
-1440.41 1066.2 3440
-1432.19 1066.2 3440
-1423.96 1066.2 3440
-1418.62 1068.37 3447
-1418.97 1074.87 3468
-1410.67 1074.87 3468
-1405.61 1077.35 3476
-1400.12 1079.52 3483
-1391.79 1079.52 3483
-1383.46 1079.52 3483
-1375.13 1079.52 3483
-1369.55 1081.69 3490
-1363.93 1083.86 3497
-1355.57 1083.86 3497
-1358.76 1093.16 3527
-1350.33 1093.16 3527
-1344.56 1095.33 3534
-1336.11 1095.33 3534
-1327.66 1095.33 3534
-1319.21 1095.33 3534
-1310.76 1095.33 3534
-1299.73 1093.16 3527
-1285.8 1088.51 3512
-1277.4 1088.51 3512
-1269 1088.51 3512
-1260.6 1088.51 3512
-1252.21 1088.51 3512
-1238.5 1083.86 3497
-1222.75 1077.35 3476
-1214.43 1077.35 3476
-1203.35 1074.87 3468
-1197.81 1077.35 3476
-1189.5 1077.35 3476
-1181.19 1077.35 3476
-1172.87 1077.35 3476
-1164.56 1077.35 3476
-1144.27 1066.2 3440
-1136.05 1066.2 3440
-1125.53 1064.03 3433
-1121.87 1068.37 3447
-1120.42 1074.87 3468
-1112.12 1074.87 3468
-1103.83 1074.87 3468
-1095.54 1074.87 3468
-549.265 543.016 1752
-545.075 543.016 1752
-540.886 543.016 1752
-536.696 543.016 1752
-531.595 542.086 1749
-527.412 542.086 1749
-522.632 541.466 1747
-518.454 541.466 1747
-513.099 540.227 1743
-508.347 539.607 1741
-503.315 538.677 1738
-499.159 538.677 1738
-495.003 538.677 1738
-490.847 538.677 1738
-485.57 537.437 1734
-481.424 537.437 1734
-476.727 536.817 1732
-472.312 536.507 1731
-467.632 535.887 1729
-463.498 535.887 1729
-458.3 534.648 1725
-454.175 534.648 1725
-449.528 534.028 1723
-444.633 533.098 1720
-440.52 533.098 1720
-435.899 532.478 1718
-431.791 532.478 1718
-426.936 531.548 1715
-422.835 531.548 1715
-418.245 530.928 1713
-413.182 529.689 1709
-408.856 529.379 1708
-404.772 529.379 1708
-399.749 528.139 1704
-394.977 527.209 1701
-389.531 525.349 1695
-385.478 525.349 1695
-381.199 525.039 1694
-376.258 523.8 1690
-371.556 522.87 1687
-367.522 522.87 1687
-362.626 521.63 1683
-358.388 521.32 1682
-354.366 521.32 1682
-350.344 521.32 1682
-346.322 521.32 1682
-342.299 521.32 1682
-338.478 521.63 1683
-334.454 521.63 1683
-330.822 522.25 1685
-326.793 522.25 1685
-322.763 522.25 1685
-319.491 523.49 1689
-315.452 523.49 1689
-311.413 523.49 1689
-307.556 523.8 1690
-304.233 525.039 1694
-300.182 525.039 1694
-296.131 525.039 1694
-292.598 525.969 1697
-289.39 527.519 1702
-285.32 527.519 1702
-281.25 527.519 1702
-277.505 528.139 1704
-273.752 528.759 1706
-269.672 528.759 1706
-265.592 528.759 1706
-261.819 529.379 1708
-258.188 530.308 1711
-254.69 531.548 1715
-250.589 531.548 1715
-247.207 533.098 1720
-243.376 533.718 1722
-240.509 536.507 1731
-236.37 536.507 1731
-232.633 537.437 1734
-231.385 544.256 1756
-227.445 544.876 1758
-223.241 544.876 1758
-219.037 544.876 1758
-215.077 545.496 1760
-212.666 550.145 1775
-208.421 550.145 1775
-205.902 554.794 1790
-206.916 569.361 1837
-202.523 569.361 1837
-198.13 569.361 1837
-196.374 577.109 1862
-193.674 582.379 1879
-189.18 582.379 1879
-184.884 582.998 1881
-184.317 595.706 1922
-180.937 599.735 1935
-176.31 599.735 1935
-172.481 602.525 1944
-167.832 602.525 1944
-163.184 602.525 1944
-70.2807 1124.15 3627
-61.6074 1124.15 3627
-52.9342 1124.15 3627
-44.2609 1124.15 3627
-35.4307 1119.2 3611
-26.7957 1119.2 3611
-18.1607 1119.2 3611
-9.50459 1116.72 3603
-0.888721 1116.72 3603
7.72714 1116.72 3603
16.343 1116.72 3603
24.9589 1116.72 3603
33.6493 1119.2 3611
42.2843 1119.2 3611
50.9193 1119.2 3611
59.5543 1119.2 3611
68.1893 1119.2 3611
76.3349 1112.07 3588
84.9149 1112.07 3588
93.4949 1112.07 3588
102.075 1112.07 3588
110.655 1112.07 3588
119.235 1112.07 3588
127.53 1109.59 3580
136.091 1109.59 3580
144.328 1107.11 3572
152.87 1107.11 3572
161.412 1107.11 3572
169.954 1107.11 3572
178.495 1107.11 3572
187.037 1107.11 3572
195.579 1107.11 3572
204.121 1107.11 3572
212.246 1104.94 3565
219.78 1099.98 3549
228.266 1099.98 3549
236.286 1097.81 3542
244.756 1097.81 3542
253.226 1097.81 3542
261.696 1097.81 3542
270.166 1097.81 3542
278.007 1095.33 3534
286.458 1095.33 3534
294.909 1095.33 3534
303.359 1095.33 3534
311.81 1095.33 3534
320.986 1097.81 3542
332.247 1107.11 3572
340.788 1107.11 3572
350.112 1109.59 3580
358.673 1109.59 3580
367.234 1109.59 3580
375.795 1109.59 3580
380.276 1097.81 3542
383.039 1081.69 3490
391.385 1081.69 3490
394.805 1068.37 3447
401.411 1064.03 3433
407.115 1057.52 3412
413.57 1053.18 3398
421.696 1053.18 3398
427.165 1046.67 3377
433.436 1042.33 3363
439.771 1038.3 3350
447.782 1038.3 3350
454.024 1034.27 3337
460.066 1029.93 3323
467.167 1028.07 3317
475.099 1028.07 3317
483.031 1028.07 3317
489.927 1025.9 3310
497.842 1025.9 3310
505.757 1025.9 3310
513.672 1025.9 3310
520.485 1023.73 3303
528.383 1023.73 3303
537.418 1025.9 3310
546.487 1028.07 3317
554.419 1028.07 3317
562.35 1028.07 3317
570.282 1028.07 3317
578.214 1028.07 3317
586.146 1028.07 3317
594.078 1028.07 3317
602.01 1028.07 3317
611.045 1029.93 3323
618.992 1029.93 3323
626.938 1029.93 3323
636.222 1032.1 3330
644.185 1032.1 3330
652.148 1032.1 3330
660.111 1032.1 3330
669.478 1034.27 3337
677.458 1034.27 3337
685.438 1034.27 3337
693.418 1034.27 3337
701.397 1034.27 3337
709.377 1034.27 3337
717.357 1034.27 3337
725.337 1034.27 3337
733.317 1034.27 3337
741.296 1034.27 3337
752.195 1038.3 3350
760.206 1038.3 3350
768.217 1038.3 3350
776.228 1038.3 3350
784.238 1038.3 3350
792.249 1038.3 3350
798.588 1036.13 3343
806.582 1036.13 3343
814.576 1036.13 3343
822.57 1036.13 3343
829.074 1034.27 3337
837.054 1034.27 3337
846.553 1036.13 3343
854.547 1036.13 3343
867.701 1042.33 3363
875.743 1042.33 3363
885.625 1044.5 3370
893.683 1044.5 3370
907.361 1051.01 3391
923.029 1059.69 3419
933.112 1061.86 3426
941.304 1061.86 3426
955.317 1068.37 3447
967.473 1072.7 3461
985.899 1083.86 3497
1000.8 1090.99 3520
1009.22 1090.99 3520
1021.68 1095.33 3534
1036.84 1102.46 3557
1054.45 1112.07 3588
1063.03 1112.07 3588
1080.87 1121.68 3619
1096.45 1128.8 3642
1110.02 1133.76 3658
1118.76 1133.76 3658
1127.51 1133.76 3658
1133.77 1131.28 3650
1142.5 1131.28 3650
1148.71 1128.8 3642
1157.42 1128.8 3642
1166.12 1128.8 3642
1174.83 1128.8 3642
1183.54 1128.8 3642
1192.25 1128.8 3642
1198.65 1126.63 3635
1207.35 1126.63 3635
1216.04 1126.63 3635
1224.73 1126.63 3635
1233.42 1126.63 3635
1244.51 1128.8 3642
1253.22 1128.8 3642
1261.92 1128.8 3642
1268.19 1126.63 3635
1276.88 1126.63 3635
1290.88 1131.28 3650
1299.61 1131.28 3650
1311.21 1133.76 3658
1319.95 1133.76 3658
1331.97 1136.55 3667
1340.74 1136.55 3667
1349.51 1136.55 3667
1358.28 1136.55 3667
1370.03 1139.03 3675
1378.82 1139.03 3675
1387.6 1139.03 3675
1393.35 1136.55 3667
1402.12 1136.55 3667
1407.43 1133.76 3658
1407.27 1126.63 3635
1409.73 1121.68 3619
1418.38 1121.68 3619
1417.57 1114.24 3595
1420.22 1109.59 3580
1428.78 1109.59 3580
1437.34 1109.59 3580
1445.9 1109.59 3580
1451.21 1107.11 3572
1447.5 1097.81 3542
1449.8 1093.16 3527
1458.23 1093.16 3527
1457.52 1086.34 3505
1459.63 1081.69 3490
1467.97 1081.69 3490
1476.32 1081.69 3490
1478.71 1077.35 3476
1480.6 1072.7 3461
1479.85 1066.2 3440
1488.07 1066.2 3440
1487.16 1059.69 3419
1473.91 1044.5 3370
1461.3 1029.93 3323
1463.5 1025.9 3310
1471.41 1025.9 3310
1467.71 1017.85 3284
1467.02 1011.96 3265
1477.54 1013.82 3271
1485.36 1013.82 3271
1493.19 1013.82 3271
1501.01 1013.82 3271
1827.93 1161.97 3749
1836.9 1161.97 3749
1845.86 1161.97 3749
1850.38 1159.18 3740
1838.94 1146.47 3699
1799.83 1116.72 3603
1804.43 1114.24 3595
1813.02 1114.24 3595
1806.42 1104.94 3565
1814.94 1104.94 3565
1807.61 1095.33 3534
1816.06 1095.33 3534
1824.52 1095.33 3534
1810.14 1081.69 3490
1807.03 1074.87 3468
1819.51 1077.35 3476
1827.82 1077.35 3476
1836.13 1077.35 3476
1848.16 1079.52 3483
1856.49 1079.52 3483
1864.82 1079.52 3483
1869.38 1077.35 3476
1865.81 1070.54 3454
1874.07 1070.54 3454
1882.33 1070.54 3454
1886.76 1068.37 3447
-2374.95 990.73 3172
-2367.37 990.73 3172
-2355.32 988.856 3166
-2338.85 985.108 3154
-2331.31 985.108 3154
-2323.77 985.108 3154
-2316.22 985.108 3154
-2317.47 988.856 3166
-2309.9 988.856 3166
-2306.69 990.73 3172
-2299.1 990.73 3172
-2291.52 990.73 3172
-2296.89 996.352 3190
-2293.57 998.226 3196
-2285.93 998.226 3196
-2291.12 1003.85 3214
-2310.43 1015.72 3252
-2325.31 1025.71 3284
-2317.46 1025.71 3284
-2318.75 1029.77 3297
-2352.92 1048.51 3357
-2368.64 1059.13 3391
-2365.4 1061.32 3398
-2400.98 1081 3461
-2403.07 1085.68 3476
-2394.76 1085.68 3476
-2386.45 1085.68 3476
-2378.14 1085.68 3476
-2369.83 1085.68 3476
-2337.06 1074.44 3440
-2343.05 1081 3461
-2339.49 1083.18 3468
-2341.28 1087.87 3483
-2332.95 1087.87 3483
-2324.62 1087.87 3483
-2320.95 1090.05 3490
-2312.61 1090.05 3490
-2308.88 1092.24 3497
-2300.52 1092.24 3497
-2292.16 1092.24 3497
-2289.02 1094.74 3505
-2294.95 1101.61 3527
-2286.52 1101.61 3527
-2282.61 1103.8 3534
-2274.15 1103.8 3534
-2265.7 1103.8 3534
-2257.25 1103.8 3534
-2239.89 1099.42 3520
-2231.48 1099.42 3520
-2231.9 1103.8 3534
-2223.45 1103.8 3534
-2224.4 1108.48 3549
-2215.91 1108.48 3549
-2221.73 1115.66 3572
-2213.19 1115.66 3572
-2204.65 1115.66 3572
-2196.11 1115.66 3572
-2187.57 1115.66 3572
-2174.75 1113.48 3565
-2166.23 1113.48 3565
-2157.7 1113.48 3565
-2149.18 1113.48 3565
-2140.65 1113.48 3565
-2132.13 1113.48 3565
-2118.84 1110.98 3557
-2110.33 1110.98 3557
-2097.1 1108.48 3549
-2088.61 1108.48 3549
-2071.33 1103.8 3534
-2062.88 1103.8 3534
-2054.43 1103.8 3534
-2054.67 1108.48 3549
-2046.18 1108.48 3549
-2037.69 1108.48 3549
-2029.2 1108.48 3549
-2008.19 1101.61 3527
-1991.25 1096.92 3512
-1982.85 1096.92 3512
-1974.46 1096.92 3512
-1957.66 1092.24 3497
-1949.3 1092.24 3497
-1940.94 1092.24 3497
-1932.57 1092.24 3497
-1920.36 1090.05 3490
-1908.18 1087.87 3483
-1899.85 1087.87 3483
-1887.72 1085.68 3476
-1879.41 1085.68 3476
-1878.63 1090.05 3490
-1878.32 1094.74 3505
-1869.94 1094.74 3505
-1873.25 1101.61 3527
-1868.51 1103.8 3534
-1860.06 1103.8 3534
-1851.61 1103.8 3534
-1847.33 1106.29 3542
-1846.65 1110.98 3557
-1866.05 1127.85 3611
-1857.41 1127.85 3611
-1861.07 1135.34 3635
-1864.1 1142.53 3658
-1859.91 1145.34 3667
-1851.14 1145.34 3667
-1842.38 1145.34 3667
-1829.11 1142.53 3658
-1820.36 1142.53 3658
-1803.69 1137.53 3642
-1802.86 1142.53 3658
-1794.12 1142.53 3658
-1785.37 1142.53 3658
-1772.74 1140.03 3650
-1764.01 1140.03 3650
-1740.37 1130.34 3619
-1731.72 1130.34 3619
-1719.25 1127.85 3611
-1703.04 1122.85 3595
-1683.6 1115.66 3572
-1675.06 1115.66 3572
-1666.52 1115.66 3572
-1654.73 1113.48 3565
-1635.58 1106.29 3542
-1606.44 1092.24 3497
-1598.08 1092.24 3497
-1576.53 1083.18 3468
-1558.74 1076.62 3447
-1547.35 1074.44 3440
-1539.13 1074.44 3440
-1527.78 1072.25 3433
-1516.48 1070.06 3426
-1505.2 1067.88 3419
-1497.03 1067.88 3419
-1485.8 1065.69 3412
-1474.61 1063.5 3405
-1469.48 1065.69 3412
-1461.33 1065.69 3412
-1453.17 1065.69 3412
-1447.97 1067.88 3419
-1442.74 1070.06 3426
-1440.41 1074.44 3440
-1432.19 1074.44 3440
-1423.96 1074.44 3440
-1418.62 1076.62 3447
-1418.97 1083.18 3468
-1410.67 1083.18 3468
-1405.61 1085.68 3476
-1400.12 1087.87 3483
-1391.79 1087.87 3483
-1383.46 1087.87 3483
-1375.13 1087.87 3483
-1369.55 1090.05 3490
-1363.93 1092.24 3497
-1355.57 1092.24 3497
-1358.76 1101.61 3527
-1350.33 1101.61 3527
-1344.56 1103.8 3534
-1336.11 1103.8 3534
-1327.66 1103.8 3534
-1319.21 1103.8 3534
-1310.76 1103.8 3534
-1299.73 1101.61 3527
-1285.8 1096.92 3512
-1277.4 1096.92 3512
-1269 1096.92 3512
-1260.6 1096.92 3512
-1252.21 1096.92 3512
-1241.33 1094.74 3505
-1225.21 1087.87 3483
-1216.88 1087.87 3483
-1206.12 1085.68 3476
-1197.81 1085.68 3476
-1196.68 1092.24 3497
-1188.32 1092.24 3497
-1179.96 1092.24 3497
-1169.25 1090.05 3490
-1158.58 1087.87 3483
-1150.25 1087.87 3483
-1139.62 1085.68 3476
-1133.59 1087.87 3483
-1125.26 1087.87 3483
-1116.93 1087.87 3483
-1108.6 1087.87 3483
-1100.28 1087.87 3483
-549.265 547.213 1752
-545.075 547.213 1752
-540.886 547.213 1752
-536.696 547.213 1752
-531.595 546.276 1749
-527.412 546.276 1749
-522.632 545.651 1747
-518.454 545.651 1747
-513.099 544.402 1743
-508.347 543.777 1741
-503.315 542.84 1738
-499.159 542.84 1738
-495.003 542.84 1738
-489.717 541.591 1734
-485.57 541.591 1734
-481.424 541.591 1734
-476.452 540.654 1731
-471.767 540.029 1729
-467.632 540.029 1729
-463.498 540.029 1729
-458.3 538.78 1725
-453.649 538.155 1723
-449.528 538.155 1723
-444.633 537.218 1720
-440.52 537.218 1720
-435.899 536.594 1718
-431.791 536.594 1718
-427.185 535.969 1716
-423.081 535.969 1716
-418.734 535.657 1715
-413.182 533.783 1709
-408.856 533.47 1708
-404.772 533.47 1708
-400.218 532.846 1706
-394.977 531.284 1701
-389.531 529.41 1695
-385.478 529.41 1695
-381.199 529.097 1694
-376.258 527.848 1690
-371.996 527.536 1689
-367.958 527.536 1689
-363.488 526.911 1687
-358.601 525.662 1683
-354.577 525.662 1683
-350.552 525.662 1683
-346.528 525.662 1683
-342.503 525.662 1683
-338.478 525.662 1683
-334.851 526.286 1685
-330.822 526.286 1685
-326.793 526.286 1685
-322.763 526.286 1685
-319.491 527.536 1689
-315.452 527.536 1689
-311.413 527.536 1689
-307.556 527.848 1690
-304.233 529.097 1694
-300.182 529.097 1694
-296.131 529.097 1694
-292.598 530.034 1697
-289.22 531.284 1701
-285.32 531.596 1702
-281.25 531.596 1702
-277.505 532.221 1704
-273.752 532.846 1706
-269.672 532.846 1706
-265.592 532.846 1706
-261.973 533.783 1709
-258.49 535.032 1713
-254.69 535.657 1715
-250.589 535.657 1715
-247.207 537.218 1720
-243.376 537.843 1722
-240.509 540.654 1731
-236.37 540.654 1731
-232.633 541.591 1734
-231.912 549.712 1760
-227.704 549.712 1760
-223.495 549.712 1760
-219.535 550.336 1762
-216.177 552.523 1769
-214.463 559.082 1790
-210.183 559.082 1790
-209.008 567.515 1817
-209.056 579.696 1856
-204.618 579.696 1856
-200.611 580.945 1860
-197.007 583.444 1868
-193.674 586.88 1879
-189.18 586.88 1879
-186.948 594.063 1902
-185.181 603.121 1931
-181.592 606.557 1942
-176.948 606.557 1942
-172.481 607.182 1944
-167.832 607.182 1944
-163.184 607.182 1944
-61.6074 1132.84 3627
-52.9342 1132.84 3627
-44.2609 1132.84 3627
-35.4307 1127.85 3611
-26.7957 1127.85 3611
-18.1607 1127.85 3611
-9.50459 1125.35 3603
-0.888721 1125.35 3603
7.70999 1122.85 3595
16.3067 1122.85 3595
24.9035 1122.85 3595
33.6493 1127.85 3611
42.2843 1127.85 3611
50.9193 1127.85 3611
59.5543 1127.85 3611
68.1893 1127.85 3611
76.3349 1120.66 3588
84.9149 1120.66 3588
93.4949 1120.66 3588
102.075 1120.66 3588
110.655 1120.66 3588
119.235 1120.66 3588
127.53 1118.16 3580
136.091 1118.16 3580
144.328 1115.66 3572
152.87 1115.66 3572
161.096 1113.48 3565
169.954 1115.66 3572
178.495 1115.66 3572
187.037 1115.66 3572
195.579 1115.66 3572
203.721 1113.48 3565
212.246 1113.48 3565
219.346 1106.29 3542
227.816 1106.29 3542
235.753 1103.8 3534
243.72 1101.61 3527
252.154 1101.61 3527
260.588 1101.61 3527
269.022 1101.61 3527
277.456 1101.61 3527
285.89 1101.61 3527
294.324 1101.61 3527
302.759 1101.61 3527
311.193 1101.61 3527
319.627 1101.61 3527
332.247 1115.66 3572
340.788 1115.66 3572
350.112 1118.16 3580
358.673 1118.16 3580
367.234 1118.16 3580
375.795 1118.16 3580
380.276 1106.29 3542
383.039 1090.05 3490
391.385 1090.05 3490
394.805 1076.62 3447
401.411 1072.25 3433
407.95 1067.88 3419
411.866 1056.95 3384
419.958 1056.95 3384
425.394 1050.39 3363
431.76 1046.33 3350
438.852 1044.14 3343
446.846 1044.14 3343
454.024 1042.27 3337
460.066 1037.89 3323
467.167 1036.02 3317
475.099 1036.02 3317
483.031 1036.02 3317
489.927 1033.83 3310
497.842 1033.83 3310
505.757 1033.83 3310
513.672 1033.83 3310
520.485 1031.65 3303
528.383 1031.65 3303
538.555 1036.02 3317
546.487 1036.02 3317
554.419 1036.02 3317
562.35 1036.02 3317
570.282 1036.02 3317
578.214 1036.02 3317
586.146 1036.02 3317
595.153 1037.89 3323
603.099 1037.89 3323
611.045 1037.89 3323
618.992 1037.89 3323
626.938 1037.89 3323
636.222 1040.08 3330
644.185 1040.08 3330
652.148 1040.08 3330
661.498 1042.27 3337
669.478 1042.27 3337
677.458 1042.27 3337
685.438 1042.27 3337
693.418 1042.27 3337
701.397 1042.27 3337
709.377 1042.27 3337
717.357 1042.27 3337
725.337 1042.27 3337
733.317 1042.27 3337
741.296 1042.27 3337
749.276 1042.27 3337
757.256 1042.27 3337
766.612 1044.14 3343
774.606 1044.14 3343
782.6 1044.14 3343
790.594 1044.14 3343
798.588 1044.14 3343
806.582 1044.14 3343
814.576 1044.14 3343
822.57 1044.14 3343
829.074 1042.27 3337
837.054 1042.27 3337
845.033 1042.27 3337
853.013 1042.27 3337
864.347 1046.33 3350
875.743 1050.39 3363
883.785 1050.39 3363
891.827 1050.39 3363
903.615 1054.76 3377
917.36 1061.32 3398
929.299 1065.69 3412
941.304 1070.06 3426
949.497 1070.06 3426
963.56 1076.62 3447
975.75 1081 3461
990.281 1087.87 3483
998.61 1087.87 3483
1013.3 1094.74 3505
1030.13 1103.8 3534
1045.34 1110.98 3557
1053.85 1110.98 3557
1071.61 1120.66 3588
1089.53 1130.34 3619
1100.61 1132.84 3627
1109.28 1132.84 3627
1117.96 1132.84 3627
1126.63 1132.84 3627
1135.3 1132.84 3627
1136.41 1125.35 3603
1147.56 1127.85 3611
1161.32 1132.84 3627
1169.99 1132.84 3627
1178.67 1132.84 3627
1187.34 1132.84 3627
1193.38 1130.34 3619
1204.69 1132.84 3627
1213.36 1132.84 3627
1222.03 1132.84 3627
1230.71 1132.84 3627
1239.38 1132.84 3627
1248.05 1132.84 3627
1256.73 1132.84 3627
1262.61 1130.34 3619
1274.07 1132.84 3627
1285.58 1135.34 3635
1294.27 1135.34 3635
1311.21 1142.53 3658
1319.95 1142.53 3658
1328.7 1142.53 3658
1337.45 1142.53 3658
1349.51 1145.34 3667
1358.28 1145.34 3667
1367.05 1145.34 3667
1375.81 1145.34 3667
1384.58 1145.34 3667
1389.93 1142.53 3658
1398.68 1142.53 3658
1407.43 1142.53 3658
1407.27 1135.34 3635
1403.5 1125.35 3603
1412.11 1125.35 3603
1414.81 1120.66 3588
1420.22 1118.16 3580
1428.78 1118.16 3580
1437.34 1118.16 3580
1445.9 1118.16 3580
1448.37 1113.48 3565
1447.5 1106.29 3542
1449.8 1101.61 3527
1458.23 1101.61 3527
1457.52 1094.74 3505
1459.63 1090.05 3490
1467.97 1090.05 3490
1476.32 1090.05 3490
1478.71 1085.68 3476
1480.6 1081 3461
1479.85 1074.44 3440
1488.07 1074.44 3440
1487.16 1067.88 3419
1473.91 1052.57 3370
1461.3 1037.89 3323
1463.5 1033.83 3310
1471.41 1033.83 3310
1467.71 1025.71 3284
1467.02 1019.78 3265
1477.54 1021.65 3271
1485.36 1021.65 3271
1493.19 1021.65 3271
1827.93 1170.95 3749
1836.9 1170.95 3749
1845.86 1170.95 3749
1850.38 1168.14 3740
1838.94 1155.33 3699
1799.83 1125.35 3603
1804.43 1122.85 3595
1813.02 1122.85 3595
1806.42 1113.48 3565
1814.94 1113.48 3565
1807.61 1103.8 3534
1816.06 1103.8 3534
1824.52 1103.8 3534
1810.14 1090.05 3490
1807.03 1083.18 3468
1819.51 1085.68 3476
1827.82 1085.68 3476
1836.13 1085.68 3476
1848.16 1087.87 3483
1856.49 1087.87 3483
1864.82 1087.87 3483
1869.38 1085.68 3476
1865.81 1078.81 3454
1874.07 1078.81 3454
1882.33 1078.81 3454
1886.76 1076.62 3447
-2379.45 1000.22 3178
-2371.85 1000.22 3178
-2359.78 998.329 3172
-2343.3 994.552 3160
-2331.31 992.664 3154
-2323.77 992.664 3154
-2316.22 992.664 3154
-2321.86 998.329 3172
-2314.27 998.329 3172
-2306.69 998.329 3172
-2299.1 998.329 3172
-2295.85 1000.22 3178
-2296.89 1003.99 3190
-2289.26 1003.99 3190
-2281.64 1003.99 3190
-2291.12 1011.55 3214
-2314.69 1025.4 3258
-2325.31 1033.58 3284
-2317.46 1033.58 3284
-2318.75 1037.67 3297
-2352.92 1056.55 3357
-2368.64 1067.26 3391
-2365.4 1069.46 3398
-2400.98 1089.29 3461
-2403.07 1094.01 3476
-2394.76 1094.01 3476
-2386.45 1094.01 3476
-2378.14 1094.01 3476
-2369.83 1094.01 3476
-2337.06 1082.68 3440
-2338.31 1087.08 3454
-2334.77 1089.29 3461
-2341.28 1096.21 3483
-2332.95 1096.21 3483
-2324.62 1096.21 3483
-2320.95 1098.41 3490
-2312.61 1098.41 3490
-2304.26 1098.41 3490
