ply
format ascii 1.0
comment File generated
element vertex 2251
property float x
property float y
property float z
end_header
282.785 1228.49 2370
288.452 1228.49 2370
294.12 1228.49 2370
298.902 1224.86 2363
304.552 1224.86 2363
309.809 1223.31 2360
315.452 1223.31 2360
321.096 1223.31 2360
325.77 1219.68 2353
331.397 1219.68 2353
337.024 1219.68 2353
342.651 1219.68 2353
348.721 1221.23 2356
354.355 1221.23 2356
359.989 1221.23 2356
365.623 1221.23 2356
371.257 1221.23 2356
376.891 1221.23 2356
382.525 1221.23 2356
388.159 1221.23 2356
395.464 1226.42 2366
401.8 1228.49 2370
407.467 1228.49 2370
413.658 1230.04 2373
419.332 1230.04 2373
425.544 1231.6 2376
431.226 1231.6 2376
436.908 1231.6 2376
442.589 1231.6 2376
448.271 1231.6 2376
453.953 1231.6 2376
459.635 1231.6 2376
464.141 1228.49 2370
469.016 1226.42 2366
474.674 1226.42 2366
478.301 1221.23 2356
483.935 1221.23 2356
489.569 1221.23 2356
495.203 1221.23 2356
500.837 1221.23 2356
506.471 1221.23 2356
512.105 1221.23 2356
517.739 1221.23 2356
522.04 1218.12 2350
526.761 1216.05 2346
532.371 1216.05 2346
537.981 1216.05 2346
543.591 1216.05 2346
549.201 1216.05 2346
554.102 1214.49 2343
559.704 1214.49 2343
564.583 1212.94 2340
570.179 1212.94 2340
577.251 1216.05 2346
582.861 1216.05 2346
589.474 1218.12 2350
595.094 1218.12 2350
600.714 1218.12 2350
606.333 1218.12 2350
611.953 1218.12 2350
616.521 1216.05 2346
622.131 1216.05 2346
627.741 1216.05 2346
635.241 1219.68 2353
640.868 1219.68 2353
646.494 1219.68 2353
651.29 1218.12 2350
656.909 1218.12 2350
662.529 1218.12 2350
668.148 1218.12 2350
676.635 1223.31 2360
684.013 1226.42 2366
689.671 1226.42 2366
695.329 1226.42 2366
700.986 1226.42 2366
706.644 1226.42 2366
713.506 1228.49 2370
719.174 1228.49 2370
725.759 1230.04 2373
731.433 1230.04 2373
737.108 1230.04 2373
741.843 1228.49 2370
744.357 1223.31 2360
747.776 1219.68 2353
753.402 1219.68 2353
759.029 1219.68 2353
764.656 1219.68 2353
770.282 1219.68 2353
775.909 1219.68 2353
781.536 1219.68 2353
784.821 1216.05 2346
790.431 1216.05 2346
796.041 1216.05 2346
801.651 1216.05 2346
812.078 1223.31 2360
821.187 1228.49 2370
830.343 1233.67 2380
836.034 1233.67 2380
841.726 1233.67 2380
844.924 1230.04 2373
848.09 1226.42 2366
855.191 1228.49 2370
860.858 1228.49 2370
866.526 1228.49 2370
869.617 1224.86 2363
875.268 1224.86 2363
880.918 1224.86 2363
882.817 1219.68 2353
906.478 1221.23 2356
912.112 1221.23 2356
917.746 1221.23 2356
921.029 1218.12 2350
923.888 1214.49 2343
927.11 1211.38 2337
932.699 1211.38 2337
938.287 1211.38 2337
941.049 1207.76 2330
946.62 1207.76 2330
952.192 1207.76 2330
957.764 1207.76 2330
962.095 1206.2 2327
967.66 1206.2 2327
977.407 1211.38 2337
984.257 1212.94 2340
989.853 1212.94 2340
995.448 1212.94 2340
1001.04 1212.94 2340
1006.64 1212.94 2340
1010.94 1211.38 2337
1016.53 1211.38 2337
1023.43 1212.94 2340
1030.34 1214.49 2343
1035.94 1214.49 2343
1041.55 1214.49 2343
1047.15 1214.49 2343
1052.75 1214.49 2343
1058.36 1214.49 2343
1062.6 1212.94 2340
1068.19 1212.94 2340
1073.79 1212.94 2340
1079.38 1212.94 2340
1084.98 1212.94 2340
1095.23 1218.12 2350
1100.85 1218.12 2350
1106.47 1218.12 2350
1110.2 1216.05 2346
1114.38 1214.49 2343
1118.55 1212.94 2340
1124.15 1212.94 2340
1124.92 1207.76 2330
1129.03 1206.2 2327
1136.06 1207.76 2330
1141.63 1207.76 2330
1150.65 1211.38 2337
1156.24 1211.38 2337
1163.32 1212.94 2340
1168.91 1212.94 2340
1176.01 1214.49 2343
1181.62 1214.49 2343
1187.22 1214.49 2343
1192.82 1214.49 2343
1198.43 1214.49 2343
1204.03 1214.49 2343
1209.63 1214.49 2343
1212.12 1211.38 2337
1217.71 1211.38 2337
1223.3 1211.38 2337
1228.89 1211.38 2337
1232.36 1209.31 2333
1237.94 1209.31 2333
1243.52 1209.31 2333
1252.85 1212.94 2340
1260.06 1214.49 2343
1265.66 1214.49 2343
1271.26 1214.49 2343
1273.6 1211.38 2337
1275.35 1207.76 2330
1275.43 1202.57 2320
1280.97 1202.57 2320
1277.65 1194.28 2304
1283.16 1194.28 2304
1295.94 1201.02 2317
1303.17 1202.57 2320
1308.71 1202.57 2320
1314.26 1202.57 2320
1312.41 1195.83 2307
1317.93 1195.83 2307
1323.45 1195.83 2307
1327.24 1194.28 2304
1332.75 1194.28 2304
1342.32 1197.91 2311
1347.85 1197.91 2311
1353.37 1197.91 2311
1360.66 1199.46 2314
1366.2 1199.46 2314
1373.51 1201.02 2317
1379.05 1201.02 2317
1384.59 1201.02 2317
1396.13 1206.2 2327
1401.7 1206.2 2327
1407.26 1206.2 2327
1412.82 1206.2 2327
1418.39 1206.2 2327
1423.95 1206.2 2327
1429.52 1206.2 2327
1435.08 1206.2 2327
1440.65 1206.2 2327
1446.21 1206.2 2327
1453.65 1207.76 2330
1459.22 1207.76 2330
1464.79 1207.76 2330
1470.36 1207.76 2330
1475.94 1207.76 2330
1481.51 1207.76 2330
1488.99 1209.31 2333
1494.57 1209.31 2333
1500.15 1209.31 2333
1505.73 1209.31 2333
1504.83 1204.13 2323
1506.49 1201.02 2317
1512.03 1201.02 2317
1515.6 1199.46 2314
1521.14 1199.46 2314
1520.07 1194.28 2304
1525.58 1194.28 2304
1525.11 1189.61 2295
1530.6 1189.61 2295
1542.11 1194.28 2304
1549.63 1195.83 2307
1555.15 1195.83 2307
1560.67 1195.83 2307
1566.18 1195.83 2307
1571.7 1195.83 2307
1577.22 1195.83 2307
1572.44 1188.06 2292
1564.84 1178.21 2273
1583.15 1163.7 2245
1588.52 1163.7 2245
1600.27 1168.36 2254
1605.66 1168.36 2254
1631.07 1182.87 2282
1636.52 1182.87 2282
1641.98 1182.87 2282
1647.44 1182.87 2282
1652.89 1182.87 2282
1658.35 1182.87 2282
1668.18 1185.98 2288
1685.36 1194.28 2304
1696 1197.91 2311
1701.53 1197.91 2311
1709.27 1199.46 2314
1724.44 1206.2 2327
1730 1206.2 2327
1735.57 1206.2 2327
1741.13 1206.2 2327
1739.19 1201.02 2317
1734.94 1194.28 2304
1740.45 1194.28 2304
-1547.93 1203.44 2311
-1546.41 1206.57 2317
-1551.51 1214.9 2333
-1545.93 1214.9 2333
-1540.35 1214.9 2333
-1534.78 1214.9 2333
-1529.2 1214.9 2333
-1521.66 1213.34 2330
-1511.53 1209.69 2323
-1471.51 1213.34 2330
-1465.94 1213.34 2330
-1460.37 1213.34 2330
-1454.8 1213.34 2330
-1376.16 1198.24 2301
-1383.77 1209.69 2323
-1378.21 1209.69 2323
-1372.66 1209.69 2323
-1367.1 1209.69 2323
-1361.55 1209.69 2323
-1355.99 1209.69 2323
-1350.44 1209.69 2323
-1344.88 1209.69 2323
-1345.09 1214.9 2333
-1339.51 1214.9 2333
-1339.65 1220.11 2343
-1343.73 1228.96 2360
-1347.16 1237.29 2376
-1341.48 1237.29 2376
-1351.54 1251.87 2404
-1351.39 1257.08 2414
-1355.65 1266.45 2432
-1349.83 1266.45 2432
-1344.01 1266.45 2432
-1338.2 1266.45 2432
-1332.38 1266.45 2432
-1316.75 1257.08 2414
-1310.98 1257.08 2414
-1305.2 1257.08 2414
-1299.43 1257.08 2414
-1293.66 1257.08 2414
-1282.55 1251.87 2404
-1270.96 1246.14 2393
-1268.94 1249.79 2400
-1263.2 1249.79 2400
-1281.56 1273.74 2446
-1275.71 1273.74 2446
-1269.86 1273.74 2446
-1264.01 1273.74 2446
-1250.96 1266.45 2432
-1234.4 1255.52 2411
-1228.63 1255.52 2411
-1208.66 1240.94 2383
-1201.45 1239.37 2380
-1199.28 1243.02 2387
-1198.57 1248.23 2397
-1192.84 1248.23 2397
-1200.97 1262.81 2425
-1204.05 1272.18 2443
-1199.67 1273.74 2446
-1193.83 1273.74 2446
-1196.72 1283.12 2464
-1190.83 1283.12 2464
-1184.93 1283.12 2464
-1179.04 1283.12 2464
-1173.15 1283.12 2464
-1163.94 1279.47 2457
-1158.07 1279.47 2457
-1125.46 1249.79 2400
-1108.52 1237.29 2376
-1093.56 1226.88 2356
-1091.16 1230.52 2363
-1085.51 1230.52 2363
-1079.86 1230.52 2363
-1074.21 1230.52 2363
-1068.56 1230.52 2363
-1058.41 1225.31 2353
-1045.62 1216.98 2337
-1038.25 1214.9 2333
-1028.25 1209.69 2323
-1022.69 1209.69 2323
-1013.2 1205.01 2314
-1006.36 1203.44 2311
-999.098 1201.36 2307
-997.888 1206.57 2317
-992.348 1206.57 2317
-986.807 1206.57 2317
-981.266 1206.57 2317
-982.464 1214.9 2333
-976.885 1214.9 2333
-975.469 1220.11 2343
-972.764 1223.75 2350
-967.144 1223.75 2350
-961.525 1223.75 2350
-946.55 1211.77 2327
-940.985 1211.77 2327
-937.832 1214.9 2333
-932.253 1214.9 2333
-931.838 1221.67 2346
-972.816 1283.12 2464
-966.924 1283.12 2464
-961.032 1283.12 2464
-957.853 1286.76 2471
-951.944 1286.76 2471
-949.098 1290.93 2479
-943.17 1290.93 2479
-937.242 1290.93 2479
-931.314 1290.93 2479
-925.386 1290.93 2479
-911.298 1279.47 2457
-913.53 1290.93 2479
-907.602 1290.93 2479
-901.674 1290.93 2479
-895.746 1290.93 2479
-889.818 1290.93 2479
-876.045 1279.47 2457
-870.17 1279.47 2457
-862.887 1277.39 2453
-857.022 1277.39 2453
-853.932 1281.55 2461
-854.249 1290.93 2479
-848.321 1290.93 2479
-842.393 1290.93 2479
-836.465 1290.93 2479
-830.537 1290.93 2479
-820.95 1285.2 2468
-810.095 1277.39 2453
-803.245 1275.83 2450
-797.387 1275.83 2450
-786.682 1268.02 2435
-782.142 1270.1 2439
-778.537 1273.74 2446
-772.688 1273.74 2446
-766.839 1273.74 2446
-760.99 1273.74 2446
-754.215 1272.18 2443
-748.373 1272.18 2443
-740.099 1268.02 2435
-734.276 1268.02 2435
-544.597 963.379 1850
-543.093 968.587 1860
-539.804 970.669 1864
-535.346 970.669 1864
-531.459 971.711 1866
-530.668 978.481 1879
-526.175 978.481 1879
-521.681 978.481 1879
-517.188 978.481 1879
-512.695 978.481 1879
-508.202 978.481 1879
-500.76 972.753 1868
-496.293 972.753 1868
-491.826 972.753 1868
-487.359 972.753 1868
-482.892 972.753 1868
-478.425 972.753 1868
-473.45 971.711 1866
-468.988 971.711 1866
-464.526 971.711 1866
-460.064 971.711 1866
-455.113 970.669 1864
-449.689 968.587 1860
-445.241 968.587 1860
-440.793 968.587 1860
-434.938 965.462 1854
-429.576 963.379 1850
-425.152 963.379 1850
-420.046 961.817 1847
-414.729 959.734 1843
-409.876 958.692 1841
-405.474 958.692 1841
-400.2 956.609 1837
-394.945 954.526 1833
-389.284 951.402 1827
-384.915 951.402 1827
-379.713 949.319 1823
-374.118 946.194 1817
-367.738 940.987 1807
-361.607 936.3 1798
-357.307 936.3 1798
-351.437 932.134 1790
-346.381 930.051 1786
-339.62 923.282 1773
-335.38 923.282 1773
-329.273 918.074 1763
-324.872 917.553 1762
-319.203 913.388 1754
-315.009 913.388 1754
-310.814 913.388 1754
-306.095 911.825 1751
-301.563 910.784 1749
-297.381 910.784 1749
-293.199 910.784 1749
-289.016 910.784 1749
-284.834 910.784 1749
-281.133 912.346 1752
-276.943 912.346 1752
-273.376 914.429 1756
-269.79 916.512 1760
-266.336 919.116 1765
-262.116 919.116 1765
-258.772 922.24 1771
-255.112 924.323 1775
-252.139 929.01 1784
-247.873 929.01 1784
-244.153 931.093 1788
-240.146 932.134 1790
-236.656 935.259 1796
-232.62 936.3 1798
-228.32 936.3 1798
-224.768 939.425 1804
-220.821 940.987 1807
-216.74 942.029 1809
-212.414 942.029 1809
-208.088 942.029 1809
-204.438 945.153 1815
-200.539 947.236 1819
-196.189 947.236 1819
-192.05 948.277 1821
-187.695 948.277 1821
-183.341 948.277 1821
-178.986 948.277 1821
-174.248 946.194 1817
-198.104 1228.96 2360
-193.276 1234.17 2370
-187.608 1234.17 2370
-181.941 1234.17 2370
-176.274 1234.17 2370
-169.598 1226.88 2356
-163.269 1221.67 2346
-157.659 1221.67 2346
-151.66 1218.54 2340
-145.627 1214.9 2333
-140.288 1216.98 2337
-135.046 1220.11 2343
-129.443 1220.11 2343
-123.999 1221.67 2346
-119.095 1228.96 2360
-113.452 1228.96 2360
-107.808 1228.96 2360
-102.295 1230.52 2363
-97.3392 1239.37 2380
-91.7634 1240.94 2383
-86.0649 1240.94 2383
-80.6025 1244.58 2390
-75.326 1251.87 2404
-69.5773 1251.87 2404
-63.8286 1251.87 2404
-58.0799 1251.87 2404
-52.2441 1249.79 2400
-46.6406 1253.43 2407
-40.8848 1253.43 2407
-35.1289 1253.43 2407
-29.373 1253.43 2407
-23.6172 1253.43 2407
-17.7871 1248.23 2397
-12.0199 1244.58 2390
-6.30474 1244.58 2390
-0.589521 1244.58 2390
5.11926 1243.02 2387
10.8092 1240.94 2383
16.4384 1235.73 2373
22.1129 1235.73 2373
27.7875 1235.73 2373
33.462 1235.73 2373
39.0212 1232.08 2366
44.3768 1223.75 2350
49.9964 1223.75 2350
55.5213 1221.67 2346
61.0531 1220.11 2343
67.0258 1226.88 2356
72.6597 1226.88 2356
78.2936 1226.88 2356
83.9275 1226.88 2356
89.5614 1226.88 2356
95.1953 1226.88 2356
100.572 1223.75 2350
106.328 1225.31 2353
111.954 1225.31 2353
117.581 1225.31 2353
123.208 1225.31 2353
128.67 1223.75 2350
134.061 1221.67 2346
139.671 1221.67 2346
144.91 1218.54 2340
150.505 1218.54 2340
156.101 1218.54 2340
161.489 1216.98 2337
167.078 1216.98 2337
172.666 1216.98 2337
178.255 1216.98 2337
183.843 1216.98 2337
189.432 1216.98 2337
194.686 1214.9 2333
200.008 1213.34 2330
204.962 1209.69 2323
210.879 1211.77 2327
216.444 1211.77 2327
222.581 1214.9 2333
228.551 1216.98 2337
234.14 1216.98 2337
239.728 1216.98 2337
245.946 1220.11 2343
251.871 1221.67 2346
257.481 1221.67 2346
263.091 1221.67 2346
269.503 1225.31 2353
275.48 1226.88 2356
281.95 1230.52 2363
287.6 1230.52 2363
293.251 1230.52 2363
298.522 1228.96 2360
304.166 1228.96 2360
309.809 1228.96 2360
314.918 1226.88 2356
320.144 1225.31 2353
325.355 1223.75 2350
330.975 1223.75 2350
336.594 1223.75 2350
342.214 1223.75 2350
347.833 1223.75 2350
353.453 1223.75 2350
359.072 1223.75 2350
364.071 1221.67 2346
369.681 1221.67 2346
375.291 1221.67 2346
380.901 1221.67 2346
387.17 1223.75 2350
393.793 1226.88 2356
399.426 1226.88 2356
405.06 1226.88 2356
410.694 1226.88 2356
415.798 1225.31 2353
421.425 1225.31 2353
426.507 1223.75 2350
432.127 1223.75 2350
437.746 1223.75 2350
443.366 1223.75 2350
448.985 1223.75 2350
453.831 1221.67 2346
458.266 1218.54 2340
463.267 1216.98 2337
468.855 1216.98 2337
473.632 1214.9 2333
479.211 1214.9 2333
484.79 1214.9 2333
490.369 1214.9 2333
495.948 1214.9 2333
502.386 1216.98 2337
507.975 1216.98 2337
513.563 1216.98 2337
519.152 1216.98 2337
524.74 1216.98 2337
530.329 1216.98 2337
535.917 1216.98 2337
541.506 1216.98 2337
547.094 1216.98 2337
552.683 1216.98 2337
558.271 1216.98 2337
563.86 1216.98 2337
569.448 1216.98 2337
575.775 1218.54 2340
581.37 1218.54 2340
586.966 1218.54 2340
592.562 1218.54 2340
598.157 1218.54 2340
603.753 1218.54 2340
609.349 1218.54 2340
614.156 1216.98 2337
617.888 1213.34 2330
624.262 1214.9 2333
630.921 1216.98 2337
636.51 1216.98 2337
642.098 1216.98 2337
646.578 1214.9 2333
652.157 1214.9 2333
657.736 1214.9 2333
665.305 1218.54 2340
673.768 1223.75 2350
679.387 1223.75 2350
685.007 1223.75 2350
690.627 1223.75 2350
695.061 1221.67 2346
700.671 1221.67 2346
708.388 1225.31 2353
714.015 1225.31 2353
720.559 1226.88 2356
726.193 1226.88 2356
731.827 1226.88 2356
735.583 1223.75 2350
741.203 1223.75 2350
745.551 1221.67 2346
751.161 1221.67 2346
756.771 1221.67 2346
762.381 1221.67 2346
767.991 1221.67 2346
773.601 1221.67 2346
779.211 1221.67 2346
784.821 1221.67 2346
790.431 1221.67 2346
796.041 1221.67 2346
800.626 1220.11 2343
807.261 1221.67 2346
818.761 1230.52 2363
827.901 1235.73 2373
833.575 1235.73 2373
839.25 1235.73 2373
844.924 1235.73 2373
847.015 1230.52 2363
852.665 1230.52 2363
858.316 1230.52 2363
863.966 1230.52 2363
867.041 1226.88 2356
872.675 1226.88 2356
878.309 1226.88 2356
881.692 1223.75 2350
904.17 1223.75 2350
909.789 1223.75 2350
915.409 1223.75 2350
918.285 1220.11 2343
922.705 1218.54 2340
925.524 1214.9 2333
931.103 1214.9 2333
934.272 1211.77 2327
939.837 1211.77 2327
945.402 1211.77 2327
950.966 1211.77 2327
956.531 1211.77 2327
959.201 1208.13 2320
963.501 1206.57 2317
973.224 1211.77 2327
980.051 1213.34 2330
985.623 1213.34 2330
994.172 1216.98 2337
999.761 1216.98 2337
1005.35 1216.98 2337
1007.91 1213.34 2330
1013.48 1213.34 2330
1022.11 1216.98 2337
1027.7 1216.98 2337
1033.29 1216.98 2337
1038.88 1216.98 2337
1044.47 1216.98 2337
1050.06 1216.98 2337
1055.65 1216.98 2337
1058.06 1213.34 2330
1063.63 1213.34 2330
1070.58 1214.9 2333
1078 1216.98 2337
1083.59 1216.98 2337
1089.18 1216.98 2337
1094.76 1216.98 2337
1100.35 1216.98 2337
1104.05 1214.9 2333
1109.63 1214.9 2333
1113.77 1213.34 2330
1119.34 1213.34 2330
1121.54 1209.69 2323
1125.64 1208.13 2320
1129.72 1206.57 2317
1135.26 1206.57 2317
1142.28 1208.13 2320
1147.83 1208.13 2320
1153.38 1208.13 2320
1163.92 1213.34 2330
1171 1214.9 2333
1176.57 1214.9 2333
1182.15 1214.9 2333
1187.73 1214.9 2333
1193.31 1214.9 2333
1198.89 1214.9 2333
1204.47 1214.9 2333
1208.49 1213.34 2330
1215.63 1214.9 2333
1221.21 1214.9 2333
1226.78 1214.9 2333
1232.36 1214.9 2333
1237.94 1214.9 2333
1240.32 1211.77 2327
1249.1 1214.9 2333
1258.44 1218.54 2340
1264.04 1218.54 2340
1269.64 1218.54 2340
1273.6 1216.98 2337
1275.35 1213.34 2330
1275.43 1208.13 2320
1280.97 1208.13 2320
1277.65 1199.8 2304
1283.16 1199.8 2304
1295.94 1206.57 2317
1303.17 1208.13 2320
1308.71 1208.13 2320
1314.26 1208.13 2320
1312.41 1201.36 2307
1317.93 1201.36 2307
1323.45 1201.36 2307
1327.24 1199.8 2304
1332.75 1199.8 2304
1342.32 1203.44 2311
1347.85 1203.44 2311
1353.37 1203.44 2311
1360.66 1205.01 2314
1366.2 1205.01 2314
1373.51 1206.57 2317
1379.05 1206.57 2317
1384.59 1206.57 2317
1396.13 1211.77 2327
1401.7 1211.77 2327
1407.26 1211.77 2327
1412.82 1211.77 2327
1418.39 1211.77 2327
1423.95 1211.77 2327
1429.52 1211.77 2327
1435.08 1211.77 2327
1440.65 1211.77 2327
1446.21 1211.77 2327
1453.65 1213.34 2330
1459.22 1213.34 2330
1464.79 1213.34 2330
1470.36 1213.34 2330
1475.94 1213.34 2330
1481.51 1213.34 2330
1488.99 1214.9 2333
1494.57 1214.9 2333
1500.15 1214.9 2333
1505.73 1214.9 2333
1504.83 1209.69 2323
1506.49 1206.57 2317
1512.03 1206.57 2317
1515.6 1205.01 2314
1521.14 1205.01 2314
1520.07 1199.8 2304
1525.58 1199.8 2304
1525.11 1195.11 2295
1530.6 1195.11 2295
1542.11 1199.8 2304
1549.63 1201.36 2307
1555.15 1201.36 2307
1560.67 1201.36 2307
1566.18 1201.36 2307
1571.7 1201.36 2307
1577.22 1201.36 2307
1572.44 1193.55 2292
1564.84 1183.65 2273
1546.85 1146.16 2201
1583.15 1169.07 2245
1588.52 1169.07 2245
1600.27 1173.76 2254
1605.66 1173.76 2254
1631.07 1188.34 2282
1636.52 1188.34 2282
1641.98 1188.34 2282
1647.44 1188.34 2282
1652.89 1188.34 2282
1658.35 1188.34 2282
1668.18 1191.47 2288
1685.36 1199.8 2304
1696 1203.44 2311
1701.53 1203.44 2311
1709.27 1205.01 2314
1724.44 1211.77 2327
1730 1211.77 2327
1735.57 1211.77 2327
1741.13 1211.77 2327
1739.19 1206.57 2317
1734.94 1199.8 2304
1740.45 1199.8 2304
1720.2 1182.09 2270
-1668.93 1200.61 2295
-1663.44 1200.61 2295
-1657.95 1200.61 2295
-1548.16 1163.47 2224
-1547.01 1166.6 2230
-1541.67 1166.6 2230
-1536.34 1166.6 2230
-1535.38 1190.67 2276
-1529.93 1190.67 2276
-1543.25 1205.32 2304
-1539.74 1206.89 2307
-1540.87 1212.12 2317
-1535.33 1212.12 2317
-1533.75 1215.26 2323
-1528.2 1215.26 2323
-1522.64 1215.26 2323
-1517.09 1215.26 2323
-1505.68 1210.55 2314
-1468.02 1206.89 2307
-1462.5 1206.89 2307
-1471.51 1218.92 2330
-1465.94 1218.92 2330
-1460.37 1218.92 2330
-1454.8 1218.92 2330
-1367.79 1177.59 2251
-1373.91 1187.53 2270
-1368.48 1187.53 2270
-1364.85 1189.1 2273
-1376.16 1203.75 2301
-1374.24 1206.89 2307
-1368.72 1206.89 2307
-1363.2 1206.89 2307
-1357.69 1206.89 2307
-1352.17 1206.89 2307
-1344.9 1205.32 2304
-1339.39 1205.32 2304
-1333.88 1205.32 2304
-1328.37 1205.32 2304
-1322.86 1205.32 2304
-1317.35 1205.32 2304
-1317.54 1210.55 2314
-1321.08 1218.92 2330
-1315.5 1218.92 2330
-1321.18 1229.38 2350
-1321.16 1234.61 2360
-1328.33 1246.64 2383
-1322.63 1246.64 2383
-1316.94 1246.64 2383
-1311.24 1246.64 2383
-1305.54 1246.64 2383
-1287.29 1234.61 2360
-1281.65 1234.61 2360
-1270.6 1229.38 2350
-1264.98 1229.38 2350
-1259.36 1229.38 2350
-1253.74 1229.38 2350
-1239.09 1220.49 2333
-1247.79 1234.61 2360
-1242.15 1234.61 2360
-1253.79 1251.88 2393
-1261.11 1264.95 2418
-1255.33 1264.95 2418
-1249.55 1264.95 2418
-1240.16 1261.29 2411
-1220.06 1246.64 2383
-1214.36 1246.64 2383
-1200.04 1237.75 2366
-1194.38 1237.75 2366
-1188.73 1237.75 2366
-1193.57 1248.74 2387
-1187.86 1248.74 2387
-1190.57 1257.63 2404
-1193.2 1266.52 2421
-1192.81 1272.28 2432
-1186.99 1272.28 2432
-1187.98 1279.6 2446
-1187.44 1285.36 2457
-1181.57 1285.36 2457
-1175.69 1285.36 2457
-1169.82 1285.36 2457
-1160.63 1281.7 2450
-1154.77 1281.7 2450
-1120.77 1250.31 2390
-1099.19 1232.52 2356
-1092.17 1230.95 2353
-1086.54 1230.95 2353
-1079.54 1229.38 2350
-1073.92 1229.38 2350
-1066.48 1227.29 2346
-1056.8 1222.58 2337
-1051.21 1222.58 2337
-1039.36 1215.26 2323
-1032.47 1213.69 2320
-1025.59 1212.12 2317
-1020.05 1212.12 2317
-1011.88 1208.98 2311
-1002 1203.75 2301
-996.5 1203.75 2301
-990.997 1203.75 2301
-985.495 1203.75 2301
-979.993 1203.75 2301
-977.031 1206.89 2307
-974.462 1210.55 2314
-968.929 1210.55 2314
-968.808 1217.35 2327
-965.727 1220.49 2333
-960.148 1220.49 2333
-954.569 1220.49 2333
-946.55 1217.35 2327
-940.985 1217.35 2327
-937.832 1220.49 2333
-932.253 1220.49 2333
-931.838 1227.29 2346
-930.176 1232.52 2356
-936.707 1248.74 2387
-930.999 1248.74 2387
-931.881 1257.63 2404
-938.075 1273.85 2435
-937.995 1281.7 2450
-932.136 1281.7 2450
-928.924 1285.36 2457
-923.049 1285.36 2457
-917.173 1285.36 2457
-908.702 1281.7 2450
-902.843 1281.7 2450
-899.547 1285.36 2457
-893.672 1285.36 2457
-887.796 1285.36 2457
-881.921 1285.36 2457
-874.619 1283.26 2453
-868.753 1283.26 2453
-860.425 1279.6 2446
-854.576 1279.6 2446
-851.156 1283.26 2453
-854.249 1296.87 2479
-848.321 1296.87 2479
-842.393 1296.87 2479
-836.465 1296.87 2479
-830.537 1296.87 2479
-817.291 1285.36 2457
-806.792 1278.03 2443
-798.327 1273.85 2435
-792.505 1273.85 2435
-782.159 1266.52 2421
-778.614 1270.19 2428
-774.081 1272.28 2432
-768.266 1272.28 2432
-762.45 1272.28 2432
-755.39 1270.19 2428
-747.423 1266.52 2421
-741.633 1266.52 2421
-735.844 1266.52 2421
-730.055 1266.52 2421
-544.597 967.811 1850
-543.093 973.042 1860
-539.804 975.135 1864
-535.346 975.135 1864
-530.889 975.135 1864
-528.691 979.32 1872
-524.215 979.32 1872
-519.738 979.32 1872
-515.261 979.32 1872
-510.785 979.32 1872
-506.308 979.32 1872
-500.76 977.227 1868
-496.293 977.227 1868
-491.826 977.227 1868
-487.359 977.227 1868
-482.892 977.227 1868
-477.913 976.181 1866
-473.45 976.181 1866
-468.988 976.181 1866
-464.526 976.181 1866
-460.064 976.181 1866
-455.113 975.135 1864
-449.689 973.042 1860
-445.241 973.042 1860
-440.319 971.996 1858
-434.938 969.903 1854
-429.576 967.811 1850
-425.152 967.811 1850
-420.046 966.241 1847
-414.729 964.149 1843
-409.876 963.102 1841
-405.474 963.102 1841
-400.2 961.01 1837
-394.945 958.917 1833
-389.284 955.779 1827
-384.915 955.779 1827
-379.713 953.686 1823
-374.118 950.547 1817
-367.738 945.316 1807
-361.607 940.607 1798
-357.307 940.607 1798
-351.437 936.422 1790
-346.769 935.376 1788
-341.344 932.237 1782
-337.082 932.237 1782
-331.514 928.575 1775
-325.057 922.297 1763
-320.841 922.297 1763
-316.625 922.297 1763
-311.877 920.728 1760
-306.62 917.589 1754
-301.908 916.02 1751
-297.721 916.02 1751
-293.534 916.02 1751
-289.512 916.543 1752
-285.322 916.543 1752
-281.454 917.589 1754
-277.259 917.589 1754
-273.999 920.728 1760
-270.25 922.297 1763
-266.94 925.436 1769
-262.71 925.436 1769
-259.356 928.575 1775
-255.83 931.191 1780
-252.422 934.33 1786
-248.151 934.33 1786
-244.426 936.422 1790
-240.146 936.422 1790
-236.919 940.607 1798
-232.879 941.654 1800
-228.574 941.654 1800
-224.768 943.746 1804
-220.821 945.316 1807
-216.74 946.362 1809
-212.414 946.362 1809
-208.088 946.362 1809
-204.438 949.501 1815
-200.539 951.593 1819
-196.189 951.593 1819
-192.05 952.64 1821
-187.695 952.64 1821
-183.341 952.64 1821
-178.986 952.64 1821
-174.248 950.547 1817
-198.104 1234.61 2360
-193.276 1239.84 2370
-187.608 1239.84 2370
-181.941 1239.84 2370
-176.274 1239.84 2370
-169.598 1232.52 2356
-163.269 1227.29 2346
-157.659 1227.29 2346
-151.66 1224.15 2340
-145.627 1220.49 2333
-140.288 1222.58 2337
-135.046 1225.72 2343
-129.443 1225.72 2343
-123.999 1227.29 2346
-119.095 1234.61 2360
-113.452 1234.61 2360
-107.808 1234.61 2360
-102.295 1236.18 2363
-97.3392 1245.08 2380
-91.7634 1246.64 2383
-86.0649 1246.64 2383
-80.6025 1250.31 2390
-75.326 1257.63 2404
-69.5773 1257.63 2404
-63.8286 1257.63 2404
-58.0799 1257.63 2404
-52.2441 1255.54 2400
-46.6406 1259.2 2407
-40.8848 1259.2 2407
-35.1289 1259.2 2407
-29.373 1259.2 2407
-23.6172 1259.2 2407
-17.7871 1253.97 2397
-12.0199 1250.31 2390
-6.30474 1250.31 2390
-0.589521 1250.31 2390
5.11926 1248.74 2387
10.8092 1246.64 2383
16.4384 1241.41 2373
22.1129 1241.41 2373
27.7875 1241.41 2373
33.462 1241.41 2373
39.0212 1237.75 2366
44.3768 1229.38 2350
49.9964 1229.38 2350
55.5213 1227.29 2346
61.0531 1225.72 2343
67.0258 1232.52 2356
72.6597 1232.52 2356
78.2936 1232.52 2356
83.9275 1232.52 2356
89.5614 1232.52 2356
95.1953 1232.52 2356
100.572 1229.38 2350
106.328 1230.95 2353
111.954 1230.95 2353
117.581 1230.95 2353
123.208 1230.95 2353
128.123 1224.15 2340
133.718 1224.15 2340
139.314 1224.15 2340
144.91 1224.15 2340
150.312 1222.58 2337
155.634 1220.49 2333
161.213 1220.49 2333
166.792 1220.49 2333
172.371 1220.49 2333
177.95 1220.49 2333
183.293 1218.92 2330
188.864 1218.92 2330
194.436 1218.92 2330
199.407 1215.26 2323
204.962 1215.26 2323
210.517 1215.26 2323
216.072 1215.26 2323
222.009 1217.35 2327
228.16 1220.49 2333
233.739 1220.49 2333
239.318 1220.49 2333
245.316 1222.58 2337
250.905 1222.58 2337
256.823 1224.15 2340
262.418 1224.15 2340
268.701 1227.29 2346
274.311 1227.29 2346
281.114 1232.52 2356
286.748 1232.52 2356
292.382 1232.52 2356
298.016 1232.52 2356
303.65 1232.52 2356
308.89 1230.95 2353
314.116 1229.38 2350
319.191 1227.29 2346
324.386 1225.72 2343
329.989 1225.72 2343
335.591 1225.72 2343
341.194 1225.72 2343
346.797 1225.72 2343
352.4 1225.72 2343
358.003 1225.72 2343
363.606 1225.72 2343
369.208 1225.72 2343
374.811 1225.72 2343
380.414 1225.72 2343
386.511 1227.29 2346
392.121 1227.29 2346
398.409 1229.38 2350
404.029 1229.38 2350
409.648 1229.38 2350
414.561 1227.29 2346
420.171 1227.29 2346
425.237 1225.72 2343
430.839 1225.72 2343
436.442 1225.72 2343
442.045 1225.72 2343
447.648 1225.72 2343
452.67 1224.15 2340
456.308 1218.92 2330
461.285 1217.35 2327
466.849 1217.35 2327
472.414 1217.35 2327
478.595 1218.92 2330
484.166 1218.92 2330
489.738 1218.92 2330
495.31 1218.92 2330
500.882 1218.92 2330
506.453 1218.92 2330
512.025 1218.92 2330
517.597 1218.92 2330
523.168 1218.92 2330
528.74 1218.92 2330
535 1220.49 2333
540.579 1220.49 2333
546.158 1220.49 2333
551.737 1220.49 2333
557.316 1220.49 2333
562.171 1218.92 2330
567.742 1218.92 2330
575.036 1222.58 2337
580.625 1222.58 2337
586.213 1222.58 2337
591.802 1222.58 2337
597.39 1222.58 2337
601.173 1218.92 2330
606.745 1218.92 2330
612.316 1218.92 2330
616.032 1215.26 2323
622.657 1217.35 2327
628.222 1217.35 2327
633.786 1217.35 2327
639.351 1217.35 2327
644.915 1217.35 2327
650.48 1217.35 2327
656.044 1217.35 2327
663.315 1220.49 2333
670.041 1222.58 2337
676.496 1224.15 2340
682.092 1224.15 2340
687.688 1224.15 2340
692.394 1222.58 2337
697.983 1222.58 2337
704.475 1224.15 2340
710.07 1224.15 2340
718.724 1229.38 2350
724.344 1229.38 2350
729.963 1229.38 2350
733.392 1225.72 2343
738.049 1224.15 2340
743.644 1224.15 2340
749.24 1224.15 2340
754.835 1224.15 2340
760.431 1224.15 2340
766.027 1224.15 2340
771.622 1224.15 2340
777.218 1224.15 2340
783.817 1225.72 2343
789.42 1225.72 2343
795.023 1225.72 2343
800.626 1225.72 2343
807.261 1227.29 2346
817.722 1234.61 2360
827.901 1241.41 2373
833.575 1241.41 2373
839.25 1241.41 2373
844.924 1241.41 2373
844.505 1232.52 2356
850.139 1232.52 2356
855.773 1232.52 2356
861.407 1232.52 2356
867.041 1232.52 2356
872.675 1232.52 2356
878.309 1232.52 2356
881.692 1229.38 2350
900.322 1224.15 2340
905.918 1224.15 2340
911.514 1224.15 2340
917.109 1224.15 2340
916.002 1215.26 2323
921.557 1215.26 2323
927.112 1215.26 2323
934.272 1217.35 2327
939.837 1217.35 2327
945.402 1217.35 2327
948.106 1213.69 2320
953.653 1213.69 2320
955.48 1208.98 2311
961.006 1208.98 2311
969.042 1212.12 2317
977.107 1215.26 2323
982.661 1215.26 2323
988.216 1215.26 2323
993.771 1215.26 2323
999.326 1215.26 2323
1003.58 1213.69 2320
1010.44 1215.26 2323
1015.99 1215.26 2323
1021.55 1215.26 2323
1027.1 1215.26 2323
1032.66 1215.26 2323
1038.21 1215.26 2323
1043.77 1215.26 2323
1049.32 1215.26 2323
1052.15 1212.12 2317
1057.69 1212.12 2317
1065.99 1215.26 2323
1074.77 1218.92 2330
1080.34 1218.92 2330
1085.91 1218.92 2330
1091.49 1218.92 2330
1097.06 1218.92 2330
1102.63 1218.92 2330
1103.44 1213.69 2320
1107.56 1212.12 2317
1113.1 1212.12 2317
1117.19 1210.55 2314
1122.72 1210.55 2314
1126.8 1208.98 2311
1132.32 1208.98 2311
1137.85 1208.98 2311
1141.4 1206.89 2307
1146.91 1206.89 2307
1155.93 1210.55 2314
1161.46 1210.55 2314
1166.99 1210.55 2314
1172.53 1210.55 2314
1178.06 1210.55 2314
1183.59 1210.55 2314
1187.58 1208.98 2311
1193.11 1208.98 2311
1195.01 1205.32 2304
1200.52 1205.32 2304
1206.03 1205.32 2304
1209.96 1203.75 2301
1215.46 1203.75 2301
1220.96 1203.75 2301
1226.47 1203.75 2301
1231.97 1203.75 2301
1239.08 1205.32 2304
1244.59 1205.32 2304
1250.1 1205.32 2304
1253.98 1203.75 2301
1256.2 1200.61 2295
1261.68 1200.61 2295
1267.17 1200.61 2295
1271 1199.04 2292
1269.24 1192.24 2279
1281.96 1199.04 2292
1287.44 1199.04 2292
1292.92 1199.04 2292
1298.4 1199.04 2292
1303.88 1199.04 2292
1309.36 1199.04 2292
1312.55 1196.95 2288
1320.32 1199.04 2292
1325.8 1199.04 2292
1331.29 1199.04 2292
1336.77 1199.04 2292
1342.25 1199.04 2292
1349.49 1200.61 2295
1354.98 1200.61 2295
1360.47 1200.61 2295
1365.96 1200.61 2295
1373.24 1202.18 2298
1384.13 1206.89 2307
1392.06 1208.98 2311
1397.58 1208.98 2311
1403.11 1208.98 2311
1408.64 1208.98 2311
1414.16 1208.98 2311
1415.39 1205.32 2304
1420.9 1205.32 2304
1426.41 1205.32 2304
1431.92 1205.32 2304
1441.79 1208.98 2311
1447.32 1208.98 2311
1452.85 1208.98 2311
1460.27 1210.55 2314
1475.94 1218.92 2330
1481.51 1218.92 2330
1487.08 1218.92 2330
1492.65 1218.92 2330
1498.22 1218.92 2330
1503.79 1218.92 2330
1504.83 1215.26 2323
1506.49 1212.12 2317
1512.03 1212.12 2317
1515.6 1210.55 2314
1519.16 1208.98 2311
1520.07 1205.32 2304
1525.58 1205.32 2304
1520.46 1196.95 2288
1525.93 1196.95 2288
1542.11 1205.32 2304
1549.63 1206.89 2307
1555.15 1206.89 2307
1560.67 1206.89 2307
1564.15 1205.32 2304
1561.48 1199.04 2292
1566.96 1199.04 2292
1559.41 1189.1 2273
1553.83 1180.73 2257
1546.85 1151.43 2201
1583.15 1174.45 2245
1588.52 1174.45 2245
1600.27 1179.16 2254
1605.66 1179.16 2254
1622.49 1187.53 2270
1627.92 1187.53 2270
1633.35 1187.53 2270
1638.77 1187.53 2270
1644.2 1187.53 2270
1649.63 1187.53 2270
1655.06 1187.53 2270
1662.68 1189.1 2273
1686.46 1202.18 2298
1691.96 1202.18 2298
1701.89 1205.32 2304
1712.58 1208.98 2311
1718.11 1208.98 2311
1723.64 1208.98 2311
1729.16 1208.98 2311
1729.43 1205.32 2304
1734.94 1205.32 2304
1740.45 1205.32 2304
1720.2 1187.53 2270
1723.35 1185.96 2267
1728.77 1185.96 2267
1734.19 1185.96 2267
-1668.93 1206.11 2295
-1669.97 1210.84 2304
-1664.46 1210.84 2304
-1658.95 1210.84 2304
-1653.44 1210.84 2304
-1581.42 1189.81 2264
-1576.01 1189.81 2264
-1570.59 1189.81 2264
-1565.18 1189.81 2264
-1557.7 1188.24 2261
-1552.29 1188.24 2261
-1546.88 1188.24 2261
-1534.66 1182.98 2251
-1565.28 1210.84 2304
-1559.77 1210.84 2304
-1554.26 1210.84 2304
-1546.74 1209.26 2301
-1543.25 1210.84 2304
-1539.74 1212.41 2307
-1540.87 1217.67 2317
-1535.33 1217.67 2317
-1529.79 1217.67 2317
-1520.3 1214.51 2311
-1514.78 1214.51 2311
-1509.25 1214.51 2311
-1503.72 1214.51 2311
-1489.77 1207.68 2298
-1484.27 1207.68 2298
-1471.62 1210.84 2304
-1468.02 1212.41 2307
-1462.5 1212.41 2307
-1467.09 1220.82 2323
-1461.54 1220.82 2323
-1455.98 1220.82 2323
-1450.43 1220.82 2323
-1434.92 1212.41 2307
-1425.69 1209.26 2301
-1420.18 1209.26 2301
-1414.68 1209.26 2301
-1409.18 1209.26 2301
-1393.92 1200.85 2285
-1384.81 1197.7 2279
-1379.36 1197.7 2279
-1372.1 1196.12 2276
-1370.26 1199.27 2282
-1374.37 1207.68 2298
-1370.66 1209.26 2301
-1365.16 1209.26 2301
-1359.66 1209.26 2301
-1354.16 1209.26 2301
-1348.65 1209.26 2301
-1339.65 1206.11 2295
-1334.16 1206.11 2295
-1328.67 1206.11 2295
-1323.18 1206.11 2295
-1317.7 1206.11 2295
-1312.21 1206.11 2295
-1311.84 1210.84 2304
-1312 1216.09 2314
-1306.47 1216.09 2314
-1309.93 1224.5 2330
-1311.64 1231.33 2343
-1309.94 1235.01 2350
-1304.32 1235.01 2350
-1298.7 1235.01 2350
-1293.08 1235.01 2350
-1287.46 1235.01 2350
-1279.66 1232.91 2346
-1266.99 1226.08 2333
-1258.17 1222.92 2327
-1252.6 1222.92 2327
-1247.04 1222.92 2327
-1237.74 1219.24 2320
-1233.78 1220.82 2323
-1238.8 1231.33 2343
-1233.2 1231.33 2343
-1236.5 1240.27 2360
-1248.07 1257.61 2393
-1242.35 1257.61 2393
-1236.63 1257.61 2393
-1211.87 1238.16 2356
-1206.24 1238.16 2356
-1200.6 1238.16 2356
-1193.45 1236.59 2353
-1184.29 1232.91 2346
-1183.7 1238.16 2356
-1183.07 1243.42 2366
-1177.41 1243.42 2366
-1182.15 1254.46 2387
-1181.37 1259.71 2397
-1187.41 1272.32 2421
-1181.62 1272.32 2421
-1181.18 1278.1 2432
-1180.68 1283.89 2443
-1178.2 1287.56 2450
-1172.34 1287.56 2450
-1166.48 1287.56 2450
-1143.57 1268.65 2414
-1137.8 1268.65 2414
-1112.8 1247.1 2373
-1096.39 1235.01 2350
-1087.53 1231.33 2343
-1081.92 1231.33 2343
-1074.94 1229.76 2340
-1069.35 1229.76 2340
-1060.57 1226.08 2333
-1050.47 1220.82 2323
-1044.91 1220.82 2323
-1038.02 1219.24 2320
-1031.13 1217.67 2317
-1024.26 1216.09 2314
-1018.73 1216.09 2314
-1008.82 1210.84 2304
-998.083 1204.53 2292
-992.602 1204.53 2292
-989.705 1207.68 2298
-984.21 1207.68 2298
-978.715 1207.68 2298
-974.49 1209.26 2301
-971.515 1212.41 2307
-965.998 1212.41 2307
-965.893 1219.24 2320
-963.243 1222.92 2327
-957.679 1222.92 2327
-952.114 1222.92 2327
-946.55 1222.92 2327
-940.985 1222.92 2327
-937.832 1226.08 2333
-932.253 1226.08 2333
-929.455 1229.76 2340
-926.228 1232.91 2346
-924.542 1238.16 2356
-918.909 1238.16 2356
-921.027 1248.67 2376
-926.133 1263.39 2404
-924.212 1268.65 2414
-918.44 1268.65 2414
-920.607 1279.68 2435
-914.784 1279.68 2435
-908.961 1279.68 2435
-903.138 1279.68 2435
-901.369 1285.46 2446
-898.083 1289.14 2453
-892.217 1289.14 2453
-886.351 1289.14 2453
-880.485 1289.14 2453
-872.123 1285.46 2446
-866.274 1285.46 2446
-859.37 1283.89 2443
-853.528 1283.89 2443
-850.115 1287.56 2450
-849.08 1294.92 2464
-843.188 1294.92 2464
-837.296 1294.92 2464
-831.404 1294.92 2464
-825.512 1294.92 2464
-812.634 1283.89 2443
-798.536 1270.75 2418
-790.459 1267.07 2411
-784.693 1267.07 2411
-777.636 1264.97 2407
-773.163 1267.07 2411
-770.58 1272.32 2421
-764.791 1272.32 2421
-759.001 1272.32 2421
-753.212 1272.32 2421
-747.423 1272.32 2421
-743.778 1276 2428
-737.972 1276 2428
-732.165 1276 2428
-545.186 973.294 1852
-540.757 973.294 1852
-538.645 977.498 1860
-534.198 977.498 1860
-529.75 977.498 1860
-526.997 980.651 1866
-523.654 982.753 1870
-519.183 982.753 1870
-514.711 982.753 1870
-510.239 982.753 1870
-505.768 982.753 1870
-500.76 981.702 1868
-495.23 979.6 1864
-491.826 981.702 1868
-487.359 981.702 1868
-482.892 981.702 1868
-477.913 980.651 1866
-473.45 980.651 1866
-468.988 980.651 1866
-464.526 980.651 1866
-460.064 980.651 1866
-454.625 978.549 1862
-449.205 976.447 1858
-444.762 976.447 1858
-440.319 976.447 1858
-434.938 974.345 1854
-430.04 973.294 1852
-425.611 973.294 1852
-420.728 972.242 1850
-415.179 969.615 1845
-410.322 968.564 1843
-405.914 968.564 1843
-401.072 967.513 1841
-395.376 964.359 1835
-390.136 962.257 1831
-385.758 962.257 1831
-380.546 960.155 1827
-374.942 957.002 1821
-368.145 950.695 1809
-362.411 947.017 1802
-358.102 947.017 1802
-352.615 943.863 1796
-346.769 939.659 1788
-341.344 936.506 1782
-337.082 936.506 1782
-331.514 932.827 1775
-325.057 926.521 1763
-320.841 926.521 1763
-316.625 926.521 1763
-311.877 924.944 1760
-306.62 921.791 1754
-301.908 920.214 1751
-297.721 920.214 1751
-293.534 920.214 1751
-289.512 920.74 1752
-285.322 920.74 1752
-281.454 921.791 1754
-277.259 921.791 1754
-273.999 924.944 1760
-270.25 926.521 1763
-266.94 929.674 1769
-262.71 929.674 1769
-259.356 932.827 1775
-255.83 935.455 1780
-252.422 938.608 1786
-248.151 938.608 1786
-244.426 940.71 1790
-240.146 940.71 1790
-236.919 944.915 1798
-232.879 945.966 1800
-228.574 945.966 1800
-224.768 948.068 1804
-220.821 949.644 1807
-216.74 950.695 1809
-212.414 950.695 1809
-208.088 950.695 1809
-204.213 952.798 1813
-200.539 955.951 1819
-196.189 955.951 1819
-192.05 957.002 1821
-187.695 957.002 1821
-183.341 957.002 1821
-178.79 955.951 1819
-174.248 954.9 1817
-198.104 1240.27 2360
-193.276 1245.52 2370
-187.608 1245.52 2370
-181.941 1245.52 2370
-175.232 1238.16 2356
-169.382 1236.59 2353
-163.06 1231.33 2343
-157.457 1231.33 2343
-151.206 1226.08 2333
-145.44 1224.5 2330
-139.868 1224.5 2330
-134.7 1228.18 2337
-129.111 1228.18 2337
-123.681 1229.76 2340
-118.389 1232.91 2346
-113.259 1238.16 2356
-107.625 1238.16 2356
-102.165 1240.27 2360
-96.6439 1241.84 2363
-90.9932 1241.84 2363
-85.3426 1241.84 2363
-80.1304 1248.67 2376
-74.4486 1248.67 2376
-68.7669 1248.67 2376
-63.0852 1248.67 2376
-57.4034 1248.67 2376
-51.7217 1248.67 2376
-46.04 1248.67 2376
-40.3582 1248.67 2376
-34.6765 1248.67 2376
-28.9947 1248.67 2376
-23.313 1248.67 2376
-17.609 1247.1 2373
-11.8339 1236.59 2353
-6.20713 1236.59 2353
-0.578668 1232.91 2346
5.03133 1232.91 2346
10.6005 1228.18 2337
16.189 1228.18 2337
21.7775 1228.18 2337
27.3659 1228.18 2337
32.9544 1228.18 2337
38.5429 1228.18 2337
44.1314 1228.18 2337
49.7198 1228.18 2337
55.2136 1226.08 2333
60.8968 1228.18 2337
66.656 1231.33 2343
72.2588 1231.33 2343
77.8616 1231.33 2343
83.4644 1231.33 2343
89.0672 1231.33 2343
94.6701 1231.33 2343
100.145 1229.76 2340
105.876 1231.33 2343
111.479 1231.33 2343
117.081 1231.33 2343
122.684 1231.33 2343
128.123 1229.76 2340
133.718 1229.76 2340
139.314 1229.76 2340
144.91 1229.76 2340
150.312 1228.18 2337
155.634 1226.08 2333
161.213 1226.08 2333
166.792 1226.08 2333
172.371 1226.08 2333
177.95 1226.08 2333
183.293 1224.5 2330
188.864 1224.5 2330
194.436 1224.5 2330
199.407 1220.82 2323
204.962 1220.82 2323
210.517 1220.82 2323
216.072 1220.82 2323
222.009 1222.92 2327
228.16 1226.08 2333
233.739 1226.08 2333
239.318 1226.08 2333
245.316 1228.18 2337
250.905 1228.18 2337
256.823 1229.76 2340
262.418 1229.76 2340
268.701 1232.91 2346
274.311 1232.91 2346
281.114 1238.16 2356
286.748 1238.16 2356
292.382 1238.16 2356
298.016 1238.16 2356
303.65 1238.16 2356
308.89 1236.59 2353
314.116 1235.01 2350
319.191 1232.91 2346
324.386 1231.33 2343
329.989 1231.33 2343
335.591 1231.33 2343
341.194 1231.33 2343
346.797 1231.33 2343
352.4 1231.33 2343
358.003 1231.33 2343
363.606 1231.33 2343
369.208 1231.33 2343
374.811 1231.33 2343
380.414 1231.33 2343
386.511 1232.91 2346
392.121 1232.91 2346
398.409 1235.01 2350
404.029 1235.01 2350
409.648 1235.01 2350
414.561 1232.91 2346
420.171 1232.91 2346
425.237 1231.33 2343
430.839 1231.33 2343
436.442 1231.33 2343
442.045 1231.33 2343
447.648 1231.33 2343
452.67 1229.76 2340
456.308 1224.5 2330
461.285 1222.92 2327
466.849 1222.92 2327
472.414 1222.92 2327
478.595 1224.5 2330
484.166 1224.5 2330
489.738 1224.5 2330
495.31 1224.5 2330
500.882 1224.5 2330
506.453 1224.5 2330
512.025 1224.5 2330
517.597 1224.5 2330
523.168 1224.5 2330
528.74 1224.5 2330
535 1226.08 2333
540.579 1226.08 2333
546.158 1226.08 2333
551.737 1226.08 2333
557.316 1226.08 2333
562.171 1224.5 2330
567.742 1224.5 2330
575.036 1228.18 2337
580.625 1228.18 2337
586.213 1228.18 2337
591.802 1228.18 2337
597.39 1228.18 2337
601.173 1224.5 2330
606.745 1224.5 2330
612.316 1224.5 2330
616.032 1220.82 2323
622.657 1222.92 2327
628.222 1222.92 2327
633.786 1222.92 2327
639.351 1222.92 2327
644.915 1222.92 2327
650.48 1222.92 2327
653.225 1217.67 2317
660.472 1220.82 2323
667.174 1222.92 2327
674.473 1226.08 2333
680.052 1226.08 2333
685.63 1226.08 2333
689.432 1222.92 2327
694.996 1222.92 2327
702.367 1226.08 2333
707.946 1226.08 2333
714.748 1228.18 2337
720.337 1228.18 2337
725.925 1228.18 2337
731.514 1228.18 2337
737.102 1228.18 2337
741.42 1226.08 2333
746.998 1226.08 2333
752.577 1226.08 2333
758.156 1226.08 2333
765.045 1228.18 2337
771.622 1229.76 2340
777.218 1229.76 2340
783.817 1231.33 2343
789.42 1231.33 2343
795.023 1231.33 2343
800.626 1231.33 2343
807.261 1232.91 2346
814.257 1235.01 2350
824.412 1241.84 2363
830.063 1241.84 2363
835.713 1241.84 2363
837.803 1236.59 2353
843.43 1236.59 2353
849.057 1236.59 2353
853.594 1235.01 2350
859.213 1235.01 2350
862.257 1231.33 2343
867.86 1231.33 2343
873.462 1231.33 2343
876.814 1228.18 2337
879.161 1200.85 2285
887.335 1204.53 2292
892.816 1204.53 2292
898.297 1204.53 2292
903.778 1204.53 2292
909.259 1204.53 2292
913.143 1202.43 2288
922.629 1207.68 2298
928.124 1207.68 2298
933.62 1207.68 2298
939.115 1207.68 2298
944.61 1207.68 2298
948.865 1206.11 2295
953.105 1204.53 2292
962.35 1209.26 2301
972.059 1214.51 2311
977.585 1214.51 2311
983.112 1214.51 2311
988.638 1214.51 2311
994.164 1214.51 2311
999.691 1214.51 2311
1007.83 1217.67 2317
1013.37 1217.67 2317
1018.91 1217.67 2317
1024.45 1217.67 2317
1029.99 1217.67 2317
1035.53 1217.67 2317
1041.07 1217.67 2317
1046.61 1217.67 2317
1050.79 1216.09 2314
1054.95 1214.51 2311
1061.86 1216.09 2314
1070.16 1219.24 2320
1075.71 1219.24 2320
1082.65 1220.82 2323
1088.21 1220.82 2323
1093.76 1220.82 2323
1097.9 1219.24 2320
1102.02 1217.67 2317
1102.78 1212.41 2307
1108.29 1212.41 2307
1113.81 1212.41 2307
1114.96 1207.68 2298
1115.58 1202.43 2288
1121.05 1202.43 2288
1126.52 1202.43 2288
1130.51 1200.85 2285
1135.97 1200.85 2285
1146.43 1206.11 2295
1151.92 1206.11 2295
1157.41 1206.11 2295
1162.9 1206.11 2295
1168.39 1206.11 2295
1173.87 1206.11 2295
1175.77 1202.43 2288
1179.69 1200.85 2285
1182.04 1197.7 2279
1187.49 1197.7 2279
1192.94 1197.7 2279
1196.81 1196.12 2276
1202.25 1196.12 2276
1212.47 1200.85 2285
1217.94 1200.85 2285
1223.4 1200.85 2285
1228.87 1200.85 2285
1234.33 1200.85 2285
1239.79 1200.85 2285
1243.62 1199.27 2282
1249.08 1199.27 2282
1251.24 1196.12 2276
1256.68 1196.12 2276
1258.8 1192.97 2270
1259.21 1188.24 2261
1269.65 1192.97 2270
1276.77 1194.54 2273
1282.2 1194.54 2273
1287.64 1194.54 2273
1293.07 1194.54 2273
1301.94 1197.7 2279
1312.55 1202.43 2288
1318.02 1202.43 2288
1323.49 1202.43 2288
1328.96 1202.43 2288
1334.43 1202.43 2288
1339.9 1202.43 2288
1343.61 1200.85 2285
1343.76 1196.12 2276
1349.2 1196.12 2276
1354.65 1196.12 2276
1360.09 1196.12 2276
1370.93 1200.85 2285
1376.4 1200.85 2285
1381.86 1200.85 2285
1387.32 1200.85 2285
1392.79 1200.85 2285
1398.25 1200.85 2285
1403.72 1200.85 2285
1407.33 1199.27 2282
1407.22 1194.54 2273
1412.65 1194.54 2273
1421.83 1197.7 2279
1427.28 1197.7 2279
1432.73 1197.7 2279
1441.97 1200.85 2285
1463.9 1214.51 2311
1469.43 1214.51 2311
1478.78 1217.67 2317
1486.24 1219.24 2320
1491.79 1219.24 2320
1497.34 1219.24 2320
1500.94 1217.67 2317
1499.98 1212.41 2307
1505.5 1212.41 2307
1511.02 1212.41 2307
1514.56 1210.84 2304
1518.09 1209.26 2301
1523.59 1209.26 2301
1529.1 1209.26 2301
1534.6 1209.26 2301
1546.79 1214.51 2311
1554.34 1216.09 2314
1559.87 1216.09 2314
1565.4 1216.09 2314
1566.18 1212.41 2307
1554.67 1199.27 2282
1560.13 1199.27 2282
1553.23 1189.81 2264
1553.83 1186.14 2257
1546.85 1156.71 2201
1568.34 1168.79 2224
1573.66 1168.79 2224
1593.88 1179.83 2245
1599.25 1179.83 2245
1604.62 1179.83 2245
1609.99 1179.83 2245
1606.72 1173.52 2233
1605.57 1168.79 2224
1610.88 1168.79 2224
1609.66 1164.06 2215
1621.52 1168.79 2224
1646.59 1182.98 2251
1663.71 1191.39 2267
1669.13 1191.39 2267
1687.85 1200.85 2285
1693.32 1200.85 2285
1698.78 1200.85 2285
1704.24 1200.85 2285
1709.71 1200.85 2285
1712.92 1199.27 2282
1711.6 1194.54 2273
1717.04 1194.54 2273
1720.2 1192.97 2270
1723.35 1191.39 2267
1728.77 1191.39 2267
1734.19 1191.39 2267
-1668.93 1211.6 2295
-1669.97 1216.36 2304
-1664.46 1216.36 2304
-1658.95 1216.36 2304
-1653.44 1216.36 2304
-1581.42 1195.24 2264
-1576.01 1195.24 2264
-1570.59 1195.24 2264
-1565.18 1195.24 2264
-1557.7 1193.65 2261
-1552.29 1193.65 2261
-1576.3 1216.36 2304
-1570.79 1216.36 2304
-1570.04 1220.05 2311
-1564.51 1220.05 2311
-1558.99 1220.05 2311
-1546.74 1214.77 2301
-1528.51 1204.74 2282
-1529.73 1210.02 2292
-1532.23 1216.36 2304
-1526.72 1216.36 2304
-1525.83 1220.05 2311
-1520.3 1220.05 2311
-1514.78 1220.05 2311
-1509.25 1220.05 2311
-1503.72 1220.05 2311
-1489.77 1213.19 2298
-1484.27 1213.19 2298
-1473.54 1217.94 2307
-1468.02 1217.94 2307
-1462.5 1217.94 2307
-1467.09 1226.39 2323
-1461.54 1226.39 2323
-1455.98 1226.39 2323
-1450.43 1226.39 2323
-1434.92 1217.94 2307
-1425.69 1214.77 2301
-1420.18 1214.77 2301
-1414.68 1214.77 2301
-1409.18 1214.77 2301
-1400.02 1211.6 2295
-1390.27 1207.91 2288
-1384.8 1207.91 2288
-1375.72 1204.74 2282
-1370.26 1204.74 2282
-1374.37 1213.19 2298
-1370.66 1214.77 2301
-1365.16 1214.77 2301
-1359.66 1214.77 2301
-1354.16 1214.77 2301
-1348.65 1214.77 2301
-1339.65 1211.6 2295
-1334.16 1211.6 2295
-1328.67 1211.6 2295
-1323.18 1211.6 2295
-1317.7 1211.6 2295
-1312.21 1211.6 2295
-1311.84 1216.36 2304
-1312 1221.63 2314
-1306.47 1221.63 2314
-1309.93 1230.08 2330
-1311.64 1236.94 2343
-1309.94 1240.64 2350
-1304.32 1240.64 2350
-1298.7 1240.64 2350
-1293.08 1240.64 2350
-1287.46 1240.64 2350
-1279.66 1238.53 2346
-1266.99 1231.67 2333
-1258.17 1228.5 2327
-1252.6 1228.5 2327
-1247.04 1228.5 2327
-1237.74 1224.8 2320
-1233.78 1226.39 2323
-1238.8 1236.94 2343
-1233.2 1236.94 2343
-1248.55 1258.06 2383
-1248.07 1263.34 2393
-1242.35 1263.34 2393
-1236.63 1263.34 2393
-1227.82 1260.17 2387
-1222.11 1260.17 2387
-1216.4 1260.17 2387
-1208.66 1258.06 2383
-1202.97 1258.06 2383
-1183.7 1243.81 2356
-1183.07 1249.09 2366
-1177.41 1249.09 2366
-1182.15 1260.17 2387
-1181.37 1265.45 2397
-1187.41 1278.12 2421
-1181.62 1278.12 2421
-1181.18 1283.93 2432
-1180.68 1289.74 2443
-1178.2 1293.43 2450
-1172.34 1293.43 2450
-1166.48 1293.43 2450
-1143.57 1274.43 2414
-1137.8 1274.43 2414
-1114.21 1254.37 2376
-1096.39 1240.64 2350
-1087.53 1236.94 2343
-1081.92 1236.94 2343
-1074.94 1235.36 2340
-1069.35 1235.36 2340
-1060.57 1231.67 2333
-1050.47 1226.39 2323
-1044.91 1226.39 2323
-1038.02 1224.8 2320
-1031.13 1223.22 2317
-1024.26 1221.63 2314
-1018.73 1221.63 2314
-1008.82 1216.36 2304
-998.083 1210.02 2292
-992.602 1210.02 2292
-989.705 1213.19 2298
-984.21 1213.19 2298
-978.715 1213.19 2298
-973.22 1213.19 2298
-968.988 1214.77 2301
-963.486 1214.77 2301
-962.146 1220.05 2311
-960.346 1224.8 2320
-956.032 1226.39 2323
-950.477 1226.39 2323
-944.922 1226.39 2323
-940.985 1228.5 2327
-935.42 1228.5 2327
-929.856 1228.5 2327
-926.675 1231.67 2333
-921.096 1231.67 2333
-920.618 1238.53 2346
-915.008 1238.53 2346
-913.275 1243.81 2356
-911.493 1249.09 2366
-915.024 1261.76 2390
-909.309 1261.76 2390
-910.021 1270.73 2407
-904.265 1270.73 2407
-901.122 1274.43 2414
-895.349 1274.43 2414
-889.577 1274.43 2414
-895.52 1291.32 2446
-889.671 1291.32 2446
-883.822 1291.32 2446
-874.024 1285.51 2435
-863.21 1278.12 2421
-857.42 1278.12 2421
-849.168 1274.43 2414
-844.793 1276.54 2418
-844.91 1285.51 2435
-841.844 1289.74 2443
-836.002 1289.74 2443
-830.16 1289.74 2443
-824.318 1289.74 2443
-818.476 1289.74 2443
-811.304 1287.63 2439
-794.903 1270.73 2407
-786.852 1267.04 2400
-781.113 1267.04 2400
-773.113 1263.34 2393
-767.39 1263.34 2393
-763.896 1267.04 2400
-758.157 1267.04 2400
-752.418 1267.04 2400
-746.679 1267.04 2400
-745.262 1274.43 2414
-743.778 1281.82 2428
-737.972 1281.82 2428
-732.165 1281.82 2428
-546.364 979.842 1856
-542.509 980.898 1858
-538.066 980.898 1858
-533.623 980.898 1858
-529.18 980.898 1858
-526.997 985.121 1866
-523.094 986.177 1868
-518.627 986.177 1868
-514.161 986.177 1868
-509.694 986.177 1868
-505.227 986.177 1868
-499.687 984.065 1864
-494.699 983.009 1862
-490.773 984.065 1864
-486.315 984.065 1864
-482.375 985.121 1866
-477.913 985.121 1866
-473.45 985.121 1866
-468.486 984.065 1864
-464.028 984.065 1864
-459.571 984.065 1864
-454.625 983.009 1862
-449.205 980.898 1858
-444.762 980.898 1858
-439.845 979.842 1856
-434.938 978.786 1854
-430.504 978.786 1854
-426.071 978.786 1854
-420.728 976.674 1850
-415.629 975.09 1847
-410.767 974.034 1845
-406.355 974.034 1845
-401.072 971.923 1841
-396.238 970.867 1839
-390.562 967.699 1833
-386.179 967.699 1833
-380.546 964.532 1827
-375.765 963.476 1825
-368.552 956.085 1811
-364.221 956.085 1811
-358.5 952.389 1804
-353.008 949.222 1798
-347.157 944.998 1790
-342.11 942.886 1786
-337.839 942.886 1786
-331.887 938.135 1777
-327.269 937.079 1775
-321.205 931.8 1765
-316.984 931.8 1765
-312.232 930.216 1762
-307.669 929.16 1760
-302.081 924.937 1752
-297.891 924.937 1752
-293.702 924.937 1752
-289.512 924.937 1752
-285.648 925.993 1754
-281.775 927.049 1756
-277.576 927.049 1756
-274.311 930.216 1762
-270.864 932.856 1767
-267.543 936.023 1773
-263.304 936.023 1773
-259.648 938.135 1777
-255.83 939.719 1780
-252.704 943.942 1788
-248.429 943.942 1788
-244.426 944.998 1790
-240.146 944.998 1790
-236.919 949.222 1798
