ply
format ascii 1.0
comment File generated
element vertex 2247
property float x
property float y
property float z
end_header
-2285.4 60.3535 3412
-2277.24 60.3535 3412
-2273.73 60.4773 3419
-2265.56 60.4773 3419
-2257.38 60.4773 3419
-2240 60.2296 3405
-2231.85 60.2296 3405
-2251.14 60.9726 3447
-2270.88 61.7332 3490
-2262.53 61.7332 3490
-2254.19 61.7332 3490
-2245.84 61.7332 3490
-2237.49 61.7332 3490
-2229.15 61.7332 3490
-2220.8 61.7332 3490
-2221.97 61.9985 3505
-2218.01 62.1223 3512
-2209.61 62.1223 3512
-2201.21 62.1223 3512
-2192.81 62.1223 3512
-2184.41 62.1223 3512
-2176.01 62.1223 3512
-2158.36 61.857 3497
-2177.66 62.653 3542
-2178.38 62.9183 3557
-2169.87 62.9183 3557
-2180.2 63.4667 3588
-2171.62 63.4667 3588
-2163.04 63.4667 3588
-2154.46 63.4667 3588
-2145.88 63.4667 3588
-2127.77 63.1836 3572
-2119.23 63.1836 3572
-2110.69 63.1836 3572
-2106.86 63.3252 3580
-2098.29 63.3252 3580
-2098.49 63.5905 3595
-2089.89 63.5905 3595
-2081.3 63.5905 3595
-2072.7 63.5905 3595
-2064.1 63.5905 3595
-2038.35 63.0598 3565
-2004.21 62.2638 3520
-1942.49 60.6011 3426
-1934.3 60.6011 3426
-1922.17 60.4773 3419
-1906.16 60.2296 3405
-1894.11 60.1058 3398
-1885.99 60.1058 3398
-1844.15 59.0268 3337
-1814.16 58.3193 3297
-1799.16 58.0893 3284
-1784.21 57.8594 3271
-1776.39 57.8594 3271
-1761.54 57.6294 3258
-1753.75 57.6294 3258
-1735.78 57.2933 3239
-1728.03 57.2933 3239
-1717.1 57.1872 3233
-1709.37 57.1872 3233
-1701.64 57.1872 3233
-1693.9 57.1872 3233
-1686.17 57.1872 3233
-1678.44 57.1872 3233
-1670.71 57.1872 3233
-1662.98 57.1872 3233
-1655.25 57.1872 3233
-1647.52 57.1872 3233
-1639.79 57.1872 3233
-1632.06 57.1872 3233
-1621.31 57.0811 3227
-1613.59 57.0811 3227
-1605.88 57.0811 3227
-1598.16 57.0811 3227
-1590.44 57.0811 3227
-1585.67 57.1872 3233
-1577.94 57.1872 3233
-1576.52 57.4172 3246
-1568.76 57.4172 3246
-1561 57.4172 3246
-1556.11 57.5233 3252
-1548.33 57.5233 3252
-1540.55 57.5233 3252
-1529.95 57.4172 3246
-1522.19 57.4172 3246
-1517.22 57.5233 3252
-1509.45 57.5233 3252
-1510.44 57.8594 3271
-1505.84 57.9832 3278
-1500.74 58.0893 3284
-1492.89 58.0893 3284
-1490.91 58.3193 3297
-1492.03 58.6731 3317
-1486.78 58.7792 3323
-1478.83 58.7792 3323
-1477.08 59.0268 3337
-1469.1 59.0268 3337
-1461.12 59.0268 3337
-1453.14 59.0268 3337
-1445.16 59.0268 3337
-1428.57 58.6731 3317
-1420.64 58.6731 3317
-1412.71 58.6731 3317
-1401.81 58.5492 3310
-1393.89 58.5492 3310
-1385.98 58.5492 3310
-1378.06 58.5492 3310
-1367.25 58.4254 3303
-1359.35 58.4254 3303
-718.54 31.9987 1809
-715.004 32.034 1811
-710.673 32.034 1811
-706.343 32.034 1811
-702.787 32.0694 1813
-698.452 32.0694 1813
-694.116 32.0694 1813
-689.781 32.0694 1813
-683.933 31.9987 1809
-679.607 31.9987 1809
-673.788 31.9279 1805
-669.101 31.9102 1804
-664.05 31.8748 1802
-659.741 31.8748 1802
-653.977 31.8041 1798
-648.955 31.7687 1796
-643.224 31.698 1792
-638.939 31.698 1792
-633.946 31.6626 1790
-628.962 31.6272 1788
-623.288 31.5564 1784
-619.022 31.5564 1784
-614.067 31.5211 1782
-608.095 31.4326 1777
-602.486 31.3619 1773
-594.535 31.1673 1762
-590.321 31.1673 1762
-584.777 31.0965 1758
-578.262 30.9727 1751
-570.468 30.7781 1740
-566.307 30.7781 1740
-560.208 30.672 1734
-554.458 30.5836 1729
-548.414 30.4774 1723
-544.293 30.4774 1723
-539.233 30.4244 1720
-534.497 30.389 1718
-528.846 30.3006 1713
-524.749 30.3006 1713
-520.045 30.2652 1711
-515.049 30.2121 1708
-510.366 30.1767 1706
-506.287 30.1767 1706
-501.618 30.1414 1704
-497.544 30.1414 1704
-492.6 30.0883 1701
-487.958 30.0529 1699
-483.895 30.0529 1699
-479.267 30.0175 1697
-474.649 29.9822 1695
-470.318 29.9645 1694
-466.268 29.9645 1694
-462.217 29.9645 1694
-457.625 29.9291 1692
-453.579 29.9291 1692
-449.533 29.9291 1692
-445.487 29.9291 1692
-441.441 29.9291 1692
-436.878 29.8937 1690
-432.836 29.8937 1690
-428.795 29.8937 1690
-424.502 29.876 1689
-420.463 29.876 1689
-416.424 29.876 1689
-412.386 29.876 1689
-407.863 29.8407 1687
-403.829 29.8407 1687
-399.795 29.8407 1687
-395.292 29.8053 1685
-390.798 29.7699 1683
-386.543 29.7522 1682
-382.521 29.7522 1682
-378.049 29.7168 1680
-373.586 29.6815 1678
-369.353 29.6638 1677
-365.343 29.6638 1677
-360.902 29.6284 1675
-356.897 29.6284 1675
-352.47 29.593 1673
-348.469 29.593 1673
-344.469 29.593 1673
-340.468 29.593 1673
-336.266 29.5753 1672
-331.87 29.5399 1670
-327.877 29.5399 1670
-323.496 29.5046 1668
-318.932 29.4515 1665
-314.951 29.4515 1665
-310.969 29.4515 1665
-306.988 29.4515 1665
-303.37 29.4869 1667
-299.563 29.5046 1668
-296.284 29.5753 1672
-292.285 29.5753 1672
-288.459 29.593 1673
-285.139 29.6638 1677
-281.296 29.6815 1678
-277.284 29.6815 1678
-274.085 29.7699 1683
-270.061 29.7699 1683
-266.352 29.8053 1685
-262.323 29.8053 1685
-258.6 29.8407 1687
-254.868 29.876 1689
-250.978 29.8937 1690
-246.936 29.8937 1690
-243.47 29.9645 1694
-239.56 29.9822 1695
-235.785 30.0175 1697
-231.727 30.0175 1697
-227.937 30.0529 1699
-224.138 30.0883 1701
-220.2 30.106 1702
-216.13 30.106 1702
-212.06 30.106 1702
-208.234 30.1414 1704
-204.159 30.1414 1704
-200.085 30.1414 1704
-196.01 30.1414 1704
-192.16 30.1767 1706
-188.411 30.2298 1709
-184.54 30.2652 1711
-180.449 30.2652 1711
-176.564 30.3006 1713
-172.769 30.3536 1716
-168.862 30.389 1718
-164.754 30.389 1718
-160.833 30.4244 1720
-156.902 30.4598 1722
-153.05 30.5128 1725
-148.925 30.5128 1725
-144.968 30.5482 1727
-141.002 30.5836 1729
-137.105 30.6366 1732
-132.963 30.6366 1732
-128.821 30.6366 1732
-124.967 30.7074 1736
-120.816 30.7074 1736
-116.665 30.7074 1736
-113.097 30.8666 1745
-108.924 30.8666 1745
-104.991 30.9373 1749
-100.809 30.9373 1749
-96.6264 30.9373 1749
-92.5497 30.9727 1751
-88.5139 31.0258 1754
-84.3196 31.0258 1754
-80.1252 31.0258 1754
-76.0174 31.0612 1756
-71.9001 31.0965 1758
-67.6962 31.0965 1758
-63.6729 31.185 1763
-59.457 31.185 1763
-55.4918 31.3265 1771
-51.2568 31.3265 1771
-47.0218 31.3265 1771
-42.7868 31.3265 1771
-38.5518 31.3265 1771
-34.3168 31.3265 1771
-30.1498 31.3972 1775
-25.9052 31.3972 1775
-21.6606 31.3972 1775
-17.4161 31.3972 1775
-13.2531 31.5918 1786
-8.98227 31.5918 1786
-4.7114 31.5918 1786
-0.866275 62.1223 3512
7.53198 62.1223 3512
15.9302 62.1223 3512
24.3285 62.1223 3512
32.3913 61.4855 3476
40.1999 60.7249 3433
48.4093 60.7249 3433
56.6186 60.7249 3433
64.2992 60.2296 3405
73.9521 61.4855 3476
82.2643 61.4855 3476
90.5765 61.4855 3476
98.0636 60.9726 3447
105.659 60.6011 3426
113.851 60.6011 3426
122.543 60.8487 3440
130.769 60.8487 3440
139.843 61.2202 3461
149.361 61.7332 3490
157.706 61.7332 3490
166.052 61.7332 3490
174.748 61.857 3497
184.314 62.2638 3520
193.498 62.5115 3534
201.949 62.5115 3534
211.293 62.7768 3549
221.204 63.1836 3572
229.746 63.1836 3572
238.287 63.1836 3572
248.419 63.5905 3595
259.303 64.1565 3627
270.267 64.7049 3658
279.014 64.7049 3658
287.761 64.7049 3658
299.184 65.2886 3691
309.345 65.5716 3707
318.21 65.5716 3707
327.868 65.7308 3716
336.755 65.7308 3716
345.641 65.7308 3716
354.527 65.7308 3716
363.413 65.7308 3716
368.191 65.0056 3675
376.979 65.0056 3675
384.927 64.8641 3667
391.012 64.4218 3642
398.075 64.1565 3627
406.748 64.1565 3627
411.757 63.5905 3595
415.91 62.9183 3557
424.416 62.9183 3557
432.922 62.9183 3557
441.428 62.9183 3557
448.036 62.653 3542
456.506 62.653 3542
462.088 62.2638 3520
470.505 62.2638 3520
478.923 62.2638 3520
485.263 61.9985 3505
493.645 61.9985 3505
502.026 61.9985 3505
507.204 61.6094 3483
511.241 61.0964 3454
518.448 60.9726 3447
526.69 60.9726 3447
530.588 60.4773 3419
535.455 60.1058 3398
542.46 59.982 3391
548.296 59.7344 3377
556.372 59.7344 3377
564.447 59.7344 3377
572.523 59.7344 3377
580.598 59.7344 3377
588.673 59.7344 3377
596.749 59.7344 3377
607.332 59.982 3391
620.522 60.4773 3419
631.273 60.7249 3433
639.482 60.7249 3433
649.012 60.8487 3440
658.576 60.9726 3447
672.428 61.4855 3476
680.74 61.4855 3476
691.828 61.7332 3490
700.174 61.7332 3490
708.519 61.7332 3490
715.427 61.6094 3483
723.756 61.6094 3483
735.027 61.857 3497
743.39 61.857 3497
751.752 61.857 3497
758.593 61.7332 3490
765.4 61.6094 3483
773.729 61.6094 3483
782.058 61.6094 3483
777.452 60.6011 3426
784.04 60.4773 3419
785.728 59.982 3391
793.837 59.982 3391
801.946 59.982 3391
810.054 59.982 3391
818.163 59.982 3391
826.272 59.982 3391
834.381 59.982 3391
835.534 59.4867 3363
847.087 59.7344 3377
860.481 60.1058 3398
868.606 60.1058 3398
887.568 60.8487 3440
908.815 61.7332 3490
928.723 62.5115 3534
937.174 62.5115 3534
951.78 62.9183 3557
960.285 62.9183 3557
968.791 62.9183 3557
977.297 62.9183 3557
992.177 63.3252 3580
1009.4 63.8735 3611
1031.29 64.7049 3658
1040.04 64.7049 3658
1055.95 65.1471 3683
1076.61 65.8723 3724
1087.85 66.0138 3732
1096.77 66.0138 3732
1105.7 66.0138 3732
1172.26 69.4277 3925
1181.65 69.4277 3925
1191.04 69.4277 3925
1200.42 69.4277 3925
1195.94 68.6317 3880
1205.22 68.6317 3880
1214.49 68.6317 3880
1220.93 68.4725 3871
1218.75 67.8357 3835
1242.33 68.6317 3880
1269.35 69.6046 3935
1278.76 69.6046 3935
1294.06 69.923 3953
1303.51 69.923 3953
1312.97 69.923 3953
1319.41 69.7638 3944
1319.41 69.2685 3916
1316.56 68.6317 3880
1325.83 68.6317 3880
1316.53 67.6765 3826
1307.66 66.7567 3774
1316.69 66.7567 3774
1325.71 66.7567 3774
1334.74 66.7567 3774
1343.76 66.7567 3774
1352.79 66.7567 3774
1358.92 66.6152 3766
1367.93 66.6152 3766
1373.64 66.456 3757
1367.54 65.7308 3716
1376.43 65.7308 3716
1385.31 65.7308 3716
1390.82 65.5716 3707
1399.69 65.5716 3707
1402.47 65.2886 3691
1411.3 65.2886 3691
1417.05 65.1471 3683
1422.76 65.0056 3675
1431.54 65.0056 3675
1440.33 65.0056 3675
1449.12 65.0056 3675
1470.6 65.5716 3707
1479.47 65.5716 3707
1488.33 65.5716 3707
1497.2 65.5716 3707
1482.9 64.5634 3650
1482.23 64.1565 3627
1477.75 63.5905 3595
1486.35 63.5905 3595
1482.47 63.0598 3565
1487.65 62.9183 3557
1486.48 62.5115 3534
1494.93 62.5115 3534
1503.38 62.5115 3534
1499.43 61.9985 3505
1495.33 61.4855 3476
1503.65 61.4855 3476
1502.39 61.0964 3454
1510.65 61.0964 3454
1525.06 61.344 3468
1536.89 61.4855 3476
1545.21 61.4855 3476
1553.52 61.4855 3476
1561.83 61.4855 3476
1553.88 60.8487 3440
1562.11 60.8487 3440
1570.33 60.8487 3440
1584.98 61.0964 3454
1593.24 61.0964 3454
1601.5 61.0964 3454
1609.76 61.0964 3454
1618.02 61.0964 3454
1643.23 61.7332 3490
1651.58 61.7332 3490
1659.92 61.7332 3490
2010.89 62.2638 3520
2027.34 62.5115 3534
2035.79 62.5115 3534
2044.24 62.5115 3534
2061.4 62.7768 3549
2069.89 62.7768 3549
2078.37 62.7768 3549
2086.86 62.7768 3549
2102.9 61.9985 3505
2111.28 61.9985 3505
2119.66 61.9985 3505
2128.04 61.9985 3505
2136.42 61.9985 3505
2187.65 62.2638 3520
2196.07 62.2638 3520
2218.27 62.653 3542
2226.74 62.653 3542
2244.67 62.9183 3557
2277.25 63.5905 3595
2315.73 64.4218 3642
2324.44 64.4218 3642
2338.27 64.5634 3650
2347 64.5634 3650
2355.73 64.5634 3650
2364.46 64.5634 3650
2373.19 64.5634 3650
2387.13 64.7049 3658
2417.5 65.2886 3691
2426.32 65.2886 3691
2435.15 65.2886 3691
2443.97 65.2886 3691
2480.05 66.0138 3732
2488.97 66.0138 3732
2497.9 66.0138 3732
2506.82 66.0138 3732
2515.74 66.0138 3732
2513.84 65.7308 3716
1897.35 49.2627 2785
1904.01 49.2627 2785
1927.14 49.6872 2809
1933.85 49.6872 2809
1943.33 49.758 2813
1950.06 49.758 2813
1956.79 49.758 2813
1960.72 49.6872 2809
1967.44 49.6872 2809
1970.64 49.5988 2804
1973.82 49.5104 2799
1984.05 49.5988 2804
1994.31 49.6872 2809
2001.02 49.6872 2809
2007.74 49.6872 2809
2014.46 49.6872 2809
2021.18 49.6872 2809
2024.28 49.5988 2804
2030.99 49.5988 2804
2041.33 49.6872 2809
2050.96 49.758 2813
2057.69 49.758 2813
2064.41 49.758 2813
2078.5 49.9349 2823
2088.95 50.0233 2828
2095.71 50.0233 2828
2102.47 50.0233 2828
2119.68 50.271 2842
2130.21 50.3594 2847
2137.02 50.3594 2847
2143.83 50.3594 2847
2168.77 50.7839 2871
2183.21 50.9608 2881
2197.7 51.1377 2891
2204.62 51.1377 2891
2211.53 51.1377 2891
-2488.01 66.7395 3323
-2490.51 67.0206 3337
-2482.53 67.0206 3337
-2484.19 67.2817 3350
-2506.49 68.1052 3391
-2498.38 68.1052 3391
-2505.69 68.5269 3412
-2497.53 68.5269 3412
-2489.38 68.5269 3412
-2481.22 68.5269 3412
-2462.91 68.2458 3398
-2459.84 68.3864 3405
-2451.7 68.3864 3405
-2448.58 68.5269 3412
-2440.42 68.5269 3412
-2437.25 68.6675 3419
-2429.08 68.6675 3419
-2420.9 68.6675 3419
-2402.84 68.3864 3405
-2379.93 67.9646 3384
-2348.01 67.2817 3350
-2340 67.2817 3350
-2309.02 66.619 3317
-2301.08 66.619 3317
-2293.15 66.619 3317
-2285.22 66.619 3317
-2263.56 66.2173 3297
-2255.67 66.2173 3297
-2247.79 66.2173 3297
-2239.91 66.2173 3297
-2232.02 66.2173 3297
-2241.68 66.7395 3323
-2247.17 67.1411 3343
-2239.18 67.1411 3343
-2231.19 67.1411 3343
-2223.19 67.1411 3343
-2215.2 67.1411 3343
-2207.2 67.1411 3343
-2186.05 66.7395 3323
-2178.11 66.7395 3323
-2196.28 67.5428 3363
-2233.79 68.9487 3433
-2225.58 68.9487 3433
-2230.93 69.3705 3454
-2222.67 69.3705 3454
-2214.41 69.3705 3454
-2206.15 69.3705 3454
-2193.44 69.2299 3447
-2189.64 69.3705 3454
-2181.38 69.3705 3454
-2173.12 69.3705 3454
-2164.86 69.3705 3454
-2156.6 69.3705 3454
-2148.34 69.3705 3454
-2140.08 69.3705 3454
-2127.5 69.2299 3447
-2119.26 69.2299 3447
-2146.53 70.3948 3505
-2138.15 70.3948 3505
-2152.25 71.1379 3542
-2143.78 71.1379 3542
-2135.31 71.1379 3542
-2122.04 70.9772 3534
-2113.59 70.9772 3534
-2109.9 71.1379 3542
-2101.43 71.1379 3542
-2092.96 71.1379 3542
-2098.03 71.5998 3565
-2089.5 71.5998 3565
-2080.98 71.5998 3565
-2072.45 71.5998 3565
-2063.93 71.5998 3565
-2037.53 70.9772 3534
-2029.08 70.9772 3534
-2004.05 70.3948 3505
-1995.67 70.3948 3505
-1938.52 68.6675 3419
-1930.35 68.6675 3419
-1890.69 67.5428 3363
-1882.65 67.5428 3363
-1867.36 67.2817 3350
-1859.35 67.2817 3350
-1822.05 66.2173 3297
-1807.01 65.9562 3284
-1792.03 65.6951 3271
-1784.21 65.6951 3271
-1776.39 65.6951 3271
-1761.54 65.434 3258
-1743.52 65.0524 3239
-1732.56 64.9319 3233
-1724.83 64.9319 3233
-1713.91 64.8114 3227
-1706.19 64.8114 3227
-1698.48 64.8114 3227
-1690.76 64.8114 3227
-1683.04 64.8114 3227
-1675.33 64.8114 3227
-1667.61 64.8114 3227
-1659.89 64.8114 3227
-1652.18 64.8114 3227
-1644.46 64.8114 3227
-1636.74 64.8114 3227
-1629.03 64.8114 3227
-1618.3 64.6909 3221
-1610.59 64.6909 3221
-1602.89 64.6909 3221
-1595.19 64.6909 3221
-1587.49 64.6909 3221
-1579.78 64.6909 3221
-1575.01 64.8114 3227
-1570.21 64.9319 3233
-1562.48 64.9319 3233
-1557.63 65.0524 3239
-1553.23 65.193 3246
-1545.47 65.193 3246
-1537.71 65.193 3246
-1526.65 65.0524 3239
-1518.9 65.0524 3239
-1514.42 65.193 3246
-1506.66 65.193 3246
-1501.67 65.3135 3252
-1505.84 65.8357 3278
-1498 65.8357 3278
-1490.16 65.8357 3278
-1487.75 66.0767 3290
-1483.03 66.2173 3297
-1484.09 66.619 3317
-1476.16 66.619 3317
-1468.23 66.619 3317
-1469.1 67.0206 3337
-1461.12 67.0206 3337
-1453.14 67.0206 3337
-1439.1 66.7395 3323
-1428.57 66.619 3317
-1420.64 66.619 3317
-1404.19 66.2173 3297
-1396.3 66.2173 3297
-1393.89 66.4784 3310
-1385.98 66.4784 3310
-1378.06 66.4784 3310
-1367.25 66.3378 3303
-1354 66.0767 3290
-718.54 36.3321 1809
-715.004 36.3723 1811
-710.673 36.3723 1811
-706.343 36.3723 1811
-702.012 36.3723 1811
-697.681 36.3723 1811
-693.351 36.3723 1811
-689.02 36.3723 1811
-683.177 36.292 1807
-678.856 36.292 1807
-673.415 36.2317 1804
-668.359 36.1915 1802
-663.313 36.1514 1800
-659.009 36.1514 1800
-653.25 36.071 1796
-648.232 36.0309 1794
-643.224 35.9907 1792
-638.939 35.9907 1792
-633.946 35.9505 1790
-628.962 35.9104 1788
-623.288 35.83 1784
-619.022 35.83 1784
-614.067 35.7899 1782
-608.095 35.6894 1777
-602.486 35.6091 1773
-594.535 35.3882 1762
-590.321 35.3882 1762
-584.777 35.3078 1758
-578.262 35.1673 1751
-570.468 34.9463 1740
-566.307 34.9463 1740
-560.208 34.8258 1734
-554.458 34.7254 1729
-548.414 34.6049 1723
-544.293 34.6049 1723
-539.233 34.5447 1720
-533.875 34.4643 1716
-528.846 34.4041 1713
-524.749 34.4041 1713
-519.437 34.3237 1709
-515.049 34.3036 1708
-510.366 34.2635 1706
-506.287 34.2635 1706
-501.618 34.2233 1704
-496.96 34.1831 1702
-492.6 34.1631 1701
-487.958 34.1229 1699
-483.895 34.1229 1699
-479.267 34.0827 1697
-474.649 34.0425 1695
-470.318 34.0225 1694
-466.268 34.0225 1694
-462.217 34.0225 1694
-457.625 33.9823 1692
-453.579 33.9823 1692
-449.533 33.9823 1692
-445.487 33.9823 1692
-441.441 33.9823 1692
-436.878 33.9421 1690
-432.836 33.9421 1690
-428.795 33.9421 1690
-424.502 33.922 1689
-420.463 33.922 1689
-416.424 33.922 1689
-412.386 33.922 1689
-407.863 33.8819 1687
-403.829 33.8819 1687
-399.795 33.8819 1687
-394.822 33.8015 1683
-390.566 33.7815 1682
-386.543 33.7815 1682
-382.521 33.7815 1682
-378.049 33.7413 1680
-373.364 33.681 1677
-369.353 33.681 1677
-365.343 33.681 1677
-360.902 33.6409 1675
-356.471 33.6007 1673
-352.47 33.6007 1673
-348.469 33.6007 1673
-344.469 33.6007 1673
-340.264 33.5806 1672
-336.266 33.5806 1672
-331.473 33.5003 1668
-327.484 33.5003 1668
-323.302 33.4802 1667
-318.932 33.44 1665
-314.572 33.3999 1663
-310.596 33.3999 1663
-306.619 33.3999 1663
-303.37 33.4802 1667
-299.563 33.5003 1668
-296.284 33.5806 1672
-292.285 33.5806 1672
-288.459 33.6007 1673
-285.139 33.681 1677
-281.296 33.7011 1678
-277.284 33.7011 1678
-274.085 33.8015 1683
-270.061 33.8015 1683
-266.352 33.8417 1685
-262.323 33.8417 1685
-258.6 33.8819 1687
-254.868 33.922 1689
-250.978 33.9421 1690
-246.936 33.9421 1690
-243.47 34.0225 1694
-239.56 34.0425 1695
-235.785 34.0827 1697
-231.727 34.0827 1697
-227.937 34.1229 1699
-224.138 34.1631 1701
-220.2 34.1831 1702
-216.13 34.1831 1702
-212.06 34.1831 1702
-208.234 34.2233 1704
-204.159 34.2233 1704
-200.085 34.2233 1704
-196.01 34.2233 1704
-192.16 34.2635 1706
-188.411 34.3237 1709
-184.54 34.3639 1711
-180.449 34.3639 1711
-176.564 34.4041 1713
-172.769 34.4643 1716
-168.862 34.5045 1718
-164.754 34.5045 1718
-160.833 34.5447 1720
-156.902 34.5848 1722
-153.05 34.6451 1725
-148.925 34.6451 1725
-144.8 34.6451 1725
-141.002 34.7254 1729
-137.105 34.7857 1732
-132.963 34.7857 1732
-128.821 34.7857 1732
-124.823 34.8258 1734
-120.816 34.866 1736
-116.665 34.866 1736
-112.967 35.0066 1743
-108.924 35.0468 1745
-104.991 35.1271 1749
-100.809 35.1271 1749
-96.6264 35.1271 1749
-92.5497 35.1673 1751
-88.413 35.1873 1752
-84.2234 35.1873 1752
-80.1252 35.2275 1754
-75.9309 35.2275 1754
-71.9001 35.3078 1758
-67.6962 35.3078 1758
-63.4923 35.3078 1758
-59.457 35.4083 1763
-55.2411 35.4083 1763
-51.0253 35.4083 1763
-46.9156 35.4886 1767
-42.6902 35.4886 1767
-38.4647 35.4886 1767
-34.2393 35.4886 1767
-30.1498 35.6493 1775
-25.9052 35.6493 1775
-21.6606 35.6493 1775
-17.4161 35.6493 1775
-13.2531 35.8702 1786
-8.98227 35.8702 1786
-4.7114 35.8702 1786
-0.866275 70.5354 3512
7.53198 70.5354 3512
15.9302 70.5354 3512
24.3285 70.5354 3512
32.3913 69.8123 3476
40.1999 68.9487 3433
48.4093 68.9487 3433
56.6186 68.9487 3433
64.2992 68.3864 3405
72.8884 68.8081 3426
81.081 68.8081 3426
89.2736 68.8081 3426
97.4662 68.8081 3426
105.227 68.5269 3412
112.921 68.2458 3398
122.293 68.9487 3433
130.503 68.9487 3433
139.278 69.2299 3447
148.12 69.5111 3461
156.396 69.5111 3461
164.672 69.5111 3461
173.698 69.8123 3476
182.743 70.0935 3490
193.115 70.8366 3527
201.549 70.8366 3527
209.983 70.8366 3527
218.417 70.8366 3527
226.851 70.8366 3527
235.286 70.8366 3527
244.756 71.1379 3542
254.871 71.5998 3565
265.612 72.2023 3595
274.209 72.2023 3595
282.805 72.2023 3595
293.348 72.6844 3619
302.002 72.6844 3619
310.656 72.6844 3619
321.339 73.1463 3642
330.048 73.1463 3642
338.758 73.1463 3642
347.467 73.1463 3642
356.176 73.1463 3642
362.581 72.6844 3619
371.235 72.6844 3619
379.889 72.6844 3619
387.684 72.5237 3611
393.795 72.0617 3588
402.375 72.0617 3588
407.404 71.4391 3557
414.975 71.2785 3549
420.836 70.8366 3527
429.27 70.8366 3527
437.705 70.8366 3527
446.139 70.8366 3527
453.671 70.696 3520
460.119 70.3948 3505
468.5 70.3948 3505
476.882 70.3948 3505
485.263 70.3948 3505
492.518 70.2341 3497
500.881 70.2341 3497
507.204 69.9529 3483
511.241 69.3705 3454
514.236 68.6675 3419
522.412 68.6675 3419
527.329 68.2458 3398
534.352 68.1052 3391
540.221 67.824 3377
547.16 67.6834 3370
555.218 67.6834 3370
563.277 67.6834 3370
572.523 67.824 3377
580.598 67.824 3377
588.673 67.824 3377
593.215 67.4223 3357
603.571 67.6834 3370
615.441 68.1052 3391
627.411 68.5269 3412
635.57 68.5269 3412
645.05 68.6675 3419
654.563 68.8081 3426
666.818 69.2299 3447
675.061 69.2299 3447
687.467 69.6517 3468
695.76 69.6517 3468
704.053 69.6517 3468
712.346 69.6517 3468
717.73 69.3705 3454
724.518 69.2299 3447
732.761 69.2299 3447
741.004 69.2299 3447
749.247 69.2299 3447
757.489 69.2299 3447
765.732 69.2299 3447
769.26 68.8081 3426
777.452 68.8081 3426
784.04 68.6675 3419
785.728 68.1052 3391
793.837 68.1052 3391
801.946 68.1052 3391
813.399 68.3864 3405
821.541 68.3864 3405
829.684 68.3864 3405
837.826 68.3864 3405
842.49 68.1052 3391
850.599 68.1052 3391
867.571 68.8081 3426
875.764 68.8081 3426
887.568 69.0893 3440
908.815 70.0935 3490
921.102 70.3948 3505
929.484 70.3948 3505
945.625 70.9772 3534
954.076 70.9772 3534
962.527 70.9772 3534
970.978 70.9772 3534
979.429 70.9772 3534
1000.74 71.9011 3580
1015.78 72.363 3603
1024.4 72.363 3603
1048.78 73.4676 3658
1064.76 73.9697 3683
1075.9 74.1304 3691
1084.72 74.1304 3691
1105.7 74.9539 3732
1127.17 75.7974 3774
1149.44 76.6811 3818
1158.57 76.6811 3818
1167.7 76.6811 3818
1176.83 76.6811 3818
1188.44 76.8418 3826
1197.59 76.8418 3826
1206.74 76.8418 3826
1213.35 76.6811 3818
1227.92 77.0225 3835
1245.8 77.5648 3862
1255.04 77.5648 3862
1288.17 79.0309 3935
1297.58 79.0309 3935
1306.99 79.0309 3935
1310.04 78.6493 3916
1229.78 73.307 3650
1230.71 72.845 3627
1255.78 73.8091 3675
1264.57 73.8091 3675
1273.36 73.8091 3675
1293.31 74.4518 3707
1302.18 74.4518 3707
1311.04 74.4518 3707
1319.91 74.4518 3707
1328.77 74.4518 3707
1326.09 73.8091 3675
1334.88 73.8091 3675
1343.66 73.8091 3675
1346.2 73.4676 3658
1373.09 74.4518 3707
1381.96 74.4518 3707
1390.82 74.4518 3707
1399.69 74.4518 3707
1402.47 74.1304 3691
1411.3 74.1304 3691
1417.05 73.9697 3683
1422.76 73.8091 3675
1431.54 73.8091 3675
1440.33 73.8091 3675
1449.12 73.8091 3675
1470.6 74.4518 3707
1479.47 74.4518 3707
1488.33 74.4518 3707
1497.2 74.4518 3707
1482.9 73.307 3650
1482.23 72.845 3627
1477.75 72.2023 3595
1486.35 72.2023 3595
1482.47 71.5998 3565
1487.65 71.4391 3557
1486.48 70.9772 3534
1494.93 70.9772 3534
1503.38 70.9772 3534
1499.43 70.3948 3505
1495.33 69.8123 3476
1503.65 69.8123 3476
1502.39 69.3705 3454
1510.65 69.3705 3454
1525.06 69.6517 3468
1536.89 69.8123 3476
1545.21 69.8123 3476
1553.52 69.8123 3476
1561.83 69.8123 3476
1560.21 69.3705 3454
1568.46 69.3705 3454
1576.72 69.3705 3454
1595.08 69.8123 3476
1603.39 69.8123 3476
1618.19 70.0935 3490
1626.54 70.0935 3490
1634.89 70.0935 3490
1657.36 70.696 3520
1665.77 70.696 3520
1674.19 70.696 3520
1865.81 69.3705 3454
1874.07 69.3705 3454
1882.33 69.3705 3454
1890.59 69.3705 3454
1898.85 69.3705 3454
1931.45 69.9529 3483
1939.78 69.9529 3483
1948.11 69.9529 3483
1956.43 69.9529 3483
1968.71 70.0935 3490
1977.06 70.0935 3490
1997.92 70.5354 3512
2010.89 70.696 3520
2027.34 70.9772 3534
2044.43 71.2785 3549
2052.91 71.2785 3549
2061.4 71.2785 3549
2074.55 71.4391 3557
2083.06 71.4391 3557
2091.57 71.4391 3557
2104.79 71.5998 3565
2113.32 71.5998 3565
2121.84 71.5998 3565
2130.37 71.5998 3565
2134.09 71.4391 3557
2120.31 70.696 3520
2128.73 70.696 3520
2128.04 70.3948 3505
2149.83 70.8366 3527
2181.52 71.5998 3565
2190.04 71.5998 3565
2198.57 71.5998 3565
2179.23 70.696 3520
2192 70.8366 3527
2200.44 70.8366 3527
2218.27 71.1379 3542
2226.74 71.1379 3542
2244.67 71.4391 3557
2277.25 72.2023 3595
2315.73 73.1463 3642
2324.44 73.1463 3642
2338.27 73.307 3650
2347 73.307 3650
2355.73 73.307 3650
2364.46 73.307 3650
2373.19 73.307 3650
2387.13 73.4676 3658
2417.5 74.1304 3691
2426.32 74.1304 3691
2435.15 74.1304 3691
2443.97 74.1304 3691
2480.05 74.9539 3732
2488.97 74.9539 3732
2497.9 74.9539 3732
2506.82 74.9539 3732
2515.74 74.9539 3732
2513.84 74.6325 3716
2516.62 74.4518 3707
1897.35 55.9342 2785
1904.01 55.9342 2785
1929.88 56.4966 2813
1953.13 56.9786 2837
1959.91 56.9786 2837
1966.7 56.9786 2837
1967.22 56.7978 2828
1970.49 56.6974 2823
1977.24 56.6974 2823
1976.97 56.4966 2813
1980.87 56.4162 2809
1987.59 56.4162 2809
1994.31 56.4162 2809
2001.02 56.4162 2809
2007.74 56.4162 2809
2014.46 56.4162 2809
2021.18 56.4162 2809
2027.89 56.4162 2809
2030.99 56.3158 2804
2041.33 56.4162 2809
2050.96 56.4966 2813
2057.69 56.4966 2813
2064.41 56.4966 2813
2078.5 56.6974 2823
2088.95 56.7978 2828
2095.71 56.7978 2828
2102.47 56.7978 2828
2119.68 57.079 2842
2130.21 57.1794 2847
2137.02 57.1794 2847
2143.83 57.1794 2847
2168.77 57.6614 2871
2183.21 57.8623 2881
2197.7 58.0631 2891
2204.62 58.0631 2891
2211.53 58.0631 2891
-2478.28 74.4075 3310
-2470.36 74.4075 3310
-2462.45 74.4075 3310
-2464.17 74.6997 3323
-2466.57 75.0145 3337
-2488.07 75.9136 3377
-2479.99 75.9136 3377
-2482.16 76.2283 3391
-2474.05 76.2283 3391
-2465.94 76.2283 3391
-2442.61 75.7563 3370
-2444.67 76.071 3384
-2446.66 76.3857 3398
-2438.53 76.3857 3398
-2430.41 76.3857 3398
-2422.28 76.3857 3398
-2404.21 76.071 3384
-2396.12 76.071 3384
-2388.02 76.071 3384
-2351.1 75.1493 3343
-2315.07 74.2501 3303
-2307.17 74.2501 3303
-2281.87 73.6882 3278
-2274.03 73.6882 3278
-2261.35 73.5308 3271
-2253.53 73.5308 3271
-2236.78 73.2386 3258
-2228.99 73.2386 3258
-2221.2 73.2386 3258
-2218.17 73.3959 3265
-2210.36 73.3959 3265
-2206.6 73.5308 3271
-2220.29 74.2501 3303
-2212.39 74.2501 3303
-2204.49 74.2501 3303
-2196.59 74.2501 3303
-2180.08 73.9579 3290
-2172.21 73.9579 3290
-2164.34 73.9579 3290
-2144.02 73.5308 3271
-2140.77 73.6882 3278
-2149.2 74.2501 3303
-2141.3 74.2501 3303
-2146.32 74.6997 3323
-2138.37 74.6997 3323
-2130.43 74.6997 3323
-2122.48 74.6997 3323
-2118.99 74.8571 3330
-2115.46 75.0145 3337
-2107.48 75.0145 3337
-2099.5 75.0145 3337
-2091.53 75.0145 3337
-2083.55 75.0145 3337
-2075.57 75.0145 3337
-2063.25 74.8571 3330
-2055.29 74.8571 3330
-2022.73 73.9579 3290
-2089.58 76.7004 3412
-2081.42 76.7004 3412
-2090.27 77.3298 3440
-2082.05 77.3298 3440
-2073.82 77.3298 3440
-2065.6 77.3298 3440
-2057.37 77.3298 3440
-2057.48 77.6446 3454
-2049.22 77.6446 3454
-2040.96 77.6446 3454
-2040.94 77.9593 3468
-2049.65 78.6112 3497
-2041.29 78.6112 3497
-2032.92 78.6112 3497
-2024.56 78.6112 3497
-2016.2 78.6112 3497
-2007.84 78.6112 3497
-1995.47 78.4538 3490
-1987.12 78.4538 3490
-1888.06 74.8571 3330
-1884.05 75.0145 3337
-1876.07 75.0145 3337
-1868.09 75.0145 3337
-1848.96 74.5649 3317
-1819.39 73.6882 3278
-1811.55 73.6882 3278
-1792.7 73.2386 3258
-1784.91 73.2386 3258
-1777.12 73.2386 3258
-1769.33 73.2386 3258
-1755.05 72.9688 3246
-1743.52 72.8114 3239
-1729.34 72.5417 3227
-1721.63 72.5417 3227
-1710.72 72.4068 3221
-1703.02 72.4068 3221
-1698.48 72.5417 3227
-1690.76 72.5417 3227
-1683.04 72.5417 3227
-1675.33 72.5417 3227
-1664.51 72.4068 3221
-1656.81 72.4068 3221
-1649.11 72.4068 3221
-1641.4 72.4068 3221
-1633.7 72.4068 3221
-1626 72.4068 3221
-1614.78 72.2495 3214
-1607.09 72.2495 3214
-1599.41 72.2495 3214
-1591.72 72.2495 3214
-1584.04 72.2495 3214
-1576.35 72.2495 3214
-1572.08 72.4068 3221
-1567.29 72.5417 3227
-1559.58 72.5417 3227
-1554.75 72.6766 3233
-1547.01 72.6766 3233
-1539.28 72.6766 3233
-1531.55 72.6766 3233
-1523.82 72.6766 3233
-1516.09 72.6766 3233
-1511.16 72.8114 3239
-1503.41 72.8114 3239
-1498.9 72.9688 3246
-1496.65 73.2386 3258
-1494.8 73.5308 3271
-1486.98 73.5308 3271
-1482.32 73.6882 3278
-1474.48 73.6882 3278
-1475.14 74.1153 3297
-1467.26 74.1153 3297
-1462.03 74.2501 3303
-1454.13 74.2501 3303
-1446.24 74.2501 3303
-1438.34 74.2501 3303
-1430.44 74.2501 3303
-1419.96 74.1153 3297
-1412.07 74.1153 3297
-1401.21 73.9579 3290
-1393.34 73.9579 3290
-1385.47 73.9579 3290
-1377.6 73.9579 3290
-1369.74 73.9579 3290
-1361.87 73.9579 3290
-1349.06 73.6882 3278
-718.54 40.6656 1809
-715.004 40.7106 1811
-710.673 40.7106 1811
-706.343 40.7106 1811
-702.012 40.7106 1811
-697.681 40.7106 1811
-693.351 40.7106 1811
-688.259 40.6656 1809
-682.421 40.5757 1805
-678.105 40.5757 1805
-673.415 40.5532 1804
-668.359 40.5083 1802
-663.313 40.4633 1800
-659.009 40.4633 1800
-653.25 40.3734 1796
-647.51 40.2835 1792
-642.506 40.2385 1790
-638.226 40.2385 1790
-633.237 40.1935 1788
-628.962 40.1935 1788
-623.288 40.1036 1784
-619.022 40.1036 1784
-614.067 40.0587 1782
-608.095 39.9463 1777
-602.486 39.8563 1773
-594.535 39.6091 1762
-590.321 39.6091 1762
-584.777 39.5191 1758
-578.262 39.3618 1751
-570.468 39.1145 1740
-566.307 39.1145 1740
-560.208 38.9796 1734
-554.458 38.8672 1729
-548.414 38.7324 1723
-544.293 38.7324 1723
-539.233 38.6649 1720
-533.875 38.575 1716
-529.463 38.5525 1715
-525.362 38.5525 1715
-520.045 38.4626 1711
-515.35 38.4176 1709
-510.965 38.3952 1708
-506.88 38.3952 1708
-502.207 38.3502 1706
-497.544 38.3053 1704
-492.89 38.2603 1702
-488.532 38.2378 1701
-484.465 38.2378 1701
-479.267 38.1479 1697
-474.649 38.1029 1695
-470.318 38.0805 1694
-466.268 38.0805 1694
-462.217 38.0805 1694
-458.166 38.0805 1694
-453.579 38.0355 1692
-449.533 38.0355 1692
-445.487 38.0355 1692
-441.441 38.0355 1692
-436.878 37.9905 1690
-432.836 37.9905 1690
-428.795 37.9905 1690
-424.502 37.9681 1689
-420.463 37.9681 1689
-416.424 37.9681 1689
-412.386 37.9681 1689
-407.863 37.9231 1687
-403.35 37.8781 1685
-399.321 37.8781 1685
-394.822 37.8332 1683
-390.566 37.8107 1682
-386.084 37.7657 1680
-382.066 37.7657 1680
-377.599 37.7208 1678
-373.364 37.6983 1677
-369.353 37.6983 1677
-365.343 37.6983 1677
-360.471 37.6084 1673
-356.471 37.6084 1673
-352.259 37.5859 1672
-348.261 37.5859 1672
-344.263 37.5859 1672
-339.857 37.5409 1670
-335.864 37.5409 1670
-331.473 37.496 1668
-327.484 37.496 1668
-322.914 37.4285 1665
-318.549 37.3836 1663
-314.572 37.3836 1663
-310.596 37.3836 1663
-306.619 37.3836 1663
-303.37 37.4735 1667
-299.563 37.496 1668
-296.284 37.5859 1672
-292.285 37.5859 1672
-288.459 37.6084 1673
-285.139 37.6983 1677
-281.129 37.6983 1677
-277.118 37.6983 1677
-274.085 37.8332 1683
-270.061 37.8332 1683
-266.352 37.8781 1685
-262.323 37.8781 1685
-258.6 37.9231 1687
-254.868 37.9681 1689
-251.275 38.0355 1692
-247.229 38.0355 1692
-243.47 38.0805 1694
-239.56 38.1029 1695
-235.785 38.1479 1697
-231.727 38.1479 1697
-227.937 38.1929 1699
-224.138 38.2378 1701
-220.2 38.2603 1702
-216.13 38.2603 1702
-212.06 38.2603 1702
-208.234 38.3053 1704
-204.159 38.3053 1704
-200.085 38.3053 1704
-196.01 38.3053 1704
-192.16 38.3502 1706
-188.301 38.3952 1708
-184.325 38.4176 1709
-180.238 38.4176 1709
-176.564 38.5076 1713
-172.769 38.575 1716
-168.862 38.62 1718
-164.754 38.62 1718
-160.833 38.6649 1720
-156.902 38.7099 1722
-152.873 38.7324 1723
-148.753 38.7324 1723
-144.8 38.7773 1725
-140.839 38.8223 1727
-137.025 38.9122 1731
-132.886 38.9122 1731
-128.821 38.9347 1732
-124.823 38.9796 1734
-120.816 39.0246 1736
-116.665 39.0246 1736
-112.967 39.182 1743
-108.924 39.2269 1745
-104.871 39.2719 1747
-100.693 39.2719 1747
-96.6264 39.3168 1749
-92.5497 39.3618 1751
-88.3625 39.3618 1751
-84.1753 39.3618 1751
-80.0339 39.3843 1752
-75.8443 39.3843 1752
-71.8183 39.4742 1756
-67.6192 39.4742 1756
-63.4201 39.4742 1756
-59.2884 39.5191 1758
-55.2098 39.6091 1762
-50.9963 39.6091 1762
-46.7829 39.6091 1762
-42.5935 39.6315 1763
-38.4647 39.7215 1767
-34.2393 39.7215 1767
-30.1498 39.9013 1775
-25.9052 39.9013 1775
-21.6606 39.9013 1775
-17.4161 39.9013 1775
-13.2531 40.1486 1786
-17.8137 79.6228 3542
-9.34367 79.6228 3542
-0.873675 79.6228 3542
7.59632 79.6228 3542
16.0663 79.6228 3542
24.3285 78.9484 3512
32.3913 78.1391 3476
40.1999 77.1725 3433
48.4093 77.1725 3433
56.6186 77.1725 3433
64.4314 76.7004 3412
72.5905 76.7004 3412
80.7496 76.7004 3412
88.9088 76.7004 3412
96.6696 76.3857 3398
103.932 75.7563 3370
111.99 75.7563 3370
120.548 76.071 3384
128.64 76.071 3384
136.732 76.071 3384
146.622 77.0151 3426
154.814 77.0151 3426
163.007 77.0151 3426
171.2 77.0151 3426
180.858 77.6446 3454
189.501 77.8019 3461
197.778 77.8019 3461
207.78 78.4538 3490
216.559 78.6112 3497
224.922 78.6112 3497
233.284 78.6112 3497
242.683 78.9484 3512
252.654 79.4429 3534
263.396 80.1398 3565
271.921 80.1398 3565
280.996 80.2972 3572
290.186 80.477 3580
299.999 80.8142 3595
308.596 80.8142 3595
319.31 81.3537 3619
327.964 81.3537 3619
336.618 81.3537 3619
345.272 81.3537 3619
353.926 81.3537 3619
361.779 81.1739 3611
370.414 81.1739 3611
377.37 80.8142 3595
384.356 80.477 3580
390.392 79.96 3557
398.898 79.96 3557
406.488 79.7801 3549
411.584 79.1282 3520
419.047 78.9484 3512
428.418 79.1282 3520
436.836 79.1282 3520
445.253 79.1282 3520
450.706 78.6112 3497
458.15 78.4538 3490
466.495 78.4538 3490
473.889 78.2965 3483
482.218 78.2965 3483
490.546 78.2965 3483
498.875 78.2965 3483
506.185 78.1391 3476
510.205 77.4872 3447
513.183 76.7004 3412
521.342 76.7004 3412
526.243 76.2283 3391
532.145 75.9136 3377
539.101 75.7563 3370
543.913 75.3067 3350
551.923 75.3067 3350
559.934 75.3067 3350
569.132 75.464 3357
577.159 75.464 3357
585.187 75.464 3357
591.978 75.3067 3350
602.317 75.5989 3363
611.629 75.7563 3370
622.262 76.071 3384
630.355 76.071 3384
639.767 76.2283 3391
650.551 76.5431 3405
661.402 76.8578 3419
669.578 76.8578 3419
683.304 77.4872 3447
691.547 77.4872 3447
699.79 77.4872 3447
706.595 77.3298 3440
714.821 77.3298 3440
721.575 77.1725 3433
729.785 77.1725 3433
737.994 77.1725 3433
746.203 77.1725 3433
752.875 77.0151 3426
761.067 77.0151 3426
769.26 77.0151 3426
775.864 76.8578 3419
784.04 76.8578 3419
785.728 76.2283 3391
793.837 76.2283 3391
801.946 76.2283 3391
813.399 76.5431 3405
821.541 76.5431 3405
829.684 76.5431 3405
837.826 76.5431 3405
842.49 76.2283 3391
850.599 76.2283 3391
867.571 77.0151 3426
875.764 77.0151 3426
887.568 77.3298 3440
899.44 77.6446 3454
917.16 78.4538 3490
925.506 78.4538 3490
935.725 78.6112 3497
944.087 78.6112 3497
952.45 78.6112 3497
960.812 78.6112 3497
967.234 78.4538 3490
983.966 79.1282 3520
1009.3 80.477 3580
1017.86 80.477 3580
1026.42 80.477 3580
1041.63 80.994 3603
1050.25 80.994 3603
1058.86 80.994 3603
1067.48 80.994 3603
1102.38 82.9722 3691
1111.2 82.9722 3691
1120.03 82.9722 3691
1128.86 82.9722 3691
1145.39 83.5342 3716
1154.27 83.5342 3716
1163.16 83.5342 3716
1172.05 83.5342 3716
1175.53 83.1521 3699
1176.69 82.6126 3675
1195.8 83.3319 3707
1204.67 83.3319 3707
1213.53 83.3319 3707
1222.4 83.3319 3707
1231.26 83.3319 3707
1229.42 82.6126 3675
1229.78 82.0506 3650
1230.71 81.5335 3627
1239.38 81.5335 3627
1245.3 81.3537 3619
1248.41 80.994 3603
1262.61 81.3537 3619
1271.26 81.3537 3619
1279.92 81.3537 3619
1288.57 81.3537 3619
1297.23 81.3537 3619
1300.11 80.994 3603
1308.72 80.994 3603
1317.34 80.994 3603
1328.9 81.1739 3611
1346.42 81.7134 3635
1355.12 81.7134 3635
1363.81 81.7134 3635
1378.16 82.0506 3650
1386.89 82.0506 3650
1395.62 82.0506 3650
1401.27 81.8707 3642
1409.98 81.8707 3642
1418.69 81.8707 3642
1427.4 81.8707 3642
1439.26 82.0506 3650
1447.99 82.0506 3650
1456.72 82.0506 3650
1465.45 82.0506 3650
1474.18 82.0506 3650
1473.56 81.5335 3627
1469.15 80.8142 3595
1465.42 80.1398 3565
1473.94 80.1398 3565
1469.58 79.4429 3534
1475.1 79.2856 3527
1477.23 78.9484 3512
1485.63 78.9484 3512
1491.05 78.791 3505
1490.02 78.2965 3483
1485.87 77.6446 3454
1494.13 77.6446 3454
1496.3 77.3298 3440
1504.52 77.3298 3440
1518.91 77.6446 3454
1533.36 77.9593 3468
1541.65 77.9593 3468
1549.94 77.9593 3468
1558.24 77.9593 3468
1560.21 77.6446 3454
1568.46 77.6446 3454
1576.72 77.6446 3454
1595.08 78.1391 3476
1603.39 78.1391 3476
1618.19 78.4538 3490
1626.54 78.4538 3490
1634.89 78.4538 3490
1657.36 79.1282 3520
1665.77 79.1282 3520
1674.19 79.1282 3520
1865.81 77.6446 3454
1874.07 77.6446 3454
1882.33 77.6446 3454
1890.59 77.6446 3454
1898.85 77.6446 3454
1931.45 78.2965 3483
1939.78 78.2965 3483
1948.11 78.2965 3483
1956.43 78.2965 3483
1968.71 78.4538 3490
1977.06 78.4538 3490
1997.92 78.9484 3512
2010.89 79.1282 3520
2027.34 79.4429 3534
2044.43 79.7801 3549
2052.91 79.7801 3549
2061.4 79.7801 3549
2074.55 79.96 3557
2083.06 79.96 3557
2091.57 79.96 3557
2104.79 80.1398 3565
2113.32 80.1398 3565
2121.84 80.1398 3565
2130.37 80.1398 3565
2134.09 79.96 3557
2120.31 79.1282 3520
2128.73 79.1282 3520
2128.04 78.791 3505
2149.83 79.2856 3527
2181.52 80.1398 3565
2190.04 80.1398 3565
2198.57 80.1398 3565
2179.23 79.1282 3520
2192 79.2856 3527
2200.44 79.2856 3527
2218.27 79.6228 3542
2226.74 79.6228 3542
2244.67 79.96 3557
2272.81 80.6568 3588
2311.28 81.7134 3635
2319.97 81.7134 3635
2333.15 81.8707 3642
2341.86 81.8707 3642
2350.57 81.8707 3642
2359.27 81.8707 3642
2373.19 82.0506 3650
2387.13 82.2304 3658
2412.26 82.7924 3683
2421.06 82.7924 3683
2435.15 82.9722 3691
2443.97 82.9722 3691
2480.05 83.8939 3732
2488.97 83.8939 3732
2497.9 83.8939 3732
2506.82 83.8939 3732
2515.74 83.8939 3732
2513.84 83.5342 3716
2516.62 83.3319 3707
1929.88 63.2351 2813
1953.13 63.7746 2837
1959.91 63.7746 2837
1966.7 63.7746 2837
1967.22 63.5723 2828
1970.49 63.4599 2823
1977.24 63.4599 2823
1976.97 63.2351 2813
1980.87 63.1452 2809
1987.59 63.1452 2809
1994.31 63.1452 2809
2001.02 63.1452 2809
2007.74 63.1452 2809
2014.46 63.1452 2809
2021.18 63.1452 2809
2027.89 63.1452 2809
2027.37 62.9204 2799
2037.69 63.0328 2804
2048.04 63.1452 2809
2057.69 63.2351 2813
2064.41 63.2351 2813
2078.5 63.4599 2823
2085.25 63.4599 2823
2092 63.4599 2823
2098.76 63.4599 2823
2115.95 63.7746 2837
2126.47 63.887 2842
2133.27 63.887 2842
2140.07 63.887 2842
2154.42 64.1118 2852
2175.63 64.539 2871
2182.5 64.539 2871
2189.36 64.539 2871
2196.23 64.539 2871
-2463.3 81.8391 3290
-2455.44 81.8391 3290
-2447.57 81.8391 3290
-2454.53 82.3366 3310
-2446.62 82.3366 3310
-2458.59 83.0083 3337
-2450.61 83.0083 3337
-2442.64 83.0083 3337
-2434.66 83.0083 3337
-2426.68 83.0083 3337
-2408.55 82.66 3323
-2405.66 82.8341 3330
-2397.7 82.8341 3330
-2389.73 82.8341 3330
-2381.77 82.8341 3330
-2373.81 82.8341 3330
-2351.63 82.3366 3310
-2343.72 82.3366 3310
-2335.8 82.3366 3310
-2309.6 81.6899 3284
-2283.53 81.0431 3258
-2275.74 81.0431 3258
-2254.72 80.5705 3239
-2242.81 80.4212 3233
-2235.08 80.4212 3233
-2227.35 80.4212 3233
-2206.57 79.9486 3214
-2203.68 80.1227 3221
-2195.97 80.1227 3221
-2188.27 80.1227 3221
-2180.57 80.1227 3221
-2168.15 79.9486 3214
-2169.2 80.272 3227
-2165.5 80.4212 3233
-2157.77 80.4212 3233
-2158.68 80.7446 3246
-2150.92 80.7446 3246
-2143.16 80.7446 3246
-2126.85 80.4212 3233
-2119.11 80.4212 3233
-2111.38 80.4212 3233
-2107.56 80.5705 3239
-2099.81 80.5705 3239
-2096.59 80.7446 3246
-2088.82 80.7446 3246
-2081.06 80.7446 3246
-2073.3 80.7446 3246
-2061.08 80.5705 3239
-2053.34 80.5705 3239
-2045.59 80.5705 3239
-2037.85 80.5705 3239
-2030.1 80.5705 3239
-2022.36 80.5705 3239
-2014.61 80.5705 3239
-2003.15 80.4212 3233
-1995.42 80.4212 3233
-1976 79.9486 3214
-1991.59 80.8939 3252
-1983.81 80.8939 3252
-1999.13 81.8391 3290
-1991.26 81.8391 3290
-1983.39 81.8391 3290
-1975.53 81.8391 3290
-1975.43 82.1625 3303
-1979.45 82.66 3323
-1987.52 83.3316 3350
-1979.51 83.3316 3350
-2012.11 85.048 3419
-2032.65 86.2669 3468
-2024.36 86.2669 3468
-2016.06 86.2669 3468
-1971.3 84.6998 3405
-1963.16 84.6998 3405
-1955.01 84.6998 3405
-1946.87 84.6998 3405
-1922.79 84.0033 3377
-1876.72 82.3366 3310
-1868.81 82.3366 3310
-1856.96 82.1625 3303
-1849.06 82.1625 3303
-1837.81 82.0133 3297
-1808.28 81.0431 3258
-1800.49 81.0431 3258
-1789.4 80.8939 3252
-1781.62 80.8939 3252
-1773.85 80.8939 3252
-1766.07 80.8939 3252
-1755.05 80.7446 3246
-1743.52 80.5705 3239
-1729.34 80.272 3227
-1721.63 80.272 3227
-1710.72 80.1227 3221
-1699.32 79.9486 3214
-1691.64 79.9486 3214
-1683.95 79.9486 3214
-1676.26 79.9486 3214
-1665.46 79.7994 3208
-1657.79 79.7994 3208
-1656.81 80.1227 3221
-1649.11 80.1227 3221
-1641.4 80.1227 3221
-1630.15 79.9486 3214
-1622.46 79.9486 3214
-1614.78 79.9486 3214
-1607.09 79.9486 3214
-1599.41 79.9486 3214
-1591.72 79.9486 3214
-1584.04 79.9486 3214
-1576.35 79.9486 3214
-1568.67 79.9486 3214
-1560.98 79.9486 3214
-1553.29 79.9486 3214
-1548.97 80.1227 3221
-1541.27 80.1227 3221
-1533.57 80.1227 3221
-1525.87 80.1227 3221
-1520.99 80.272 3227
-1513.28 80.272 3227
-1508.36 80.4212 3233
-1500.63 80.4212 3233
-1495.67 80.5705 3239
-1493.89 80.8939 3252
-1486.12 80.8939 3252
-1478.34 80.8939 3252
-1476.44 81.2173 3265
-1471.33 81.3665 3271
-1469.33 81.6899 3284
-1461.48 81.6899 3284
-1453.62 81.6899 3284
-1445.77 81.6899 3284
-1437.92 81.6899 3284
-1430.06 81.6899 3284
-1422.21 81.6899 3284
-1414.36 81.6899 3284
-1406.5 81.6899 3284
-1398.65 81.6899 3284
-1390.8 81.6899 3284
-1380.42 81.5406 3278
-1372.58 81.5406 3278
-1364.74 81.5406 3278
-1356.9 81.5406 3278
-1346.18 81.3665 3271
-718.471 44.7255 1798
-715.76 44.825 1802
-713.425 44.9493 1807
-709.104 44.9493 1807
-704.783 44.9493 1807
-700.461 44.9493 1807
-696.14 44.9493 1807
-691.819 44.9493 1807
-686.737 44.8996 1805
-682.043 44.8747 1804
-677.729 44.8747 1804
-672.668 44.825 1802
-667.618 44.7752 1800
-661.839 44.6757 1796
-657.544 44.6757 1796
-652.522 44.626 1794
-647.51 44.5762 1792
-641.789 44.4767 1788
-637.513 44.4767 1788
-633.237 44.4767 1788
-627.555 44.3772 1784
-622.59 44.3275 1782
-618.328 44.3275 1782
-613.033 44.2528 1779
-606.726 44.1036 1773
-600.447 43.9543 1767
-593.86 43.7802 1760
-589.651 43.7802 1760
-583.447 43.631 1754
-577.601 43.5066 1749
-570.468 43.2827 1740
-566.307 43.2827 1740
-560.208 43.1335 1734
-554.458 43.0091 1729
-548.414 42.8598 1723
-544.293 42.8598 1723
-539.233 42.7852 1720
-533.875 42.6857 1716
-529.463 42.6608 1715
-525.362 42.6608 1715
-520.045 42.5613 1711
-515.35 42.5116 1709
-510.965 42.4867 1708
-506.88 42.4867 1708
-502.207 42.4369 1706
-497.544 42.3872 1704
-492.89 42.3374 1702
-488.82 42.3374 1702
-484.465 42.3126 1701
-479.832 42.2628 1699
-474.649 42.1633 1695
-470.596 42.1633 1695
-466.543 42.1633 1695
-462.217 42.1384 1694
-458.166 42.1384 1694
-453.579 42.0887 1692
-449.533 42.0887 1692
-445.487 42.0887 1692
-441.441 42.0887 1692
-436.878 42.0389 1690
-432.836 42.0389 1690
-428.795 42.0389 1690
-424.502 42.0141 1689
-420.463 42.0141 1689
-416.424 42.0141 1689
-412.386 42.0141 1689
-407.863 41.9643 1687
-403.35 41.9146 1685
-399.321 41.9146 1685
-394.822 41.8648 1683
-390.566 41.8399 1682
-386.084 41.7902 1680
-382.066 41.7902 1680
-377.599 41.7404 1678
-373.364 41.7156 1677
-368.913 41.6658 1675
-364.908 41.6658 1675
-360.471 41.6161 1673
-356.257 41.5912 1672
-351.838 41.5414 1670
-347.844 41.5414 1670
-343.851 41.5414 1670
-339.857 41.5414 1670
-335.864 41.5414 1670
-331.274 41.4668 1667
-327.288 41.4668 1667
-322.914 41.4171 1665
-318.549 41.3673 1663
-314.572 41.3673 1663
-310.596 41.3673 1663
-306.619 41.3673 1663
-303.37 41.4668 1667
-299.563 41.4917 1668
-296.284 41.5912 1672
-292.285 41.5912 1672
-288.459 41.6161 1673
-284.799 41.6658 1675
-281.129 41.7156 1677
-277.118 41.7156 1677
-274.085 41.8648 1683
-270.061 41.8648 1683
-266.352 41.9146 1685
-262.323 41.9146 1685
-258.6 41.9643 1687
-254.868 42.0141 1689
-251.275 42.0887 1692
-247.229 42.0887 1692
-243.47 42.1384 1694
-239.56 42.1633 1695
-235.785 42.2131 1697
-231.727 42.2131 1697
-228.206 42.3126 1701
-224.27 42.3374 1702
-220.2 42.3374 1702
-216.13 42.3374 1702
-212.309 42.3872 1704
-208.234 42.3872 1704
-204.159 42.3872 1704
-200.085 42.3872 1704
-196.24 42.4369 1706
-192.16 42.4369 1706
-188.301 42.4867 1708
-184.325 42.5116 1709
-180.238 42.5116 1709
-176.357 42.5613 1711
-172.769 42.6857 1716
-168.666 42.6857 1716
-164.562 42.6857 1716
-160.646 42.7355 1718
-156.72 42.7852 1720
-152.873 42.8598 1723
-148.753 42.8598 1723
-144.633 42.8598 1723
-140.675 42.9096 1725
-136.867 43.0091 1729
-132.732 43.0091 1729
-128.821 43.0837 1732
-124.679 43.0837 1732
-120.677 43.1335 1734
-116.53 43.1335 1734
-112.773 43.2827 1740
-108.799 43.3573 1743
-104.751 43.4071 1745
-100.578 43.4071 1745
-96.6264 43.5066 1749
-92.444 43.5066 1749
-88.3625 43.5563 1751
-84.1753 43.5563 1751
-80.0339 43.5812 1752
-75.8443 43.5812 1752
-71.6547 43.5812 1752
-67.4652 43.5812 1752
-63.4201 43.6807 1756
-59.2884 43.7305 1758
-55.1471 43.7802 1760
-50.9384 43.7802 1760
-46.7829 43.83 1762
-42.5935 43.8548 1763
-38.3777 43.8548 1763
-34.1618 43.8548 1763
-30.0478 44.0041 1769
-25.9052 44.1533 1775
-21.6606 44.1533 1775
-17.4161 44.1533 1775
-26.2837 88.1077 3542
-17.8891 88.4808 3557
-9.38324 88.4808 3557
-0.877375 88.4808 3557
7.61133 88.2818 3549
16.0981 88.2818 3549
24.5363 88.1077 3542
32.121 85.7445 3447
40.1999 85.3963 3433
48.4093 85.3963 3433
56.6186 85.3963 3433
64.4314 84.8739 3412
72.5905 84.8739 3412
80.7496 84.8739 3412
88.7264 84.6998 3405
96.4705 84.3515 3391
103.932 83.8291 3370
111.758 83.655 3363
119.8 83.655 3363
127.842 83.655 3363
136.449 84.0033 3377
144.525 84.0033 3377
153.865 84.6998 3405
162.008 84.6998 3405
170.5 84.8739 3412
179.026 85.048 3419
189.118 85.9187 3454
197.377 85.9187 3454
205.637 85.9187 3454
213.897 85.9187 3454
222.606 86.0928 3461
230.883 86.0928 3461
239.643 86.2669 3468
250.009 86.9883 3497
259.48 87.3614 3512
267.878 87.3614 3512
277.456 87.7345 3527
286.458 87.9087 3534
295.576 88.1077 3542
304.046 88.1077 3542
314.545 88.6798 3565
323.705 88.8539 3572
332.247 88.8539 3572
340.788 88.8539 3572
350.112 89.0529 3580
358.673 89.0529 3580
367.234 89.0529 3580
375.795 89.0529 3580
381.887 88.4808 3557
389.514 88.2818 3549
398.001 88.2818 3549
404.77 87.9087 3534
409.83 87.1873 3505
417.257 86.9883 3497
425.619 86.9883 3497
433.982 86.9883 3497
442.344 86.9883 3497
450.706 86.9883 3497
456.312 86.4659 3476
464.624 86.4659 3476
472.936 86.4659 3476
482.218 86.64 3483
490.546 86.64 3483
498.875 86.64 3483
504.001 86.0928 3461
509.169 85.5704 3440
511.078 84.5256 3398
519.203 84.5256 3398
525.156 84.1774 3384
531.042 83.8291 3370
535.902 83.3316 3350
542.776 83.1575 3343
551.923 83.3316 3350
559.934 83.3316 3350
567.945 83.3316 3350
575.956 83.3316 3350
583.967 83.3316 3350
589.68 83.0083 3337
598.735 83.1575 3343
610.359 83.655 3363
619.688 83.8291 3370
627.747 83.8291 3370
637.126 84.0033 3377
646.539 84.1774 3384
655.985 84.3515 3391
664.094 84.3515 3391
677.753 85.048 3419
685.929 85.048 3419
694.105 85.048 3419
702.281 85.048 3419
710.457 85.048 3419
720.104 85.2221 3426
728.297 85.2221 3426
736.489 85.2221 3426
743.16 85.048 3419
749.798 84.8739 3412
757.957 84.8739 3412
766.116 84.8739 3412
771.098 84.5256 3398
779.224 84.5256 3398
785.728 84.3515 3391
793.837 84.3515 3391
801.946 84.3515 3391
815.071 84.8739 3412
823.23 84.8739 3412
831.389 84.8739 3412
839.548 84.8739 3412
847.708 84.8739 3412
855.867 84.8739 3412
869.344 85.3963 3433
877.553 85.3963 3433
889.375 85.7445 3447
899.44 85.9187 3454
907.7 85.9187 3454
915.959 85.9187 3454
924.219 85.9187 3454
932.478 85.9187 3454
940.738 85.9187 3454
947.074 85.7445 3447
963.354 86.4659 3476
975.58 86.8142 3490
992.383 87.5604 3520
1000.8 87.5604 3520
1009.22 87.5604 3520
1017.64 87.5604 3520
1026.05 87.5604 3520
1034.47 87.5604 3520
1042.89 87.5604 3520
1059.97 88.2818 3549
1073.27 88.6798 3565
1081.8 88.6798 3565
1090.32 88.6798 3565
1103.47 89.0529 3580
1116.69 89.426 3595
1125.29 89.426 3595
1133.88 89.426 3595
1142.48 89.426 3595
1148.83 89.2519 3588
1169.99 90.222 3627
1178.67 90.222 3627
1187.34 90.222 3627
1196.01 90.222 3627
1204.69 90.222 3627
1210.68 90.023 3619
1213.95 89.625 3603
1222.56 89.625 3603
1231.18 89.625 3603
1237.04 89.426 3595
1243.21 89.2519 3588
1254.24 89.426 3595
1262.83 89.426 3595
1271.43 89.426 3595
1280.03 89.426 3595
1288.62 89.426 3595
1294.69 89.2519 3588
1303.27 89.2519 3588
1311.85 89.2519 3588
1323.01 89.426 3595
1334.57 89.625 3603
1349.15 90.023 3619
1357.81 90.023 3619
1369.48 90.222 3627
1378.15 90.222 3627
1386.83 90.222 3627
1395.5 90.222 3627
1404.17 90.222 3627
1409.73 90.023 3619
1418.38 90.023 3619
1423.88 89.824 3611
1432.52 89.824 3611
1441.15 89.824 3611
1449.79 89.824 3611
1458.42 89.824 3611
1454.46 89.0529 3580
1453.63 88.4808 3557
1452.68 87.9087 3534
1461.13 87.9087 3534
1460.43 87.3614 3512
1465.9 87.1873 3505
1465.03 86.64 3483
1473.36 86.64 3483
1481.69 86.64 3483
1483.6 86.2669 3468
1482.86 85.7445 3447
1491.1 85.7445 3447
1493.25 85.3963 3433
1501.46 85.3963 3433
1518.91 85.9187 3454
1530.26 86.0928 3461
1541.65 86.2669 3468
1549.94 86.2669 3468
