ply
format ascii 1.0
comment File generated
element vertex 2254
property float x
property float y
property float z
end_header
597.66 842.42 3337
605.64 842.42 3337
614.723 843.935 3343
622.717 843.935 3343
630.711 843.935 3343
638.706 843.935 3343
646.7 843.935 3343
654.694 843.935 3343
662.688 843.935 3343
670.682 843.935 3343
678.676 843.935 3343
685.438 842.42 3337
691.963 840.653 3330
699.926 840.653 3330
707.889 840.653 3330
715.852 840.653 3330
723.815 840.653 3330
730.24 838.886 3323
738.186 838.886 3323
746.133 838.886 3323
754.079 838.886 3323
762.025 838.886 3323
769.971 838.886 3323
777.918 838.886 3323
785.864 838.886 3323
793.81 838.886 3323
803.446 840.653 3330
813.114 842.42 3337
821.094 842.42 3337
829.074 842.42 3337
838.559 843.935 3343
850.098 847.469 3357
858.126 847.469 3357
874.926 856.053 3391
888.503 861.354 3412
902.181 866.656 3433
910.39 866.656 3433
922.346 870.19 3447
940.308 879.278 3483
954.628 884.832 3505
963.01 884.832 3505
977.489 890.386 3527
990.116 894.172 3542
1002.81 897.959 3557
1011.32 897.959 3557
1026.42 903.765 3580
1039.32 907.552 3595
1054.91 913.611 3619
1068.27 917.65 3635
1076.96 917.65 3635
1095.21 925.729 3667
1108.79 929.768 3683
1120.03 931.787 3691
1128.86 931.787 3691
1137.68 931.787 3691
1146.51 931.787 3691
1155.33 931.787 3691
1164.16 931.787 3691
1175.53 933.807 3699
1184.38 933.807 3699
1193.22 933.807 3699
1199.47 931.787 3691
1205.67 929.768 3683
1211.84 927.748 3675
1220.63 927.748 3675
1229.42 927.748 3675
1238.21 927.748 3675
1244.28 925.729 3667
1253.05 925.729 3667
1258.72 923.456 3658
1264.7 921.437 3650
1273.43 921.437 3650
1282.15 921.437 3650
1288.05 919.417 3642
1296.76 919.417 3642
1305.47 919.417 3642
1311.65 917.65 3635
1320.35 917.65 3635
1329.04 917.65 3635
1334.79 915.631 3627
1343.46 915.631 3627
1352.13 915.631 3627
1354.8 911.591 3611
1363.44 911.591 3611
1365.99 907.552 3595
1374.59 907.552 3595
1383.19 907.552 3595
1385.98 903.765 3580
1391.42 901.746 3572
1399.96 901.746 3572
1402.59 897.959 3557
1407.92 895.94 3549
1413.62 894.172 3542
1413.25 888.619 3520
1421.67 888.619 3520
1423.99 884.832 3505
1423.38 879.278 3483
1428.84 877.511 3476
1437.15 877.511 3476
1442.13 875.491 3468
1444.57 871.957 3454
1449.89 870.19 3447
1461.09 871.957 3454
1469.35 871.957 3454
1487.02 877.511 3476
1517.27 890.386 3527
1538.68 897.959 3557
1547.19 897.959 3557
1565.76 903.765 3580
1580.91 907.552 3595
1610.29 919.417 3642
1619 919.417 3642
1642.46 927.748 3675
1673.26 940.118 3724
1732.31 968.14 3835
1741.48 968.14 3835
1767.08 977.228 3871
1788.73 984.044 3898
1806.35 988.588 3916
1815.72 988.588 3916
1833.94 993.385 3935
1847.56 995.657 3944
1856.99 995.657 3944
1866.42 995.657 3944
1871.58 993.385 3935
1867.6 986.316 3907
1872.62 984.044 3898
1881.94 984.044 3898
1869.43 972.684 3853
1852.8 959.304 3800
1853.56 955.013 3783
1862.6 955.013 3783
1858.79 948.449 3757
1851.37 940.118 3724
1839.79 929.768 3683
1848.6 929.768 3683
1840.76 921.437 3650
1833.78 913.611 3619
1830.22 907.552 3595
1835.23 905.785 3588
1843.81 905.785 3588
1848.26 903.765 3580
1856.82 903.765 3580
1865.39 903.765 3580
1873.95 903.765 3580
1882.51 903.765 3580
1895.29 905.785 3588
1924.57 915.631 3627
1954.56 925.729 3667
1963.33 925.729 3667
1976.4 927.748 3675
1998.15 933.807 3699
2020.56 940.118 3724
2029.47 940.118 3724
2075.6 957.285 3792
2147.89 986.316 3907
2162.2 988.588 3916
2171.56 988.588 3916
2207.1 1000.45 3963
2221.61 1002.73 3972
2241.78 1007.52 3991
2251.33 1007.52 3991
2260.87 1007.52 3991
2259.61 1002.73 3972
2269.1 1002.73 3972
2278.6 1002.73 3972
2282.92 1000.45 3963
2297.6 1002.73 3972
2312.9 1005.25 3982
2322.43 1005.25 3982
2331.95 1005.25 3982
2341.47 1005.25 3982
2362.21 1010.05 4001
2377.11 1012.32 4010
2386.7 1012.32 4010
2408.24 1017.37 4030
2417.88 1017.37 4030
2438.96 1022.16 4049
2448.65 1022.16 4049
2470.47 1027.21 4069
2480.2 1027.21 4069
2489.93 1027.21 4069
2499.66 1027.21 4069
2509.39 1027.21 4069
2519.12 1027.21 4069
2528.85 1027.21 4069
2538.58 1027.21 4069
2548.31 1027.21 4069
2558.04 1027.21 4069
2574.08 1029.74 4079
2583.84 1029.74 4079
2593.59 1029.74 4079
2609.73 1032.26 4089
2619.51 1032.26 4089
2629.28 1032.26 4089
2639.06 1032.26 4089
2648.84 1032.26 4089
2645.61 1027.21 4069
2655.34 1027.21 4069
2665.07 1027.21 4069
2674.8 1027.21 4069
2671.34 1022.16 4049
2674.4 1019.64 4039
2684.06 1019.64 4039
2681.05 1014.84 4020
2683.97 1012.32 4010
2680.79 1007.52 3991
2690.34 1007.52 3991
2699.88 1007.52 3991
2729.11 1014.84 4020
2738.72 1014.84 4020
2748.34 1014.84 4020
2757.95 1014.84 4020
2728.32 1000.45 3963
2692.89 984.044 3898
2702.22 984.044 3898
2711.54 984.044 3898
2720.86 984.044 3898
2704.96 974.956 3862
2714.2 974.956 3862
2723.44 974.956 3862
534.54 181.51 719
536.259 181.51 719
538.726 181.763 720
540.448 181.763 720
542.17 181.763 720
543.136 181.51 719
544.098 181.258 718
545.815 181.258 718
547.532 181.258 718
549.249 181.258 718
-2352.49 800.72 3142
-2344.98 800.72 3142
-2337.47 800.72 3142
-2316.6 796.133 3124
-2309.13 796.133 3124
-2301.66 796.133 3124
-2285.38 793.074 3112
-2274.28 791.8 3107
-2266.85 791.8 3107
-2267.42 794.603 3118
-2259.96 794.603 3118
-2269.84 800.72 3142
-2270.97 803.778 3154
-2272.04 806.836 3166
-2264.47 806.836 3166
-2269.73 811.423 3184
-2283.43 819.068 3214
-2280.7 820.852 3221
-2273 820.852 3221
-2277.96 825.44 3239
-2301.75 836.908 3284
-2316.95 845.317 3317
-2309.02 845.317 3317
-2323.98 853.727 3350
-2324.95 857.04 3363
-2321.73 858.824 3370
-2313.68 858.824 3370
-2329.56 867.744 3405
-2321.42 867.744 3405
-2322.79 871.312 3419
-2314.61 871.312 3419
-2330.05 880.231 3454
-2321.79 880.231 3454
-2318.22 882.015 3461
-2309.94 882.015 3461
-2306.32 883.799 3468
-2298.03 883.799 3468
-2295.02 885.838 3476
-2286.7 885.838 3476
-2282.98 887.622 3483
-2289.02 893.228 3505
-2285.19 895.012 3512
-2276.79 895.012 3512
-2273.56 897.051 3520
-2274.15 900.619 3534
-2270.83 902.657 3542
-2262.36 902.657 3542
-2268.53 908.519 3565
-2264.44 910.303 3572
-2255.9 910.303 3572
-2247.36 910.303 3572
-2243.83 912.341 3580
-2240.26 914.38 3588
-2231.68 914.38 3588
-2223.1 914.38 3588
-2218.84 916.164 3595
-2215.17 918.203 3603
-2206.55 918.203 3603
-2197.93 918.203 3603
-2189.32 918.203 3603
-2185.54 920.242 3611
-2176.91 920.242 3611
-2168.27 920.242 3611
-2164.42 922.28 3619
-2160.54 924.319 3627
-2156.61 926.358 3635
-2147.92 926.358 3635
-2139.22 926.358 3635
-2130.53 926.358 3635
-2121.84 926.358 3635
-2113.15 926.358 3635
-2104.45 926.358 3635
-2095.76 926.358 3635
-2087.07 926.358 3635
-2078.38 926.358 3635
-2073.67 928.142 3642
-2064.96 928.142 3642
-2056.25 928.142 3642
-2047.54 928.142 3642
-2038.83 928.142 3642
-2034.58 930.18 3650
-2030.3 932.219 3658
-2021.55 932.219 3658
-2012.8 932.219 3658
-2004.05 932.219 3658
-1995.31 932.219 3658
-1986.56 932.219 3658
-1982.68 934.513 3667
-1973.91 934.513 3667
-1965.14 934.513 3667
-1956.37 934.513 3667
-1947.6 934.513 3667
-1938.83 934.513 3667
-1934.28 936.552 3675
-1925.49 936.552 3675
-1916.7 936.552 3675
-1903.76 934.513 3667
-1894.99 934.513 3667
-1886.22 934.513 3667
-1868.75 930.18 3650
-1860.02 930.18 3650
-1851.29 930.18 3650
-1842.56 930.18 3650
-1833.83 930.18 3650
-1817.61 926.358 3635
-1808.91 926.358 3635
-1796.26 924.319 3627
-1787.59 924.319 3627
-1786.27 928.142 3642
-1777.56 928.142 3642
-1768.85 928.142 3642
-1752.89 924.319 3627
-1736.52 920.242 3611
-1727.89 920.242 3611
-1711.64 916.164 3595
-1699.72 914.38 3588
-1687.37 912.341 3580
-1675.06 910.303 3572
-1666.52 910.303 3572
-1654.73 908.519 3565
-1646.2 908.519 3565
-1634 906.48 3557
-1625.5 906.48 3557
-1613.35 904.441 3549
-1601.7 902.657 3542
-1589.63 900.619 3534
-1581.18 900.619 3534
-1569.62 898.835 3527
-1558.08 897.051 3520
-1549.67 897.051 3520
-1541.25 897.051 3520
-1529.35 895.012 3512
-1520.95 895.012 3512
-1512.55 895.012 3512
-1507.58 897.051 3520
-1499.16 897.051 3520
-1490.75 897.051 3520
-1485.28 898.835 3527
-1479.77 900.619 3534
-1471.32 900.619 3534
-1469.08 904.441 3549
-1463.89 906.48 3557
-1455.38 906.48 3557
-1446.87 906.48 3557
-1444.43 910.303 3572
-1435.89 910.303 3572
-1427.35 910.303 3572
-1418.81 910.303 3572
-1410.27 910.303 3572
-1401.73 910.303 3572
-1402.15 916.164 3595
-1393.56 916.164 3595
-1388.04 918.203 3603
-1382.49 920.242 3611
-1376.9 922.28 3619
-1368.24 922.28 3619
-1362.6 924.319 3627
-1359.52 928.142 3642
-1350.81 928.142 3642
-1342.1 928.142 3642
-1333.39 928.142 3642
-1322.14 926.358 3635
-1313.45 926.358 3635
-1301.88 924.319 3627
-1287.51 920.242 3611
-1278.87 920.242 3611
-1270.23 920.242 3611
-1258.81 918.203 3603
-1244.98 914.38 3588
-1230.89 910.303 3572
-1219.95 908.519 3565
-1211.43 908.519 3565
-1195.14 902.657 3542
-1189.02 904.441 3549
-1180.53 904.441 3549
-1172.04 904.441 3549
-1163.56 904.441 3549
-1143.03 895.012 3512
-1134.63 895.012 3512
-1126.23 895.012 3512
-1117.83 895.012 3512
-1109.44 895.012 3512
-1082.85 880.231 3454
-1074.59 880.231 3454
-529.523 447.506 1756
-525.324 447.506 1756
-521.125 447.506 1756
-515.748 446.487 1752
-510.099 445.212 1747
-503.894 443.428 1740
-499.733 443.428 1740
-494.433 442.409 1736
-489.717 441.899 1734
-485.01 441.39 1732
-480.869 441.39 1732
-476.727 441.39 1732
-472.312 441.135 1731
-468.173 441.135 1731
-464.034 441.135 1731
-457.769 439.096 1723
-452.859 438.332 1720
-448.224 437.822 1718
-443.34 437.057 1715
-439.239 437.057 1715
-434.631 436.548 1713
-429.278 435.273 1708
-424.197 434.254 1704
-420.123 434.254 1704
-415.315 433.49 1701
-410.281 432.47 1697
-405.026 431.196 1692
-400.98 431.196 1692
-396.23 430.431 1689
-390.566 428.648 1682
-386.084 428.138 1680
-382.066 428.138 1680
-377.599 427.628 1678
-373.364 427.373 1677
-368.913 426.864 1675
-364.908 426.864 1675
-360.471 426.354 1673
-355.831 425.589 1670
-352.259 426.099 1672
-348.261 426.099 1672
-344.469 426.354 1673
-340.468 426.354 1673
-336.467 426.354 1673
-332.268 426.099 1672
-328.27 426.099 1672
-324.271 426.099 1672
-320.848 426.864 1675
-316.842 426.864 1675
-312.837 426.864 1675
-308.831 426.864 1675
-305.372 427.628 1678
-301.719 428.138 1680
-298.056 428.648 1682
-294.033 428.648 1682
-290.184 428.902 1683
-286.159 428.902 1683
-282.805 429.922 1687
-278.771 429.922 1687
-274.737 429.922 1687
-271.024 430.431 1689
-267.143 430.686 1690
-263.102 430.686 1690
-259.367 431.196 1692
-255.773 431.961 1695
-252.017 432.47 1697
-247.959 432.47 1697
-244.476 433.49 1701
-240.832 434.254 1704
-237.313 435.273 1708
-233.229 435.273 1708
-229.279 435.528 1709
-225.456 436.038 1711
-221.623 436.548 1713
-217.527 436.548 1713
-213.679 437.057 1715
-209.701 437.312 1716
-205.837 437.822 1718
-201.728 437.822 1718
-197.62 437.822 1718
-193.737 438.332 1720
-189.955 439.096 1723
-185.835 439.096 1723
-181.925 439.606 1725
-177.8 439.606 1725
-173.675 439.606 1725
-169.55 439.606 1725
-165.234 439.096 1723
-354.101 1017.08 3991
-344.557 1017.08 3991
-335.014 1017.08 3991
-322.371 1007.4 3953
-312.206 1005.1 3944
-302.774 1005.1 3944
-290.591 995.675 3907
-280.6 993.382 3898
-271.279 993.382 3898
-261.958 993.382 3898
-252.637 993.382 3898
-243.315 993.382 3898
-233.994 993.382 3898
-224.673 993.382 3898
-215.351 993.382 3898
-206.03 993.382 3898
-196.709 993.382 3898
-186.955 991.088 3889
-177.655 991.088 3889
-168.355 991.088 3889
-158.319 986.501 3871
-148.369 981.914 3853
-139.156 981.914 3853
-128.762 972.994 3818
-118.817 966.368 3792
-109.228 961.781 3774
-100.203 961.781 3774
-90.768 957.449 3757
-81.4138 953.116 3740
-72.0052 947 3716
-63.1192 947 3716
-53.8682 940.629 3691
-44.7491 934.513 3667
-35.8133 930.18 3650
-27.0851 930.18 3650
-18.2412 924.319 3627
-9.50459 918.203 3603
-0.885022 914.38 3588
7.69497 914.38 3588
16.275 914.38 3588
24.7441 910.303 3572
33.1461 906.48 3557
41.652 906.48 3557
50.1578 906.48 3557
58.4163 902.657 3542
66.8863 902.657 3542
75.1861 900.619 3534
83.6369 900.619 3534
91.9054 898.835 3527
100.14 897.051 3520
108.558 897.051 3520
116.975 897.051 3520
125.393 897.051 3520
133.81 897.051 3520
142.227 897.051 3520
150.645 897.051 3520
159.062 897.051 3520
167.479 897.051 3520
175.897 897.051 3520
183.895 895.012 3512
192.294 895.012 3512
200.692 895.012 3512
209.566 897.051 3520
217.984 897.051 3520
226.401 897.051 3520
234.819 897.051 3520
243.72 898.835 3527
252.154 898.835 3527
260.588 898.835 3527
268.488 897.051 3520
277.456 898.835 3527
286.458 900.619 3534
296.16 904.441 3549
304.647 904.441 3549
313.84 906.48 3557
322.345 906.48 3557
330.851 906.48 3557
339.357 906.48 3557
348.645 908.519 3565
357.17 908.519 3565
365.695 908.519 3565
374.22 908.519 3565
382.745 908.519 3565
387.1 898.835 3527
395.534 898.835 3527
399.73 889.405 3490
406.439 885.838 3476
413.797 883.799 3468
420.386 880.231 3454
428.645 880.231 3454
434.248 874.879 3433
440.653 871.312 3419
446.072 865.96 3398
454.198 865.96 3398
457.562 857.04 3363
464.773 855.511 3357
469.984 850.414 3337
477.964 850.414 3337
483.905 846.846 3323
490.963 845.317 3317
498.895 845.317 3317
506.827 845.317 3317
514.759 845.317 3317
522.691 845.317 3317
530.623 845.317 3317
539.529 846.846 3323
548.628 848.63 3330
556.591 848.63 3330
564.554 848.63 3330
573.721 850.414 3337
581.701 850.414 3337
589.68 850.414 3337
597.66 850.414 3337
605.64 850.414 3337
614.723 851.943 3343
622.717 851.943 3343
630.711 851.943 3343
638.706 851.943 3343
646.7 851.943 3343
654.694 851.943 3343
662.688 851.943 3343
670.682 851.943 3343
678.676 851.943 3343
685.438 850.414 3337
691.963 848.63 3330
699.926 848.63 3330
707.889 848.63 3330
715.852 848.63 3330
723.815 848.63 3330
730.24 846.846 3323
738.186 846.846 3323
746.133 846.846 3323
754.079 846.846 3323
762.025 846.846 3323
769.971 846.846 3323
777.918 846.846 3323
785.864 846.846 3323
793.81 846.846 3323
803.446 848.63 3330
813.114 850.414 3337
821.094 850.414 3337
829.074 850.414 3337
840.315 853.727 3350
850.098 855.511 3357
858.126 855.511 3357
874.926 864.176 3391
888.503 869.528 3412
902.181 874.879 3433
910.39 874.879 3433
926.092 882.015 3461
942.197 889.405 3490
954.628 893.228 3505
963.01 893.228 3505
979.429 900.619 3534
994.309 906.48 3557
1007.04 910.303 3572
1015.59 910.303 3572
1026.42 912.341 3580
1041.63 918.203 3603
1057.24 924.319 3627
1068.27 926.358 3635
1076.96 926.358 3635
1097.6 936.552 3675
1108.79 938.59 3683
1120.03 940.629 3691
1128.86 940.629 3691
1137.68 940.629 3691
1146.51 940.629 3691
1155.33 940.629 3691
1164.16 940.629 3691
1175.53 942.668 3699
1184.38 942.668 3699
1193.22 942.668 3699
1199.47 940.629 3691
1203.05 936.552 3675
1211.84 936.552 3675
1220.63 936.552 3675
1229.42 936.552 3675
1238.21 936.552 3675
1244.28 934.513 3667
1253.05 934.513 3667
1261.82 934.513 3667
1264.7 930.18 3650
1273.43 930.18 3650
1282.15 930.18 3650
1290.88 930.18 3650
1299.61 930.18 3650
1308.34 930.18 3650
1317.07 930.18 3650
1325.79 930.18 3650
1331.6 928.142 3642
1337.73 926.358 3635
1343.46 924.319 3627
1352.13 924.319 3627
1357.81 922.28 3619
1363.44 920.242 3611
1369.03 918.203 3603
1377.65 918.203 3603
1383.19 916.164 3595
1389.07 914.38 3588
1391.42 910.303 3572
1399.96 910.303 3572
1405.74 908.519 3565
1411.1 906.48 3557
1413.62 902.657 3542
1418.87 900.619 3534
1427.32 900.619 3534
1426.84 895.012 3512
1429.11 891.189 3497
1431.71 887.622 3483
1440.04 887.622 3483
1445.46 885.838 3476
1453.77 885.838 3476
1455.78 882.015 3461
1464.05 882.015 3461
1472.33 882.015 3461
1493.01 889.405 3490
1526.74 904.441 3549
1545.17 910.303 3572
1553.71 910.303 3572
1572.32 916.164 3595
1591.47 922.28 3619
1617.36 932.219 3658
1626.11 932.219 3658
1653.18 942.668 3699
1680.45 953.116 3740
1732.31 977.327 3835
1741.48 977.327 3835
1767.08 986.501 3871
1788.73 993.382 3898
1806.35 997.969 3916
1815.72 997.969 3916
1833.94 1002.81 3935
1847.56 1005.1 3944
1856.99 1005.1 3944
1866.42 1005.1 3944
1871.58 1002.81 3935
1871.9 997.969 3916
1863.97 988.795 3880
1873.25 988.795 3880
1860.7 977.327 3835
1844.51 964.075 3783
1845.23 959.742 3766
1854.23 959.742 3766
1850.38 953.116 3740
1842.91 944.707 3707
1831.8 934.513 3667
1824.5 926.358 3635
1833.2 926.358 3635
1825.67 918.203 3603
1826.65 914.38 3588
1831.14 912.341 3580
1839.7 912.341 3580
1848.26 912.341 3580
1856.82 912.341 3580
1861.22 910.303 3572
1873.95 912.341 3580
1882.51 912.341 3580
1895.29 914.38 3588
1916.08 920.242 3611
1941.24 928.142 3642
1949.95 928.142 3642
1976.4 936.552 3675
1989.51 938.59 3683
2016.22 947 3716
2025.11 947 3716
2056.44 957.449 3757
2118.2 981.914 3853
2162.2 997.969 3916
2171.56 997.969 3916
2207.1 1009.95 3963
2216.58 1009.95 3963
2226.05 1009.95 3963
2235.53 1009.95 3963
2245.01 1009.95 3963
2248.8 1007.4 3953
2242.25 1000.26 3925
2262.54 1005.1 3944
2271.97 1005.1 3944
2281.4 1005.1 3944
2301.87 1009.95 3963
2316.59 1012.24 3972
2326.09 1012.24 3972
2335.59 1012.24 3972
2350.99 1014.79 3982
2377.11 1021.92 4010
2386.7 1021.92 4010
2402.27 1024.47 4020
2417.88 1027.02 4030
2427.52 1027.02 4030
2437.15 1027.02 4030
2464.4 1034.41 4059
2474.11 1034.41 4059
2489.93 1036.96 4069
2499.66 1036.96 4069
2509.39 1036.96 4069
2519.12 1036.96 4069
2528.85 1036.96 4069
2538.58 1036.96 4069
2548.31 1036.96 4069
2558.04 1036.96 4069
2574.08 1039.51 4079
2583.84 1039.51 4079
2593.59 1039.51 4079
2609.73 1042.06 4089
2619.51 1042.06 4089
2629.28 1042.06 4089
2632.61 1039.51 4079
2635.88 1036.96 4069
2645.61 1036.96 4069
2655.34 1036.96 4069
2665.07 1036.96 4069
2661.66 1031.86 4049
2671.34 1031.86 4049
2674.4 1029.31 4039
2684.06 1029.31 4039
2681.05 1024.47 4020
2683.97 1021.92 4010
2680.79 1017.08 3991
2690.34 1017.08 3991
2699.88 1017.08 3991
2729.11 1024.47 4020
2738.72 1024.47 4020
2748.34 1024.47 4020
2757.95 1024.47 4020
2754.48 1019.63 4001
2692.89 993.382 3898
2702.22 993.382 3898
2711.54 993.382 3898
2720.86 993.382 3898
2704.96 984.207 3862
2714.2 984.207 3862
2723.44 984.207 3862
537.23 182.978 718
538.947 182.978 718
540.664 182.978 718
542.381 182.978 718
544.098 182.978 718
545.055 182.723 717
546.769 182.723 717
548.484 182.723 717
-2352.49 808.246 3142
-2344.98 808.246 3142
-2324.07 803.616 3124
-2316.6 803.616 3124
-2300.26 800.529 3112
-2292.82 800.529 3112
-2285.38 800.529 3112
-2269.89 797.7 3101
-2266.85 799.243 3107
-2267.42 802.073 3118
-2259.96 802.073 3118
-2269.84 808.246 3142
-2270.97 811.333 3154
-2267.73 812.877 3160
-2260.18 812.877 3160
-2261.18 815.964 3172
-2274.9 823.681 3202
-2275.74 826.768 3214
-2268.06 826.768 3214
-2273.74 831.655 3233
-2288.43 839.887 3265
-2298.09 846.318 3290
-2290.22 846.318 3290
-2314.96 858.408 3337
-2315.97 861.752 3350
-2312.78 863.553 3357
-2304.75 863.553 3357
-2305.62 866.897 3370
-2311.88 872.299 3391
-2313.28 875.9 3405
-2305.14 875.9 3405
-2301.72 877.701 3412
-2298.26 879.502 3419
-2313.53 888.505 3454
-2305.27 888.505 3454
-2297.01 888.505 3454
-2298.03 892.107 3468
-2289.73 892.107 3468
-2281.44 892.107 3468
-2282.98 895.965 3483
-2283.79 899.566 3497
-2285.19 903.425 3512
-2276.79 903.425 3512
-2273.56 905.483 3520
-2269.65 907.284 3527
-2265.7 909.084 3534
-2257.25 909.084 3534
-2263.44 915.001 3557
-2260 917.059 3565
-2255.9 918.859 3572
-2247.36 918.859 3572
-2243.83 920.917 3580
-2235.27 920.917 3580
-2231.68 922.975 3588
-2223.1 922.975 3588
-2218.84 924.776 3595
-2215.17 926.834 3603
-2206.55 926.834 3603
-2197.93 926.834 3603
-2189.32 926.834 3603
-2185.54 928.892 3611
-2176.91 928.892 3611
-2168.27 928.892 3611
-2159.64 928.892 3611
-2155.77 930.95 3619
-2151.86 933.008 3627
-2143.19 933.008 3627
-2139.22 935.065 3635
-2130.53 935.065 3635
-2121.84 935.065 3635
-2113.15 935.065 3635
-2104.45 935.065 3635
-2095.76 935.065 3635
-2087.07 935.065 3635
-2073.8 933.008 3627
-2065.13 933.008 3627
-2064.96 936.866 3642
-2056.25 936.866 3642
-2047.54 936.866 3642
-2034.92 935.065 3635
-2030.12 936.866 3642
-2025.86 938.924 3650
-2017.13 938.924 3650
-2008.4 938.924 3650
-1999.67 938.924 3650
-1990.94 938.924 3650
-1982.21 938.924 3650
-1973.49 938.924 3650
-1973.91 943.297 3667
-1965.14 943.297 3667
-1956.37 943.297 3667
-1942.82 940.982 3658
-1934.07 940.982 3658
-1930.06 943.297 3667
-1921.3 943.297 3667
-1916.7 945.355 3675
-1907.91 945.355 3675
-1899.12 945.355 3675
-1886.22 943.297 3667
-1868.75 938.924 3650
-1860.02 938.924 3650
-1851.29 938.924 3650
-1842.56 938.924 3650
-1833.83 938.924 3650
-1825.11 938.924 3650
-1816.38 938.924 3650
-1807.65 938.924 3650
-1794.98 936.866 3642
-1786.27 936.866 3642
-1777.56 936.866 3642
-1768.85 936.866 3642
-1752.89 933.008 3627
-1736.52 928.892 3611
-1727.89 928.892 3611
-1711.64 924.776 3595
-1699.72 922.975 3588
-1687.37 920.917 3580
-1675.06 918.859 3572
-1666.52 918.859 3572
-1654.73 917.059 3565
-1646.2 917.059 3565
-1634 915.001 3557
-1625.5 915.001 3557
-1613.35 912.943 3549
-1601.7 911.142 3542
-1589.63 909.084 3534
-1581.18 909.084 3534
-1569.62 907.284 3527
-1558.08 905.483 3520
-1549.67 905.483 3520
-1541.25 905.483 3520
-1529.35 903.425 3512
-1520.95 903.425 3512
-1512.55 903.425 3512
-1507.58 905.483 3520
-1499.16 905.483 3520
-1490.75 905.483 3520
-1485.28 907.284 3527
-1479.77 909.084 3534
-1471.32 909.084 3534
-1469.08 912.943 3549
-1463.89 915.001 3557
-1455.38 915.001 3557
-1446.87 915.001 3557
-1444.43 918.859 3572
-1435.89 918.859 3572
-1427.35 918.859 3572
-1418.81 918.859 3572
-1410.27 918.859 3572
-1401.73 918.859 3572
-1402.15 924.776 3595
-1393.56 924.776 3595
-1388.04 926.834 3603
-1382.49 928.892 3611
-1376.9 930.95 3619
-1368.24 930.95 3619
-1362.6 933.008 3627
-1353.92 933.008 3627
-1345.25 933.008 3627
-1336.58 933.008 3627
-1327.9 933.008 3627
-1316.32 930.95 3619
-1307.67 930.95 3619
-1293.27 926.834 3603
-1281.8 924.776 3595
-1273.2 924.776 3595
-1262.14 922.975 3588
-1253.56 922.975 3588
-1239.43 918.859 3572
-1228.48 917.059 3565
-1214.48 912.943 3549
-1205.99 912.943 3549
-1195.14 911.142 3542
-1183.99 909.084 3534
-1175.54 909.084 3534
-1167.09 909.084 3534
-1158.64 909.084 3534
-1143.03 903.425 3512
-1134.63 903.425 3512
-1126.23 903.425 3512
-1117.83 903.425 3512
-1104.7 899.566 3497
-1082.85 888.505 3454
-1074.59 888.505 3454
-529.523 451.713 1756
-525.324 451.713 1756
-521.125 451.713 1756
-515.748 450.684 1752
-510.099 449.397 1747
-503.894 447.597 1740
-499.733 447.597 1740
-494.433 446.568 1736
-489.717 446.053 1734
-485.01 445.539 1732
-480.869 445.539 1732
-476.727 445.539 1732
-472.312 445.282 1731
-468.173 445.282 1731
-464.034 445.282 1731
-457.769 443.224 1723
-452.859 442.452 1720
-448.224 441.937 1718
-443.34 441.166 1715
-439.239 441.166 1715
-434.631 440.651 1713
-429.278 439.365 1708
-424.197 438.336 1704
-420.123 438.336 1704
-415.315 437.564 1701
-410.281 436.535 1697
-405.026 435.249 1692
-400.98 435.249 1692
-396.23 434.477 1689
-390.566 432.677 1682
-386.084 432.162 1680
-382.066 432.162 1680
-377.599 431.648 1678
-373.364 431.391 1677
-368.913 430.876 1675
-364.908 430.876 1675
-360.471 430.362 1673
-355.831 429.59 1670
-352.259 430.104 1672
-348.261 430.104 1672
-344.469 430.362 1673
-340.468 430.362 1673
-336.467 430.362 1673
-332.268 430.104 1672
-328.27 430.104 1672
-324.271 430.104 1672
-320.848 430.876 1675
-316.842 430.876 1675
-312.837 430.876 1675
-308.831 430.876 1675
-305.372 431.648 1678
-301.719 432.162 1680
-298.056 432.677 1682
-294.033 432.677 1682
-290.184 432.934 1683
-286.159 432.934 1683
-282.805 433.963 1687
-278.771 433.963 1687
-274.737 433.963 1687
-271.024 434.477 1689
-267.143 434.735 1690
-263.102 434.735 1690
-259.367 435.249 1692
-255.773 436.021 1695
-252.017 436.535 1697
-247.959 436.535 1697
-244.476 437.564 1701
-240.832 438.336 1704
-237.313 439.365 1708
-233.229 439.365 1708
-229.279 439.622 1709
-225.456 440.137 1711
-221.623 440.651 1713
-217.527 440.651 1713
-213.43 440.651 1713
-209.578 441.166 1715
-205.597 441.423 1716
-201.494 441.423 1716
-197.39 441.423 1716
-193.737 442.452 1720
-189.845 442.966 1722
-185.727 442.966 1722
-181.925 443.738 1725
-177.8 443.738 1725
-173.675 443.738 1725
-169.55 443.738 1725
-354.101 1026.64 3991
-344.557 1026.64 3991
-335.014 1026.64 3991
-320.903 1012.24 3935
-308.564 1002.72 3898
-299.243 1002.72 3898
-287.914 995.774 3871
-278.657 995.774 3871
-270.026 998.089 3880
-260.748 998.089 3880
-251.47 998.089 3880
-242.753 1000.4 3889
-233.454 1000.4 3889
-224.154 1000.4 3889
-214.854 1000.4 3889
-205.554 1000.4 3889
-196.255 1000.4 3889
-186.09 995.774 3871
-176.833 995.774 3871
-167.576 995.774 3871
-157.951 993.459 3862
-148.023 988.829 3844
-138.831 988.829 3844
-128.762 982.14 3818
-118.535 973.137 3783
-109.228 970.822 3774
-100.203 970.822 3774
-90.3572 962.076 3740
-81.4138 962.076 3740
-72.0052 955.902 3716
-63.1192 955.902 3716
-53.8682 949.471 3691
-44.7491 943.297 3667
-35.8133 938.924 3650
-27.0851 938.924 3650
-18.2412 933.008 3627
-9.50459 926.834 3603
-0.886748 924.776 3595
7.69497 922.975 3588
16.275 922.975 3588
24.7441 918.859 3572
33.1461 915.001 3557
41.652 915.001 3557
50.1578 915.001 3557
58.4163 911.142 3542
66.8863 911.142 3542
75.1861 909.084 3534
83.6369 909.084 3534
91.9054 907.284 3527
100.34 907.284 3527
108.774 907.284 3527
117.208 907.284 3527
125.393 905.483 3520
133.81 905.483 3520
142.227 905.483 3520
150.645 905.483 3520
159.062 905.483 3520
167.479 905.483 3520
175.897 905.483 3520
184.314 905.483 3520
192.732 905.483 3520
201.149 905.483 3520
209.566 905.483 3520
217.984 905.483 3520
226.401 905.483 3520
234.819 905.483 3520
243.72 907.284 3527
252.154 907.284 3527
260.588 907.284 3527
268.488 905.483 3520
277.456 907.284 3527
286.458 909.084 3534
296.16 912.943 3549
304.647 912.943 3549
313.84 915.001 3557
322.345 915.001 3557
330.851 915.001 3557
339.357 915.001 3557
348.645 917.059 3565
357.17 917.059 3565
365.695 917.059 3565
374.22 917.059 3565
382.745 917.059 3565
387.1 907.284 3527
395.534 907.284 3527
400.532 899.566 3497
406.439 894.164 3476
413.797 892.107 3468
420.386 888.505 3454
428.645 888.505 3454
434.248 883.103 3433
440.653 879.502 3419
446.072 874.1 3398
454.198 874.1 3398
457.562 865.096 3363
464.773 863.553 3357
469.984 858.408 3337
477.964 858.408 3337
483.905 854.807 3323
490.963 853.263 3317
498.895 853.263 3317
506.827 853.263 3317
514.759 853.263 3317
522.691 853.263 3317
530.623 853.263 3317
539.529 854.807 3323
548.628 856.607 3330
556.591 856.607 3330
564.554 856.607 3330
573.721 858.408 3337
581.701 858.408 3337
589.68 858.408 3337
597.66 858.408 3337
605.64 858.408 3337
614.723 859.952 3343
622.717 859.952 3343
630.711 859.952 3343
638.706 859.952 3343
646.7 859.952 3343
654.694 859.952 3343
662.688 859.952 3343
670.682 859.952 3343
678.676 859.952 3343
685.438 858.408 3337
691.963 856.607 3330
699.926 856.607 3330
707.889 856.607 3330
715.852 856.607 3330
723.815 856.607 3330
730.24 854.807 3323
738.186 854.807 3323
746.133 854.807 3323
754.079 854.807 3323
762.025 854.807 3323
769.971 854.807 3323
777.918 854.807 3323
785.864 854.807 3323
793.81 854.807 3323
803.446 856.607 3330
813.114 858.408 3337
821.094 858.408 3337
829.074 858.408 3337
840.315 861.752 3350
850.098 863.553 3357
858.126 863.553 3357
874.926 872.299 3391
888.503 877.701 3412
902.181 883.103 3433
910.39 883.103 3433
926.092 890.306 3461
942.197 897.766 3490
954.628 901.624 3505
963.01 901.624 3505
979.429 909.084 3534
994.309 915.001 3557
1007.04 918.859 3572
1015.59 918.859 3572
1026.42 920.917 3580
1041.63 926.834 3603
1057.24 933.008 3627
1068.27 935.065 3635
1076.96 935.065 3635
1097.6 945.355 3675
1108.79 947.413 3683
1120.03 949.471 3691
1128.86 949.471 3691
1137.68 949.471 3691
1146.51 949.471 3691
1155.33 949.471 3691
1164.16 949.471 3691
1175.53 951.529 3699
1184.38 951.529 3699
1193.22 951.529 3699
1199.47 949.471 3691
1203.05 945.355 3675
1211.84 945.355 3675
1220.63 945.355 3675
1229.42 945.355 3675
1238.21 945.355 3675
1244.28 943.297 3667
1253.05 943.297 3667
1261.82 943.297 3667
1267.47 940.982 3658
1276.22 940.982 3658
1284.96 940.982 3658
1290.88 938.924 3650
1299.61 938.924 3650
1308.34 938.924 3650
1317.07 938.924 3650
1325.79 938.924 3650
1334.52 938.924 3650
1340.31 936.866 3642
1343.46 933.008 3627
1352.13 933.008 3627
1360.81 933.008 3627
1363.44 928.892 3611
1372.07 928.892 3611
1380.71 928.892 3611
1386.27 926.834 3603
1389.07 922.975 3588
1394.54 920.917 3580
1403.1 920.917 3580
1405.74 917.059 3565
1411.1 915.001 3557
1413.62 911.142 3542
1418.87 909.084 3534
1427.32 909.084 3534
1426.84 903.425 3512
1432.37 901.624 3505
1437.47 899.566 3497
1445.83 899.566 3497
1445.46 894.164 3476
1453.77 894.164 3476
1458.72 892.107 3468
1473.36 895.965 3483
1481.69 895.965 3483
1496 899.566 3497
1530.18 915.001 3557
1548.63 920.917 3580
1557.19 920.917 3580
1575.81 926.834 3603
1594.98 933.008 3627
1631.96 949.471 3691
1640.78 949.471 3691
1660.78 955.902 3716
1688.09 966.449 3757
1748.57 995.774 3871
1757.82 995.774 3871
1787.62 1007.35 3916
1809.84 1014.55 3944
1828.03 1019.44 3963
1837.51 1019.44 3963
1846.99 1019.44 3963
1860.68 1021.76 3972
1870.18 1021.76 3972
1879.67 1021.76 3972
1884.89 1019.44 3963
1885.29 1014.55 3944
1876.94 1005.03 3907
1886.29 1005.03 3907
1869.43 991.144 3853
1852.8 977.51 3800
1845.23 968.764 3766
1854.23 968.764 3766
1846.42 960.018 3732
1838.94 951.529 3699
1827.3 940.982 3658
1820.49 933.008 3627
1829.16 933.008 3627
1821.62 924.776 3595
1822.58 920.917 3580
1827.05 918.859 3572
1835.59 918.859 3572
1844.13 918.859 3572
1852.68 918.859 3572
1861.22 918.859 3572
1869.76 918.859 3572
1878.3 918.859 3572
1891.07 920.917 3580
1916.08 928.892 3611
1941.24 936.866 3642
1949.95 936.866 3642
1958.66 936.866 3642
1980.87 943.297 3667
1998.32 947.413 3683
2033.83 960.018 3732
2052.06 964.391 3749
2113.25 988.829 3844
2152.26 1002.72 3898
2161.58 1002.72 3898
2180.93 1007.35 3916
2205.95 1014.55 3944
2215.38 1014.55 3944
2224.81 1014.55 3944
2234.25 1014.55 3944
2222.63 1005.03 3907
2231.97 1005.03 3907
2246.48 1007.35 3916
2255.84 1007.35 3916
2270.41 1009.66 3925
2290.83 1014.55 3944
2305.51 1016.87 3953
2314.97 1016.87 3953
2324.42 1016.87 3953
2333.87 1016.87 3953
2354.59 1021.76 3972
2364.09 1021.76 3972
2396.29 1031.53 4010
2405.88 1031.53 4010
2415.47 1031.53 4010
2425.06 1031.53 4010
2446.79 1036.68 4030
2468.01 1041.56 4049
2483.81 1044.14 4059
2493.52 1044.14 4059
2503.22 1044.14 4059
2519.12 1046.71 4069
2528.85 1046.71 4069
2538.58 1046.71 4069
2535.79 1041.56 4049
2545.47 1041.56 4049
2561.46 1044.14 4059
2571.17 1044.14 4059
2580.87 1044.14 4059
2590.58 1044.14 4059
2600.29 1044.14 4059
2609.99 1044.14 4059
2619.7 1044.14 4059
2629.41 1044.14 4059
2632.61 1041.56 4049
2642.29 1041.56 4049
2645.43 1038.99 4039
2655.08 1038.99 4039
2664.74 1038.99 4039
2655.2 1031.53 4010
2664.79 1031.53 4010
2674.38 1031.53 4010
2658.53 1021.76 3972
2668.03 1021.76 3972
2690.34 1026.64 3991
2699.88 1026.64 3991
2729.11 1034.1 4020
2738.72 1034.1 4020
2748.34 1034.1 4020
2757.95 1034.1 4020
2754.48 1029.22 4001
2692.89 1002.72 3898
2702.22 1002.72 3898
2711.54 1002.72 3898
2720.86 1002.72 3898
2704.96 993.459 3862
2688.9 984.198 3826
2698.05 984.198 3826
537.23 184.698 718
538.947 184.698 718
540.664 184.698 718
541.625 184.441 717
543.34 184.441 717
545.055 184.441 717
546.769 184.441 717
548.484 184.441 717
-2343.51 812.657 3130
-2336.02 812.657 3130
-2324.07 811.1 3124
-2312.15 809.542 3118
-2300.26 807.984 3112
-2292.82 807.984 3112
-2281.71 806.686 3107
-2269.89 805.128 3101
-2266.85 806.686 3107
-2267.42 809.542 3118
-2259.96 809.542 3118
-2269.84 815.773 3142
-2266.65 817.331 3148
-2263.43 818.889 3154
-2255.89 818.889 3154
-2252.62 820.447 3160
-2274.9 831.351 3202
-2271.5 832.909 3208
-2263.82 832.909 3208
-2265.3 836.284 3221
-2279.32 844.333 3252
-2293.9 852.641 3284
-2286.04 852.641 3284
-2314.96 866.402 3337
-2306.98 866.402 3337
-2307.96 869.777 3350
-2299.94 869.777 3350
-2296.72 871.595 3357
-2316.65 882.24 3398
-2313.28 884.057 3405
-2305.14 884.057 3405
-2296.99 884.057 3405
-2298.26 887.692 3419
-2304.15 893.144 3440
-2295.93 893.144 3440
-2292.35 894.962 3447
-2293.39 898.597 3461
-2295.02 902.491 3476
-2286.7 902.491 3476
-2287.57 906.126 3490
-2283.79 907.944 3497
-2290.4 913.915 3520
-2281.98 913.915 3520
-2278.08 915.733 3527
-2269.65 915.733 3527
-2265.7 917.55 3534
-2257.25 917.55 3534
-2263.44 923.522 3557
-2260 925.599 3565
-2255.9 927.416 3572
-2247.36 927.416 3572
-2243.83 929.493 3580
-2235.27 929.493 3580
-2231.68 931.57 3588
-2223.1 931.57 3588
-2218.84 933.388 3595
-2215.17 935.465 3603
-2206.55 935.465 3603
-2197.93 935.465 3603
-2189.32 935.465 3603
-2185.54 937.542 3611
-2176.91 937.542 3611
-2168.27 937.542 3611
-2159.64 937.542 3611
-2151 937.542 3611
-2151.86 941.696 3627
-2143.19 941.696 3627
-2134.52 941.696 3627
-2125.84 941.696 3627
-2117.17 941.696 3627
-2108.5 941.696 3627
-2099.82 941.696 3627
-2086.54 939.619 3619
-2077.88 939.619 3619
-2069.23 939.619 3619
-2060.57 939.619 3619
-2056.46 941.696 3627
-2047.78 941.696 3627
-2039.11 941.696 3627
-2030.44 941.696 3627
-2026.22 943.773 3635
-2017.53 943.773 3635
-2008.84 943.773 3635
-2000.15 943.773 3635
-1991.45 943.773 3635
-1982.76 943.773 3635
-1974.07 943.773 3635
-1969.16 945.591 3642
-1960.45 945.591 3642
-1951.74 945.591 3642
-1943.03 945.591 3642
-1938.57 947.668 3650
-1934.07 949.745 3658
-1925.33 949.745 3658
-1916.58 949.745 3658
-1916.7 954.159 3675
-1907.91 954.159 3675
-1899.12 954.159 3675
-1890.33 954.159 3675
-1868.75 947.668 3650
-1860.02 947.668 3650
-1863.97 954.159 3675
-1855.18 954.159 3675
-1846.39 954.159 3675
-1829.11 949.745 3658
-1820.36 949.745 3658
-1811.61 949.745 3658
-1807.3 952.081 3667
-1798.53 952.081 3667
-1789.76 952.081 3667
-1776.62 949.745 3658
-1764.01 947.668 3650
-1744.22 941.696 3627
-1735.55 941.696 3627
-1723.06 939.619 3619
-1703.04 933.388 3595
-1687.37 929.493 3580
-1675.06 927.416 3572
-1666.52 927.416 3572
-1654.73 925.599 3565
-1642.51 923.522 3557
-1634 923.522 3557
-1625.5 923.522 3557
-1613.35 921.445 3549
-1598.09 917.55 3534
-1589.63 917.55 3534
-1581.18 917.55 3534
-1566.5 913.915 3520
-1558.08 913.915 3520
-1546.15 911.838 3512
-1537.75 911.838 3512
-1529.35 911.838 3512
-1517.92 910.021 3505
-1512.55 911.838 3512
-1504.15 911.838 3512
-1495.76 911.838 3512
-1490.75 913.915 3520
-1485.28 915.733 3527
-1479.77 917.55 3534
-1471.32 917.55 3534
-1469.08 921.445 3549
-1463.89 923.522 3557
-1455.38 923.522 3557
-1446.87 923.522 3557
-1444.43 927.416 3572
-1435.89 927.416 3572
-1427.35 927.416 3572
-1418.81 927.416 3572
-1410.27 927.416 3572
-1401.73 927.416 3572
-1402.15 933.388 3595
-1393.56 933.388 3595
-1388.04 935.465 3603
-1382.49 937.542 3611
-1376.9 939.619 3619
-1368.24 939.619 3619
-1362.6 941.696 3627
-1353.92 941.696 3627
-1345.25 941.696 3627
-1336.58 941.696 3627
-1327.9 941.696 3627
-1316.32 939.619 3619
-1307.67 939.619 3619
-1290.4 933.388 3595
-1281.8 933.388 3595
-1270.72 931.57 3588
-1259.33 929.493 3580
-1250.77 929.493 3580
-1237 925.599 3565
-1228.48 925.599 3565
-1212.08 919.627 3542
-1203.61 919.627 3542
-1192.44 917.55 3534
-1179.3 913.915 3520
-1170.89 913.915 3520
-1162.47 913.915 3520
-1151.43 911.838 3512
-1143.03 911.838 3512
-1129.78 907.944 3497
-1121.42 907.944 3497
-1113.06 907.944 3497
-1100.28 904.309 3483
-1082.85 896.779 3454
-1074.59 896.779 3454
-541.904 459.294 1769
-537.674 459.294 1769
-533.443 459.294 1769
-528.017 458.256 1765
-523.796 458.256 1765
-516.337 455.4 1754
-510.099 453.582 1747
-503.894 451.765 1740
-499.733 451.765 1740
-494.433 450.726 1736
-489.717 450.207 1734
-485.01 449.688 1732
-480.869 449.688 1732
-476.727 449.688 1732
-472.312 449.428 1731
-468.173 449.428 1731
-464.034 449.428 1731
-458.3 447.87 1725
-453.385 447.091 1722
-448.224 446.053 1718
-443.599 445.534 1716
-439.495 445.534 1716
-435.138 445.274 1715
-429.529 443.716 1709
-425.193 443.457 1708
-421.109 443.457 1708
-416.048 442.418 1704
-411.248 441.639 1701
-405.744 440.081 1695
-401.691 440.081 1695
-396.934 439.302 1692
-391.727 438.004 1687
-386.773 436.966 1683
-382.749 436.966 1683
-378.049 436.187 1680
-373.586 435.668 1678
-369.574 435.668 1678
-365.561 435.668 1678
-361.333 435.408 1677
-356.897 434.889 1675
-352.891 434.889 1675
-348.886 434.889 1675
-344.88 434.889 1675
-340.468 434.369 1673
-336.467 434.369 1673
-332.864 434.889 1675
-328.859 434.889 1675
-324.853 434.889 1675
-321.231 435.408 1677
-317.788 436.187 1680
-313.771 436.187 1680
-309.753 436.187 1680
-306.1 436.706 1682
-302.078 436.706 1682
-298.587 437.485 1685
-294.558 437.485 1685
-290.529 437.485 1685
-286.839 438.004 1687
-283.308 438.783 1690
-279.267 438.783 1690
-275.551 439.302 1692
-271.505 439.302 1692
-267.775 439.822 1694
-263.724 439.822 1694
-259.827 440.081 1695
-256.075 440.601 1697
-252.611 441.639 1701
-248.544 441.639 1701
-244.907 442.418 1704
-241.398 443.457 1708
-237.452 443.716 1709
-233.366 443.716 1709
-229.547 444.235 1711
-225.719 444.755 1713
-221.882 445.274 1715
-217.781 445.274 1715
-213.679 445.274 1715
-209.701 445.534 1716
-205.597 445.534 1716
-201.494 445.534 1716
-197.39 445.534 1716
-193.512 446.053 1718
-189.624 446.572 1720
-185.511 446.572 1720
-181.714 447.351 1723
-177.8 447.87 1725
-173.675 447.87 1725
-169.55 447.87 1725
-354.101 1036.2 3991
-344.557 1036.2 3991
-335.014 1036.2 3991
-320.903 1021.66 3935
-308.564 1012.06 3898
-299.243 1012.06 3898
-287.914 1005.05 3871
-278.009 1002.71 3862
-269.4 1005.05 3871
-260.143 1005.05 3871
-250.887 1005.05 3871
-242.192 1007.38 3880
-232.913 1007.38 3880
-223.635 1007.38 3880
-213.86 1005.05 3871
-204.603 1005.05 3871
-195.346 1005.05 3871
-186.09 1005.05 3871
-176.833 1005.05 3871
-167.576 1005.05 3871
-157.583 1000.37 3853
-147.676 995.7 3835
-138.506 995.7 3835
-128.762 991.286 3818
-118.535 982.199 3783
-108.997 977.785 3766
-99.9911 977.785 3766
-90.3572 971.035 3740
-81.2396 968.958 3732
-72.0052 964.804 3716
-63.1192 964.804 3716
-53.8682 958.313 3691
-44.7491 952.081 3667
-35.8133 947.668 3650
-27.0851 947.668 3650
-18.2412 941.696 3627
-9.50459 935.465 3603
-0.886748 933.388 3595
7.69497 931.57 3588
16.275 931.57 3588
24.7441 927.416 3572
33.1461 923.522 3557
41.652 923.522 3557
50.1578 923.522 3557
58.4163 919.627 3542
66.8863 919.627 3542
75.1861 917.55 3534
83.6369 917.55 3534
91.9054 915.733 3527
100.34 915.733 3527
108.774 915.733 3527
117.208 915.733 3527
125.393 913.915 3520
133.81 913.915 3520
142.227 913.915 3520
150.645 913.915 3520
159.062 913.915 3520
167.479 913.915 3520
175.897 913.915 3520
184.314 913.915 3520
192.732 913.915 3520
201.149 913.915 3520
209.566 913.915 3520
217.984 913.915 3520
226.401 913.915 3520
234.819 913.915 3520
243.72 915.733 3527
252.154 915.733 3527
260.588 915.733 3527
268.488 913.915 3520
277.456 915.733 3527
286.458 917.55 3534
296.16 921.445 3549
304.647 921.445 3549
313.84 923.522 3557
322.345 923.522 3557
330.851 923.522 3557
339.357 923.522 3557
347.863 923.522 3557
357.17 925.599 3565
365.695 925.599 3565
374.22 925.599 3565
381.887 923.522 3557
387.1 915.733 3527
395.534 915.733 3527
400.532 907.944 3497
406.439 902.491 3476
413.797 900.414 3468
420.386 896.779 3454
428.645 896.779 3454
433.363 889.509 3426
438.849 884.057 3405
446.072 882.24 3398
454.198 882.24 3398
456.745 871.595 3357
464.773 871.595 3357
469.984 866.402 3337
477.964 866.402 3337
483.905 862.767 3323
490.963 861.209 3317
498.895 861.209 3317
506.827 861.209 3317
514.759 861.209 3317
522.691 861.209 3317
530.623 861.209 3317
539.529 862.767 3323
548.628 864.584 3330
556.591 864.584 3330
564.554 864.584 3330
572.517 864.584 3330
580.48 864.584 3330
588.444 864.584 3330
597.66 866.402 3337
605.64 866.402 3337
614.723 867.96 3343
622.717 867.96 3343
630.711 867.96 3343
638.706 867.96 3343
646.7 867.96 3343
654.694 867.96 3343
662.688 867.96 3343
670.682 867.96 3343
678.676 867.96 3343
685.438 866.402 3337
691.963 864.584 3330
699.926 864.584 3330
707.889 864.584 3330
715.852 864.584 3330
723.815 864.584 3330
730.24 862.767 3323
738.186 862.767 3323
746.133 862.767 3323
754.079 862.767 3323
762.025 862.767 3323
769.971 862.767 3323
777.918 862.767 3323
785.864 862.767 3323
793.81 862.767 3323
803.446 864.584 3330
813.114 866.402 3337
821.094 866.402 3337
829.074 866.402 3337
840.315 869.777 3350
850.098 871.595 3357
858.126 871.595 3357
874.926 880.422 3391
888.503 885.875 3412
902.181 891.327 3433
910.39 891.327 3433
926.092 898.597 3461
942.197 906.126 3490
954.628 910.021 3505
963.01 910.021 3505
979.429 917.55 3534
994.309 923.522 3557
1007.04 927.416 3572
1015.59 927.416 3572
1026.42 929.493 3580
1041.63 935.465 3603
1057.24 941.696 3627
1068.27 943.773 3635
1076.96 943.773 3635
1097.6 954.159 3675
1108.79 956.236 3683
1117.6 956.236 3683
1126.41 956.236 3683
1137.68 958.313 3691
1146.51 958.313 3691
1155.33 958.313 3691
1164.16 958.313 3691
1175.53 960.39 3699
1184.38 960.39 3699
1193.22 960.39 3699
1199.47 958.313 3691
1203.05 954.159 3675
1211.84 954.159 3675
1220.63 954.159 3675
1229.42 954.159 3675
1238.21 954.159 3675
1244.28 952.081 3667
1253.05 952.081 3667
1261.82 952.081 3667
1267.47 949.745 3658
1276.22 949.745 3658
1284.96 949.745 3658
1290.88 947.668 3650
1299.61 947.668 3650
1308.34 947.668 3650
1317.07 947.668 3650
1325.79 947.668 3650
1334.52 947.668 3650
1340.31 945.591 3642
1343.46 941.696 3627
1352.13 941.696 3627
1360.81 941.696 3627
1363.44 937.542 3611
1372.07 937.542 3611
1380.71 937.542 3611
1386.27 935.465 3603
1389.07 931.57 3588
1394.54 929.493 3580
1403.1 929.493 3580
1405.74 925.599 3565
1411.1 923.522 3557
1413.62 919.627 3542
1422.09 919.627 3542
1430.56 919.627 3542
1426.84 911.838 3512
1432.37 910.021 3505
1437.47 907.944 3497
1445.83 907.944 3497
1448.37 904.309 3483
1453.77 902.491 3476
1462.08 902.491 3476
1473.36 904.309 3483
1481.69 904.309 3483
1496 907.944 3497
1530.18 923.522 3557
1548.63 929.493 3580
1557.19 929.493 3580
1575.81 935.465 3603
1594.98 941.696 3627
1631.96 958.313 3691
1640.78 958.313 3691
1664.36 966.881 3724
1688.09 975.449 3757
1768.89 1016.73 3916
1778.26 1016.73 3916
1800.41 1024 3944
1822.69 1031.27 3972
1832.18 1031.27 3972
1841.68 1031.27 3972
1860.04 1036.2 3991
1874.26 1038.8 4001
1883.83 1038.8 4001
1893.4 1038.8 4001
1898.21 1036.2 3991
1898.67 1031.27 3972
1890.39 1021.66 3935
1899.8 1021.66 3935
1882.53 1007.38 3880
1869.87 995.7 3835
1857.97 984.536 3792
1867.04 984.536 3792
1854.83 973.372 3749
1851.37 966.881 3724
1831.8 952.081 3667
1820.49 941.696 3627
1829.16 941.696 3627
1821.62 933.388 3595
1822.58 929.493 3580
1827.05 927.416 3572
1839.7 929.493 3580
1848.26 929.493 3580
1856.82 929.493 3580
1861.22 927.416 3572
1869.76 927.416 3572
1878.3 927.416 3572
1891.07 929.493 3580
1916.08 937.542 3611
1941.24 945.591 3642
1949.95 945.591 3642
1958.66 945.591 3642
1980.87 952.081 3667
1998.32 956.236 3683
2033.83 968.958 3732
2052.06 973.372 3749
2113.25 998.037 3844
2152.26 1012.06 3898
2161.58 1012.06 3898
2180.93 1016.73 3916
2205.95 1024 3944
2215.38 1024 3944
2224.81 1024 3944
2234.25 1024 3944
2222.63 1014.39 3907
2231.97 1014.39 3907
2246.48 1016.73 3916
2255.84 1016.73 3916
2270.41 1019.07 3925
2290.83 1024 3944
2305.51 1026.34 3953
2314.97 1026.34 3953
2324.42 1026.34 3953
2333.87 1026.34 3953
2354.59 1031.27 3972
2364.09 1031.27 3972
2396.29 1041.14 4010
2405.88 1041.14 4010
2415.47 1041.14 4010
2425.06 1041.14 4010
2446.79 1046.33 4030
2468.01 1051.26 4049
2483.81 1053.86 4059
2493.52 1053.86 4059
2503.22 1053.86 4059
2519.12 1056.45 4069
2528.85 1056.45 4069
2538.58 1056.45 4069
2535.79 1051.26 4049
2545.47 1051.26 4049
2561.46 1053.86 4059
2571.17 1053.86 4059
2580.87 1053.86 4059
2590.58 1053.86 4059
2600.29 1053.86 4059
2609.99 1053.86 4059
2619.7 1053.86 4059
2629.41 1053.86 4059
2632.61 1051.26 4049
2642.29 1051.26 4049
2645.43 1048.67 4039
2655.08 1048.67 4039
2664.74 1048.67 4039
2655.2 1041.14 4010
2664.79 1041.14 4010
2674.38 1041.14 4010
2658.53 1031.27 3972
2668.03 1031.27 3972
2690.34 1036.2 3991
2699.88 1036.2 3991
2729.11 1043.73 4020
2738.72 1043.73 4020
2748.34 1043.73 4020
2757.95 1043.73 4020
2754.48 1038.8 4001
2692.89 1012.06 3898
2702.22 1012.06 3898
2711.54 1012.06 3898
2720.86 1012.06 3898
2704.96 1002.71 3862
2688.9 993.363 3826
2698.05 993.363 3826
537.23 186.418 718
538.947 186.418 718
540.664 186.418 718
541.625 186.158 717
543.34 186.158 717
545.055 186.158 717
546.769 186.158 717
548.484 186.158 717
-2343.51 820.155 3130
-2336.02 820.155 3130
-2324.07 818.583 3124
-2312.15 817.011 3118
-2300.26 815.439 3112
-2292.82 815.439 3112
-2281.71 814.129 3107
-2274.28 814.129 3107
-2266.85 814.129 3107
-2267.42 817.011 3118
-2259.96 817.011 3118
-2269.84 823.3 3142
-2266.65 824.872 3148
-2263.43 826.444 3154
-2255.89 826.444 3154
-2252.62 828.016 3160
-2274.9 839.022 3202
-2271.5 840.594 3208
-2263.82 840.594 3208
-2265.3 844 3221
-2279.32 852.123 3252
-2293.9 860.508 3284
-2286.04 860.508 3284
-2314.96 874.396 3337
-2311.13 875.968 3343
-2307.96 877.802 3350
-2299.94 877.802 3350
-2305.62 883.043 3370
-2321.42 892.214 3405
-2318.03 894.048 3412
-2309.87 894.048 3412
-2306.44 895.882 3419
-2312.38 901.385 3440
-2304.15 901.385 3440
-2295.93 901.385 3440
-2297.01 905.053 3454
-2298.03 908.722 3468
-2295.02 910.818 3476
-2286.7 910.818 3476
-2287.57 914.486 3490
-2283.79 916.321 3497
-2290.4 922.347 3520
-2281.98 922.347 3520
-2278.08 924.182 3527
-2269.65 924.182 3527
-2265.7 926.016 3534
-2257.25 926.016 3534
-2263.44 932.042 3557
-2260 934.139 3565
-2255.9 935.973 3572
-2247.36 935.973 3572
-2243.83 938.069 3580
-2235.27 938.069 3580
-2231.68 940.165 3588
-2223.1 940.165 3588
-2218.84 942 3595
-2215.17 944.096 3603
-2206.55 944.096 3603
-2197.93 944.096 3603
-2189.32 944.096 3603
-2185.54 946.192 3611
-2176.91 946.192 3611
-2168.27 946.192 3611
-2159.64 946.192 3611
-2151 946.192 3611
-2151.86 950.385 3627
-2143.19 950.385 3627
-2134.52 950.385 3627
-2125.84 950.385 3627
-2117.17 950.385 3627
-2108.5 950.385 3627
-2099.82 950.385 3627
-2086.54 948.288 3619
-2077.88 948.288 3619
-2069.23 948.288 3619
-2060.57 948.288 3619
-2056.46 950.385 3627
-2047.78 950.385 3627
-2039.11 950.385 3627
-2030.44 950.385 3627
-2026.22 952.481 3635
-2017.53 952.481 3635
-2008.84 952.481 3635
-2000.15 952.481 3635
-1991.45 952.481 3635
-1982.76 952.481 3635
-1974.07 952.481 3635
-1969.16 954.315 3642
-1960.45 954.315 3642
-1951.74 954.315 3642
-1943.03 954.315 3642
-1938.57 956.411 3650
-1934.07 958.508 3658
-1925.33 958.508 3658
-1916.58 958.508 3658
-1916.7 962.962 3675
-1907.91 962.962 3675
-1899.12 962.962 3675
-1890.33 962.962 3675
-1872.84 958.508 3658
-1872.76 962.962 3675
-1868.03 965.058 3683
-1859.22 965.058 3683
-1850.41 965.058 3683
-1841.61 965.058 3683
-1832.8 965.058 3683
-1820.03 962.962 3675
-1815.19 965.058 3683
-1806.38 965.058 3683
-1797.57 965.058 3683
-1788.76 965.058 3683
-1767.87 958.508 3658
-1748.07 952.481 3635
-1739.37 952.481 3635
-1726.87 950.385 3627
-1714.41 948.288 3619
-1694.44 942 3595
-1678.81 938.069 3580
-1670.25 938.069 3580
-1654.73 934.139 3565
-1642.51 932.042 3557
-1630.33 929.946 3549
-1621.84 929.946 3549
-1610.17 928.112 3542
-1598.09 926.016 3534
-1586.49 924.182 3527
-1578.05 924.182 3527
-1566.5 922.347 3520
-1554.54 920.251 3512
-1543.06 918.417 3505
-1534.68 918.417 3505
-1526.3 918.417 3505
-1514.45 916.321 3497
-1509.54 918.417 3505
-1501.16 918.417 3505
-1492.77 918.417 3505
-1490.75 922.347 3520
-1485.28 924.182 3527
-1479.77 926.016 3534
-1471.32 926.016 3534
-1469.08 929.946 3549
-1463.89 932.042 3557
-1455.38 932.042 3557
-1446.87 932.042 3557
-1441.6 934.139 3565
-1435.89 935.973 3572
-1427.35 935.973 3572
-1418.81 935.973 3572
-1407.5 934.139 3565
-1401.73 935.973 3572
-1396.3 938.069 3580
-1387.74 938.069 3580
-1384.96 942 3595
-1379.43 944.096 3603
-1373.85 946.192 3611
-1365.22 946.192 3611
-1359.59 948.288 3619
-1350.94 948.288 3619
-1342.28 948.288 3619
-1333.63 948.288 3619
-1324.97 948.288 3619
-1307.59 942 3595
-1298.99 942 3595
-1287.88 940.165 3588
-1279.3 940.165 3588
-1267.89 938.069 3580
-1259.33 938.069 3580
-1250.77 938.069 3580
-1237 934.139 3565
-1222.97 929.946 3549
-1212.08 928.112 3542
-1203.61 928.112 3542
-1187.72 922.347 3520
-1176.62 920.251 3512
-1168.22 920.251 3512
-1159.83 920.251 3512
-1149.13 918.417 3505
-1138.15 916.321 3497
-1123 910.818 3476
-1114.69 910.818 3476
-1103.83 908.722 3468
-1091.11 905.053 3454
-1082.85 905.053 3454
-1074.59 905.053 3454
-545.274 466.414 1780
-541.017 466.414 1780
-536.76 466.414 1780
