ply
format ascii 1.0
comment File generated
element vertex 2247
property float x
property float y
property float z
end_header
-1720.78 1132.97 2524
-1717.46 1134.77 2528
-1726.99 1145.09 2551
-1720.89 1145.09 2551
-1730.25 1155.42 2574
-1726.77 1157.21 2578
-1728.62 1162.6 2590
-1722.42 1162.6 2590
-1716.23 1162.6 2590
-1692.21 1150.48 2563
-1461.45 1192.23 2656
-1455.1 1192.23 2656
-1448.75 1192.23 2656
-1435.88 1186.84 2644
-1429.56 1186.84 2644
-1416.24 1181 2631
-1409.95 1181 2631
-1444.74 1215.57 2708
-1443.04 1219.61 2717
-1436.54 1219.61 2717
-1430.05 1219.61 2717
-1425.65 1221.4 2721
-1421.75 1223.65 2726
-1415.23 1223.65 2726
-1408.71 1223.65 2726
-1384.19 1207.94 2691
-1377.75 1207.94 2691
-1309.01 1203.9 2682
-1308.91 1209.73 2695
-1302.47 1209.73 2695
-1296.02 1209.73 2695
-1289.58 1209.73 2695
-1283.13 1209.73 2695
-1276.69 1209.73 2695
-1266 1205.69 2686
-1247.85 1194.47 2661
-1231.69 1185.04 2640
-1219.35 1179.21 2627
-1213.06 1179.21 2627
-1199.43 1172.03 2611
-1189.53 1168.44 2603
-1183.31 1168.44 2603
-1177.08 1168.44 2603
-1163.21 1160.8 2586
-1158.82 1162.6 2590
-1152.63 1162.6 2590
-1146.43 1162.6 2590
-1140.24 1162.6 2590
-1130.54 1159.01 2582
-1124.37 1159.01 2582
-1118.19 1159.01 2582
-1108.57 1155.42 2574
-1097.71 1150.48 2563
-1091.58 1150.48 2563
-1126.95 1194.47 2661
-1120.59 1194.47 2661
-1121.34 1202.1 2678
-1132.84 1221.4 2721
-1154.9 1252.38 2790
-1148.23 1252.38 2790
-1149.33 1260.9 2809
-1142.61 1260.9 2809
-1135.89 1260.9 2809
-1129.18 1260.9 2809
-1122.46 1260.9 2809
-1115.74 1260.9 2809
-1109.03 1260.9 2809
-1102.31 1260.9 2809
-1095.59 1260.9 2809
-1088.87 1260.9 2809
-1082.16 1260.9 2809
-1075.44 1260.9 2809
-1068.72 1260.9 2809
-1062.01 1260.9 2809
-1055.29 1260.9 2809
-1046.7 1258.66 2804
-1040 1258.66 2804
-1033.29 1258.66 2804
-1026.59 1258.66 2804
-1018.07 1256.42 2799
-1006.31 1250.13 2785
-996.423 1246.09 2776
-989.785 1246.09 2776
-979.959 1242.05 2767
-973.343 1242.05 2767
-963.232 1237.56 2757
-956.639 1237.56 2757
-946.945 1233.52 2748
-940.374 1233.52 2748
-933.803 1233.52 2748
-931.955 1239.81 2762
-925.35 1239.81 2762
-918.746 1239.81 2762
-909.169 1235.77 2753
-902.585 1235.77 2753
-896.002 1235.77 2753
-892.326 1239.81 2762
-885.722 1239.81 2762
-879.117 1239.81 2762
-872.512 1239.81 2762
-865.907 1239.81 2762
-859.303 1239.81 2762
-848.376 1233.52 2748
-841.804 1233.52 2748
-831.282 1227.69 2735
-823.234 1225.44 2730
-812.816 1219.61 2717
-806.319 1219.61 2717
-792.168 1207.94 2691
-781.938 1202.1 2678
-771.769 1196.27 2665
-765.396 1196.27 2665
-493.009 777.012 1731
-488.87 777.012 1731
-484.73 777.012 1731
-480.591 777.012 1731
-476.452 777.012 1731
-471.221 775.216 1727
-467.091 775.216 1727
-462.961 775.216 1727
-458.832 775.216 1727
-455.228 776.114 1729
-451.094 776.114 1729
-446.959 776.114 1729
-442.825 776.114 1729
-438.183 775.216 1727
-434.053 775.216 1727
-429.425 774.318 1725
-425.3 774.318 1725
-421.175 774.318 1725
-416.567 773.421 1723
-412.447 773.421 1723
-408.326 773.421 1723
-404.206 773.421 1723
-400.086 773.421 1723
-395.736 772.972 1722
-391.618 772.972 1722
-387.5 772.972 1722
-383.382 772.972 1722
-378.824 772.074 1720
-374.711 772.074 1720
-370.598 772.074 1720
-366.485 772.074 1720
-361.951 771.176 1718
-357.842 771.176 1718
-353.734 771.176 1718
-349.626 771.176 1718
-345.517 771.176 1718
-341.409 771.176 1718
-336.908 770.278 1716
-332.805 770.278 1716
-329.084 771.176 1718
-324.976 771.176 1718
-320.868 771.176 1718
-316.76 771.176 1718
-312.651 771.176 1718
-308.902 772.074 1720
-304.789 772.074 1720
-301.026 772.972 1722
-296.908 772.972 1722
-292.79 772.972 1722
-288.672 772.972 1722
-284.555 772.972 1722
-280.437 772.972 1722
-276.479 773.421 1723
-272.359 773.421 1723
-268.239 773.421 1723
-264.119 773.421 1723
-260.3 774.318 1725
-256.175 774.318 1725
-252.05 774.318 1725
-247.925 774.318 1725
-243.8 774.318 1725
-239.675 774.318 1725
-235.55 774.318 1725
-231.694 775.216 1727
-227.827 776.114 1729
-223.952 777.012 1731
-219.812 777.012 1731
-215.798 777.46 1732
-212.145 779.256 1736
-208.473 781.052 1740
-204.312 781.052 1740
-200.151 781.052 1740
-196.103 781.5 1741
-191.939 781.5 1741
-187.776 781.5 1741
-184.035 783.296 1745
-180.068 784.194 1747
-176.092 785.091 1749
-171.909 785.091 1749
-167.919 785.989 1751
-164.012 787.336 1754
-159.818 787.336 1754
-155.623 787.336 1754
-151.429 787.336 1754
-197.248 1190.43 2652
-193.714 1207.94 2691
-188.462 1215.57 2708
-181.986 1215.57 2708
-175.835 1217.81 2713
-169.347 1217.81 2713
-162.859 1217.81 2713
-156.372 1217.81 2713
-149.884 1217.81 2713
-142.921 1213.77 2704
-136.657 1215.57 2708
-130.181 1215.57 2708
-123.705 1215.57 2708
-117.23 1215.57 2708
-110.754 1215.57 2708
-104.278 1215.57 2708
-97.3332 1209.73 2695
-91.0235 1211.53 2699
-84.5694 1211.53 2699
-78.1153 1211.53 2699
-71.7939 1213.77 2704
-65.4244 1215.57 2708
-58.9488 1215.57 2708
-52.4731 1215.57 2708
-46.3712 1225.44 2730
-40.0473 1231.73 2744
-33.5343 1233.52 2748
-26.963 1233.52 2748
-20.4288 1235.77 2753
-13.8908 1239.81 2762
-7.28606 1239.81 2762
-0.681279 1239.81 2762
5.91278 1237.56 2757
12.4875 1235.77 2753
19.0707 1235.77 2753
25.5235 1229.48 2739
31.7688 1217.81 2713
38.5667 1227.69 2735
45.4037 1235.77 2753
51.987 1235.77 2753
58.5703 1235.77 2753
64.9405 1231.73 2744
71.372 1229.48 2739
77.9217 1229.48 2739
84.194 1225.44 2730
90.7222 1225.44 2730
97.2505 1225.44 2730
103.779 1225.44 2730
109.418 1215.57 2708
115.894 1215.57 2708
121.963 1211.53 2699
128.417 1211.53 2699
134.871 1211.53 2699
141.587 1213.77 2704
148.272 1215.57 2708
155.262 1219.61 2717
161.759 1219.61 2717
168.256 1219.61 2717
175.332 1223.65 2726
181.851 1223.65 2726
188.37 1223.65 2726
193.959 1217.81 2713
200.447 1217.81 2713
206.934 1217.81 2713
213.736 1219.61 2717
220.234 1219.61 2717
226.731 1219.61 2717
233.571 1221.4 2721
240.872 1225.44 2730
247.4 1225.44 2730
254.394 1227.69 2735
260.934 1227.69 2735
267.474 1227.69 2735
272.211 1219.61 2717
277.785 1215.57 2708
284.261 1215.57 2708
290.736 1215.57 2708
296.773 1213.77 2704
302.23 1209.73 2695
306.154 1199.86 2673
312.546 1199.86 2673
316.91 1192.23 2656
320.218 1181 2631
325.517 1177.41 2623
331.284 1175.62 2619
338.062 1177.41 2623
344.334 1177.41 2623
350.607 1177.41 2623
355.791 1173.82 2615
362.044 1173.82 2615
367.17 1170.23 2607
375.123 1175.62 2619
382.551 1179.21 2627
390.017 1182.8 2635
396.318 1182.8 2635
407.814 1198.06 2669
415.594 1202.1 2678
425.307 1211.53 2699
431.761 1211.53 2699
438.215 1211.53 2699
444.669 1211.53 2699
454.8 1221.4 2721
461.307 1221.4 2721
472.456 1233.52 2748
483.908 1246.09 2776
490.546 1246.09 2776
497.185 1246.09 2776
503.823 1246.09 2776
513.035 1252.38 2790
520.452 1254.17 2794
527.134 1254.17 2794
533.815 1254.17 2794
539.722 1252.38 2790
546.394 1252.38 2790
552.075 1250.13 2785
556.929 1246.09 2776
562.552 1243.85 2771
569.178 1243.85 2771
573.935 1239.81 2762
576.756 1231.73 2744
577.578 1219.61 2717
574.616 1199.86 2673
581.008 1199.86 2673
584.763 1194.47 2661
591.127 1194.47 2661
595.469 1190.43 2652
601.811 1190.43 2652
606.318 1186.84 2644
615.421 1192.23 2656
621.772 1192.23 2656
628.124 1192.23 2656
634.475 1192.23 2656
638.896 1188.63 2648
644.254 1186.84 2644
653.529 1192.23 2656
662.116 1196.27 2665
668.489 1196.27 2665
676.888 1199.86 2673
683.28 1199.86 2673
689.672 1199.86 2673
693.98 1196.27 2665
700.353 1196.27 2665
707.787 1198.06 2669
720.056 1207.94 2691
726.491 1207.94 2691
740.007 1219.61 2717
747.603 1221.4 2721
756.604 1225.44 2730
763.133 1225.44 2730
769.661 1225.44 2730
776.189 1225.44 2730
782.718 1225.44 2730
789.246 1225.44 2730
791.985 1219.61 2717
804.947 1229.48 2739
812.978 1231.73 2744
819.54 1231.73 2744
826.102 1231.73 2744
832.664 1231.73 2744
839.225 1231.73 2744
841.472 1225.44 2730
845.204 1221.4 2721
851.711 1221.4 2721
862.634 1227.69 2735
876.165 1237.56 2757
882.758 1237.56 2757
892.577 1242.05 2767
899.194 1242.05 2767
905.81 1242.05 2767
909.129 1237.56 2757
919.044 1242.05 2767
925.66 1242.05 2767
932.277 1242.05 2767
938.894 1242.05 2767
945.511 1242.05 2767
950.407 1239.81 2762
957.012 1239.81 2762
961.872 1237.56 2757
967.06 1235.77 2753
965.509 1225.44 2730
972.037 1225.44 2730
977.131 1223.65 2726
978.959 1217.81 2713
982.178 1213.77 2704
988.644 1213.77 2704
995.11 1213.77 2704
1001.58 1213.77 2704
1006.18 1211.53 2699
1011.13 1209.73 2695
1017.58 1209.73 2695
1024.02 1209.73 2695
1030.47 1209.73 2695
1031.91 1203.9 2682
1038.32 1203.9 2682
1039.67 1198.06 2669
1040.96 1192.23 2656
1052.44 1198.06 2669
1060.4 1199.86 2673
1066.8 1199.86 2673
1073.19 1199.86 2673
1079.58 1199.86 2673
1085.97 1199.86 2673
1094.41 1202.1 2678
1100.81 1202.1 2678
1107.22 1202.1 2678
1116.95 1205.69 2686
1123.37 1205.69 2686
1129.79 1205.69 2686
1149.33 1219.61 2717
1155.83 1219.61 2717
1177.72 1235.77 2753
1184.31 1235.77 2753
1190.89 1235.77 2753
1284.72 1194.47 2661
1293.03 1196.27 2665
1301.35 1198.06 2669
1307.73 1198.06 2669
1322.48 1205.69 2686
1335.34 1211.53 2699
1341.79 1211.53 2699
1348.25 1211.53 2699
1354.7 1211.53 2699
1350.56 1202.1 2678
1343.79 1190.43 2652
1350.14 1190.43 2652
1341.64 1177.41 2623
1347.92 1177.41 2623
1356.25 1179.21 2627
1366.69 1182.8 2635
1372.99 1182.8 2635
1390.28 1192.23 2656
1401.36 1196.27 2665
1407.74 1196.27 2665
1414.11 1196.27 2665
1411.42 1188.63 2648
1376.53 1154.07 2571
1355.25 1131.18 2520
1378.02 1145.09 2551
1384.12 1145.09 2551
1445.26 1190.43 2652
1472.95 1207.94 2691
1481.58 1209.73 2695
1488.03 1209.73 2695
1499.46 1213.77 2704
1508.16 1215.57 2708
1519.67 1219.61 2717
1526.16 1219.61 2717
1542.82 1227.69 2735
1554.45 1231.73 2744
1561.02 1231.73 2744
1567.58 1231.73 2744
1568.98 1227.69 2735
1565.15 1219.61 2717
1571.65 1219.61 2717
1565.36 1209.73 2695
1556.64 1198.06 2669
1563.03 1198.06 2669
1574.7 1202.1 2678
1583.47 1203.9 2682
1589.88 1203.9 2682
1596.29 1203.9 2682
1605.1 1205.69 2686
1611.52 1205.69 2686
1617.94 1205.69 2686
1614.09 1198.06 2669
1615.61 1194.47 2661
1621.97 1194.47 2661
1628.34 1194.47 2661
1634.7 1194.47 2661
1637.98 1192.23 2656
1644.33 1192.23 2656
1643.23 1186.84 2644
1636.45 1177.41 2623
1642.72 1177.41 2623
1662.19 1186.84 2644
1679.24 1194.47 2661
1685.61 1194.47 2661
1713.59 1209.73 2695
1728.33 1215.57 2708
1740.57 1219.61 2717
1747.07 1219.61 2717
1753.57 1219.61 2717
1765.89 1223.65 2726
1772.41 1223.65 2726
1778.93 1223.65 2726
1785.45 1223.65 2726
1791.97 1223.65 2726
1801.13 1225.44 2730
1807.65 1225.44 2730
1814.18 1225.44 2730
1824.05 1227.69 2735
1830.59 1227.69 2735
1837.13 1227.69 2735
1855.8 1235.77 2753
1862.38 1235.77 2753
1868.97 1235.77 2753
1875.55 1235.77 2753
1866.41 1225.44 2730
1870.19 1223.65 2726
1861.57 1213.77 2704
1868.03 1213.77 2704
-1910.36 1185.5 2627
-1904.08 1185.5 2627
-1897.8 1185.5 2627
-1877.12 1176.48 2607
-1861.55 1170.61 2594
-1855.35 1170.61 2594
-1840.59 1165.19 2582
-1834.42 1165.19 2582
-1817.62 1158.42 2567
-1811.48 1158.42 2567
-1794.09 1151.2 2551
-1785.19 1149.4 2547
-1768.62 1142.63 2532
-1762.57 1142.63 2532
-1738.89 1139.02 2524
-1732.85 1139.02 2524
-1726.82 1139.02 2524
-1720.78 1139.02 2524
-1717.46 1140.82 2528
-1714.13 1142.63 2532
-1708.07 1142.63 2532
-1722.86 1156.62 2563
-1726.77 1163.39 2578
-1728.62 1168.8 2590
-1722.42 1168.8 2590
-1716.23 1168.8 2590
-1692.21 1156.62 2563
-1461.45 1198.59 2656
-1455.1 1198.59 2656
-1448.75 1198.59 2656
-1435.88 1193.17 2644
-1429.56 1193.17 2644
-1416.24 1187.31 2631
-1409.95 1187.31 2631
-1444.74 1222.05 2708
-1443.04 1226.12 2717
-1436.54 1226.12 2717
-1430.05 1226.12 2717
-1425.65 1227.92 2721
-1421.75 1230.18 2726
-1415.23 1230.18 2726
-1408.71 1230.18 2726
-1384.19 1214.38 2691
-1377.75 1214.38 2691
-1298.76 1200.84 2661
-1302.6 1210.32 2682
-1296.18 1210.32 2682
-1289.77 1210.32 2682
-1283.36 1210.32 2682
-1276.94 1210.32 2682
-1270.53 1210.32 2682
-1256.1 1202.65 2665
-1247.85 1200.84 2661
-1231.69 1191.37 2640
-1219.35 1185.5 2627
-1213.06 1185.5 2627
-1199.43 1178.28 2611
-1189.53 1174.67 2603
-1183.31 1174.67 2603
-1177.08 1174.67 2603
-1163.21 1167 2586
-1158.82 1168.8 2590
-1152.63 1168.8 2590
-1146.43 1168.8 2590
-1140.24 1168.8 2590
-1130.54 1165.19 2582
-1124.37 1165.19 2582
-1118.19 1165.19 2582
-1108.57 1161.58 2574
-1097.71 1156.62 2563
-1091.58 1156.62 2563
-1126.95 1200.84 2661
-1120.59 1200.84 2661
-1121.34 1208.52 2678
-1132.84 1227.92 2721
-1154.9 1259.06 2790
-1148.23 1259.06 2790
-1149.33 1267.63 2809
-1142.61 1267.63 2809
-1135.89 1267.63 2809
-1129.18 1267.63 2809
-1122.46 1267.63 2809
-1115.74 1267.63 2809
-1109.03 1267.63 2809
-1102.31 1267.63 2809
-1095.59 1267.63 2809
-1088.87 1267.63 2809
-1082.16 1267.63 2809
-1075.44 1267.63 2809
-1068.72 1267.63 2809
-1062.01 1267.63 2809
-1055.29 1267.63 2809
-1046.7 1265.38 2804
-1040 1265.38 2804
-1033.29 1265.38 2804
-1026.59 1265.38 2804
-1018.07 1263.12 2799
-1006.31 1256.8 2785
-996.423 1252.74 2776
-989.785 1252.74 2776
-979.959 1248.68 2767
-973.343 1248.68 2767
-963.232 1244.17 2757
-956.639 1244.17 2757
-946.945 1240.11 2748
-940.374 1240.11 2748
-933.803 1240.11 2748
-931.955 1246.42 2762
-925.35 1246.42 2762
-918.746 1246.42 2762
-909.169 1242.36 2753
-902.585 1242.36 2753
-896.002 1242.36 2753
-892.326 1246.42 2762
-885.722 1246.42 2762
-879.117 1246.42 2762
-872.512 1246.42 2762
-865.907 1246.42 2762
-859.303 1246.42 2762
-848.376 1240.11 2748
-841.804 1240.11 2748
-831.282 1234.24 2735
-823.234 1231.98 2730
-812.816 1226.12 2717
-806.319 1226.12 2717
-792.168 1214.38 2691
-781.938 1208.52 2678
-771.769 1202.65 2665
-765.396 1202.65 2665
-493.009 781.158 1731
-488.87 781.158 1731
-484.73 781.158 1731
-480.591 781.158 1731
-476.452 781.158 1731
-471.221 779.353 1727
-467.091 779.353 1727
-462.961 779.353 1727
-458.832 779.353 1727
-455.228 780.256 1729
-451.094 780.256 1729
-446.959 780.256 1729
-442.825 780.256 1729
-438.183 779.353 1727
-434.053 779.353 1727
-429.425 778.451 1725
-425.3 778.451 1725
-421.175 778.451 1725
-416.567 777.548 1723
-412.447 777.548 1723
-408.326 777.548 1723
-404.206 777.548 1723
-400.086 777.548 1723
-395.736 777.097 1722
-391.618 777.097 1722
-387.5 777.097 1722
-383.382 777.097 1722
-378.824 776.194 1720
-374.711 776.194 1720
-370.598 776.194 1720
-366.485 776.194 1720
-361.951 775.292 1718
-357.842 775.292 1718
-353.734 775.292 1718
-349.626 775.292 1718
-345.517 775.292 1718
-341.409 775.292 1718
-336.908 774.389 1716
-332.805 774.389 1716
-329.468 776.194 1720
-325.355 776.194 1720
-321.241 776.194 1720
-317.128 776.194 1720
-313.015 776.194 1720
-308.902 776.194 1720
-304.789 776.194 1720
-301.026 777.097 1722
-296.908 777.097 1722
-292.79 777.097 1722
-288.672 777.097 1722
-284.555 777.097 1722
-280.6 777.548 1723
-276.479 777.548 1723
-272.675 778.451 1725
-268.55 778.451 1725
-264.425 778.451 1725
-260.3 778.451 1725
-256.175 778.451 1725
-252.05 778.451 1725
-247.925 778.451 1725
-243.8 778.451 1725
-239.953 779.353 1727
-235.823 779.353 1727
-231.694 779.353 1727
-227.827 780.256 1729
-224.081 781.609 1732
-219.939 781.609 1732
-215.798 781.609 1732
-212.633 785.22 1740
-208.473 785.22 1740
-204.312 785.22 1740
-200.151 785.22 1740
-196.103 785.671 1741
-192.16 786.574 1743
-187.992 786.574 1743
-184.246 788.379 1747
-180.068 788.379 1747
-176.293 790.184 1751
-172.106 790.184 1751
-168.015 790.635 1752
-164.012 791.538 1754
-160.364 794.245 1760
-156.156 794.245 1760
-151.947 794.245 1760
-195.686 1187.31 2631
-191.842 1202.65 2665
-187.835 1217.99 2699
-181.381 1217.99 2699
-175.51 1222.05 2708
-169.347 1224.31 2713
-162.859 1224.31 2713
-156.372 1224.31 2713
-149.387 1220.25 2704
-142.921 1220.25 2704
-136.455 1220.25 2704
-129.989 1220.25 2704
-123.705 1222.05 2708
-117.23 1222.05 2708
-110.754 1222.05 2708
-103.932 1217.99 2699
-97.3332 1216.19 2695
-91.0235 1217.99 2699
-84.5694 1217.99 2699
-78.1153 1217.99 2699
-71.6611 1217.99 2699
-65.207 1217.99 2699
-58.8617 1220.25 2704
-52.3956 1220.25 2704
-46.0824 1224.31 2713
-39.9159 1234.24 2735
-33.4855 1238.3 2744
-26.9238 1238.3 2744
-20.3917 1240.11 2748
-13.8204 1240.11 2748
-7.24913 1240.11 2748
-0.677826 1240.11 2748
5.8849 1238.3 2744
12.3242 1226.12 2717
18.8213 1226.12 2717
25.2346 1222.05 2708
31.5581 1216.19 2695
38.2564 1224.31 2713
45.1069 1234.24 2735
51.6471 1234.24 2735
58.1873 1234.24 2735
64.7275 1234.24 2735
71.0332 1230.18 2726
77.5519 1230.18 2726
83.6697 1224.31 2713
90.1573 1224.31 2713
96.4668 1222.05 2708
102.942 1222.05 2708
109.054 1217.99 2699
115.166 1214.38 2691
121.014 1208.52 2678
127.418 1208.52 2678
133.822 1208.52 2678
141.116 1216.19 2695
147.56 1216.19 2695
154.748 1222.05 2708
161.223 1222.05 2708
167.699 1222.05 2708
174.175 1222.05 2708
180.65 1222.05 2708
187.126 1222.05 2708
193.316 1220.25 2704
198.821 1214.38 2691
204.265 1208.52 2678
210.668 1208.52 2678
217.072 1208.52 2678
223.476 1208.52 2678
231.339 1216.19 2695
238.578 1220.25 2704
245.044 1220.25 2704
252.719 1226.12 2717
259.217 1226.12 2717
265.714 1226.12 2717
271.309 1222.05 2708
276.451 1216.19 2695
282.476 1214.38 2691
288.911 1214.38 2691
294.797 1212.13 2686
299.314 1204.45 2669
305.696 1204.45 2669
312.079 1204.45 2669
315.955 1194.98 2648
320.218 1187.31 2631
325.021 1181.89 2619
331.284 1181.89 2619
337.546 1181.89 2619
342.759 1178.28 2611
349.003 1178.28 2611
354.702 1176.48 2607
360.936 1176.48 2607
364.213 1167 2586
370.397 1167 2586
379.639 1176.48 2607
388.833 1185.5 2627
395.115 1185.5 2627
401.397 1185.5 2627
412.179 1198.59 2656
418.531 1198.59 2656
424.882 1198.59 2656
431.233 1198.59 2656
437.585 1198.59 2656
445.44 1202.65 2665
451.813 1202.65 2665
467.126 1226.12 2717
474.321 1227.92 2721
483.301 1234.24 2735
489.841 1234.24 2735
498.015 1238.3 2744
506.967 1244.17 2757
519.707 1259.06 2790
526.379 1259.06 2790
533.051 1259.06 2790
537.788 1254.55 2780
544.436 1254.55 2780
550.291 1252.74 2776
555.123 1248.68 2767
560.725 1246.42 2762
563.632 1238.3 2744
570.194 1238.3 2744
571.081 1226.12 2717
570.988 1212.13 2686
572.897 1202.65 2665
579.27 1202.65 2665
582.786 1196.78 2652
589.127 1196.78 2652
592.775 1191.37 2640
599.995 1193.17 2644
606.318 1193.17 2644
614.494 1196.78 2652
620.836 1196.78 2652
627.178 1196.78 2652
633.519 1196.78 2652
637.931 1193.17 2644
644.254 1193.17 2644
650.576 1193.17 2644
661.122 1200.84 2661
667.486 1200.84 2661
673.849 1200.84 2661
680.212 1200.84 2661
686.575 1200.84 2661
690.595 1196.78 2652
696.937 1196.78 2652
704.339 1198.59 2656
713.099 1202.65 2665
719.472 1202.65 2665
735.105 1217.99 2699
746.504 1226.12 2717
756.604 1231.98 2730
763.133 1231.98 2730
769.661 1231.98 2730
776.189 1231.98 2730
782.718 1231.98 2730
789.246 1231.98 2730
791.985 1226.12 2717
803.772 1234.24 2735
812.978 1238.3 2744
819.54 1238.3 2744
826.102 1238.3 2744
832.664 1238.3 2744
839.225 1238.3 2744
841.472 1231.98 2730
845.204 1227.92 2721
851.711 1227.92 2721
862.634 1234.24 2735
876.165 1244.17 2757
882.758 1244.17 2757
892.577 1248.68 2767
899.194 1248.68 2767
905.81 1248.68 2767
909.129 1244.17 2757
919.044 1248.68 2767
925.66 1248.68 2767
932.277 1248.68 2767
938.894 1248.68 2767
945.511 1248.68 2767
950.407 1246.42 2762
957.012 1246.42 2762
961.872 1244.17 2757
967.06 1242.36 2753
965.509 1231.98 2730
972.037 1231.98 2730
977.131 1230.18 2726
978.959 1224.31 2713
982.178 1220.25 2704
988.644 1220.25 2704
995.11 1220.25 2704
1001.58 1220.25 2704
1006.18 1217.99 2699
1011.13 1216.19 2695
1017.58 1216.19 2695
1024.02 1216.19 2695
1030.47 1216.19 2695
1031.91 1210.32 2682
1038.32 1210.32 2682
1039.67 1204.45 2669
1040.96 1198.59 2656
1049.28 1200.84 2661
1060.4 1206.26 2673
1066.8 1206.26 2673
1073.19 1206.26 2673
1079.58 1206.26 2673
1082.72 1202.65 2665
1089.1 1202.65 2665
1095.47 1202.65 2665
1103.49 1204.45 2669
1109.88 1204.45 2669
1123.37 1212.13 2686
1129.79 1212.13 2686
1143.83 1220.25 2704
1150.3 1220.25 2704
1156.76 1220.25 2704
1163.23 1220.25 2704
1169.69 1220.25 2704
1284.72 1200.84 2661
1293.03 1202.65 2665
1301.35 1204.45 2669
1307.73 1204.45 2669
1314.11 1204.45 2669
1324.95 1208.52 2678
1331.35 1208.52 2678
1337.76 1208.52 2678
1339.64 1204.45 2669
1339.47 1198.59 2656
1337.71 1191.37 2640
1344.03 1191.37 2640
1339.6 1181.89 2619
1343.81 1180.09 2615
1354.19 1183.7 2623
1360.46 1183.7 2623
1366.73 1183.7 2623
1377.19 1187.31 2631
1392.42 1194.98 2648
1398.76 1194.98 2648
1405.09 1194.98 2648
1411.42 1194.98 2648
1376.53 1160.23 2571
1355.25 1137.21 2520
1378.02 1151.2 2551
1384.12 1151.2 2551
1431.64 1185.5 2627
1449.41 1194.98 2648
1455.75 1194.98 2648
1462.08 1194.98 2648
1466.19 1193.17 2644
1472.51 1193.17 2644
1500.09 1210.32 2682
1506.51 1210.32 2682
1520.25 1216.19 2695
1539.16 1226.12 2717
1545.66 1226.12 2717
1552.15 1226.12 2717
1548.32 1217.99 2699
1552.47 1216.19 2695
1558.92 1216.19 2695
1555.49 1208.52 2678
1554.31 1202.65 2665
1555.41 1198.59 2656
1561.76 1198.59 2656
1565.75 1196.78 2652
1572.1 1196.78 2652
1588.56 1204.45 2669
1594.94 1204.45 2669
1601.32 1204.45 2669
1607.7 1204.45 2669
1614.09 1204.45 2669
1615.61 1200.84 2661
1621.97 1200.84 2661
1628.34 1200.84 2661
1634.7 1200.84 2661
1637.98 1198.59 2656
1644.33 1198.59 2656
1643.23 1193.17 2644
1636.45 1183.7 2623
1642.72 1183.7 2623
1662.19 1193.17 2644
1679.24 1200.84 2661
1685.61 1200.84 2661
1713.59 1216.19 2695
1728.33 1222.05 2708
1740.57 1226.12 2717
1747.07 1226.12 2717
1753.57 1226.12 2717
1765.89 1230.18 2726
1772.41 1230.18 2726
1778.93 1230.18 2726
1785.45 1230.18 2726
1791.97 1230.18 2726
1801.13 1231.98 2730
1807.65 1231.98 2730
1814.18 1231.98 2730
1824.05 1234.24 2735
1830.59 1234.24 2735
1837.13 1234.24 2735
1855.8 1242.36 2753
1862.38 1242.36 2753
1868.97 1242.36 2753
1875.55 1242.36 2753
1866.41 1231.98 2730
1870.19 1230.18 2726
1861.57 1220.25 2704
1868.03 1220.25 2704
-1910.36 1191.79 2627
-1934.52 1210.85 2669
-1928.14 1210.85 2669
-1921.76 1210.85 2669
-1888.1 1193.61 2631
-1881.81 1193.61 2631
-1864.12 1186.35 2615
-1834.42 1171.38 2582
-1820.45 1166.39 2571
-1814.31 1166.39 2571
-1794.09 1157.32 2551
-1782.38 1153.69 2543
-1768.62 1148.7 2532
-1762.57 1148.7 2532
-1753.74 1146.88 2528
-1744.93 1145.07 2524
-1738.89 1145.07 2524
-1732.85 1145.07 2524
-1726.82 1145.07 2524
-1720.78 1145.07 2524
-1717.46 1146.88 2528
-1714.13 1148.7 2532
-1708.07 1148.7 2532
-1722.86 1162.76 2563
-1726.77 1169.56 2578
-1728.62 1175.01 2590
-1722.42 1175.01 2590
-1716.23 1175.01 2590
-1692.21 1162.76 2563
-1461.45 1204.95 2656
-1455.1 1204.95 2656
-1448.75 1204.95 2656
-1442.4 1204.95 2656
-1436.05 1204.95 2656
-1423.24 1199.51 2644
-1416.92 1199.51 2644
-1412.73 1201.32 2648
-1424.45 1216.75 2682
-1418.04 1216.75 2682
-1430.05 1232.62 2717
-1423.55 1232.62 2717
-1421.75 1236.71 2726
-1415.23 1236.71 2726
-1408.71 1236.71 2726
-1384.19 1220.83 2691
-1377.75 1220.83 2691
-1298.76 1207.22 2661
-1298.23 1212.66 2673
-1291.83 1212.66 2673
-1285.44 1212.66 2673
-1273.31 1207.22 2661
-1264.56 1204.95 2656
-1258.21 1204.95 2656
-1248.09 1201.32 2648
-1238.01 1197.69 2640
-1225.63 1191.79 2627
-1210.06 1182.72 2607
-1203.83 1182.72 2607
-1191.62 1176.82 2594
-1179.94 1171.38 2582
-1170.13 1167.75 2574
-1163.97 1167.75 2574
-1154.67 1164.57 2567
-1148.53 1164.57 2567
-1142.39 1164.57 2567
-1136.25 1164.57 2567
-1130.11 1164.57 2567
-1123.97 1164.57 2567
-1114.35 1160.94 2559
-1108.23 1160.94 2559
-1102.11 1160.94 2559
-1092.57 1157.32 2551
-1084.76 1155.5 2547
-1083.76 1160.94 2559
-1077.64 1160.94 2559
-1091.62 1182.72 2607
-1114.94 1214.93 2678
-1147.03 1257.12 2771
-1140.41 1257.12 2771
-1149.33 1274.36 2809
-1142.61 1274.36 2809
-1135.89 1274.36 2809
-1129.18 1274.36 2809
-1122.46 1274.36 2809
-1115.74 1274.36 2809
-1109.03 1274.36 2809
-1102.31 1274.36 2809
-1095.59 1274.36 2809
-1088.87 1274.36 2809
-1082.16 1274.36 2809
-1075.44 1274.36 2809
-1068.72 1274.36 2809
-1062.01 1274.36 2809
-1055.29 1274.36 2809
-1046.7 1272.09 2804
-1040 1272.09 2804
-1031.45 1269.83 2799
-1024.76 1269.83 2799
-1018.07 1269.83 2799
-1001.25 1257.12 2771
-994.629 1257.12 2771
-988.002 1257.12 2771
-979.959 1255.31 2767
-971.584 1253.04 2762
-960.088 1246.69 2748
-953.516 1246.69 2748
-946.945 1246.69 2748
-937.294 1242.61 2739
-930.744 1242.61 2739
-930.268 1250.77 2757
-923.675 1250.77 2757
-917.082 1250.77 2757
-907.517 1246.69 2748
-900.946 1246.69 2748
-894.375 1246.69 2748
-887.803 1246.69 2748
-881.232 1246.69 2748
-874.661 1246.69 2748
-868.09 1246.69 2748
-861.518 1246.69 2748
-854.947 1246.69 2748
-847.141 1244.87 2744
-840.579 1244.87 2744
-829.762 1238.52 2730
-820.52 1234.44 2721
-812.816 1232.62 2717
-806.319 1232.62 2717
-792.168 1220.83 2691
-781.938 1214.93 2678
-771.769 1209.03 2665
-765.396 1209.03 2665
-493.009 785.305 1731
-488.87 785.305 1731
-484.17 784.398 1729
-480.036 784.398 1729
-475.901 784.398 1729
-471.221 783.49 1727
-467.091 783.49 1727
-462.961 783.49 1727
-458.832 783.49 1727
-454.702 783.49 1727
-451.094 784.398 1729
-446.959 784.398 1729
-442.825 784.398 1729
-438.183 783.49 1727
-434.053 783.49 1727
-429.425 782.583 1725
-425.3 782.583 1725
-421.175 782.583 1725
-416.567 781.675 1723
-412.447 781.675 1723
-408.326 781.675 1723
-404.206 781.675 1723
-400.086 781.675 1723
-395.736 781.222 1722
-391.618 781.222 1722
-387.5 781.222 1722
-382.937 780.314 1720
-378.824 780.314 1720
-374.711 780.314 1720
-370.598 780.314 1720
-366.059 779.407 1718
-361.951 779.407 1718
-357.842 779.407 1718
-353.734 779.407 1718
-349.626 779.407 1718
-345.517 779.407 1718
-341.409 779.407 1718
-337.301 779.407 1718
-333.193 779.407 1718
-329.468 780.314 1720
-325.355 780.314 1720
-321.241 780.314 1720
-317.128 780.314 1720
-313.015 780.314 1720
-309.262 781.222 1722
-305.144 781.222 1722
-301.026 781.222 1722
-296.908 781.222 1722
-292.96 781.675 1723
-288.84 781.675 1723
-284.72 781.675 1723
-280.6 781.675 1723
-276.479 781.675 1723
-272.675 782.583 1725
-268.55 782.583 1725
-264.425 782.583 1725
-260.3 782.583 1725
-256.175 782.583 1725
-252.05 782.583 1725
-248.213 783.49 1727
-244.083 783.49 1727
-239.953 783.49 1727
-235.823 783.49 1727
-231.694 783.49 1727
-227.827 784.398 1729
-224.081 785.758 1732
-219.939 785.758 1732
-216.047 786.666 1734
-212.633 789.388 1740
-208.473 789.388 1740
-204.312 789.388 1740
-200.151 789.388 1740
-196.103 789.842 1741
-192.38 791.656 1745
-188.208 791.656 1745
-184.246 792.564 1747
-180.274 793.471 1749
-176.394 794.832 1752
-172.204 794.832 1752
-168.206 795.739 1754
-164.573 798.461 1760
-160.547 799.369 1762
-156.333 799.369 1762
-152.12 799.369 1762
-200.986 1151.87 2539
-194.915 1151.87 2539
-195.686 1193.61 2631
-191.842 1209.03 2665
-187.835 1224.46 2699
-181.381 1224.46 2699
-175.51 1228.54 2708
-169.347 1230.81 2713
-162.859 1230.81 2713
-156.372 1230.81 2713
-149.387 1226.73 2704
-142.921 1226.73 2704
-136.455 1226.73 2704
-129.989 1226.73 2704
-123.705 1228.54 2708
-117.23 1228.54 2708
-110.754 1228.54 2708
-103.932 1224.46 2699
-97.3332 1222.64 2695
-91.0235 1224.46 2699
-84.5694 1224.46 2699
-78.1153 1224.46 2699
-71.6611 1224.46 2699
-65.207 1224.46 2699
-58.8617 1226.73 2704
-52.3956 1226.73 2704
-46.0824 1230.81 2713
-39.9159 1240.79 2735
-33.4855 1244.87 2744
-26.9238 1244.87 2744
-20.3917 1246.69 2748
-13.8204 1246.69 2748
-7.24913 1246.69 2748
-0.677826 1246.69 2748
5.8849 1244.87 2744
12.3242 1232.62 2717
18.8213 1232.62 2717
25.2346 1228.54 2708
31.5581 1222.64 2695
38.2564 1230.81 2713
45.1069 1240.79 2735
51.6471 1240.79 2735
58.1873 1240.79 2735
64.7275 1240.79 2735
71.0332 1236.71 2726
77.5519 1236.71 2726
83.6697 1230.81 2713
90.1573 1230.81 2713
96.4668 1228.54 2708
102.942 1228.54 2708
109.054 1224.46 2699
115.166 1220.83 2691
121.014 1214.93 2678
127.418 1214.93 2678
133.822 1214.93 2678
140.225 1214.93 2678
146.629 1214.93 2678
154.005 1222.64 2695
160.449 1222.64 2695
166.894 1222.64 2695
173.338 1222.64 2695
179.783 1222.64 2695
186.228 1222.64 2695
192.029 1218.56 2686
196.605 1207.22 2661
202.968 1207.22 2661
209.331 1207.22 2661
215.694 1207.22 2661
222.391 1209.03 2665
229.88 1214.93 2678
236.284 1214.93 2678
242.688 1214.93 2678
249.464 1216.75 2682
255.877 1216.75 2682
262.291 1216.75 2682
268.304 1214.93 2678
274.708 1214.93 2678
279.747 1209.03 2665
286.12 1209.03 2665
292.492 1209.03 2665
298.865 1209.03 2665
303.291 1201.32 2648
309.623 1201.32 2648
315.001 1197.69 2640
319.245 1189.98 2623
324.524 1186.35 2615
329.766 1182.72 2607
336 1182.72 2607
342.234 1182.72 2607
347.933 1180.91 2603
353.614 1179.09 2599
359.829 1179.09 2599
363.086 1169.56 2578
370.397 1173.19 2586
379.056 1180.91 2603
386.465 1184.54 2611
392.709 1184.54 2611
400.175 1188.16 2619
408.3 1193.61 2631
415.222 1195.42 2635
421.523 1195.42 2635
428.636 1197.69 2640
434.949 1197.69 2640
441.262 1197.69 2640
447.575 1197.69 2640
458.186 1209.03 2665
473.623 1232.62 2717
480.12 1232.62 2717
486.618 1232.62 2717
493.841 1234.44 2721
502.922 1240.79 2735
513.56 1250.77 2757
520.153 1250.77 2757
526.746 1250.77 2757
533.339 1250.77 2757
539.931 1250.77 2757
543.947 1244.87 2744
548.703 1240.79 2735
552.401 1234.44 2721
558.086 1232.62 2717
564.584 1232.62 2717
564.565 1218.56 2686
563.76 1203.14 2652
568.382 1199.51 2644
574.705 1199.51 2644
581.028 1199.51 2644
586.462 1197.69 2640
591.652 1195.42 2635
599.088 1197.69 2640
605.401 1197.69 2640
614.494 1203.14 2652
620.836 1203.14 2652
627.178 1203.14 2652
633.519 1203.14 2652
639.861 1203.14 2652
644.254 1199.51 2644
650.576 1199.51 2644
656.899 1199.51 2644
663.221 1199.51 2644
670.557 1201.32 2648
676.889 1201.32 2648
683.221 1201.32 2648
688.512 1199.51 2644
694.834 1199.51 2644
701.157 1199.51 2644
708.55 1201.32 2648
714.882 1201.32 2648
731.564 1218.56 2686
742.933 1226.73 2704
753.002 1232.62 2717
759.499 1232.62 2717
769.661 1238.52 2730
776.189 1238.52 2730
782.718 1238.52 2730
788.089 1236.71 2726
790.819 1230.81 2713
801.127 1236.71 2726
810.312 1240.79 2735
816.852 1240.79 2735
823.392 1240.79 2735
829.933 1240.79 2735
836.473 1240.79 2735
841.472 1238.52 2730
845.204 1234.44 2721
849.207 1230.81 2713
862.634 1240.79 2735
876.165 1250.77 2757
882.758 1250.77 2757
889.351 1250.77 2757
895.944 1250.77 2757
902.537 1250.77 2757
909.129 1250.77 2757
917.383 1253.04 2762
925.66 1255.31 2767
932.277 1255.31 2767
938.894 1255.31 2767
945.511 1255.31 2767
950.407 1253.04 2762
957.012 1253.04 2762
960.477 1248.96 2753
960.737 1240.79 2735
965.509 1238.52 2730
972.037 1238.52 2730
977.131 1236.71 2726
980.403 1232.62 2717
982.178 1226.73 2704
988.644 1226.73 2704
995.11 1226.73 2704
1001.58 1226.73 2704
1006.18 1224.46 2699
1011.13 1222.64 2695
1017.58 1222.64 2695
1020.6 1218.56 2686
1027.02 1218.56 2686
1031.91 1216.75 2682
1038.32 1216.75 2682
1036.55 1207.22 2661
1040.96 1204.95 2656
1049.28 1207.22 2661
1060.4 1212.66 2673
1066.8 1212.66 2673
1073.19 1212.66 2673
1079.58 1212.66 2673
1082.72 1209.03 2665
1089.1 1209.03 2665
1093.82 1207.22 2661
1100.19 1207.22 2661
1106.55 1207.22 2661
1112.91 1207.22 2661
1119.28 1207.22 2661
1136.22 1218.56 2686
1142.64 1218.56 2686
1149.06 1218.56 2686
1155.48 1218.56 2686
1158.45 1214.93 2678
1137.45 1186.35 2615
1143.7 1186.35 2615
1236.14 1173.19 2586
1242.33 1173.19 2586
1284.72 1207.22 2661
1291.08 1207.22 2661
1299.4 1209.03 2665
1305.77 1209.03 2665
1312.14 1209.03 2665
1316.54 1207.22 2661
1322.9 1207.22 2661
1326.77 1204.95 2656
1331.11 1203.14 2652
1333.42 1199.51 2644
1329.1 1189.98 2623
1335.37 1189.98 2623
1324.76 1175.01 2590
1328.9 1173.19 2586
1337.15 1175.01 2590
1343.35 1175.01 2590
1349.54 1175.01 2590
1355.73 1175.01 2590
1361.93 1175.01 2590
1368.12 1175.01 2590
1374.31 1175.01 2590
1374.11 1169.56 2578
1376.53 1166.39 2571
1363.31 1150.06 2535
1378.02 1157.32 2551
1384.12 1157.32 2551
1416.38 1179.09 2599
1424.78 1180.91 2603
1433.21 1182.72 2607
1439.44 1182.72 2607
1447.89 1184.54 2611
1460.82 1189.98 2623
1473.8 1195.42 2635
1480.1 1195.42 2635
1498.25 1204.95 2656
1519.33 1216.75 2682
1530.87 1220.83 2691
1537.3 1220.83 2691
1543.74 1220.83 2691
1535.19 1209.03 2665
1541.57 1209.03 2665
1542.71 1204.95 2656
1542.06 1199.51 2644
1546.04 1197.69 2640
1552.36 1197.69 2640
1561.03 1199.51 2644
1567.35 1199.51 2644
1578.44 1203.14 2652
1590.16 1207.22 2661
1598.92 1209.03 2665
1605.29 1209.03 2665
1611.67 1209.03 2665
1615.61 1207.22 2661
1621.97 1207.22 2661
1625.28 1204.95 2656
1631.63 1204.95 2656
1635.51 1203.14 2652
1641.86 1203.14 2652
1635.15 1193.61 2631
1633.95 1188.16 2619
1640.21 1188.16 2619
1648.99 1189.98 2623
1671.04 1201.32 2648
1677.37 1201.32 2648
1711.05 1220.83 2691
1722.59 1224.46 2699
1734.81 1228.54 2708
1741.28 1228.54 2708
1747.76 1228.54 2708
1754.23 1228.54 2708
1760.71 1228.54 2708
1767.18 1228.54 2708
1776.93 1230.81 2713
1786.05 1232.62 2717
1795.19 1234.44 2721
1801.69 1234.44 2721
1808.2 1234.44 2721
1814.71 1234.44 2721
1821.21 1234.44 2721
1822.35 1230.81 2713
1834.23 1234.44 2721
1840.73 1234.44 2721
1847.24 1234.44 2721
1853.75 1234.44 2721
1845.21 1224.46 2699
1848.92 1222.64 2695
-1934.52 1217.24 2669
-1928.14 1217.24 2669
-1921.76 1217.24 2669
-1906.05 1211.31 2656
-1899.69 1211.31 2656
-1875.52 1199.91 2631
-1857.86 1192.61 2615
-1820.45 1172.55 2571
-1814.31 1172.55 2571
-1794.09 1163.43 2551
-1782.38 1159.78 2543
-1768.62 1154.76 2532
-1762.57 1154.76 2532
-1753.74 1152.94 2528
-1747.69 1152.94 2528
-1741.65 1152.94 2528
-1735.6 1152.94 2528
-1729.55 1152.94 2528
-1723.51 1152.94 2528
-1720.18 1154.76 2532
-1714.13 1154.76 2532
-1708.07 1154.76 2532
-1722.86 1168.9 2563
-1724.09 1173.92 2574
-1725.95 1179.39 2586
-1719.76 1179.39 2586
-1713.58 1179.39 2586
-1699.47 1173.92 2574
-1693.32 1173.92 2574
-1461.45 1211.31 2656
-1455.1 1211.31 2656
-1448.75 1211.31 2656
-1442.4 1211.31 2656
-1436.05 1211.31 2656
-1423.24 1205.84 2644
-1416.92 1205.84 2644
-1412.73 1207.66 2648
-1417.55 1217.24 2669
-1411.17 1217.24 2669
-1425.31 1235.03 2708
-1418.84 1235.03 2708
-1412.36 1235.03 2708
-1405.88 1235.03 2708
-1399.41 1235.03 2708
-1377.5 1221.35 2678
-1371.1 1221.35 2678
-1298.76 1213.59 2661
-1292.4 1213.59 2661
-1286.03 1213.59 2661
-1279.67 1213.59 2661
-1273.31 1213.59 2661
-1264.56 1211.31 2656
-1258.21 1211.31 2656
-1244.32 1204.02 2640
-1238.01 1204.02 2640
-1216.3 1188.97 2607
-1204.03 1183.04 2594
-1197.83 1183.04 2594
-1186.11 1177.56 2582
-1176.28 1173.92 2574
-1165.13 1168.9 2563
-1159 1168.9 2563
-1151.07 1167.07 2559
-1148.53 1170.72 2567
-1142.39 1170.72 2567
-1136.25 1170.72 2567
-1130.11 1170.72 2567
-1118.72 1165.25 2555
-1112.61 1165.25 2555
-1106.5 1165.25 2555
-1100.39 1165.25 2555
-1084.43 1154.76 2532
-1088.17 1165.25 2555
-1083.76 1167.07 2559
-1077.64 1167.07 2559
-1077.8 1173.92 2574
-1085.38 1188.97 2607
-1147.03 1263.76 2771
-1140.41 1263.76 2771
-1143.19 1274.25 2794
-1136.51 1274.25 2794
-1133.87 1278.81 2804
-1127.17 1278.81 2804
-1122.46 1281.09 2809
-1115.74 1281.09 2809
-1109.03 1281.09 2809
-1102.31 1281.09 2809
-1095.59 1281.09 2809
-1085 1276.53 2799
-1078.3 1276.53 2799
-1071.61 1276.53 2799
-1064.92 1276.53 2799
-1058.23 1276.53 2799
-1051.53 1276.53 2799
-1042.97 1274.25 2794
-1036.29 1274.25 2794
-1028.14 1272.43 2790
-1021.46 1272.43 2790
-1011.15 1267.87 2780
-998.003 1259.66 2762
-983.142 1249.17 2739
-976.593 1249.17 2739
-966.855 1245.06 2730
-960.327 1245.06 2730
-949.257 1239.13 2717
-942.76 1239.13 2717
-931.783 1233.2 2704
-922.237 1229.1 2695
-918.851 1233.2 2704
-924.194 1249.17 2739
-917.645 1249.17 2739
-911.095 1249.17 2739
-900.252 1243.24 2726
-893.733 1243.24 2726
-887.215 1243.24 2726
-880.696 1243.24 2726
-875.46 1245.06 2730
-871.796 1249.17 2739
-866.826 1251.45 2744
-860.264 1251.45 2744
-853.702 1251.45 2744
-844.362 1247.34 2735
-837.822 1247.34 2735
-827.027 1240.96 2721
-820.52 1240.96 2721
-807.432 1230.92 2699
-800.977 1230.92 2699
-790.696 1225 2686
-778.142 1215.42 2665
-766.846 1207.66 2648
-760.514 1207.66 2648
-491.3 786.715 1725
-487.175 786.715 1725
-483.05 786.715 1725
-478.925 786.715 1725
-474.8 786.715 1725
-470.675 786.715 1725
-466.55 786.715 1725
-462.961 787.627 1727
-458.832 787.627 1727
-454.702 787.627 1727
-450.572 787.627 1727
-446.442 787.627 1727
-442.312 787.627 1727
-437.675 786.715 1725
-433.55 786.715 1725
-429.425 786.715 1725
-425.3 786.715 1725
-421.175 786.715 1725
-416.567 785.803 1723
-412.447 785.803 1723
-408.326 785.803 1723
-404.206 785.803 1723
-400.086 785.803 1723
-395.736 785.347 1722
-391.618 785.347 1722
-387.5 785.347 1722
-382.937 784.435 1720
-378.824 784.435 1720
-374.711 784.435 1720
-370.167 783.523 1718
-366.059 783.523 1718
-361.951 783.523 1718
-357.842 783.523 1718
-353.734 783.523 1718
-349.626 783.523 1718
-345.517 783.523 1718
-341.409 783.523 1718
-337.301 783.523 1718
-333.193 783.523 1718
-329.468 784.435 1720
-325.355 784.435 1720
-321.241 784.435 1720
-317.128 784.435 1720
-313.015 784.435 1720
-309.262 785.347 1722
-305.144 785.347 1722
-301.026 785.347 1722
-296.908 785.347 1722
-292.96 785.803 1723
-288.84 785.803 1723
-284.72 785.803 1723
-280.6 785.803 1723
-276.479 785.803 1723
-272.675 786.715 1725
-268.55 786.715 1725
-264.425 786.715 1725
-260.3 786.715 1725
-256.175 786.715 1725
-252.05 786.715 1725
-248.213 787.627 1727
-244.083 787.627 1727
-239.953 787.627 1727
-235.823 787.627 1727
-231.694 787.627 1727
-227.827 788.539 1729
-224.081 789.908 1732
-219.939 789.908 1732
-216.047 790.82 1734
-212.633 793.556 1740
-208.473 793.556 1740
-204.312 793.556 1740
-200.151 793.556 1740
-196.103 794.012 1741
-192.38 795.836 1745
-188.208 795.836 1745
-184.246 796.749 1747
-180.274 797.661 1749
-176.394 799.029 1752
-172.204 799.029 1752
-168.206 799.941 1754
-164.573 802.677 1760
-160.547 803.59 1762
-156.333 803.59 1762
-152.12 803.59 1762
-200.986 1157.95 2539
-194.915 1157.95 2539
-193.306 1185.32 2599
-189.395 1199.91 2631
-185.748 1217.24 2669
-179.365 1217.24 2669
-174.927 1230.92 2699
-168.473 1230.92 2699
-162.019 1230.92 2699
-155.565 1230.92 2699
-148.89 1229.1 2695
-142.445 1229.1 2695
-136.001 1229.1 2695
-129.556 1229.1 2695
-123.294 1230.92 2699
-116.84 1230.92 2699
-110.386 1230.92 2699
-103.778 1229.1 2695
-97.1887 1227.28 2691
-90.8886 1229.1 2695
-84.4441 1229.1 2695
-77.9995 1229.1 2695
-71.5549 1229.1 2695
-64.8929 1225 2686
-58.4699 1225 2686
-52.0469 1225 2686
-45.9296 1233.2 2704
-39.5948 1237.31 2713
-33.2048 1240.96 2721
-26.6981 1240.96 2721
-20.1914 1240.96 2721
-13.6846 1240.96 2721
-7.1779 1240.96 2721
-0.670179 1239.13 2717
5.82699 1239.13 2717
12.2425 1230.92 2699
18.4611 1215.42 2665
24.8339 1215.42 2665
31.2068 1215.42 2665
37.8193 1223.17 2682
44.744 1237.31 2713
51.3072 1239.13 2717
57.8044 1239.13 2717
64.3015 1239.13 2717
70.6945 1237.31 2713
77.1821 1237.31 2713
83.5155 1235.03 2708
89.9911 1235.03 2708
96.0037 1229.1 2695
102.448 1229.1 2695
108.731 1227.28 2691
114.396 1219.07 2673
120.426 1215.42 2665
126.799 1215.42 2665
133.172 1215.42 2665
140.225 1221.35 2678
146.629 1221.35 2678
154.005 1229.1 2695
160.449 1229.1 2695
166.894 1229.1 2695
173.338 1229.1 2695
179.783 1229.1 2695
186.228 1229.1 2695
192.029 1225 2686
196.605 1213.59 2661
202.968 1213.59 2661
209.331 1213.59 2661
215.694 1213.59 2661
222.391 1215.42 2665
229.88 1221.35 2678
236.284 1221.35 2678
242.688 1221.35 2678
249.464 1223.17 2682
255.877 1223.17 2682
262.291 1223.17 2682
268.304 1221.35 2678
274.708 1221.35 2678
279.747 1215.42 2665
286.12 1215.42 2665
292.492 1215.42 2665
298.865 1215.42 2665
303.291 1207.66 2648
309.623 1207.66 2648
315.001 1204.02 2640
319.245 1196.26 2623
324.524 1192.61 2615
329.766 1188.97 2607
336 1188.97 2607
342.234 1188.97 2607
347.933 1187.14 2603
353.614 1185.32 2599
359.829 1185.32 2599
363.086 1175.74 2578
370.397 1179.39 2586
379.056 1187.14 2603
386.465 1190.79 2611
392.709 1190.79 2611
400.175 1194.44 2619
408.3 1199.91 2631
415.222 1201.74 2635
421.523 1201.74 2635
428.636 1204.02 2640
434.949 1204.02 2640
441.262 1204.02 2640
447.575 1204.02 2640
458.186 1215.42 2665
473.623 1239.13 2717
480.12 1239.13 2717
486.618 1239.13 2717
493.841 1240.96 2721
502.922 1247.34 2735
513.56 1257.38 2757
520.153 1257.38 2757
526.746 1257.38 2757
533.339 1257.38 2757
539.931 1257.38 2757
543.947 1251.45 2744
548.703 1247.34 2735
552.401 1240.96 2721
558.086 1239.13 2717
564.584 1239.13 2717
564.565 1225 2686
563.76 1209.49 2652
568.382 1205.84 2644
574.705 1205.84 2644
581.028 1205.84 2644
586.462 1204.02 2640
591.652 1201.74 2635
599.088 1204.02 2640
605.401 1204.02 2640
614.494 1209.49 2652
622.943 1213.59 2661
629.306 1213.59 2661
635.669 1213.59 2661
640.826 1211.31 2656
645.228 1207.66 2648
650.576 1205.84 2644
656.899 1205.84 2644
663.221 1205.84 2644
670.557 1207.66 2648
676.889 1207.66 2648
683.221 1207.66 2648
688.512 1205.84 2644
694.834 1205.84 2644
701.157 1205.84 2644
708.55 1207.66 2648
714.882 1207.66 2648
731.564 1225 2686
742.933 1233.2 2704
753.002 1239.13 2717
759.499 1239.13 2717
769.661 1245.06 2730
776.189 1245.06 2730
782.718 1245.06 2730
788.089 1243.24 2726
790.819 1237.31 2713
801.127 1243.24 2726
810.312 1247.34 2735
816.852 1247.34 2735
823.392 1247.34 2735
829.933 1247.34 2735
836.473 1247.34 2735
834.691 1235.03 2708
839.924 1233.2 2704
846.39 1233.2 2704
855.695 1237.31 2713
872.034 1251.45 2744
878.596 1251.45 2744
886.448 1253.27 2748
893.019 1253.27 2748
899.59 1253.27 2748
900.226 1245.06 2730
906.754 1245.06 2730
911.945 1243.24 2726
918.463 1243.24 2726
924.982 1243.24 2726
931.501 1243.24 2726
938.019 1243.24 2726
944.538 1243.24 2726
951.057 1243.24 2726
957.575 1243.24 2726
964.094 1243.24 2726
970.613 1243.24 2726
973.905 1239.13 2717
980.403 1239.13 2717
980.362 1230.92 2699
986.816 1230.92 2699
993.27 1230.92 2699
999.724 1230.92 2699
998.349 1221.35 2678
1004.75 1221.35 2678
1012.67 1223.17 2682
1019.08 1223.17 2682
1025.49 1223.17 2682
1023.83 1213.59 2661
1030.19 1213.59 2661
1031.49 1207.66 2648
1037.82 1207.66 2648
1044.16 1207.66 2648
1053.66 1211.31 2656
1060.01 1211.31 2656
1066.36 1211.31 2656
1067.87 1205.84 2644
1074.19 1205.84 2644
1080.51 1205.84 2644
1086.84 1205.84 2644
1096.47 1209.49 2652
1102.81 1209.49 2652
1109.15 1209.49 2652
1112.13 1205.84 2644
1123.53 1211.31 2656
1129.88 1211.31 2656
1136.23 1211.31 2656
1142.58 1211.31 2656
1148.93 1211.31 2656
1137.45 1192.61 2615
1143.7 1192.61 2615
1127.09 1168.9 2563
1191.27 1159.78 2543
1197.35 1159.78 2543
1203.43 1159.78 2543
1207.61 1157.95 2539
1236.14 1179.39 2586
1242.33 1179.39 2586
1262.51 1192.61 2615
1270.71 1194.44 2619
1280.87 1198.09 2627
1287.15 1198.09 2627
1293.43 1198.09 2627
1295.76 1194.44 2619
1296.06 1188.97 2607
1302.29 1188.97 2607
1306.52 1187.14 2603
1312.74 1187.14 2603
1314.4 1183.04 2594
1320.61 1183.04 2594
1322.72 1179.39 2586
1326.85 1177.56 2582
1330.96 1175.74 2578
1337.12 1175.74 2578
1343.29 1175.74 2578
1351.54 1177.56 2582
1357.72 1177.56 2582
1363.89 1177.56 2582
1370.07 1177.56 2582
1374.11 1175.74 2578
1365.82 1163.43 2551
1369.77 1161.6 2547
1375.86 1161.6 2547
1381.95 1161.6 2547
1390.22 1163.43 2551
1396.32 1163.43 2551
1409.02 1168.9 2563
1415.15 1168.9 2563
1423.49 1170.72 2567
1437.99 1177.56 2582
1458.14 1188.97 2607
1464.38 1188.97 2607
1475.12 1192.61 2615
1488.17 1198.09 2627
1504.13 1205.84 2644
1510.45 1205.84 2644
1516.77 1205.84 2644
1523.1 1205.84 2644
1529.42 1205.84 2644
1535.74 1205.84 2644
1539.73 1204.02 2640
1543.12 1201.74 2635
1549.42 1201.74 2635
1558.67 1204.02 2640
1564.98 1204.02 2640
1573.68 1205.84 2644
1582.39 1207.66 2648
1596.52 1213.59 2661
1602.88 1213.59 2661
1609.25 1213.59 2661
1607.72 1207.66 2648
1614.05 1207.66 2648
1620.38 1207.66 2648
1626.71 1207.66 2648
1630.58 1205.84 2644
1636.9 1205.84 2644
1627.69 1194.44 2619
1621.47 1185.32 2599
1627.69 1185.32 2599
1641.45 1190.79 2611
1655.26 1196.26 2623
1661.54 1196.26 2623
1686.25 1209.49 2652
1717.48 1227.28 2691
1726.48 1229.1 2695
1732.92 1229.1 2695
1741.95 1230.92 2699
1748.4 1230.92 2699
1754.86 1230.92 2699
1758.7 1229.1 2695
1765.15 1229.1 2695
1768.96 1227.28 2691
1775.4 1227.28 2691
1778.52 1225 2686
1784.94 1225 2686
1791.37 1225 2686
1806.49 1230.92 2699
1812.94 1230.92 2699
1822.77 1233.2 2704
1829.23 1233.2 2704
1835.7 1233.2 2704
1838.76 1230.92 2699
1830.86 1221.35 2678
1816.68 1207.66 2648
1817.5 1204.02 2640
1823.82 1204.02 2640
-1934.52 1223.64 2669
-1928.14 1223.64 2669
-1921.76 1223.64 2669
-1906.05 1217.68 2656
-1899.69 1217.68 2656
-1875.52 1206.21 2631
-1857.86 1198.88 2615
-1820.45 1178.71 2571
-1814.31 1178.71 2571
-1794.09 1169.54 2551
-1782.38 1165.87 2543
-1768.62 1160.83 2532
-1762.57 1160.83 2532
-1753.74 1158.99 2528
-1747.69 1158.99 2528
-1741.65 1158.99 2528
-1735.6 1158.99 2528
-1729.55 1158.99 2528
-1723.51 1158.99 2528
-1720.18 1160.83 2532
-1714.13 1160.83 2532
-1720.89 1169.54 2551
-1722.86 1175.04 2563
-1724.09 1180.08 2574
-1725.95 1185.58 2586
-1719.76 1185.58 2586
-1713.58 1185.58 2586
-1699.47 1180.08 2574
-1693.32 1180.08 2574
-1461.45 1217.68 2656
-1455.1 1217.68 2656
-1448.75 1217.68 2656
-1442.4 1217.68 2656
-1436.05 1217.68 2656
-1423.24 1212.17 2644
-1416.92 1212.17 2644
-1412.73 1214.01 2648
-1417.55 1223.64 2669
-1411.17 1223.64 2669
-1425.31 1241.52 2708
-1418.84 1241.52 2708
-1412.36 1241.52 2708
-1405.88 1241.52 2708
-1399.41 1241.52 2708
-1377.5 1227.76 2678
-1371.1 1227.76 2678
-1286.07 1208.05 2635
-1289.97 1217.68 2656
-1283.62 1217.68 2656
-1277.27 1217.68 2656
-1260.87 1208.05 2635
-1252.66 1206.21 2631
-1246.37 1206.21 2631
-1236.31 1202.55 2623
-1228.16 1200.71 2619
-1214.43 1193.38 2603
-1198.46 1183.75 2582
-1192.29 1183.75 2582
-1181.06 1178.71 2571
-1171.25 1175.04 2563
-1163.31 1173.2 2559
-1157.19 1173.2 2559
-1149.27 1171.37 2555
-1143.16 1171.37 2555
-1137.05 1171.37 2555
-1130.94 1171.37 2555
-1124.83 1171.37 2555
-1115.22 1167.7 2547
-1109.13 1167.7 2547
-1103.04 1167.7 2547
-1096.95 1167.7 2547
-1081 1157.16 2524
-1089.87 1173.2 2559
-1090.11 1180.08 2574
-1083.95 1180.08 2574
-1089.94 1193.38 2603
-1085.38 1195.21 2607
-1147.03 1270.4 2771
-1140.41 1270.4 2771
-1143.19 1280.94 2794
-1136.51 1280.94 2794
-1133.87 1285.53 2804
-1127.17 1285.53 2804
-1122.46 1287.82 2809
-1115.74 1287.82 2809
-1109.03 1287.82 2809
-1102.31 1287.82 2809
-1091.69 1283.24 2799
-1085 1283.24 2799
-1078.3 1283.24 2799
-1071.61 1283.24 2799
-1063.02 1280.94 2794
-1054.82 1279.11 2790
-1048.15 1279.11 2790
-1039.61 1276.82 2785
-1031.1 1274.52 2780
-1021.13 1270.4 2771
-1014.51 1270.4 2771
-1004.61 1266.27 2762
-986.44 1251.6 2730
-972.015 1241.52 2708
-965.54 1241.52 2708
-954.46 1235.56 2695
-948.015 1235.56 2695
-933.884 1225.47 2673
-927.493 1225.47 2673
-916.965 1219.97 2661
-907.522 1215.84 2652
-906.957 1223.64 2669
-909.348 1235.56 2695
-902.903 1235.56 2695
-896.459 1235.56 2695
-885.721 1229.6 2682
-879.308 1229.6 2682
-877.125 1235.56 2695
-870.681 1235.56 2695
-864.236 1235.56 2695
-863.521 1243.81 2713
-857.033 1243.81 2713
-850.545 1243.81 2713
-844.058 1243.81 2713
-837.57 1243.81 2713
-831.083 1243.81 2713
-821.86 1239.68 2704
-812.68 1235.56 2695
-803.543 1231.43 2686
-797.12 1231.43 2686
-784.515 1221.8 2665
-773.178 1214.01 2648
-764.529 1210.34 2640
-758.216 1210.34 2640
-488.737 786.721 1716
-484.633 786.721 1716
-481.09 787.638 1718
-477.537 788.555 1720
-473.424 788.555 1720
-470.13 789.93 1723
-466.009 789.93 1723
-462.425 790.847 1725
-458.3 790.847 1725
-454.175 790.847 1725
-450.05 790.847 1725
-445.925 790.847 1725
-441.8 790.847 1725
-437.168 789.93 1723
-433.048 789.93 1723
-428.927 789.93 1723
-424.807 789.93 1723
-420.687 789.93 1723
-416.567 789.93 1723
-412.447 789.93 1723
-408.326 789.93 1723
-404.206 789.93 1723
-400.086 789.93 1723
-395.736 789.472 1722
-391.618 789.472 1722
-387.5 789.472 1722
-382.937 788.555 1720
-378.824 788.555 1720
-374.711 788.555 1720
-370.598 788.555 1720
-366.059 787.638 1718
-361.951 787.638 1718
-357.842 787.638 1718
-353.734 787.638 1718
-349.626 787.638 1718
-345.517 787.638 1718
-341.409 787.638 1718
-337.301 787.638 1718
-333.193 787.638 1718
-329.468 788.555 1720
-325.355 788.555 1720
-321.241 788.555 1720
-317.128 788.555 1720
-313.379 789.472 1722
-309.262 789.472 1722
-305.144 789.472 1722
-301.201 789.93 1723
-297.081 789.93 1723
-292.96 789.93 1723
-288.84 789.93 1723
-284.72 789.93 1723
-280.925 790.847 1725
-276.8 790.847 1725
-272.675 790.847 1725
-268.55 790.847 1725
-264.425 790.847 1725
-260.602 791.764 1727
-256.472 791.764 1727
