ply
format ascii 1.0
comment File generated
element vertex 2246
property float x
property float y
property float z
end_header
464.773 903.762 3357
468.998 896.493 3330
476.961 896.493 3330
483.905 894.608 3323
491.851 894.608 3323
498.895 892.993 3317
506.827 892.993 3317
514.759 892.993 3317
522.691 892.993 3317
529.503 891.108 3310
537.418 891.108 3310
545.333 891.108 3310
553.248 891.108 3310
561.164 891.108 3310
570.282 892.993 3317
578.214 892.993 3317
586.146 892.993 3317
595.153 894.608 3323
604.37 896.493 3330
612.333 896.493 3330
620.296 896.493 3330
628.259 896.493 3330
636.222 896.493 3330
644.185 896.493 3330
652.148 896.493 3330
660.111 896.493 3330
669.478 898.377 3337
677.458 898.377 3337
685.438 898.377 3337
693.418 898.377 3337
701.397 898.377 3337
709.377 898.377 3337
717.357 898.377 3337
723.815 896.493 3330
731.778 896.493 3330
739.741 896.493 3330
747.704 896.493 3330
755.667 896.493 3330
763.63 896.493 3330
771.593 896.493 3330
779.556 896.493 3330
785.864 894.608 3323
792.377 892.993 3317
800.309 892.993 3317
808.241 892.993 3317
816.173 892.993 3317
824.105 892.993 3317
833.542 894.608 3323
843.261 896.493 3330
851.224 896.493 3330
867.701 905.377 3363
879.389 909.146 3377
894.823 916.684 3405
902.965 916.684 3405
920.473 926.107 3440
934.368 931.76 3461
946.73 935.798 3476
955.042 935.798 3476
973.331 945.49 3512
987.88 951.413 3534
1005.07 959.759 3565
1013.6 959.759 3565
1022.12 959.759 3565
1037.29 965.951 3588
1050.25 969.989 3603
1063.56 974.296 3619
1072.22 974.296 3619
1090.13 982.642 3650
1106.39 989.373 3675
1115.17 989.373 3675
1123.96 989.373 3675
1135.22 991.526 3683
1144.02 991.526 3683
1152.83 991.526 3683
1161.64 991.526 3683
1170.45 991.526 3683
1179.25 991.526 3683
1190.64 993.68 3691
1199.47 993.68 3691
1208.29 993.68 3691
1217.12 993.68 3691
1225.95 993.68 3691
1234.77 993.68 3691
1240.9 991.526 3683
1249.71 991.526 3683
1258.52 991.526 3683
1264.57 989.373 3675
1273.36 989.373 3675
1282.15 989.373 3675
1290.94 989.373 3675
1296.89 987.219 3667
1302.46 984.796 3658
1311.21 984.796 3658
1319.95 984.796 3658
1328.7 984.796 3658
1337.45 984.796 3658
1343.25 982.642 3650
1351.98 982.642 3650
1360.71 982.642 3650
1369.44 982.642 3650
1372.5 978.604 3635
1375.11 974.296 3619
1383.77 974.296 3619
1389.34 972.143 3611
1391.78 967.835 3595
1397.65 965.951 3588
1406.23 965.951 3588
1408.51 961.643 3572
1414.27 959.759 3565
1422.79 959.759 3565
1424.9 955.451 3549
1433.38 955.451 3549
1432.93 949.528 3527
1438.5 947.644 3520
1446.92 947.644 3520
1455.34 947.644 3520
1460.43 945.49 3512
1462.56 941.452 3497
1467.97 939.567 3490
1476.32 939.567 3490
1481.69 937.683 3483
1493.01 939.567 3490
1523.73 953.567 3542
1538.68 957.605 3557
1547.19 957.605 3557
1562.26 961.643 3572
1577.83 965.951 3588
1613.83 982.642 3650
1622.56 982.642 3650
1649.61 993.68 3691
1673.26 1002.56 3724
1748.57 1042.14 3871
1757.82 1042.14 3871
1783.52 1051.83 3907
1792.86 1051.83 3907
1819.27 1061.79 3944
1828.7 1061.79 3944
1855.84 1072.02 3982
1869.58 1074.45 3991
1888.07 1079.56 4010
1897.66 1079.56 4010
1907.25 1079.56 4010
1916.84 1079.56 4010
1917.3 1074.45 3991
1926.84 1074.45 3991
1913.58 1061.79 3944
1869.87 1032.45 3835
1870.71 1027.87 3818
1879.84 1027.87 3818
1858.79 1011.45 3757
1847.39 1000.41 3716
1827.3 984.796 3658
1812.46 972.143 3611
1821.09 972.143 3611
1818.07 965.951 3588
1814.94 959.759 3565
1819.38 957.605 3557
1827.88 957.605 3557
1836.39 957.605 3557
1852.68 961.643 3572
1861.22 961.643 3572
1869.76 961.643 3572
1878.3 961.643 3572
1898.99 967.835 3595
1916.08 972.143 3611
1945.5 982.642 3650
1954.23 982.642 3650
1976.4 989.373 3675
1998.15 995.834 3699
2020.56 1002.56 3724
2029.47 1002.56 3724
2061.36 1013.87 3766
2123.15 1039.72 3862
2152.26 1049.41 3898
2161.58 1049.41 3898
2196.52 1061.79 3944
2216.58 1066.91 3963
2226.05 1066.91 3963
2235.53 1066.91 3963
2245.01 1066.91 3963
2254.49 1066.91 3963
2263.96 1066.91 3963
2273.44 1066.91 3963
2282.92 1066.91 3963
2281.4 1061.79 3944
2290.83 1061.79 3944
2305.51 1064.21 3953
2314.97 1064.21 3953
2324.42 1064.21 3953
2317.34 1056.68 3925
2332.65 1059.37 3935
2342.06 1059.37 3935
2356.85 1061.79 3944
2371.68 1064.21 3953
2381.14 1064.21 3953
2390.59 1064.21 3953
2400.04 1064.21 3953
2409.49 1064.21 3953
2418.95 1064.21 3953
2428.4 1064.21 3953
2437.85 1064.21 3953
2453.5 1066.91 3963
2462.97 1066.91 3963
2472.45 1066.91 3963
2481.93 1066.91 3963
2491.4 1066.91 3963
2506.56 1069.33 3972
2516.06 1069.33 3972
2525.56 1069.33 3972
2535.05 1069.33 3972
2526.62 1061.79 3944
2536.05 1061.79 3944
2533.22 1056.68 3925
2525.11 1049.41 3898
2534.43 1049.41 3898
2537.88 1046.98 3889
2547.18 1046.98 3889
2526.9 1034.87 3844
2518.94 1027.87 3818
2516.15 1023.02 3800
2525.24 1023.02 3800
2516.98 1016.03 3774
2509.27 1009.29 3749
2523.61 1011.45 3757
2544.06 1016.03 3774
2553.08 1016.03 3774
2579.76 1023.02 3800
2588.84 1023.02 3800
2597.93 1023.02 3800
2589.18 1016.03 3774
2592.7 1013.87 3766
2589.96 1009.29 3749
543.534 192.49 715
545.244 192.49 715
546.954 192.49 715
-2374.95 861.555 3172
-2367.37 861.555 3172
-2346.39 856.666 3154
-2334.4 855.036 3148
-2322.44 853.407 3142
-2314.93 853.407 3142
-2294.19 848.518 3124
-2277.94 845.258 3112
-2266.85 843.9 3107
-2267.42 846.888 3118
-2259.96 846.888 3118
-2265.51 851.777 3136
-2262.33 853.407 3142
-2259.12 855.036 3148
-2251.6 855.036 3148
-2256.9 859.925 3166
-2266.38 866.444 3190
-2263 868.074 3196
-2255.36 868.074 3196
-2256.15 871.333 3208
-2270.21 879.753 3239
-2284.82 888.445 3271
-2276.99 888.445 3271
-2287.21 895.506 3297
-2288.31 899.037 3310
-2280.4 899.037 3310
-2272.48 899.037 3310
-2273.46 902.568 3323
-2279.15 908.001 3343
-2280.67 911.803 3357
-2272.64 911.803 3357
-2273.38 915.334 3370
-2270.03 917.235 3377
-2261.95 917.235 3377
-2253.88 917.235 3377
-2255.11 921.038 3391
-2256.28 924.841 3405
-2266.63 932.446 3433
-2258.42 932.446 3433
-2259.38 936.248 3447
-2260.28 940.051 3461
-2261.77 944.125 3476
-2253.46 944.125 3476
-2254.19 947.928 3490
-2250.34 949.829 3497
-2247.11 952.002 3505
-2238.73 952.002 3505
-2234.8 953.903 3512
-2235.91 957.977 3527
-2227.48 957.977 3527
-2219.05 957.977 3527
-2215 959.879 3534
-2215.91 963.953 3549
-2212.4 966.126 3557
-2203.9 966.126 3557
-2204.65 970.2 3572
-2205.94 974.546 3588
-2197.36 974.546 3588
-2188.78 974.546 3588
-2180.2 974.546 3588
-2175.86 976.447 3595
-2167.26 976.447 3595
-2158.67 976.447 3595
-2154.85 978.62 3603
-2146.24 978.62 3603
-2137.62 978.62 3603
-2129.01 978.62 3603
-2120.39 978.62 3603
-2111.78 978.62 3603
-2103.16 978.62 3603
-2094.54 978.62 3603
-2090.56 980.793 3611
-2086.54 982.966 3619
-2077.88 982.966 3619
-2069.23 982.966 3619
-2060.57 982.966 3619
-2051.92 982.966 3619
-2043.27 982.966 3619
-2034.61 982.966 3619
-2025.96 982.966 3619
-2017.3 982.966 3619
-2008.65 982.966 3619
-2000 982.966 3619
-1991.34 982.966 3619
-1982.69 982.966 3619
-1978.4 985.139 3627
-1969.72 985.139 3627
-1969.16 989.213 3642
-1960.45 989.213 3642
-1951.74 989.213 3642
-1943.03 989.213 3642
-1934.32 989.213 3642
-1934.07 993.559 3658
-1934.28 998.176 3675
-1925.49 998.176 3675
-1916.7 998.176 3675
-1907.91 998.176 3675
-1899.12 998.176 3675
-1890.33 998.176 3675
-1881.55 998.176 3675
-1872.76 998.176 3675
-1863.97 998.176 3675
-1855.18 998.176 3675
-1846.39 998.176 3675
-1837.61 998.176 3675
-1828.82 998.176 3675
-1816.07 996.003 3667
-1811.24 998.176 3675
-1802.45 998.176 3675
-1793.67 998.176 3675
-1780.99 996.003 3667
-1752.89 985.139 3627
-1744.22 985.139 3627
-1735.55 985.139 3627
-1726.87 985.139 3627
-1710.62 980.793 3611
-1687.37 972.373 3580
-1675.06 970.2 3572
-1666.52 970.2 3572
-1651.02 966.126 3557
-1638.82 963.953 3549
-1620.22 957.977 3527
-1611.79 957.977 3527
-1603.35 957.977 3527
-1594.92 957.977 3527
-1586.49 957.977 3527
-1578.05 957.977 3527
-1569.62 957.977 3527
-1558.08 956.076 3520
-1549.67 956.076 3520
-1541.25 956.076 3520
-1526.3 952.002 3505
-1517.92 952.002 3505
-1512.55 953.903 3512
-1504.15 953.903 3512
-1495.76 953.903 3512
-1490.75 956.076 3520
-1482.33 956.076 3520
-1476.84 957.977 3527
-1468.41 957.977 3527
-1462.87 959.879 3534
-1457.71 962.052 3542
-1449.24 962.052 3542
-1440.77 962.052 3542
-1432.3 962.052 3542
-1423.83 962.052 3542
-1418.16 963.953 3549
-1409.67 963.953 3549
-1401.19 963.953 3549
-1386.81 959.879 3534
-1378.36 959.879 3534
-1369.91 959.879 3534
-1370.32 966.126 3557
-1361.82 966.126 3557
-1356.35 968.299 3565
-1347.83 968.299 3565
-1339.3 968.299 3565
-1327.79 966.126 3557
-1319.29 966.126 3557
-1310.78 966.126 3557
-1302.27 966.126 3557
-1290.86 963.953 3549
-1282.37 963.953 3549
-1265.99 957.977 3527
-1255.06 956.076 3520
-1249.12 957.977 3527
-1240.69 957.977 3527
-1239.94 963.953 3549
-1231.45 963.953 3549
-1222.97 963.953 3549
-1206.95 957.977 3527
-1198.52 957.977 3527
-1190.08 957.977 3527
-1176.62 953.903 3512
-1168.22 953.903 3512
-1159.83 953.903 3512
-591.779 490.261 1805
-587.462 490.261 1805
-583.146 490.261 1805
-578.83 490.261 1805
-575.15 490.804 1807
-570.829 490.804 1807
-566.508 490.804 1807
-562.809 491.347 1809
-558.483 491.347 1809
-554.157 491.347 1809
-549.831 491.347 1809
-544.902 490.804 1807
-541.778 491.89 1811
-537.447 491.89 1811
-533.117 491.89 1811
-528.786 491.89 1811
-523.297 490.804 1807
-518.976 490.804 1807
-514.655 490.804 1807
-508.922 489.446 1802
-503.492 488.359 1798
-499.193 488.359 1798
-493.242 486.73 1792
-486.228 484.014 1782
-480.614 482.655 1777
-476.365 482.655 1777
-468.927 479.396 1765
-460.494 475.05 1749
-455.268 473.964 1745
-451.095 473.964 1745
-445.13 472.063 1738
-438.69 469.618 1729
-432.796 467.717 1722
-427.185 466.087 1716
-423.081 466.087 1716
-418.734 465.815 1715
-413.666 464.729 1711
-408.856 463.914 1708
-404.772 463.914 1708
-399.749 462.828 1704
-395.674 462.828 1704
-391.599 462.828 1704
-387.524 462.828 1704
-383.45 462.828 1704
-379.375 462.828 1704
-375.3 462.828 1704
-371.225 462.828 1704
-367.151 462.828 1704
-363.502 463.371 1706
-359.422 463.371 1706
-355.343 463.371 1706
-351.263 463.371 1706
-347.591 463.914 1708
-343.506 463.914 1708
-339.621 464.186 1709
-335.534 464.186 1709
-331.447 464.186 1709
-327.361 464.186 1709
-323.274 464.186 1709
-319 463.914 1708
-314.916 463.914 1708
-310.468 463.371 1706
-306.388 463.371 1706
-302.308 463.371 1706
-297.879 462.828 1704
-293.805 462.828 1704
-290.07 463.371 1706
-285.99 463.371 1706
-281.911 463.371 1706
-277.505 462.828 1704
-273.431 462.828 1704
-269.672 463.371 1706
-265.592 463.371 1706
-261.513 463.371 1706
-257.886 464.186 1709
-254.096 464.729 1711
-250.005 464.729 1711
-245.913 464.729 1711
-242.387 465.815 1715
-238.425 466.087 1716
-234.321 466.087 1716
-230.755 467.174 1720
-227.3 468.532 1725
-223.693 469.618 1729
-219.558 469.618 1729
-215.798 470.433 1732
-211.9 470.976 1734
-208.233 472.063 1738
-204.077 472.063 1738
-200.266 472.877 1741
-196.328 473.421 1743
-192.601 474.507 1747
-188.423 474.507 1747
-184.246 474.507 1747
-180.274 475.05 1749
-176.394 475.865 1752
-172.204 475.865 1752
-168.782 478.038 1760
-165.415 480.483 1769
-162.369 484.014 1782
-158.108 484.014 1782
-153.846 484.014 1782
-279.77 1091.88 4020
-270.157 1091.88 4020
-260.544 1091.88 4020
-249.745 1086.72 4001
-237.896 1076.4 3963
-228.419 1076.4 3963
-217.893 1071.24 3944
-206.506 1061.19 3907
-197.163 1061.19 3907
-187.82 1061.19 3907
-178.477 1061.19 3907
-168.355 1056.3 3889
-158.687 1053.86 3880
-149.063 1051.41 3871
-139.806 1051.41 3871
-130.246 1048.97 3862
-120.446 1044.08 3844
-109.981 1032.13 3800
-100.894 1032.13 3800
-90.5747 1018.28 3749
-81.2396 1013.66 3732
-72.0052 1009.31 3716
-63.1192 1009.31 3716
-53.7515 1000.35 3683
-44.5416 991.386 3650
-35.7348 989.213 3642
-27.0257 989.213 3642
-18.2009 982.966 3619
-9.48348 976.447 3595
-0.886748 976.447 3595
7.69497 974.546 3588
16.275 974.546 3588
24.7441 970.2 3572
33.2206 968.299 3565
41.652 966.126 3557
50.1578 966.126 3557
58.4163 962.052 3542
66.8863 962.052 3542
75.1861 959.879 3534
83.6369 959.879 3534
91.9054 957.977 3527
100.34 957.977 3527
108.774 957.977 3527
117.208 957.977 3527
125.642 957.977 3527
134.342 959.879 3534
142.793 959.879 3534
151.244 959.879 3534
159.695 959.879 3534
168.146 959.879 3534
176.596 959.879 3534
185.047 959.879 3534
193.498 959.879 3534
201.949 959.879 3534
210.4 959.879 3534
218.851 959.879 3534
227.302 959.879 3534
235.753 959.879 3534
244.756 962.052 3542
254.299 966.126 3557
262.804 966.126 3557
271.31 966.126 3557
281.625 972.373 3580
291.402 976.447 3595
299.999 976.447 3595
308.596 976.447 3595
317.192 976.447 3595
325.789 976.447 3595
335.13 978.62 3603
343.746 978.62 3603
353.144 980.793 3611
361.779 980.793 3611
370.414 980.793 3611
379.049 980.793 3611
386.825 978.62 3603
394.563 976.447 3595
403.16 976.447 3595
407.404 966.126 3557
414.156 962.052 3542
420.001 956.076 3520
424.767 947.928 3490
433.113 947.928 3490
438.676 941.952 3468
442.458 932.446 3433
447.91 926.742 3412
456.069 926.742 3412
459.467 917.235 3377
465.604 913.433 3363
468.998 904.47 3330
476.961 904.47 3330
483.905 902.568 3323
491.851 902.568 3323
498.895 900.939 3317
506.827 900.939 3317
514.759 900.939 3317
522.691 900.939 3317
530.623 900.939 3317
537.418 899.037 3310
545.333 899.037 3310
553.248 899.037 3310
561.164 899.037 3310
569.079 899.037 3310
578.214 900.939 3317
586.146 900.939 3317
594.078 900.939 3317
603.099 902.568 3323
611.045 902.568 3323
618.992 902.568 3323
626.938 902.568 3323
636.222 904.47 3330
644.185 904.47 3330
652.148 904.47 3330
660.111 904.47 3330
669.478 906.371 3337
677.458 906.371 3337
685.438 906.371 3337
693.418 906.371 3337
701.397 906.371 3337
709.377 906.371 3337
717.357 906.371 3337
725.337 906.371 3337
733.317 906.371 3337
741.296 906.371 3337
749.276 906.371 3337
757.256 906.371 3337
765.236 906.371 3337
773.215 906.371 3337
781.195 906.371 3337
787.52 904.47 3330
793.81 902.568 3323
801.757 902.568 3323
809.703 902.568 3323
817.649 902.568 3323
825.596 902.568 3323
833.542 902.568 3323
843.261 904.47 3330
851.224 904.47 3330
867.701 913.433 3363
879.389 917.235 3377
894.823 924.841 3405
902.965 924.841 3405
920.473 934.347 3440
932.478 938.15 3454
946.73 944.125 3476
955.042 944.125 3476
973.331 953.903 3512
987.88 959.879 3534
1005.07 968.299 3565
1013.6 968.299 3565
1022.12 968.299 3565
1037.29 974.546 3588
1050.25 978.62 3603
1063.56 982.966 3619
1072.22 982.966 3619
1090.13 991.386 3650
1103.98 996.003 3667
1115.17 998.176 3675
1123.96 998.176 3675
1135.22 1000.35 3683
1144.02 1000.35 3683
1152.83 1000.35 3683
1161.64 1000.35 3683
1170.45 1000.35 3683
1179.25 1000.35 3683
1190.64 1002.52 3691
1199.47 1002.52 3691
1208.29 1002.52 3691
1217.12 1002.52 3691
1225.95 1002.52 3691
1234.77 1002.52 3691
1240.9 1000.35 3683
1249.71 1000.35 3683
1258.52 1000.35 3683
1264.57 998.176 3675
1270.59 996.003 3667
1279.36 996.003 3667
1288.12 996.003 3667
1296.89 996.003 3667
1299.61 991.386 3650
1311.21 993.559 3658
1319.95 993.559 3658
1328.7 993.559 3658
1337.45 993.559 3658
1343.25 991.386 3650
1351.98 991.386 3650
1360.71 991.386 3650
1369.44 991.386 3650
1372.5 987.312 3635
1375.11 982.966 3619
1383.77 982.966 3619
1389.34 980.793 3611
1391.78 976.447 3595
1397.65 974.546 3588
1406.23 974.546 3588
1408.51 970.2 3572
1414.27 968.299 3565
1422.79 968.299 3565
1424.9 963.953 3549
1433.38 963.953 3549
1432.93 957.977 3527
1438.5 956.076 3520
1446.92 956.076 3520
1455.34 956.076 3520
1460.43 953.903 3512
1462.56 949.829 3497
1467.97 947.928 3490
1476.32 947.928 3490
1481.69 946.026 3483
1493.01 947.928 3490
1520.28 959.879 3534
1532.2 962.052 3542
1540.67 962.052 3542
1555.7 966.126 3557
1570.8 970.2 3572
1603.66 985.139 3627
1612.33 985.139 3627
1646.03 1000.35 3683
1665.62 1006.87 3707
1744.5 1048.97 3862
1753.74 1048.97 3862
1767.08 1051.41 3871
1792.86 1061.19 3907
1810.5 1066.08 3925
1819.89 1066.08 3925
1851.18 1078.84 3972
1869.58 1084.01 3991
1888.07 1089.17 4010
1897.66 1089.17 4010
1907.25 1089.17 4010
1916.84 1089.17 4010
1917.3 1084.01 3991
1926.84 1084.01 3991
1913.58 1071.24 3944
1869.87 1041.63 3835
1870.71 1037.02 3818
1879.84 1037.02 3818
1858.79 1020.45 3757
1847.39 1009.31 3716
1823.31 991.386 3650
1804.43 976.447 3595
1813.02 976.447 3595
1814.02 972.373 3580
1806.8 963.953 3549
1811.71 962.052 3542
1823.77 963.953 3549
1832.26 963.953 3549
1840.75 963.953 3549
1849.23 963.953 3549
1861.91 966.126 3557
1870.41 966.126 3557
1886.84 970.2 3572
1907.59 976.447 3595
1933.24 985.139 3627
1941.91 985.139 3627
1962.96 991.386 3650
1985.19 998.176 3675
2011.34 1006.87 3707
2020.21 1006.87 3707
2056.44 1020.45 3757
2118.2 1046.52 3853
2152.26 1058.75 3898
2161.58 1058.75 3898
2196.52 1071.24 3944
2216.58 1076.4 3963
2226.05 1076.4 3963
2235.53 1076.4 3963
2245.01 1076.4 3963
2254.49 1076.4 3963
2263.96 1076.4 3963
2273.44 1076.4 3963
2282.92 1076.4 3963
2281.4 1071.24 3944
2290.83 1071.24 3944
2305.51 1073.68 3953
2314.97 1073.68 3953
2324.42 1073.68 3953
2317.34 1066.08 3925
2332.65 1068.8 3935
2342.06 1068.8 3935
2356.85 1071.24 3944
2366.28 1071.24 3944
2381.14 1073.68 3953
2390.59 1073.68 3953
2400.04 1073.68 3953
2409.49 1073.68 3953
2418.95 1073.68 3953
2428.4 1073.68 3953
2432.3 1071.24 3944
2447.31 1073.68 3953
2456.76 1073.68 3953
2466.21 1073.68 3953
2475.66 1073.68 3953
2479.46 1071.24 3944
2494.57 1073.68 3953
2504.02 1073.68 3953
2513.48 1073.68 3953
2522.93 1073.68 3953
2526.62 1071.24 3944
2536.05 1071.24 3944
2521.6 1061.19 3907
2519.28 1056.3 3889
2516.88 1051.41 3871
2508.51 1044.08 3844
2517.71 1044.08 3844
2497.97 1032.13 3800
2501.78 1029.95 3792
2498.93 1025.07 3774
2507.96 1025.07 3774
2494.31 1015.83 3740
2497.9 1013.66 3732
2512.19 1015.83 3740
2521.14 1015.83 3740
2541.58 1020.45 3757
2550.56 1020.45 3757
2559.55 1020.45 3757
2568.53 1020.45 3757
2577.52 1020.45 3757
2586.5 1020.45 3757
543.534 194.203 715
545.244 194.203 715
546.954 194.203 715
-2374.95 869.154 3172
-2367.37 869.154 3172
-2346.39 864.221 3154
-2334.4 862.577 3148
-2322.44 860.933 3142
-2314.93 860.933 3142
-2294.19 856.001 3124
-2277.94 852.713 3112
-2266.85 851.343 3107
-2267.42 854.357 3118
-2259.96 854.357 3118
-2265.51 859.289 3136
-2262.33 860.933 3142
-2259.12 862.577 3148
-2251.6 862.577 3148
-2256.9 867.509 3166
-2266.38 874.086 3190
-2263 875.73 3196
-2255.36 875.73 3196
-2256.15 879.018 3208
-2270.21 887.512 3239
-2284.82 896.28 3271
-2276.99 896.28 3271
-2287.21 903.404 3297
-2288.31 906.967 3310
-2280.4 906.967 3310
-2272.48 906.967 3310
-2273.46 910.529 3323
-2279.15 916.009 3343
-2280.67 919.845 3357
-2272.64 919.845 3357
-2273.38 923.407 3370
-2270.03 925.325 3377
-2261.95 925.325 3377
-2253.88 925.325 3377
-2255.11 929.161 3391
-2256.28 932.997 3405
-2266.63 940.67 3433
-2258.42 940.67 3433
-2250.21 940.67 3433
-2255.71 946.424 3454
-2261.77 952.452 3476
-2253.46 952.452 3476
-2249.66 954.37 3483
-2250.34 958.206 3497
-2247.11 960.398 3505
-2238.73 960.398 3505
-2234.8 962.316 3512
-2231.48 964.508 3520
-2227.48 966.426 3527
-2219.05 966.426 3527
-2215 968.344 3534
-2211.54 970.536 3542
-2207.43 972.455 3549
-2198.94 972.455 3549
-2200.33 976.839 3565
-2205.94 983.141 3588
-2197.36 983.141 3588
-2188.78 983.141 3588
-2180.2 983.141 3588
-2175.86 985.059 3595
-2167.26 985.059 3595
-2158.67 985.059 3595
-2154.85 987.251 3603
-2146.24 987.251 3603
-2137.62 987.251 3603
-2129.01 987.251 3603
-2120.39 987.251 3603
-2111.78 987.251 3603
-2103.16 987.251 3603
-2094.54 987.251 3603
-2090.56 989.443 3611
-2081.92 989.443 3611
-2077.88 991.635 3619
-2069.23 991.635 3619
-2060.57 991.635 3619
-2051.92 991.635 3619
-2043.27 991.635 3619
-2034.61 991.635 3619
-2021.48 989.443 3611
-2012.84 989.443 3611
-2004.21 989.443 3611
-1995.57 989.443 3611
-1982.54 987.251 3603
-1973.92 987.251 3603
-1969.67 989.443 3611
-1961.03 989.443 3611
-1956.73 991.635 3619
-1960.45 997.937 3642
-1951.74 997.937 3642
-1943.03 997.937 3642
-1934.32 997.937 3642
-1934.07 1002.32 3658
-1934.28 1006.98 3675
-1925.49 1006.98 3675
-1916.7 1006.98 3675
-1907.91 1006.98 3675
-1899.12 1006.98 3675
-1890.33 1006.98 3675
-1881.55 1006.98 3675
-1872.76 1006.98 3675
-1872.09 1011.36 3691
-1863.26 1011.36 3691
-1854.43 1011.36 3691
-1837.61 1006.98 3675
-1828.82 1006.98 3675
-1816.07 1004.79 3667
-1811.24 1006.98 3675
-1802.45 1006.98 3675
-1793.67 1006.98 3675
-1780.99 1004.79 3667
-1756.76 996.019 3635
-1744.22 993.827 3627
-1735.55 993.827 3627
-1726.87 993.827 3627
-1710.62 989.443 3611
-1691.14 983.141 3588
-1675.06 978.757 3572
-1666.52 978.757 3572
-1651.02 974.647 3557
-1638.82 972.455 3549
-1620.22 966.426 3527
-1611.79 966.426 3527
-1603.35 966.426 3527
-1594.92 966.426 3527
-1586.49 966.426 3527
-1578.05 966.426 3527
-1569.62 966.426 3527
-1558.08 964.508 3520
-1549.67 964.508 3520
-1541.25 964.508 3520
-1526.3 960.398 3505
-1517.92 960.398 3505
-1512.55 962.316 3512
-1504.15 962.316 3512
-1495.76 962.316 3512
-1490.75 964.508 3520
-1482.33 964.508 3520
-1476.84 966.426 3527
-1468.41 966.426 3527
-1462.87 968.344 3534
-1457.71 970.536 3542
-1449.24 970.536 3542
-1440.77 970.536 3542
-1432.3 970.536 3542
-1423.83 970.536 3542
-1418.16 972.455 3549
-1409.67 972.455 3549
-1401.19 972.455 3549
-1386.81 968.344 3534
-1378.36 968.344 3534
-1369.91 968.344 3534
-1370.32 974.647 3557
-1361.82 974.647 3557
-1356.35 976.839 3565
-1347.83 976.839 3565
-1339.3 976.839 3565
-1327.79 974.647 3557
-1319.29 974.647 3557
-1310.78 974.647 3557
-1302.27 974.647 3557
-1290.86 972.455 3549
-1282.37 972.455 3549
-1265.99 966.426 3527
-1255.06 964.508 3520
-1249.12 966.426 3527
-1240.69 966.426 3527
-1239.94 972.455 3549
-1231.45 972.455 3549
-1222.97 972.455 3549
-1206.95 966.426 3527
-1198.52 966.426 3527
-1190.08 966.426 3527
-1176.62 962.316 3512
-1168.22 962.316 3512
-1159.83 962.316 3512
-591.779 494.585 1805
-587.462 494.585 1805
-583.146 494.585 1805
-578.83 494.585 1805
-575.15 495.133 1807
-570.829 495.133 1807
-566.508 495.133 1807
-562.809 495.681 1809
-558.483 495.681 1809
-554.157 495.681 1809
-549.831 495.681 1809
-544.902 495.133 1807
-541.778 496.229 1811
-537.447 496.229 1811
-533.117 496.229 1811
-528.786 496.229 1811
-523.297 495.133 1807
-518.976 495.133 1807
-514.655 495.133 1807
-508.922 493.762 1802
-504.052 493.214 1800
-499.748 493.214 1800
-493.792 491.57 1794
-486.228 488.282 1782
-481.155 487.46 1779
-476.901 487.46 1779
-468.927 483.624 1765
-460.494 479.24 1749
-455.268 478.144 1745
-451.095 478.144 1745
-445.13 476.226 1738
-438.69 473.76 1729
-432.796 471.842 1722
-427.683 470.746 1718
-423.574 470.746 1718
-418.978 470.198 1716
-414.149 469.376 1713
-408.856 468.006 1708
-404.772 468.006 1708
-399.749 466.91 1704
-395.674 466.91 1704
-391.599 466.91 1704
-387.524 466.91 1704
-383.45 466.91 1704
-379.375 466.91 1704
-375.3 466.91 1704
-371.661 467.458 1706
-367.581 467.458 1706
-363.502 467.458 1706
-359.422 467.458 1706
-355.343 467.458 1706
-351.263 467.458 1706
-347.591 468.006 1708
-343.707 468.28 1709
-339.621 468.28 1709
-335.534 468.28 1709
-331.447 468.28 1709
-327.361 468.28 1709
-323.274 468.28 1709
-319.187 468.28 1709
-314.916 468.006 1708
-310.832 468.006 1708
-306.747 468.006 1708
-302.663 468.006 1708
-298.579 468.006 1708
-294.494 468.006 1708
-290.41 468.006 1708
-286.326 468.006 1708
-282.241 468.006 1708
-277.831 467.458 1706
-273.752 467.458 1706
-269.672 467.458 1706
-265.592 467.458 1706
-261.819 468.006 1708
-258.188 468.828 1711
-254.096 468.828 1711
-250.005 468.828 1711
-245.913 468.828 1711
-242.387 469.924 1715
-238.425 470.198 1716
-234.321 470.198 1716
-231.023 471.842 1722
-227.3 472.664 1725
-223.693 473.76 1729
-219.558 473.76 1729
-215.798 474.582 1732
-212.145 475.678 1736
-208.233 476.226 1738
-204.077 476.226 1738
-200.266 477.048 1741
-196.328 477.596 1743
-192.601 478.692 1747
-188.423 478.692 1747
-184.457 479.24 1749
-180.48 479.788 1751
-176.394 480.062 1752
-172.204 480.062 1752
-169.261 483.624 1765
-166.817 488.83 1784
-162.733 489.378 1786
-158.463 489.378 1786
-154.192 489.378 1786
-278.447 1096.31 4001
-268.88 1096.31 4001
-259.312 1096.31 4001
-248.559 1091.1 3982
-237.896 1085.89 3963
-228.419 1085.89 3963
-217.893 1080.69 3944
-207.457 1075.48 3925
-197.617 1073.02 3916
-187.82 1070.55 3907
-178.477 1070.55 3907
-168.355 1065.62 3889
-158.319 1060.69 3871
-149.063 1060.69 3871
-139.806 1060.69 3871
-130.246 1058.22 3862
-120.728 1055.75 3853
-109.981 1041.23 3800
-100.894 1041.23 3800
-90.5747 1027.26 3749
-81.0655 1020.41 3724
-72.0052 1018.21 3716
-63.1192 1018.21 3716
-53.7515 1009.17 3683
-44.5416 1000.13 3650
-35.7348 997.937 3642
-27.0257 997.937 3642
-18.2009 991.635 3619
-9.48348 985.059 3595
-0.886748 985.059 3595
7.69497 983.141 3588
16.275 983.141 3588
24.7441 978.757 3572
33.2859 978.757 3572
41.7456 976.839 3565
50.2706 976.839 3565
58.5317 972.455 3549
66.8863 970.536 3542
75.3563 970.536 3542
83.8263 970.536 3542
92.0878 968.344 3534
100.34 966.426 3527
108.774 966.426 3527
117.208 966.426 3527
125.642 966.426 3527
134.342 968.344 3534
142.793 968.344 3534
151.586 970.536 3542
160.056 970.536 3542
168.526 970.536 3542
176.996 970.536 3542
185.466 970.536 3542
193.498 968.344 3534
201.549 966.426 3527
209.983 966.426 3527
218.851 968.344 3534
227.302 968.344 3534
235.753 968.344 3534
244.756 970.536 3542
254.299 974.647 3557
262.804 974.647 3557
271.31 974.647 3557
281.625 980.949 3580
291.402 985.059 3595
299.999 985.059 3595
308.596 985.059 3595
317.192 985.059 3595
325.789 985.059 3595
335.13 987.251 3603
343.746 987.251 3603
353.144 989.443 3611
361.779 989.443 3611
370.414 989.443 3611
379.049 989.443 3611
386.825 987.251 3603
394.563 985.059 3595
403.16 985.059 3595
407.404 974.647 3557
414.156 970.536 3542
420.001 964.508 3520
424.767 956.288 3490
433.113 956.288 3490
438.676 950.26 3468
442.458 940.67 3433
447.91 934.915 3412
456.069 934.915 3412
459.467 925.325 3377
465.604 921.489 3363
468.998 912.447 3330
476.961 912.447 3330
483.905 910.529 3323
491.851 910.529 3323
498.895 908.885 3317
506.827 908.885 3317
514.759 908.885 3317
522.691 908.885 3317
530.623 908.885 3317
537.418 906.967 3310
545.333 906.967 3310
553.248 906.967 3310
561.164 906.967 3310
569.079 906.967 3310
576.994 906.967 3310
584.909 906.967 3310
594.078 908.885 3317
602.01 908.885 3317
609.942 908.885 3317
617.874 908.885 3317
626.938 910.529 3323
634.884 910.529 3323
644.185 912.447 3330
652.148 912.447 3330
660.111 912.447 3330
669.478 914.365 3337
678.676 916.009 3343
686.67 916.009 3343
694.664 916.009 3343
702.659 916.009 3343
710.653 916.009 3343
718.647 916.009 3343
726.641 916.009 3343
734.635 916.009 3343
741.296 914.365 3337
749.276 914.365 3337
757.256 914.365 3337
765.236 914.365 3337
773.215 914.365 3337
781.195 914.365 3337
789.175 914.365 3337
795.483 912.447 3330
803.446 912.447 3330
811.409 912.447 3330
819.372 912.447 3330
825.596 910.529 3323
833.542 910.529 3323
843.261 912.447 3330
851.224 912.447 3330
867.701 921.489 3363
879.389 925.325 3377
894.823 932.997 3405
902.965 932.997 3405
918.6 940.67 3433
932.478 946.424 3454
944.551 950.26 3468
952.844 950.26 3468
971.391 960.398 3505
983.966 964.508 3520
1000.56 972.455 3549
1009.05 972.455 3549
1022.12 976.839 3565
1034.98 980.949 3580
1050.25 987.251 3603
1061.21 989.443 3611
1069.85 989.443 3611
1090.13 1000.13 3650
1106.39 1006.98 3675
1115.17 1006.98 3675
1123.96 1006.98 3675
1132.75 1006.98 3675
1144.02 1009.17 3683
1152.83 1009.17 3683
1161.64 1009.17 3683
1172.99 1011.36 3691
1181.81 1011.36 3691
1190.64 1011.36 3691
1199.47 1011.36 3691
1208.29 1011.36 3691
1217.12 1011.36 3691
1225.95 1011.36 3691
1234.77 1011.36 3691
1240.9 1009.17 3683
1246.99 1006.98 3675
1255.78 1006.98 3675
1264.57 1006.98 3675
1270.59 1004.79 3667
1279.36 1004.79 3667
1288.12 1004.79 3667
1296.89 1004.79 3667
1299.61 1000.13 3650
1311.21 1002.32 3658
1319.95 1002.32 3658
1328.7 1002.32 3658
1337.45 1002.32 3658
1343.25 1000.13 3650
1351.98 1000.13 3650
1360.71 1000.13 3650
1369.44 1000.13 3650
1372.5 996.019 3635
1375.11 991.635 3619
1383.77 991.635 3619
1389.34 989.443 3611
1394.88 987.251 3603
1400.38 985.059 3595
1408.98 985.059 3595
1411.66 980.949 3580
1417.05 978.757 3572
1422.79 976.839 3565
1424.9 972.455 3549
1433.38 972.455 3549
1435.78 968.344 3534
1441.37 966.426 3527
1446.92 964.508 3520
1455.34 964.508 3520
1460.43 962.316 3512
1465.9 960.398 3505
1470.92 958.206 3497
1479.28 958.206 3497
1484.66 956.288 3490
1496 958.206 3497
1517.27 966.426 3527
1528.73 968.344 3534
1537.19 968.344 3534
1552.2 972.455 3549
1570.8 978.757 3572
1600.12 991.635 3619
1608.77 991.635 3619
1646.03 1009.17 3683
1665.62 1015.75 3707
1720.56 1043.7 3809
1729.67 1043.7 3809
1762.97 1058.22 3862
1776.34 1060.69 3871
1802.2 1070.55 3907
1811.54 1070.55 3907
1846.99 1085.89 3963
1865.36 1091.1 3982
1888.07 1098.77 4010
1897.66 1098.77 4010
1907.25 1098.77 4010
1916.84 1098.77 4010
1908.17 1088.36 3972
1917.67 1088.36 3972
1904.36 1075.48 3925
1865.48 1048.35 3826
1866.3 1043.7 3809
1875.41 1043.7 3809
1854.83 1027.26 3749
1838.94 1013.56 3699
1811.82 993.827 3627
1796.9 980.949 3580
1805.46 980.949 3580
1798.31 972.455 3549
1795.6 966.426 3527
1804.03 966.426 3527
1812.47 966.426 3527
1820.9 966.426 3527
1829.34 966.426 3527
1834.12 964.508 3520
1849.87 968.344 3534
1858.32 968.344 3534
1878.92 974.647 3557
1895.38 978.757 3572
1916.19 985.059 3595
1924.78 985.059 3595
1950.59 993.827 3627
1971.69 1000.13 3650
1993.98 1006.98 3675
2020.21 1015.75 3707
2029.07 1015.75 3707
2118.2 1055.75 3853
2152.26 1068.08 3898
2161.58 1068.08 3898
2196.52 1080.69 3944
2216.58 1085.89 3963
2226.05 1085.89 3963
2235.53 1085.89 3963
2245.01 1085.89 3963
2254.49 1085.89 3963
2263.96 1085.89 3963
2273.44 1085.89 3963
2282.92 1085.89 3963
2281.4 1080.69 3944
2290.83 1080.69 3944
2305.51 1083.15 3953
2314.97 1083.15 3953
2324.42 1083.15 3953
2317.34 1075.48 3925
2326.73 1075.48 3925
2336.11 1075.48 3925
2356.85 1080.69 3944
2366.28 1080.69 3944
2375.71 1080.69 3944
2373.66 1075.48 3925
2383.04 1075.48 3925
2392.43 1075.48 3925
2396.31 1073.02 3916
2405.67 1073.02 3916
2415.03 1073.02 3916
2436.16 1078.22 3935
2445.57 1078.22 3935
2454.98 1078.22 3935
2464.39 1078.22 3935
2473.8 1078.22 3935
2494.57 1083.15 3953
2504.02 1083.15 3953
2513.48 1083.15 3953
2522.93 1083.15 3953
2526.62 1080.69 3944
2536.05 1080.69 3944
2521.6 1070.55 3907
2513.45 1063.15 3880
2516.88 1060.69 3871
2491.55 1046.16 3818
2500.68 1046.16 3818
2492.72 1039.04 3792
2495.85 1036.57 3783
2476.42 1024.79 3740
2485.36 1024.79 3740
2483.64 1020.41 3724
2487.19 1018.21 3716
2501.45 1020.41 3724
2510.35 1020.41 3724
2530.08 1024.79 3740
2539.02 1024.79 3740
2547.97 1024.79 3740
2545.97 1020.41 3724
2554.88 1020.41 3724
2558.28 1018.21 3716
543.534 195.916 715
545.244 195.916 715
546.954 195.916 715
-2374.95 876.752 3172
-2367.37 876.752 3172
-2350.86 873.435 3160
-2334.4 870.118 3148
-2322.44 868.46 3142
-2314.93 868.46 3142
-2294.19 863.485 3124
-2277.94 860.168 3112
-2270.5 860.168 3112
-2267.42 861.826 3118
-2259.96 861.826 3118
-2269.84 868.46 3142
-2266.65 870.118 3148
-2267.73 873.435 3160
-2260.18 873.435 3160
-2256.9 875.094 3166
-2266.38 881.727 3190
-2267.25 885.044 3202
-2259.59 885.044 3202
-2260.37 888.361 3214
-2275.12 897.206 3246
-2284.82 904.116 3271
-2276.99 904.116 3271
-2291.37 912.961 3303
-2293.15 916.831 3317
-2285.22 916.831 3317
-2277.29 916.831 3317
-2273.46 918.489 3323
-2288.7 927.887 3357
-2280.67 927.887 3357
-2272.64 927.887 3357
-2273.38 931.48 3370
-2270.03 933.415 3377
-2266.64 935.35 3384
-2258.55 935.35 3384
-2255.11 937.284 3391
-2256.28 941.154 3405
-2262 946.959 3426
-2253.81 946.959 3426
-2250.21 948.893 3433
-2251.14 952.763 3447
-2261.77 960.779 3476
-2253.46 960.779 3476
-2254.19 964.648 3490
-2255.49 968.794 3505
-2251.6 970.729 3512
-2243.2 970.729 3512
-2234.8 970.729 3512
-2231.48 972.94 3520
-2227.48 974.875 3527
-2219.05 974.875 3527
-2215 976.81 3534
-2211.54 979.021 3542
-2207.43 980.956 3549
-2198.94 980.956 3549
-2200.33 985.379 3565
-2205.94 991.736 3588
-2197.36 991.736 3588
-2188.78 991.736 3588
-2180.2 991.736 3588
-2175.86 993.671 3595
-2167.26 993.671 3595
-2158.67 993.671 3595
-2154.85 995.882 3603
-2146.24 995.882 3603
-2137.62 995.882 3603
-2129.01 995.882 3603
-2120.39 995.882 3603
-2111.78 995.882 3603
-2103.16 995.882 3603
-2094.54 995.882 3603
-2090.56 998.093 3611
-2081.92 998.093 3611
-2073.29 998.093 3611
-2064.65 998.093 3611
-2056.02 998.093 3611
-2047.38 998.093 3611
-2038.75 998.093 3611
-2030.11 998.093 3611
-2017 995.882 3603
-2008.39 995.882 3603
-1999.77 995.882 3603
-1991.15 995.882 3603
-1982.54 995.882 3603
-1969.54 993.671 3595
-1965.31 995.882 3603
-1956.69 995.882 3603
-1952.4 998.093 3611
-1948.07 1000.3 3619
-1939.42 1000.3 3619
-1930.76 1000.3 3619
-1930.61 1004.73 3635
-1925.62 1006.66 3642
-1934.28 1015.78 3675
-1925.49 1015.78 3675
-1916.7 1015.78 3675
-1907.91 1015.78 3675
-1899.12 1015.78 3675
-1890.33 1015.78 3675
-1877.45 1013.57 3667
-1872.76 1015.78 3675
-1872.09 1020.21 3691
-1863.26 1020.21 3691
-1854.43 1020.21 3691
-1837.61 1015.78 3675
-1828.82 1015.78 3675
-1816.07 1013.57 3667
-1807.3 1013.57 3667
-1798.53 1013.57 3667
-1789.76 1013.57 3667
-1776.62 1011.08 3658
-1756.76 1004.73 3635
-1744.22 1002.52 3627
-1735.55 1002.52 3627
-1726.87 1002.52 3627
-1710.62 998.093 3611
-1691.14 991.736 3588
-1675.06 987.313 3572
-1666.52 987.313 3572
-1647.3 980.956 3549
-1635.58 979.021 3542
-1620.22 974.875 3527
-1611.79 974.875 3527
-1600.17 972.94 3520
-1581.35 966.583 3497
-1576.59 968.794 3505
-1568.21 968.794 3505
-1559.83 968.794 3505
-1551.45 968.794 3505
-1543.06 968.794 3505
-1534.68 968.794 3505
-1519.77 964.648 3490
-1511.42 964.648 3490
-1497.05 960.779 3476
-1488.74 960.779 3476
-1480.42 960.779 3476
-1475.08 962.714 3483
-1472.64 966.583 3497
-1470.56 970.729 3512
-1462.16 970.729 3512
-1457.08 972.94 3520
-1451.54 974.875 3527
-1443.11 974.875 3527
-1434.67 974.875 3527
-1426.24 974.875 3527
-1420.62 976.81 3534
-1412.17 976.81 3534
-1403.72 976.81 3534
-1395.26 976.81 3534
-1386.81 976.81 3534
-1378.36 976.81 3534
-1369.91 976.81 3534
-1361.46 976.81 3534
-1358.75 980.956 3549
-1350.27 980.956 3549
-1341.78 980.956 3549
-1333.29 980.956 3549
-1324.81 980.956 3549
-1316.32 980.956 3549
-1305.25 979.021 3542
-1296.78 979.021 3542
-1285.4 976.81 3534
-1274.42 974.875 3527
-1265.99 974.875 3527
-1255.06 972.94 3520
-1249.12 974.875 3527
-1240.69 974.875 3527
-1237.49 979.021 3542
-1229.02 979.021 3542
-1220.55 979.021 3542
-1206.95 974.875 3527
-1198.52 974.875 3527
-1190.08 974.875 3527
-1176.62 970.729 3512
-1168.22 970.729 3512
-1159.83 970.729 3512
-591.779 498.908 1805
-587.462 498.908 1805
-583.146 498.908 1805
-578.83 498.908 1805
-575.15 499.461 1807
-570.829 499.461 1807
-566.508 499.461 1807
-562.809 500.014 1809
-558.483 500.014 1809
-554.157 500.014 1809
-549.831 500.014 1809
-544.902 499.461 1807
-541.18 500.014 1809
-536.854 500.014 1809
-532.528 500.014 1809
-528.202 500.014 1809
-523.297 499.461 1807
-518.976 499.461 1807
-514.655 499.461 1807
-508.922 498.079 1802
-504.052 497.526 1800
-499.748 497.526 1800
-493.792 495.868 1794
-486.228 492.551 1782
-481.155 491.722 1779
-476.901 491.722 1779
-468.927 487.852 1765
-460.494 483.43 1749
-455.268 482.324 1745
-451.095 482.324 1745
-445.13 480.389 1738
-438.69 477.902 1729
-432.796 475.967 1722
-427.683 474.861 1718
-423.574 474.861 1718
-418.978 474.308 1716
-414.149 473.479 1713
-408.856 472.097 1708
-404.772 472.097 1708
-399.749 470.992 1704
-395.674 470.992 1704
-391.599 470.992 1704
-387.524 470.992 1704
-383.45 470.992 1704
-379.375 470.992 1704
-375.3 470.992 1704
-371.661 471.544 1706
-367.581 471.544 1706
-363.502 471.544 1706
-359.422 471.544 1706
-355.343 471.544 1706
-351.263 471.544 1706
-347.591 472.097 1708
-343.707 472.374 1709
-339.621 472.374 1709
-335.534 472.374 1709
-331.447 472.374 1709
-327.361 472.374 1709
-323.274 472.374 1709
-319.187 472.374 1709
-314.916 472.097 1708
-310.832 472.097 1708
-306.747 472.097 1708
-302.663 472.097 1708
-298.579 472.097 1708
-294.494 472.097 1708
-290.41 472.097 1708
-286.326 472.097 1708
-282.241 472.097 1708
-277.831 471.544 1706
-273.752 471.544 1706
-269.988 472.097 1708
-265.904 472.097 1708
-261.819 472.097 1708
-258.188 472.926 1711
-254.096 472.926 1711
-250.005 472.926 1711
-246.488 474.032 1715
-242.387 474.032 1715
-238.425 474.308 1716
-234.321 474.308 1716
-231.023 475.967 1722
-227.3 476.796 1725
-223.693 477.902 1729
-219.558 477.902 1729
-215.798 478.731 1732
-212.145 479.837 1736
-208.233 480.389 1738
-204.077 480.389 1738
-200.266 481.219 1741
-196.328 481.771 1743
-192.821 483.43 1749
-188.639 483.43 1749
-184.667 483.983 1751
-180.583 484.259 1752
-176.998 485.917 1758
-172.794 485.917 1758
-169.261 487.852 1765
-167.191 494.21 1788
-163.28 495.315 1792
-158.995 495.315 1792
-154.71 495.315 1792
-278.447 1105.89 4001
-268.88 1105.89 4001
-259.312 1105.89 4001
-248.559 1100.64 3982
-237.896 1095.39 3963
-228.419 1095.39 3963
-218.39 1092.62 3953
-207.457 1084.88 3925
-197.617 1082.4 3916
-187.82 1079.91 3907
-178.477 1079.91 3907
-168.355 1074.93 3889
-158.319 1069.96 3871
-149.063 1069.96 3871
-139.806 1069.96 3871
-130.246 1067.47 3862
-120.728 1064.98 3853
-109.981 1050.33 3800
-100.894 1050.33 3800
-90.5747 1036.24 3749
-81.0655 1029.33 3724
-72.0052 1027.12 3716
-63.1192 1027.12 3716
-53.7515 1017.99 3683
-44.5416 1008.87 3650
-35.7348 1006.66 3642
-27.0257 1006.66 3642
-18.2412 1002.52 3627
-9.48348 993.671 3595
-0.886748 993.671 3595
7.70999 993.671 3595
16.3067 993.671 3595
24.7995 989.525 3580
33.2859 987.313 3572
41.7456 985.379 3565
50.2706 985.379 3565
58.6637 983.167 3557
67.0185 980.956 3549
75.3563 979.021 3542
83.8263 979.021 3542
92.0878 976.81 3534
100.539 976.81 3534
108.99 976.81 3534
117.44 976.81 3534
125.891 976.81 3534
134.342 976.81 3534
143.116 979.021 3542
151.586 979.021 3542
160.056 979.021 3542
168.526 979.021 3542
176.996 979.021 3542
185.466 979.021 3542
193.936 979.021 3542
201.549 974.875 3527
210.4 976.81 3534
218.851 976.81 3534
227.302 976.81 3534
235.753 976.81 3534
244.756 979.021 3542
254.299 983.167 3557
262.804 983.167 3557
271.31 983.167 3557
281.625 989.525 3580
291.402 993.671 3595
299.999 993.671 3595
308.596 993.671 3595
317.192 993.671 3595
325.789 993.671 3595
335.13 995.882 3603
343.746 995.882 3603
353.144 998.093 3611
361.779 998.093 3611
370.414 998.093 3611
379.049 998.093 3611
386.825 995.882 3603
394.563 993.671 3595
403.16 993.671 3595
407.404 983.167 3557
414.156 979.021 3542
420.001 972.94 3520
424.767 964.648 3490
433.113 964.648 3490
438.676 958.568 3468
442.458 948.893 3433
447.91 943.089 3412
456.069 943.089 3412
459.467 933.415 3377
465.604 929.545 3363
468.998 920.424 3330
476.961 920.424 3330
483.905 918.489 3323
491.851 918.489 3323
499.797 918.489 3323
507.744 918.489 3323
514.759 916.831 3317
522.691 916.831 3317
530.623 916.831 3317
537.418 914.896 3310
545.333 914.896 3310
553.248 914.896 3310
561.164 914.896 3310
569.079 914.896 3310
576.994 914.896 3310
584.909 914.896 3310
594.078 916.831 3317
602.01 916.831 3317
609.942 916.831 3317
617.874 916.831 3317
626.938 918.489 3323
634.884 918.489 3323
644.185 920.424 3330
652.148 920.424 3330
660.111 920.424 3330
669.478 922.359 3337
678.676 924.017 3343
686.67 924.017 3343
694.664 924.017 3343
702.659 924.017 3343
710.653 924.017 3343
718.647 924.017 3343
726.641 924.017 3343
734.635 924.017 3343
741.296 922.359 3337
749.276 922.359 3337
757.256 922.359 3337
765.236 922.359 3337
773.215 922.359 3337
781.195 922.359 3337
789.175 922.359 3337
795.483 920.424 3330
803.446 920.424 3330
811.409 920.424 3330
819.372 920.424 3330
825.596 918.489 3323
833.542 918.489 3323
843.261 920.424 3330
851.224 920.424 3330
867.701 929.545 3363
877.566 931.48 3370
892.983 939.219 3398
901.109 939.219 3398
914.854 945.024 3419
926.809 948.893 3433
940.738 954.698 3454
948.998 954.698 3454
967.234 964.648 3490
981.73 970.729 3512
998.586 979.021 3542
1007.06 979.021 3542
1019.83 983.167 3557
1034.98 989.525 3580
1047.91 993.671 3595
1061.21 998.093 3611
1069.85 998.093 3611
1090.13 1008.87 3650
1106.39 1015.78 3675
1115.17 1015.78 3675
1123.96 1015.78 3675
1135.22 1017.99 3683
1144.02 1017.99 3683
1155.33 1020.21 3691
1164.16 1020.21 3691
1172.99 1020.21 3691
1181.81 1020.21 3691
1190.64 1020.21 3691
1199.47 1020.21 3691
1208.29 1020.21 3691
1217.12 1020.21 3691
1225.95 1020.21 3691
1234.77 1020.21 3691
1240.9 1017.99 3683
1246.99 1015.78 3675
1255.78 1015.78 3675
1264.57 1015.78 3675
1270.59 1013.57 3667
1279.36 1013.57 3667
1288.12 1013.57 3667
1296.89 1013.57 3667
1299.61 1008.87 3650
1308.34 1008.87 3650
1317.07 1008.87 3650
1325.79 1008.87 3650
1334.52 1008.87 3650
1343.25 1008.87 3650
1351.98 1008.87 3650
1360.71 1008.87 3650
1366.43 1006.66 3642
1372.5 1004.73 3635
1378.15 1002.52 3627
1386.83 1002.52 3627
1392.42 1000.3 3619
1397.98 998.093 3611
1400.38 993.671 3595
1408.98 993.671 3595
1411.66 989.525 3580
1417.05 987.313 3572
1425.59 987.313 3572
1428.11 983.167 3557
1436.61 983.167 3557
1439.03 979.021 3542
1444.23 976.81 3534
1449.8 974.875 3527
1458.23 974.875 3527
1463.76 972.94 3520
1468.83 970.729 3512
1474.28 968.794 3505
1482.66 968.794 3505
1484.66 964.648 3490
1496 966.583 3497
1517.27 974.875 3527
1528.73 976.81 3534
1537.19 976.81 3534
1549.14 979.021 3542
1567.72 985.379 3565
1600.12 1000.3 3619
1608.77 1000.3 3619
1646.03 1017.99 3683
1665.62 1024.63 3707
1708.82 1045.63 3783
1717.86 1045.63 3783
1742.89 1055.31 3818
1768.08 1064.98 3853
1785.59 1069.96 3871
1794.85 1069.96 3871
1833.94 1087.65 3935
1860.68 1097.87 3972
1888.07 1108.38 4010
1897.66 1108.38 4010
1907.25 1108.38 4010
1916.84 1108.38 4010
1908.17 1097.87 3972
1917.67 1097.87 3972
1904.36 1084.88 3925
1861.58 1055.31 3818
1849.15 1043.15 3774
1858.17 1043.15 3774
1834.05 1024.63 3707
1823.03 1013.57 3667
1799.83 995.882 3603
1781.34 980.956 3549
1789.83 980.956 3549
1787.16 974.875 3527
1780.33 966.583 3497
1792.78 968.794 3505
1801.16 968.794 3505
1809.54 968.794 3505
1817.92 968.794 3505
1818.49 964.648 3490
1838.35 970.729 3512
1846.75 970.729 3512
1866.77 976.81 3534
1887.42 983.167 3557
1903.93 987.313 3572
1924.78 993.671 3595
1933.38 993.671 3595
1959.26 1002.52 3627
1972.28 1004.73 3635
2002.77 1015.78 3675
2011.55 1015.78 3675
2103.36 1057.52 3826
2152.26 1077.42 3898
2161.58 1077.42 3898
2180.93 1082.4 3916
2200.92 1087.65 3935
2210.33 1087.65 3935
2219.74 1087.65 3935
2229.15 1087.65 3935
2243.68 1090.14 3944
2253.11 1090.14 3944
2262.54 1090.14 3944
2271.97 1090.14 3944
2281.4 1090.14 3944
2279.8 1084.88 3925
2289.18 1084.88 3925
2298.57 1084.88 3925
2307.95 1084.88 3925
2317.34 1084.88 3925
2326.73 1084.88 3925
2325.4 1079.91 3907
2345.5 1084.88 3925
2354.88 1084.88 3925
2364.27 1084.88 3925
2368.21 1082.4 3916
2372.11 1079.91 3907
2375.97 1077.42 3898
2385.29 1077.42 3898
2394.61 1077.42 3898
2403.93 1077.42 3898
2429.97 1084.88 3925
2439.36 1084.88 3925
2448.74 1084.88 3925
2458.13 1084.88 3925
2467.51 1084.88 3925
2494.57 1092.62 3953
2504.02 1092.62 3953
2513.48 1092.62 3953
2522.93 1092.62 3953
2526.62 1090.14 3944
2536.05 1090.14 3944
2527.41 1082.4 3916
2530.94 1079.91 3907
2540.28 1079.91 3907
2491.55 1055.31 3818
2500.68 1055.31 3818
2486.8 1045.63 3783
542.774 197.352 714
544.481 197.352 714
546.189 197.352 714
-2374.95 884.351 3172
-2367.37 884.351 3172
-2350.86 881.005 3160
-2334.4 877.659 3148
-2322.44 875.987 3142
-2314.93 875.987 3142
-2294.19 870.968 3124
-2274.28 866.229 3107
-2274.87 869.295 3118
-2267.42 869.295 3118
-2259.96 869.295 3118
-2269.84 875.987 3142
-2266.65 877.659 3148
-2272.04 882.678 3166
-2264.47 882.678 3166
-2256.9 882.678 3166
-2270.64 891.042 3196
-2267.25 892.715 3202
-2259.59 892.715 3202
-2260.37 896.06 3214
-2275.12 904.982 3246
-2284.82 911.952 3271
-2276.99 911.952 3271
-2291.37 920.873 3303
-2293.15 924.776 3317
-2285.22 924.776 3317
-2277.29 924.776 3317
-2283.04 930.352 3337
-2288.7 935.928 3357
-2280.67 935.928 3357
-2272.64 935.928 3357
-2278.1 941.504 3377
-2270.03 941.504 3377
-2266.64 943.456 3384
-2258.55 943.456 3384
-2255.11 945.408 3391
-2256.28 949.311 3405
-2262 955.166 3426
-2253.81 955.166 3426
-2250.21 957.117 3433
-2251.14 961.02 3447
-2261.77 969.106 3476
-2253.46 969.106 3476
-2258.71 974.96 3497
-2260 979.142 3512
-2251.6 979.142 3512
-2243.2 979.142 3512
-2239.89 981.373 3520
-2231.48 981.373 3520
-2227.48 983.324 3527
-2219.05 983.324 3527
-2215 985.276 3534
-2211.54 987.506 3542
-2207.43 989.458 3549
-2198.94 989.458 3549
-2200.33 993.919 3565
-2196.11 995.87 3572
-2197.36 1000.33 3588
-2188.78 1000.33 3588
-2180.2 1000.33 3588
-2171.62 1000.33 3588
-2167.26 1002.28 3595
-2158.67 1002.28 3595
-2150.07 1002.28 3595
-2146.24 1004.51 3603
-2137.62 1004.51 3603
-2129.01 1004.51 3603
-2120.39 1004.51 3603
-2107.09 1002.28 3595
-2098.49 1002.28 3595
-2089.89 1002.28 3595
-2085.93 1004.51 3603
-2081.92 1006.74 3611
-2073.29 1006.74 3611
-2064.65 1006.74 3611
-2056.02 1006.74 3611
-2042.85 1004.51 3603
-2034.23 1004.51 3603
-2025.62 1004.51 3603
-2012.52 1002.28 3595
-2003.93 1002.28 3595
-1995.33 1002.28 3595
-1986.73 1002.28 3595
-1974.28 1000.33 3588
-1965.7 1000.33 3588
-1957.12 1000.33 3588
-1948.54 1000.33 3588
-1943.75 1002.28 3595
-1943.76 1006.74 3611
-1935.13 1006.74 3611
-1926.49 1006.74 3611
-1922.11 1008.97 3619
-1921.91 1013.43 3635
-1925.33 1019.85 3658
-1916.58 1019.85 3658
-1907.83 1019.85 3658
-1903.76 1022.36 3667
-1894.99 1022.36 3667
-1886.22 1022.36 3667
-1881.55 1024.59 3675
-1880.91 1029.05 3691
-1876.14 1031.28 3699
-1867.3 1031.28 3699
-1858.45 1031.28 3699
-1845.61 1029.05 3691
-1836.78 1029.05 3691
-1823.99 1026.82 3683
-1815.19 1026.82 3683
-1806.38 1026.82 3683
-1797.57 1026.82 3683
-1780.99 1022.36 3667
-1756.76 1013.43 3635
-1748.07 1013.43 3635
-1739.37 1013.43 3635
-1726.87 1011.2 3627
-1718.2 1011.2 3627
-1691.14 1000.33 3588
-1678.81 998.101 3580
-1670.25 998.101 3580
-1647.3 989.458 3549
-1635.58 987.506 3542
-1620.22 983.324 3527
-1611.79 983.324 3527
-1593.35 977.191 3505
-1578.19 973.009 3490
-1566.69 971.057 3483
-1558.36 971.057 3483
-1550.04 971.057 3483
-1547.9 974.96 3497
-1539.54 974.96 3497
-1531.18 974.96 3497
-1513.67 969.106 3476
-1505.36 969.106 3476
-1493.6 966.875 3468
-1485.31 966.875 3468
-1477.02 966.875 3468
-1468.72 966.875 3468
-1466.75 971.057 3483
-1464.28 974.96 3497
-1455.92 974.96 3497
-1447.56 974.96 3497
-1445.37 979.142 3512
-1440.24 981.373 3520
-1431.82 981.373 3520
-1423.41 981.373 3520
-1414.99 981.373 3520
-1406.57 981.373 3520
-1398.15 981.373 3520
-1389.74 981.373 3520
-1378.18 979.142 3512
-1372.9 981.373 3520
-1364.48 981.373 3520
-1358.76 983.324 3527
-1353.01 985.276 3534
-1347.6 987.506 3542
-1339.13 987.506 3542
-1330.66 987.506 3542
-1322.19 987.506 3542
-1313.72 987.506 3542
-1302.3 985.276 3534
-1291.29 983.324 3527
-1280.31 981.373 3520
-1269 979.142 3512
-1260.6 979.142 3512
-1246.86 974.96 3497
-1243.81 979.142 3512
-1235.41 979.142 3512
-1232.25 983.324 3527
-1223.82 983.324 3527
-1215.38 983.324 3527
-1201.82 979.142 3512
-1193.42 979.142 3512
-1185.02 979.142 3512
-1171.6 974.96 3497
-1158.58 971.057 3483
-1150.25 971.057 3483
-590.795 502.396 1802
-586.486 502.396 1802
-583.146 503.232 1805
-578.83 503.232 1805
-575.15 503.79 1807
-570.829 503.79 1807
-566.508 503.79 1807
-562.809 504.347 1809
-558.483 504.347 1809
-554.157 504.347 1809
-549.831 504.347 1809
-544.902 503.79 1807
-541.18 504.347 1809
-536.854 504.347 1809
-532.528 504.347 1809
-528.202 504.347 1809
-523.297 503.79 1807
-518.976 503.79 1807
-514.655 503.79 1807
-508.922 502.396 1802
-504.052 501.838 1800
-499.748 501.838 1800
-493.792 500.165 1794
-486.228 496.82 1782
-481.155 495.984 1779
-476.901 495.984 1779
-468.927 492.08 1765
-461.021 488.177 1751
-455.268 486.504 1745
-451.095 486.504 1745
-445.898 485.389 1741
-439.451 482.88 1732
-433.048 480.371 1723
-428.181 479.534 1720
-424.068 479.534 1720
-419.466 478.977 1718
-414.149 477.583 1713
-409.095 476.468 1709
-405.009 476.468 1709
-400.218 475.631 1706
-395.674 475.074 1704
-391.599 475.074 1704
-387.524 475.074 1704
-383.45 475.074 1704
-379.375 475.074 1704
-375.741 475.631 1706
-371.661 475.631 1706
-367.581 475.631 1706
-363.502 475.631 1706
-359.844 476.189 1708
-355.759 476.189 1708
