ply
format ascii 1.0
comment File generated
element vertex 2252
property float x
property float y
property float z
end_header
185.633 1183 3118
194.204 1189.83 3136
201.703 1189.83 3136
209.202 1189.83 3136
216.701 1189.83 3136
223.771 1187.55 3130
231.256 1187.55 3130
239.199 1189.83 3136
246.698 1189.83 3136
255.169 1194.38 3148
263.198 1196.66 3154
270.74 1196.66 3154
278.282 1196.66 3154
284.737 1192.11 3142
290.576 1185.28 3124
298.047 1185.28 3124
304.344 1180.73 3112
311.785 1180.73 3112
319.227 1180.73 3112
326.669 1180.73 3112
332.93 1176.55 3101
340.345 1176.55 3101
347.76 1176.55 3101
355.176 1176.55 3101
362.591 1176.55 3101
368.575 1172 3089
374.623 1167.83 3078
381.983 1167.83 3078
389.344 1167.83 3078
393.74 1159.1 3055
401.045 1159.1 3055
407.682 1157.2 3050
414.976 1157.2 3050
416.177 1140.51 3006
423.366 1140.51 3006
429.695 1138.23 3000
436.868 1138.23 3000
442.562 1134.44 2990
449.712 1134.44 2990
455.945 1132.16 2984
463.081 1132.16 2984
501.509 1154.93 3044
508.788 1154.93 3044
516.067 1154.93 3044
523.346 1154.93 3044
530.625 1154.93 3044
537.905 1154.93 3044
542.318 1148.85 3028
548.47 1146.58 3022
551.651 1138.23 3000
558.825 1138.23 3000
561.094 1128.37 2974
567.059 1126.09 2968
580.347 1138.23 3000
589.675 1142.4 3011
596.875 1142.4 3011
605.279 1144.68 3017
612.494 1144.68 3017
619.708 1144.68 3017
626.923 1144.68 3017
631.825 1140.51 3006
629.872 1124.19 2963
636.958 1124.19 2963
642.957 1122.3 2958
655.744 1132.16 2984
666.434 1138.23 3000
679.894 1148.85 3028
687.135 1148.85 3028
695.523 1150.75 3033
705.324 1154.93 3044
714.008 1157.2 3050
721.302 1157.2 3050
731.223 1161.38 3061
739.99 1163.65 3067
747.324 1163.65 3067
754.659 1163.65 3067
761.993 1163.65 3067
763.557 1154.93 3044
770.837 1154.93 3044
788.341 1170.1 3084
795.715 1170.1 3084
803.09 1170.1 3084
811.779 1172 3089
822.348 1176.55 3101
829.763 1176.55 3101
837.179 1176.55 3101
844.594 1176.55 3101
852.01 1176.55 3101
859.425 1176.55 3101
869.915 1180.73 3112
882.432 1187.55 3130
889.917 1187.55 3130
897.401 1187.55 3130
904.886 1187.55 3130
912.371 1187.55 3130
923.382 1192.11 3142
930.896 1192.11 3142
943.785 1198.94 3160
951.342 1198.94 3160
958.898 1198.94 3160
966.455 1198.94 3160
966.614 1189.83 3136
972.249 1187.55 3130
974.1 1180.73 3112
981.541 1180.73 3112
988.983 1180.73 3112
985.539 1167.83 3078
990.964 1165.55 3072
998.31 1165.55 3072
1004.02 1163.65 3067
1007.4 1159.1 3055
1007.39 1150.75 3033
1014.65 1150.75 3033
1020.22 1148.85 3028
1036.62 1159.1 3055
1043.92 1159.1 3055
1051.23 1159.1 3055
1058.53 1159.1 3055
1065.84 1159.1 3055
1067.52 1153.03 3039
1074.79 1153.03 3039
1082.06 1153.03 3039
1089.33 1153.03 3039
1125.39 1167.83 3078
1132.75 1167.83 3078
1140.11 1167.83 3078
1147.47 1167.83 3078
1154.83 1167.83 3078
1159.92 1165.55 3072
1517.57 1094.98 2886
1537.68 1104.46 2911
1544.64 1104.46 2911
1554.8 1106.74 2917
1561.78 1106.74 2917
1568.75 1106.74 2917
1532.51 1076.39 2837
1538.45 1071.08 2823
1558.34 1080.18 2847
1565.15 1080.18 2847
1604.53 1102.57 2906
1625.9 1112.43 2932
1632.91 1112.43 2932
1639.92 1112.43 2932
1658.73 1120.4 2953
1665.79 1120.4 2953
1672.85 1120.4 2953
1679.91 1120.4 2953
1708.11 1134.44 2990
1715.26 1134.44 2990
1722.41 1134.44 2990
1729.56 1134.44 2990
1725.63 1104.46 2911
1732.59 1104.46 2911
1739.55 1104.46 2911
1746.51 1104.46 2911
1760.1 1108.64 2922
1779.18 1116.23 2942
1815.36 1134.44 2990
1822.51 1134.44 2990
1829.66 1134.44 2990
1807.32 1116.23 2942
1814.36 1116.23 2942
1818.3 1114.33 2937
1825.32 1114.33 2937
-2254.41 1149.62 3011
-2263.63 1158.02 3033
-2256.38 1158.02 3033
-2249.12 1158.02 3033
-2233.74 1153.82 3022
-2226.51 1153.82 3022
-2219.29 1153.82 3022
-2212.06 1153.82 3022
-2204.83 1153.82 3022
-2205.61 1158.02 3033
-2198.35 1158.02 3033
-2191.1 1158.02 3033
-2175.93 1153.82 3022
-2168.7 1153.82 3022
-1700.37 1094.26 2866
-1711.24 1105.71 2896
-1704.32 1105.71 2896
-1697.39 1105.71 2896
-1699.22 1111.44 2911
-1692.26 1111.44 2911
-1685.3 1111.44 2911
-1669.69 1105.71 2896
-1416.58 1248.89 3271
-1408.76 1248.89 3271
-1403.93 1251.56 3278
-1396.1 1251.56 3278
-1388.26 1251.56 3278
-1372 1243.92 3258
-1364.21 1243.92 3258
-1348.5 1236.67 3239
-1340.76 1236.67 3239
-1307.91 1213.38 3178
-1295.4 1208.8 3166
-1287.83 1208.8 3166
-1270.55 1199.63 3142
-1244.15 1181.69 3095
-1234.35 1179.4 3089
-1226.96 1179.4 3089
-1197.46 1158.02 3033
-1183.93 1151.91 3017
-1174.38 1149.62 3011
-1167.18 1149.62 3011
-1151.89 1141.6 2990
-523.202 673.124 1763
-518.987 673.124 1763
-514.771 673.124 1763
-510.265 672.742 1762
-506.052 672.742 1762
-500.699 671.215 1758
-495.365 669.688 1754
-488.091 665.488 1743
-483.923 665.488 1743
-478.929 664.342 1740
-474.222 663.579 1738
-467.632 660.142 1729
-463.498 660.142 1729
-458.832 659.379 1727
-453.649 657.852 1723
-448.746 656.706 1720
-443.599 655.179 1716
-439.495 655.179 1716
-434.631 654.034 1713
-430.032 653.27 1711
-425.94 653.27 1711
-421.849 653.27 1711
-417.757 653.27 1711
-413.666 653.27 1711
-409.574 653.27 1711
-405.482 653.27 1711
-401.391 653.27 1711
-397.764 654.034 1713
-393.668 654.034 1713
-390.026 654.797 1715
-385.925 654.797 1715
-381.824 654.797 1715
-377.943 655.179 1716
-373.84 655.179 1716
-369.736 655.179 1716
-365.633 655.179 1716
-361.951 655.943 1718
-358.675 657.47 1722
-354.558 657.47 1722
-350.44 657.47 1722
-346.523 657.852 1723
-342.403 657.852 1723
-338.283 657.852 1723
-334.162 657.852 1723
-330.425 658.615 1725
-326.3 658.615 1725
-322.175 658.615 1725
-318.419 659.379 1727
-314.289 659.379 1727
-310.16 659.379 1727
-306.03 659.379 1727
-302.25 660.142 1729
-298.115 660.142 1729
-294.321 660.906 1731
-290.349 661.288 1732
-286.207 661.288 1732
-282.065 661.288 1732
-277.924 661.288 1732
-273.782 661.288 1732
-269.64 661.288 1732
-266.112 662.815 1736
-261.96 662.815 1736
-257.809 662.815 1736
-253.658 662.815 1736
-249.506 662.815 1736
-245.355 662.815 1736
-241.204 662.815 1736
-237.052 662.815 1736
-232.901 662.815 1736
-228.75 662.815 1736
-224.599 662.815 1736
-220.447 662.815 1736
-216.545 663.579 1738
-212.633 664.342 1740
-208.473 664.342 1740
-204.312 664.342 1740
-200.266 664.724 1741
-196.103 664.724 1741
-191.939 664.724 1741
-187.776 664.724 1741
-183.507 664.342 1740
-179.346 664.342 1740
-175.286 664.724 1741
-171.123 664.724 1741
-167.152 665.488 1743
-162.984 665.488 1743
-159.18 667.015 1747
-155.002 667.015 1747
-151.256 668.924 1752
-147.067 668.924 1752
-142.877 668.924 1752
-138.688 668.924 1752
-216.749 1149.62 3011
-209.549 1149.62 3011
-202.349 1149.62 3011
-195.537 1151.91 3017
-188.635 1153.82 3022
-181.408 1153.82 3022
-174.528 1156.11 3028
-167.287 1156.11 3028
-160.046 1156.11 3028
-151.695 1147.71 3006
-143.449 1139.31 2984
-137.821 1151.91 3017
-131.559 1160.31 3039
-124.291 1160.31 3039
-117.024 1160.31 3039
-109.757 1160.31 3039
-102.49 1160.31 3039
-94.5335 1151.91 3017
-87.4636 1153.82 3022
-81.1133 1166.42 3055
-74.2186 1172.91 3072
-66.8725 1172.91 3072
-59.9721 1181.69 3095
-52.6729 1183.98 3101
-45.2575 1183.98 3101
-37.8421 1183.98 3101
-30.3678 1181.69 3095
-22.9667 1181.69 3095
-15.5656 1181.69 3095
-8.19616 1186.27 3107
-0.766377 1186.27 3107
6.68699 1190.47 3118
14.1975 1195.05 3130
21.6823 1195.05 3130
29.1671 1195.05 3130
36.3123 1183.98 3101
43.6431 1181.69 3095
51.6214 1195.05 3130
59.1062 1195.05 3130
66.9739 1201.93 3148
75.0697 1211.09 3172
82.6549 1211.09 3172
90.2402 1211.09 3172
97.8254 1211.09 3172
134.724 1201.93 3148
142.252 1201.93 3148
149.78 1201.93 3148
157.008 1199.63 3142
164.521 1199.63 3142
172.035 1199.63 3142
178.177 1190.47 3118
185.633 1190.47 3118
193.089 1190.47 3118
200.931 1192.76 3124
208.401 1192.76 3124
215.872 1192.76 3124
223.342 1192.76 3124
230.813 1192.76 3124
238.283 1192.76 3124
245.754 1192.76 3124
253.71 1195.05 3130
261.195 1195.05 3130
268.68 1195.05 3130
276.165 1195.05 3130
281.565 1186.27 3107
287.879 1181.69 3095
295.28 1181.69 3095
301.605 1177.49 3084
308.98 1177.49 3084
316.355 1177.49 3084
323.73 1177.49 3084
331.104 1177.49 3084
338.479 1177.49 3084
346.415 1179.4 3089
353.801 1179.4 3089
361.188 1179.4 3089
367.262 1175.2 3078
371.215 1164.51 3050
378.508 1164.51 3050
385.802 1164.51 3050
393.095 1164.51 3050
399.601 1162.22 3044
402.469 1149.62 3011
409.669 1149.62 3011
416.177 1147.71 3006
422.521 1145.42 3000
428.262 1141.6 2990
435.412 1141.6 2990
441.674 1139.31 2984
448.81 1139.31 2984
455.945 1139.31 2984
463.081 1139.31 2984
468.641 1135.49 2974
501.509 1162.22 3044
508.788 1162.22 3044
516.067 1162.22 3044
520.595 1156.11 3028
527.836 1156.11 3028
535.077 1156.11 3028
539.273 1149.62 3011
541.573 1139.31 2984
545.767 1133.2 2968
552.864 1133.2 2968
557.132 1127.47 2953
563.047 1125.18 2947
573.189 1131.29 2963
585.562 1141.6 2990
592.712 1141.6 2990
601.868 1145.42 3000
609.042 1145.42 3000
616.216 1145.42 3000
622.351 1143.51 2995
625.099 1135.49 2974
628.81 1129.38 2958
635.883 1129.38 2958
642.957 1129.38 2958
653.546 1135.49 2974
664.212 1141.6 2990
674.955 1147.71 3006
682.143 1147.71 3006
694.376 1156.11 3028
702.776 1158.02 3033
712.604 1162.22 3044
721.302 1164.51 3050
728.595 1164.51 3050
735.889 1164.51 3050
743.182 1164.51 3050
750.476 1164.51 3050
753.545 1158.02 3033
760.798 1158.02 3033
770.837 1162.22 3044
778.116 1162.22 3044
785.395 1162.22 3044
799.965 1172.91 3072
810.465 1177.49 3084
819.166 1179.4 3089
826.552 1179.4 3089
835.559 1181.69 3095
844.594 1183.98 3101
852.01 1183.98 3101
859.425 1183.98 3101
866.841 1183.98 3101
877.357 1188.18 3112
884.799 1188.18 3112
892.241 1188.18 3112
904.886 1195.05 3130
912.371 1195.05 3130
919.856 1195.05 3130
927.341 1195.05 3130
940.201 1201.93 3148
947.729 1201.93 3148
955.257 1201.93 3148
959.115 1197.34 3136
964.764 1195.05 3130
966.658 1188.18 3112
968.778 1181.69 3095
976.18 1181.69 3095
981.674 1179.4 3089
985.539 1175.2 3078
990.964 1172.91 3072
998.31 1172.91 3072
992.889 1158.02 3033
1000.14 1158.02 3033
1007.39 1158.02 3033
1014.65 1158.02 3033
1020.22 1156.11 3028
1032.89 1162.22 3044
1042.21 1164.51 3050
1049.51 1164.51 3050
1056.8 1164.51 3050
1060.26 1160.31 3039
1067.52 1160.31 3039
1067.01 1151.91 3017
1074.23 1151.91 3017
1504.95 1092.73 2862
1513.91 1094.26 2866
1520.76 1094.26 2866
1527.62 1094.26 2866
1534.47 1094.26 2866
1541.32 1094.26 2866
1532.51 1083.18 2837
1538.45 1077.84 2823
1558.34 1087 2847
1565.15 1087 2847
1604.53 1109.53 2906
1625.9 1119.45 2932
1632.91 1119.45 2932
1639.92 1119.45 2932
1658.73 1127.47 2953
1665.79 1127.47 2953
1672.85 1127.47 2953
1679.91 1127.47 2953
1708.11 1141.6 2990
1715.26 1141.6 2990
1722.41 1141.6 2990
1729.56 1141.6 2990
1725.63 1111.44 2911
1732.59 1111.44 2911
1739.55 1111.44 2911
1746.51 1111.44 2911
1760.1 1115.64 2922
1779.18 1123.27 2942
1798.97 1131.29 2963
1806.05 1131.29 2963
1813.14 1131.29 2963
1807.32 1123.27 2942
1814.36 1123.27 2942
1818.3 1121.36 2937
1825.32 1121.36 2937
-2254.41 1156.83 3011
-2259.9 1163.36 3028
-2252.66 1163.36 3028
-2245.42 1163.36 3028
-2230.04 1159.14 3017
-2222.83 1159.14 3017
-2215.61 1159.14 3017
-2208.4 1159.14 3017
-2201.19 1159.14 3017
-2197.61 1161.06 3022
-2190.38 1161.06 3022
-2183.15 1161.06 3022
-2172.33 1159.14 3017
-2165.11 1159.14 3017
-1704.84 1099.58 2862
-1700.37 1101.12 2866
-1711.24 1112.65 2896
-1704.32 1112.65 2896
-1697.39 1112.65 2896
-1699.22 1118.41 2911
-1692.26 1118.41 2911
-1685.3 1118.41 2911
-1669.69 1112.65 2896
-1400.12 1242.12 3233
-1408.76 1256.72 3271
-1400.94 1256.72 3271
-1393.11 1256.72 3271
-1377.25 1249.42 3252
-1366.94 1247.12 3246
-1359.18 1247.12 3246
-1348.5 1244.43 3239
-1333.31 1237.51 3221
-1305.44 1218.69 3172
-1290.49 1211.77 3154
-1282.95 1211.77 3154
-1260.85 1197.94 3118
-1241.73 1186.8 3089
-1220.76 1173.74 3055
-1213.46 1173.74 3055
-1197.46 1165.28 3033
-1183.93 1159.14 3017
-1174.38 1156.83 3011
-1167.18 1156.83 3011
-1151.89 1148.76 2990
-514.479 676.963 1762
-510.265 676.963 1762
-506.052 676.963 1762
-500.699 675.426 1758
-495.365 673.889 1754
-488.091 669.663 1743
-483.923 669.663 1743
-478.929 668.51 1740
-474.222 667.742 1738
-467.632 664.284 1729
-463.498 664.284 1729
-458.832 663.516 1727
-453.649 661.979 1723
-448.746 660.826 1720
-443.599 659.29 1716
-439.495 659.29 1716
-434.631 658.137 1713
-430.032 657.369 1711
-425.94 657.369 1711
-421.849 657.369 1711
-417.757 657.369 1711
-413.666 657.369 1711
-409.574 657.369 1711
-405.482 657.369 1711
-401.391 657.369 1711
-397.764 658.137 1713
-393.668 658.137 1713
-390.026 658.905 1715
-385.925 658.905 1715
-381.824 658.905 1715
-377.943 659.29 1716
-373.84 659.29 1716
-369.736 659.29 1716
-366.059 660.058 1718
-361.951 660.058 1718
-358.675 661.595 1722
-354.558 661.595 1722
-350.643 661.979 1723
-346.523 661.979 1723
-342.403 661.979 1723
-338.283 661.979 1723
-334.162 661.979 1723
-330.425 662.747 1725
-326.3 662.747 1725
-322.175 662.747 1725
-318.419 663.516 1727
-314.653 664.284 1729
-310.519 664.284 1729
-306.384 664.284 1729
-302.25 664.284 1729
-298.115 664.284 1729
-294.321 665.053 1731
-290.349 665.437 1732
-286.207 665.437 1732
-282.065 665.437 1732
-277.924 665.437 1732
-273.782 665.437 1732
-269.64 665.437 1732
-266.112 666.974 1736
-261.96 666.974 1736
-257.809 666.974 1736
-253.658 666.974 1736
-249.506 666.974 1736
-245.355 666.974 1736
-241.204 666.974 1736
-237.052 666.974 1736
-232.901 666.974 1736
-228.75 666.974 1736
-224.599 666.974 1736
-220.447 666.974 1736
-216.545 667.742 1738
-212.633 668.51 1740
-208.592 668.895 1741
-204.429 668.895 1741
-200.266 668.895 1741
-196.103 668.895 1741
-191.939 668.895 1741
-187.776 668.895 1741
-183.613 668.895 1741
-179.45 668.895 1741
-175.286 668.895 1741
-171.123 668.895 1741
-167.343 670.432 1745
-163.358 671.2 1747
-159.544 672.737 1751
-155.357 672.737 1751
-151.256 673.121 1752
-147.067 673.121 1752
-142.877 673.121 1752
-138.688 673.121 1752
-221.941 1146.46 2984
-216.749 1156.83 3011
-209.549 1156.83 3011
-202.349 1156.83 3011
-195.537 1159.14 3017
-188.635 1161.06 3022
-181.408 1161.06 3022
-174.528 1163.36 3028
-167.287 1163.36 3028
-160.046 1163.36 3028
-151.695 1154.91 3006
-143.449 1146.46 2984
-137.821 1159.14 3017
-131.559 1167.59 3039
-124.291 1167.59 3039
-117.024 1167.59 3039
-109.757 1167.59 3039
-102.49 1167.59 3039
-94.5335 1159.14 3017
-87.4636 1161.06 3022
-81.1133 1173.74 3055
-74.2186 1180.27 3072
-66.8725 1180.27 3072
-59.9721 1189.1 3095
-52.6729 1191.41 3101
-45.2575 1191.41 3101
-37.8421 1191.41 3101
-30.3678 1189.1 3095
-22.9667 1189.1 3095
-15.5656 1189.1 3095
-8.19616 1193.71 3107
-0.766377 1193.71 3107
6.68699 1197.94 3118
14.1975 1202.55 3130
21.6823 1202.55 3130
29.1671 1202.55 3130
36.3123 1191.41 3101
43.6431 1189.1 3095
51.6214 1202.55 3130
59.1062 1202.55 3130
66.9739 1209.47 3148
75.0697 1218.69 3172
82.6549 1218.69 3172
90.2402 1218.69 3172
97.8254 1218.69 3172
134.468 1207.16 3142
141.981 1207.16 3142
149.494 1207.16 3142
157.008 1207.16 3142
164.521 1207.16 3142
172.035 1207.16 3142
178.177 1197.94 3118
184.978 1193.71 3107
192.408 1193.71 3107
199.838 1193.71 3107
207.267 1193.71 3107
214.697 1193.71 3107
222.127 1193.71 3107
229.557 1193.71 3107
236.987 1193.71 3107
244.416 1193.71 3107
251.846 1193.71 3107
259.276 1193.71 3107
266.706 1193.71 3107
274.135 1193.71 3107
278.393 1180.27 3072
284.716 1176.04 3061
292.036 1176.04 3061
297.204 1167.59 3039
303.87 1165.28 3033
311.123 1165.28 3033
320.685 1173.74 3055
327.991 1173.74 3055
335.955 1176.04 3061
343.275 1176.04 3061
350.594 1176.04 3061
357.914 1176.04 3061
363.921 1171.81 3050
368.537 1163.36 3028
374.413 1159.14 3017
381.628 1159.14 3017
387.424 1154.91 3006
394.613 1154.91 3006
401.801 1154.91 3006
408.989 1154.91 3006
416.177 1154.91 3006
422.521 1152.6 3000
428.262 1148.76 2990
435.412 1148.76 2990
441.674 1146.46 2984
448.81 1146.46 2984
455.945 1146.46 2984
463.081 1146.46 2984
468.641 1142.62 2974
496.072 1156.83 3011
503.272 1156.83 3011
510.472 1156.83 3011
517.673 1156.83 3011
524.873 1156.83 3011
532.073 1156.83 3011
535.512 1148.76 2990
539.758 1142.62 2974
541.905 1132.24 2947
548.952 1132.24 2947
551.283 1122.64 2922
561.136 1128.4 2937
570.094 1132.24 2947
580.274 1138.39 2963
587.36 1138.39 2963
595.448 1140.31 2968
602.546 1140.31 2968
609.643 1140.31 2968
614.663 1136.47 2958
619.424 1132.24 2947
625.408 1130.32 2942
633.518 1132.24 2947
640.566 1132.24 2947
650.03 1136.47 2958
661.769 1144.54 2979
673.607 1152.6 3000
680.781 1152.6 3000
694.376 1163.36 3028
702.776 1165.28 3033
710.028 1165.28 3033
721.302 1171.81 3050
728.595 1171.81 3050
735.889 1171.81 3050
743.182 1171.81 3050
750.476 1171.81 3050
757.769 1171.81 3050
760.798 1165.28 3033
768.051 1165.28 3033
778.116 1169.51 3044
785.395 1169.51 3044
799.965 1180.27 3072
807.311 1180.27 3072
814.657 1180.27 3072
822.004 1180.27 3072
829.35 1180.27 3072
835.334 1178.35 3067
844.042 1180.27 3072
851.388 1180.27 3072
858.734 1180.27 3072
866.08 1180.27 3072
873.426 1180.27 3072
880.772 1180.27 3072
886.673 1178.35 3067
894.007 1178.35 3067
907.807 1186.8 3089
915.193 1186.8 3089
926.164 1191.41 3101
933.579 1191.41 3101
940.995 1191.41 3101
948.41 1191.41 3101
955.826 1191.41 3101
956.097 1182.57 3078
965.335 1184.88 3084
972.71 1184.88 3084
980.085 1184.88 3084
983.617 1180.27 3072
983.867 1171.81 3050
991.16 1171.81 3050
992.889 1165.28 3033
1000.14 1165.28 3033
1005.73 1163.36 3028
1012.97 1163.36 3028
1020.22 1163.36 3028
1032.89 1169.51 3044
1042.21 1171.81 3050
1049.51 1171.81 3050
1056.8 1171.81 3050
1060.26 1167.59 3039
1065.42 1165.28 3033
1499.7 1095.74 2852
1506.52 1095.74 2852
1513.34 1095.74 2852
1520.16 1095.74 2852
1526.98 1095.74 2852
1533.8 1095.74 2852
1532.51 1089.98 2837
1531.7 1084.6 2823
1541.18 1086.52 2828
1558.34 1093.82 2847
1565.15 1093.82 2847
1596.25 1110.73 2891
1611.48 1116.49 2906
1632.91 1126.48 2932
1639.92 1126.48 2932
1658.73 1134.55 2953
1665.79 1134.55 2953
1672.85 1134.55 2953
1679.91 1134.55 2953
1686.97 1134.55 2953
1715.26 1148.76 2990
1722.41 1148.76 2990
1729.56 1148.76 2990
1725.63 1118.41 2911
1742.11 1124.56 2927
1749.11 1124.56 2927
1756.11 1124.56 2927
1769.14 1128.4 2937
1791.88 1138.39 2963
1798.97 1138.39 2963
1806.05 1138.39 2963
1813.14 1138.39 2963
1820.22 1138.39 2963
1827.31 1138.39 2963
1821.39 1130.32 2942
1825.32 1128.4 2937
-2247.21 1164.04 3011
-2240.01 1164.04 3011
-2232.81 1164.04 3011
-2225.61 1164.04 3011
-2218.41 1164.04 3011
-1777.42 1117.65 2891
-1770.51 1117.65 2891
-1763.59 1117.65 2891
-1750.6 1113.79 2881
-1737.66 1109.92 2871
-1722.36 1104.51 2857
-1715.52 1104.51 2857
-1705.7 1102.57 2852
-1704.84 1106.44 2862
-1700.37 1107.99 2866
-1711.24 1119.58 2896
-1704.32 1119.58 2896
-1697.39 1119.58 2896
-1690.47 1119.58 2896
-1683.54 1119.58 2896
-1676.62 1119.58 2896
-1669.69 1119.58 2896
-1662.78 1194.2 3089
-1665.04 1201.16 3107
-1669.88 1210.05 3130
-1662.39 1210.05 3130
-1661.25 1214.69 3142
-1653.74 1214.69 3142
-1646.23 1214.69 3142
-1397.99 1254.89 3246
-1390.23 1254.89 3246
-1382.47 1254.89 3246
-1374.7 1254.89 3246
-1356.41 1245.23 3221
-1348.71 1245.23 3221
-1341.01 1245.23 3221
-1327.93 1240.2 3208
-1302.97 1223.97 3166
-1278.21 1207.73 3124
-1270.74 1207.73 3124
-1249.12 1194.2 3089
-1234.9 1187.63 3072
-1218.76 1179.12 3050
-1211.47 1179.12 3050
-1197.46 1172.55 3033
-1183.93 1166.36 3017
-1174.38 1164.04 3011
-1167.18 1164.04 3011
-1151.89 1155.92 2990
-514.771 681.57 1763
-510.555 681.57 1763
-506.339 681.57 1763
-501.838 681.184 1762
-494.518 676.931 1751
-487.531 673.065 1741
-483.367 673.065 1741
-478.929 672.679 1740
-473.677 671.132 1736
-467.632 668.426 1729
-463.498 668.426 1729
-458.832 667.653 1727
-453.649 666.107 1723
-448.746 664.947 1720
-443.599 663.4 1716
-439.495 663.4 1716
-434.631 662.241 1713
-430.032 661.467 1711
-425.94 661.467 1711
-421.849 661.467 1711
-417.757 661.467 1711
-413.666 661.467 1711
-409.574 661.467 1711
-405.482 661.467 1711
-401.391 661.467 1711
-397.764 662.241 1713
-393.668 662.241 1713
-390.026 663.014 1715
-385.925 663.014 1715
-381.824 663.014 1715
-377.943 663.4 1716
-373.84 663.4 1716
-369.736 663.4 1716
-366.059 664.174 1718
-361.951 664.174 1718
-358.675 665.72 1722
-354.558 665.72 1722
-350.643 666.107 1723
-346.523 666.107 1723
-342.403 666.107 1723
-338.283 666.107 1723
-334.162 666.107 1723
-330.425 666.88 1725
-326.3 666.88 1725
-322.175 666.88 1725
-318.419 667.653 1727
-314.653 668.426 1729
-310.519 668.426 1729
-306.384 668.426 1729
-302.25 668.426 1729
-298.115 668.426 1729
-294.321 669.199 1731
-290.349 669.586 1732
-286.207 669.586 1732
-282.065 669.586 1732
-277.924 669.586 1732
-273.782 669.586 1732
-269.64 669.586 1732
-266.112 671.132 1736
-261.96 671.132 1736
-257.809 671.132 1736
-253.658 671.132 1736
-249.506 671.132 1736
-245.355 671.132 1736
-241.204 671.132 1736
-237.052 671.132 1736
-232.901 671.132 1736
-228.75 671.132 1736
-224.599 671.132 1736
-220.447 671.132 1736
-216.545 671.906 1738
-212.389 671.906 1738
-208.592 673.065 1741
-204.429 673.065 1741
-200.266 673.065 1741
-196.103 673.065 1741
-191.939 673.065 1741
-187.776 673.065 1741
-183.613 673.065 1741
-179.45 673.065 1741
-175.286 673.065 1741
-171.123 673.065 1741
-167.343 674.612 1745
-163.358 675.385 1747
-159.544 676.931 1751
-155.357 676.931 1751
-151.256 677.318 1752
-147.067 677.318 1752
-142.877 677.318 1752
-138.688 677.318 1752
-221.941 1153.61 2984
-214.805 1153.61 2984
-207.67 1153.61 2984
-200.534 1153.61 2984
-194.436 1159.79 3000
-187.636 1162.11 3006
-180.448 1162.11 3006
-173.26 1162.11 3006
-166.071 1162.11 3006
-158.883 1162.11 3006
-150.887 1155.92 2990
-143.449 1153.61 2984
-136.313 1153.61 2984
-130.347 1164.04 3011
-123.146 1164.04 3011
-115.946 1164.04 3011
-108.746 1164.04 3011
-101.546 1164.04 3011
-94.0008 1159.79 3000
-86.6822 1157.86 2995
-80.2371 1168.3 3022
-73.5421 1176.8 3044
-66.263 1176.8 3044
-59.4295 1185.69 3067
-52.2822 1189.95 3078
-44.9218 1189.95 3078
-37.5614 1189.95 3078
-30.093 1185.69 3067
-22.7589 1185.69 3067
-15.4248 1185.69 3067
-8.14867 1194.2 3089
-0.761937 1194.2 3089
6.63767 1196.52 3095
14.066 1198.84 3101
21.4814 1198.84 3101
28.8968 1198.84 3101
35.9727 1187.63 3072
43.2482 1185.69 3067
50.9452 1194.2 3089
58.3319 1194.2 3089
65.7187 1194.2 3089
73.2474 1196.52 3095
82.4986 1223.97 3166
90.0695 1223.97 3166
97.6403 1223.97 3166
134.468 1214.69 3142
141.981 1214.69 3142
149.494 1214.69 3142
157.008 1214.69 3142
164.521 1214.69 3142
172.035 1214.69 3142
178.177 1205.41 3118
184.978 1201.16 3107
192.408 1201.16 3107
199.838 1201.16 3107
207.267 1201.16 3107
214.697 1201.16 3107
222.127 1201.16 3107
229.557 1201.16 3107
236.987 1201.16 3107
244.416 1201.16 3107
251.846 1201.16 3107
259.276 1201.16 3107
266.706 1201.16 3107
274.135 1201.16 3107
278.393 1187.63 3072
284.716 1183.37 3061
292.036 1183.37 3061
297.204 1174.87 3039
303.87 1172.55 3033
311.123 1172.55 3033
320.685 1181.05 3055
327.991 1181.05 3055
335.955 1183.37 3061
343.275 1183.37 3061
350.594 1183.37 3061
357.914 1183.37 3061
363.921 1179.12 3050
368.537 1170.62 3028
374.413 1166.36 3017
381.628 1166.36 3017
387.424 1162.11 3006
394.613 1162.11 3006
401.801 1162.11 3006
408.989 1162.11 3006
416.177 1162.11 3006
422.521 1159.79 3000
428.262 1155.92 2990
435.412 1155.92 2990
441.674 1153.61 2984
448.81 1153.61 2984
455.945 1153.61 2984
463.081 1153.61 2984
468.641 1149.74 2974
471.434 1139.3 2947
478.481 1139.3 2947
496.072 1164.04 3011
503.272 1164.04 3011
510.472 1164.04 3011
517.673 1164.04 3011
524.873 1164.04 3011
532.073 1164.04 3011
535.512 1155.92 2990
539.758 1149.74 2974
541.905 1139.3 2947
548.952 1139.3 2947
551.283 1129.64 2922
561.136 1135.44 2937
570.094 1139.3 2947
580.274 1145.49 2963
587.36 1145.49 2963
595.448 1147.42 2968
602.546 1147.42 2968
609.643 1147.42 2968
614.663 1143.55 2958
619.424 1139.3 2947
625.408 1137.37 2942
633.518 1139.3 2947
640.566 1139.3 2947
650.03 1143.55 2958
661.769 1151.67 2979
673.607 1159.79 3000
680.781 1159.79 3000
694.376 1170.62 3028
702.776 1172.55 3033
710.028 1172.55 3033
721.302 1179.12 3050
728.595 1179.12 3050
735.889 1179.12 3050
743.182 1179.12 3050
750.476 1179.12 3050
757.769 1179.12 3050
760.798 1172.55 3033
768.051 1172.55 3033
778.116 1176.8 3044
785.395 1176.8 3044
799.965 1187.63 3072
807.311 1187.63 3072
814.657 1187.63 3072
822.004 1187.63 3072
829.35 1187.63 3072
835.334 1185.69 3067
844.042 1187.63 3072
851.388 1187.63 3072
858.734 1187.63 3072
866.08 1187.63 3072
873.426 1187.63 3072
880.772 1187.63 3072
886.673 1185.69 3067
894.007 1185.69 3067
907.807 1194.2 3089
915.193 1194.2 3089
926.164 1198.84 3101
933.579 1198.84 3101
940.995 1198.84 3101
948.41 1198.84 3101
955.826 1198.84 3101
956.097 1189.95 3078
965.335 1192.27 3084
972.71 1192.27 3084
980.085 1192.27 3084
983.617 1187.63 3072
983.867 1179.12 3050
991.16 1179.12 3050
992.889 1172.55 3033
1000.14 1172.55 3033
1005.73 1170.62 3028
1012.97 1170.62 3028
1020.22 1170.62 3028
1029.15 1172.55 3033
1038.46 1174.87 3039
1045.72 1174.87 3039
1052.99 1174.87 3039
1060.26 1174.87 3039
1059.8 1166.36 3017
1499.7 1102.57 2852
1506.52 1102.57 2852
1513.34 1102.57 2852
1517.49 1100.64 2847
1521.62 1098.71 2842
1528.42 1098.71 2842
1532.51 1096.78 2837
1531.7 1091.36 2823
1541.18 1093.3 2828
1550.13 1094.84 2832
1556.9 1094.84 2832
1590.73 1113.79 2881
1603.16 1117.65 2891
1627.34 1129.64 2922
1634.33 1129.64 2922
1658.73 1141.62 2953
1665.79 1141.62 2953
1672.85 1141.62 2953
1679.91 1141.62 2953
1686.97 1141.62 2953
1694.04 1141.62 2953
1701.1 1141.62 2953
1708.16 1141.62 2953
1746.97 1139.3 2947
1754.02 1139.3 2947
1761.07 1139.3 2947
1768.11 1139.3 2947
1778.77 1141.62 2953
1791.88 1145.49 2963
1798.97 1145.49 2963
1806.05 1145.49 2963
1813.14 1145.49 2963
1820.22 1145.49 2963
1827.31 1145.49 2963
1821.39 1137.37 2942
1828.43 1137.37 2942
1835.47 1137.37 2942
-2247.21 1171.26 3011
-2240.01 1171.26 3011
-2232.81 1171.26 3011
-2225.61 1171.26 3011
-2218.41 1171.26 3011
-1777.42 1124.58 2891
-1770.51 1124.58 2891
-1763.59 1124.58 2891
-1756.68 1124.58 2891
-1743.71 1120.69 2881
-1730.8 1116.8 2871
-1723.93 1116.8 2871
-1705.7 1109.41 2852
-1704.84 1113.3 2862
-1700.37 1114.85 2866
-1711.24 1126.52 2896
-1704.32 1126.52 2896
-1700.32 1128.47 2901
-1693.39 1128.47 2901
-1686.45 1128.47 2901
-1679.51 1128.47 2901
-1669.69 1126.52 2896
-1672.47 1208.6 3107
-1667.72 1210.54 3112
-1682.68 1226.88 3154
-1675.14 1226.88 3154
-1667.6 1226.88 3154
-1660.06 1226.88 3154
-1652.51 1226.88 3154
-1394.98 1259.95 3239
-1387.23 1259.95 3239
-1379.49 1259.95 3239
-1371.74 1259.95 3239
-1356.41 1252.94 3221
-1345.78 1250.22 3214
-1338.1 1250.22 3214
-1327.93 1247.89 3208
-1271.28 1201.6 3089
-1263.89 1201.6 3089
-1256.51 1201.6 3089
-1244.67 1197.32 3078
-1228.07 1188.37 3055
-1211.97 1179.81 3033
-1204.72 1179.81 3033
-1193.12 1175.54 3022
-1181.58 1171.26 3011
-1166.19 1163.09 2990
-1159.04 1163.09 2990
-1149.58 1160.75 2984
-1093.82 1111.35 2857
-523.796 686.572 1765
-519.575 686.572 1765
-515.355 686.572 1765
-511.134 686.572 1765
-506.913 686.572 1765
-502.123 685.794 1763
-494.518 681.126 1751
-488.091 678.014 1743
-483.923 678.014 1743
-478.929 676.847 1740
-473.131 674.513 1734
-468.984 674.513 1734
-464.838 674.513 1734
-459.363 672.568 1729
-455.228 672.568 1729
-449.528 670.234 1723
-445.408 670.234 1723
-440.007 668.289 1718
-435.392 667.511 1716
-430.534 666.344 1713
-425.94 665.566 1711
-421.849 665.566 1711
-417.757 665.566 1711
-413.666 665.566 1711
-409.574 665.566 1711
-405.482 665.566 1711
-401.391 665.566 1711
-397.764 666.344 1713
-393.668 666.344 1713
-390.026 667.122 1715
-385.925 667.122 1715
-382.047 667.511 1716
-377.943 667.511 1716
-373.84 667.511 1716
-369.736 667.511 1716
-366.059 668.289 1718
-361.951 668.289 1718
-358.675 669.845 1722
-354.558 669.845 1722
-350.643 670.234 1723
-346.523 670.234 1723
-342.403 670.234 1723
-338.283 670.234 1723
-334.162 670.234 1723
-330.425 671.012 1725
-326.3 671.012 1725
-322.175 671.012 1725
-318.419 671.79 1727
-314.653 672.568 1729
-310.519 672.568 1729
-306.384 672.568 1729
-302.25 672.568 1729
-298.115 672.568 1729
-294.321 673.346 1731
-290.349 673.735 1732
-286.207 673.735 1732
-282.065 673.735 1732
-277.924 673.735 1732
-273.782 673.735 1732
-269.64 673.735 1732
-266.112 675.291 1736
-261.96 675.291 1736
-257.809 675.291 1736
-253.658 675.291 1736
-249.506 675.291 1736
-245.355 675.291 1736
-241.204 675.291 1736
-237.052 675.291 1736
-232.901 675.291 1736
-228.75 675.291 1736
-224.599 675.291 1736
-220.447 675.291 1736
-216.545 676.069 1738
-212.633 676.847 1740
-208.592 677.236 1741
-204.429 677.236 1741
-200.496 678.014 1743
-196.328 678.014 1743
-192.16 678.014 1743
-187.992 678.014 1743
-183.824 678.014 1743
-179.862 678.792 1745
-175.689 678.792 1745
-171.516 678.792 1745
-167.727 680.348 1749
-163.545 680.348 1749
-159.636 681.515 1752
-155.446 681.515 1752
-151.774 683.849 1758
-147.571 683.849 1758
-143.367 683.849 1758
-221.941 1160.75 2984
-214.805 1160.75 2984
-207.67 1160.75 2984
-200.534 1160.75 2984
-193.074 1158.81 2979
-185.951 1158.81 2979
-178.827 1158.81 2979
-172.337 1163.09 2990
-165.187 1163.09 2990
-158.037 1163.09 2990
-149.777 1154.53 2968
-142.439 1152.58 2963
-136.313 1160.75 2984
-129.178 1160.75 2984
-122.042 1160.75 2984
-114.906 1160.75 2984
-107.771 1160.75 2984
-100.635 1160.75 2984
-92.8415 1152.58 2963
-85.756 1152.58 2963
-78.9627 1156.86 2974
-73.0106 1175.54 3022
-65.7841 1175.54 3022
-58.887 1182.15 3039
-51.7047 1184.09 3044
-44.4256 1184.09 3044
-37.1465 1184.09 3044
-29.8673 1184.09 3044
-22.5882 1184.09 3044
-15.3393 1186.43 3050
-8.07481 1190.71 3061
-0.755031 1190.71 3061
6.57762 1193.04 3067
13.9117 1193.04 3067
21.2459 1193.04 3067
28.58 1193.04 3067
35.6448 1184.09 3044
42.8534 1182.15 3039
50.1206 1182.15 3039
57.3878 1182.15 3039
64.7613 1184.09 3044
72.0404 1184.09 3044
79.3196 1184.09 3044
86.5987 1184.09 3044
92.0274 1160.75 2984
141.981 1222.21 3142
149.494 1222.21 3142
157.008 1222.21 3142
163.265 1212.88 3118
170.721 1212.88 3118
177.548 1208.6 3107
183.252 1197.32 3078
188.197 1182.15 3039
195.464 1182.15 3039
202.731 1182.15 3039
209.998 1182.15 3039
217.623 1184.09 3044
226.601 1193.04 3067
233.936 1193.04 3067
241.27 1193.04 3067
248.604 1193.04 3067
255.437 1190.71 3061
262.757 1190.71 3061
269.547 1188.37 3055
275.403 1182.15 3039
279.601 1169.31 3006
286.789 1169.31 3006
292.901 1165.03 2995
302.768 1175.54 3022
309.995 1175.54 3022
317.221 1175.54 3022
324.448 1175.54 3022
331.674 1175.54 3022
339.574 1177.87 3028
346.815 1177.87 3028
354.056 1177.87 3028
360.58 1175.54 3022
363.182 1160.75 2984
369.697 1158.81 2979
378.212 1163.09 2990
385.362 1163.09 2990
392.512 1163.09 2990
400.331 1165.03 2995
407.493 1165.03 2995
414.655 1165.03 2995
418.859 1156.86 2974
425.111 1154.53 2968
433.082 1156.86 2974
440.194 1156.86 2974
447.306 1156.86 2974
454.417 1156.86 2974
461.529 1156.86 2974
466.908 1152.58 2963
471.434 1146.36 2947
478.481 1146.36 2947
490.8 1158.81 2979
497.924 1158.81 2979
506.912 1163.09 2990
514.062 1163.09 2990
521.212 1163.09 2990
527.302 1160.75 2984
533.542 1158.81 2979
534.858 1146.36 2947
537.308 1136.64 2922
544.295 1136.64 2922
548.264 1130.41 2906
555.213 1130.41 2906
563.13 1132.36 2911
579.295 1150.64 2958
586.369 1150.64 2958
593.442 1150.64 2958
600.516 1150.64 2958
607.589 1150.64 2958
614.663 1150.64 2958
616.271 1140.53 2932
620.094 1134.69 2917
630.294 1140.53 2932
637.305 1140.53 2932
648.931 1148.69 2953
658.214 1152.58 2963
670.015 1160.75 2984
677.151 1160.75 2984
691.854 1173.59 3017
702.776 1179.81 3033
710.028 1179.81 3033
721.302 1186.43 3050
728.595 1186.43 3050
735.889 1186.43 3050
743.182 1186.43 3050
750.476 1186.43 3050
757.769 1186.43 3050
760.798 1179.81 3033
768.051 1179.81 3033
776.838 1182.15 3039
784.105 1182.15 3039
799.965 1194.98 3072
807.311 1194.98 3072
814.657 1194.98 3072
822.004 1194.98 3072
829.35 1194.98 3072
835.334 1193.04 3067
842.668 1193.04 3067
850.002 1193.04 3067
857.336 1193.04 3067
861.287 1188.37 3055
868.593 1188.37 3055
875.898 1188.37 3055
881.758 1186.43 3050
885.845 1182.15 3039
896.345 1186.43 3050
911.934 1197.32 3078
919.295 1197.32 3078
926.655 1197.32 3078
934.016 1197.32 3078
941.376 1197.32 3078
946.887 1194.98 3072
954.233 1194.98 3072
961.579 1194.98 3072
968.925 1194.98 3072
972.776 1190.71 3061
971.13 1179.81 3033
976.77 1177.87 3028
984.011 1177.87 3028
987.651 1173.59 3017
994.865 1173.59 3017
1002.08 1173.59 3017
1009.29 1173.59 3017
1014.49 1171.26 3011
1029.15 1179.81 3033
1038.46 1182.15 3039
1045.72 1182.15 3039
1052.99 1182.15 3039
1060.26 1182.15 3039
1059.8 1173.59 3017
1502.32 1111.35 2857
1509.16 1111.35 2857
1515.99 1111.35 2857
1517.49 1107.46 2847
1521.62 1105.52 2842
1528.42 1105.52 2842
1532.51 1103.57 2837
1531.7 1098.13 2823
1541.18 1100.07 2828
1552.87 1103.57 2837
1559.65 1103.57 2837
1590.73 1120.69 2881
1608.71 1128.47 2901
1630.13 1138.58 2927
1637.12 1138.58 2927
1658.73 1148.69 2953
1665.79 1148.69 2953
1672.85 1148.69 2953
1679.91 1148.69 2953
1686.97 1148.69 2953
1696.9 1150.64 2958
1703.98 1150.64 2958
1711.05 1150.64 2958
1750.53 1148.69 2953
1757.59 1148.69 2953
1764.65 1148.69 2953
1771.71 1148.69 2953
1781.79 1150.64 2958
1791.88 1152.58 2963
1798.97 1152.58 2963
1806.05 1152.58 2963
1813.14 1152.58 2963
1820.22 1152.58 2963
1827.31 1152.58 2963
1828.2 1148.69 2953
1835.27 1148.69 2953
1842.33 1148.69 2953
1842.5 1144.42 2942
1849.54 1144.42 2942
1843.95 1136.64 2922
-1777.42 1131.5 2891
-1776.63 1135.42 2901
-1769.69 1135.42 2901
-1762.76 1135.42 2901
-1743.71 1127.59 2881
-1730.8 1123.67 2871
-1723.93 1123.67 2871
-1708.69 1118.2 2857
-1701.86 1118.2 2857
-1706.3 1125.63 2876
-1705.33 1129.55 2886
-1698.43 1129.55 2886
-1706.18 1139.33 2911
-1705.64 1143.64 2922
-1704.47 1147.55 2932
-1697.46 1147.55 2932
-1717.54 1165.94 2979
-1710.42 1165.94 2979
-1703.3 1165.94 2979
-1672.47 1216.04 3107
-1667.72 1218 3112
-1682.68 1234.44 3154
-1675.14 1234.44 3154
-1667.6 1234.44 3154
-1660.06 1234.44 3154
-1652.51 1234.44 3154
-1394.98 1267.71 3239
-1387.23 1267.71 3239
-1379.49 1267.71 3239
-1371.74 1267.71 3239
-1356.41 1260.66 3221
-1345.78 1257.92 3214
-1338.1 1257.92 3214
-1327.93 1255.57 3208
-1271.28 1209 3089
-1263.89 1209 3089
-1256.51 1209 3089
-1244.67 1204.69 3078
-1228.07 1195.69 3055
-1211.97 1187.08 3033
-1204.72 1187.08 3033
-1193.12 1182.77 3022
-1181.58 1178.47 3011
-1166.19 1170.25 2990
-1159.04 1170.25 2990
-1149.58 1167.9 2984
-1093.82 1118.2 2857
-1083.18 1114.28 2847
-533.589 703.716 1798
-529.29 703.716 1798
-524.99 703.716 1798
-518.374 700.584 1790
-514.093 700.584 1790
-503.832 692.365 1769
-497.06 688.843 1760
-489.211 683.755 1747
-485.033 683.755 1747
-479.755 682.189 1743
-474.222 680.232 1738
-470.066 680.232 1738
-465.91 680.232 1738
-459.894 677.493 1731
-455.228 676.71 1729
-449.528 674.361 1723
-445.408 674.361 1723
-441.032 673.97 1722
-435.899 672.405 1718
-431.037 671.23 1715
-426.438 670.448 1713
-422.342 670.448 1713
-417.757 669.665 1711
-413.666 669.665 1711
-409.574 669.665 1711
-405.482 669.665 1711
-401.391 669.665 1711
-397.764 670.448 1713
-393.668 670.448 1713
-390.026 671.23 1715
-385.925 671.23 1715
-382.047 671.622 1716
-377.943 671.622 1716
-373.84 671.622 1716
-369.736 671.622 1716
-366.059 672.405 1718
-361.951 672.405 1718
-358.675 673.97 1722
-354.558 673.97 1722
-350.44 673.97 1722
-346.523 674.361 1723
-342.403 674.361 1723
-338.283 674.361 1723
-334.162 674.361 1723
-330.425 675.144 1725
-326.3 675.144 1725
-322.175 675.144 1725
-318.419 675.927 1727
-314.653 676.71 1729
-310.519 676.71 1729
-306.384 676.71 1729
-302.25 676.71 1729
-298.115 676.71 1729
-294.321 677.493 1731
-290.349 677.884 1732
-286.207 677.884 1732
-282.065 677.884 1732
-277.924 677.884 1732
-273.782 677.884 1732
-269.64 677.884 1732
-266.112 679.45 1736
-261.96 679.45 1736
-257.809 679.45 1736
-253.658 679.45 1736
-249.506 679.45 1736
-245.355 679.45 1736
-241.204 679.45 1736
-237.052 679.45 1736
-232.901 679.45 1736
-228.75 679.45 1736
-224.857 680.232 1738
-220.701 680.232 1738
-216.794 681.015 1740
-212.756 681.406 1741
-208.832 682.189 1743
-204.664 682.189 1743
-200.496 682.189 1743
-196.553 682.972 1745
-192.38 682.972 1745
-188.208 682.972 1745
-184.035 682.972 1745
-179.862 682.972 1745
-176.092 684.538 1749
-171.909 684.538 1749
-167.727 684.538 1749
-163.545 684.538 1749
-160.182 688.06 1758
-155.978 688.06 1758
-151.947 688.843 1760
-147.738 688.843 1760
-143.53 688.843 1760
-221.941 1167.9 2984
-214.805 1167.9 2984
-207.67 1167.9 2984
-200.534 1167.9 2984
-192.362 1161.64 2968
-185.951 1165.94 2979
-178.827 1165.94 2979
-171.703 1165.94 2979
-164.58 1165.94 2979
-157.456 1165.94 2979
-149.777 1161.64 2968
-142.439 1159.68 2963
-135.354 1159.68 2963
-128.269 1159.68 2963
-121.183 1159.68 2963
-113.905 1157.73 2958
-106.651 1155.77 2953
-99.5896 1155.77 2953
-92.3401 1153.42 2947
-84.5694 1143.64 2922
-78.4051 1155.77 2953
-71.5852 1159.68 2963
-64.4997 1159.68 2963
-57.4143 1159.68 2963
-50.3289 1159.68 2963
-43.2434 1159.68 2963
-36.158 1159.68 2963
-29.0726 1159.68 2963
-21.9872 1159.68 2963
-15.0375 1170.25 2990
-7.95874 1180.82 3017
-0.744178 1180.82 3017
6.52829 1191.39 3044
13.8074 1191.39 3044
21.0865 1191.39 3044
28.2166 1185.12 3028
35.1296 1174.16 3000
42.3035 1174.16 3000
49.4774 1174.16 3000
56.6513 1174.16 3000
64.2933 1182.77 3022
71.5198 1182.77 3022
78.7463 1182.77 3022
85.3469 1174.16 3000
92.0274 1167.9 2984
96.0725 1131.5 2891
102.986 1131.5 2891
129.118 1180.82 3017
137.327 1189.43 3039
144.594 1189.43 3039
151.861 1189.43 3039
158.552 1185.12 3028
165.793 1185.12 3028
171.777 1176.51 3006
178.965 1176.51 3006
186.153 1176.51 3006
193.663 1178.47 3011
200.863 1178.47 3011
208.063 1178.47 3011
217.266 1189.43 3039
224.533 1189.43 3039
232.181 1191.39 3044
239.46 1191.39 3044
246.739 1191.39 3044
253.601 1189.43 3039
260.869 1189.43 3039
267.165 1185.12 3028
274.406 1185.12 3028
278.577 1172.21 2995
285.739 1172.21 2995
291.826 1167.9 2984
298.961 1167.9 2984
306.097 1167.9 2984
314.387 1172.21 2995
321.549 1172.21 2995
330.467 1178.47 3011
337.667 1178.47 3011
344.868 1178.47 3011
352.068 1178.47 3011
356.046 1167.9 2984
361.965 1163.99 2974
366.471 1155.77 2953
374.797 1159.68 2963
381.882 1159.68 2963
388.968 1159.68 2963
396.722 1161.64 2968
403.819 1161.64 2968
410.916 1161.64 2968
418.014 1161.64 2968
423.679 1157.73 2958
431.48 1159.68 2963
438.566 1159.68 2963
445.651 1159.68 2963
451.973 1157.73 2958
459.046 1157.73 2958
466.12 1157.73 2958
471.434 1153.42 2947
478.481 1153.42 2947
490.8 1165.94 2979
497.924 1165.94 2979
505.047 1165.94 2979
513.031 1167.9 2984
520.166 1167.9 2984
527.302 1167.9 2984
531.572 1161.64 2968
528.324 1139.33 2911
535.285 1139.33 2911
542.246 1139.33 2911
548.264 1137.37 2906
555.213 1137.37 2906
562.162 1137.37 2906
576.162 1151.46 2942
583.197 1151.46 2942
590.232 1151.46 2942
597.268 1151.46 2942
604.303 1151.46 2942
611.338 1151.46 2942
607.654 1131.5 2891
616.693 1135.42 2901
625.779 1139.33 2911
632.741 1139.33 2911
644.316 1147.55 2932
657.104 1157.73 2958
667.77 1163.99 2974
674.881 1163.99 2974
690.478 1178.47 3011
700.227 1182.77 3022
707.453 1182.77 3022
718.7 1189.43 3039
725.967 1189.43 3039
733.235 1189.43 3039
740.502 1189.43 3039
747.769 1189.43 3039
755.036 1189.43 3039
758.039 1182.77 3022
766.785 1185.12 3028
776.838 1189.43 3039
784.105 1189.43 3039
797.101 1198.04 3061
807.311 1202.34 3072
814.657 1202.34 3072
822.004 1202.34 3072
828 1200.39 3067
835.334 1200.39 3067
842.668 1200.39 3067
848.339 1198.04 3061
855.659 1198.04 3061
858.186 1191.39 3044
865.465 1191.39 3044
872.744 1191.39 3044
878.578 1189.43 3039
885.845 1189.43 3039
893.112 1189.43 3039
906.898 1198.04 3061
914.217 1198.04 3061
921.537 1198.04 3061
928.857 1198.04 3061
936.177 1198.04 3061
943.496 1198.04 3061
947.399 1193.73 3050
954.693 1193.73 3050
961.986 1193.73 3050
962.288 1185.12 3028
967.608 1182.77 3022
971.286 1178.47 3011
978.486 1178.47 3011
984.05 1176.51 3006
991.238 1176.51 3006
994.773 1172.21 2995
1001.93 1172.21 2995
1009.1 1172.21 2995
1027.46 1185.12 3028
1036.41 1187.08 3033
1043.66 1187.08 3033
1050.91 1187.08 3033
1056.42 1185.12 3028
1059.8 1180.82 3017
1502.32 1118.2 2857
1509.16 1118.2 2857
1515.99 1118.2 2857
1517.49 1114.28 2847
1521.62 1112.32 2842
1528.42 1112.32 2842
1532.51 1110.37 2837
1531.7 1104.89 2823
1541.18 1106.85 2828
1552.87 1110.37 2837
1559.65 1110.37 2837
1590.73 1127.59 2881
1608.71 1135.42 2901
1630.13 1145.59 2927
1637.12 1145.59 2927
1658.73 1155.77 2953
1665.79 1155.77 2953
1672.85 1155.77 2953
1676.5 1153.42 2947
1683.55 1153.42 2947
1696.9 1157.73 2958
1737.97 1180.82 3017
1745.18 1180.82 3017
1752.39 1180.82 3017
1736.41 1155.77 2953
1743.47 1155.77 2953
1750.53 1155.77 2953
1757.59 1155.77 2953
1764.65 1155.77 2953
1771.71 1155.77 2953
1781.79 1157.73 2958
1791.88 1159.68 2963
1798.97 1159.68 2963
1806.05 1159.68 2963
1810.08 1157.73 2958
1817.15 1157.73 2958
1824.23 1157.73 2958
1828.2 1155.77 2953
1835.27 1155.77 2953
1842.33 1155.77 2953
1842.5 1151.46 2942
1849.54 1151.46 2942
1843.95 1143.64 2922
1831.3 1131.5 2891
-1791.25 1138.43 2891
-1784.33 1138.43 2891
-1783.57 1142.37 2901
-1776.63 1142.37 2901
-1769.69 1142.37 2901
-1762.76 1142.37 2901
-1743.71 1134.49 2881
-1730.8 1130.55 2871
-1723.93 1130.55 2871
-1708.69 1125.04 2857
-1701.86 1125.04 2857
-1706.3 1132.52 2876
-1705.33 1136.46 2886
-1698.43 1136.46 2886
-1706.18 1146.3 2911
-1705.64 1150.64 2922
-1704.47 1154.57 2932
-1697.46 1154.57 2932
-1717.54 1173.08 2979
-1710.42 1173.08 2979
-1703.3 1173.08 2979
-1672.47 1223.49 3107
-1667.72 1225.45 3112
-1682.68 1241.99 3154
-1675.14 1241.99 3154
-1667.6 1241.99 3154
-1660.06 1241.99 3154
-1652.51 1241.99 3154
-1394.98 1275.46 3239
-1387.23 1275.46 3239
-1379.49 1275.46 3239
-1371.74 1275.46 3239
-1356.41 1268.38 3221
-1345.78 1265.62 3214
-1338.1 1265.62 3214
-1249.98 1203.01 3055
-1242.68 1203.01 3055
-1235.37 1203.01 3055
-1226.06 1201.04 3050
-1207.57 1190.01 3022
-1200.35 1190.01 3022
-1169.83 1166.78 2963
-1158.82 1162.84 2953
-1145.52 1156.54 2937
-1138.49 1156.54 2937
-1119.53 1144.33 2906
-1093.82 1125.04 2857
-1083.18 1121.1 2847
-533.589 708.023 1798
-529.29 708.023 1798
-524.99 708.023 1798
-520.691 708.023 1798
-516.391 708.023 1798
-509.813 704.872 1790
-499.037 695.815 1767
-491.731 691.484 1756
-487.532 691.484 1756
-480.856 687.94 1747
-475.587 686.365 1743
-470.066 684.396 1738
-465.91 684.396 1738
-461.754 684.396 1738
-455.755 681.639 1731
-451.094 680.852 1729
-446.959 680.852 1729
-441.032 678.095 1722
-435.899 676.52 1718
-431.288 675.732 1716
-426.438 674.551 1713
-422.342 674.551 1713
-417.757 673.764 1711
-413.666 673.764 1711
-409.574 673.764 1711
-405.482 673.764 1711
-401.391 673.764 1711
-397.764 674.551 1713
-394.127 675.339 1715
-390.254 675.732 1716
-386.15 675.732 1716
-382.047 675.732 1716
-378.384 676.52 1718
-374.275 676.52 1718
-370.167 676.52 1718
-366.059 676.52 1718
-361.951 676.52 1718
-358.675 678.095 1722
-354.558 678.095 1722
-350.44 678.095 1722
-346.523 678.489 1723
-342.403 678.489 1723
-338.283 678.489 1723
-334.162 678.489 1723
-330.425 679.276 1725
-326.3 679.276 1725
-322.175 679.276 1725
-318.419 680.064 1727
-314.653 680.852 1729
-310.519 680.852 1729
-306.384 680.852 1729
-302.25 680.852 1729
-298.115 680.852 1729
-294.321 681.639 1731
-290.349 682.033 1732
-286.207 682.033 1732
-282.065 682.033 1732
-278.245 682.821 1734
-274.098 682.821 1734
-269.951 682.821 1734
-266.112 683.608 1736
-261.96 683.608 1736
-257.809 683.608 1736
-253.658 683.608 1736
-249.506 683.608 1736
-245.355 683.608 1736
-241.204 683.608 1736
-237.052 683.608 1736
-232.901 683.608 1736
-228.75 683.608 1736
-224.857 684.396 1738
-220.701 684.396 1738
-216.794 685.183 1740
-212.756 685.577 1741
-208.832 686.365 1743
-204.664 686.365 1743
-200.496 686.365 1743
-196.553 687.152 1745
-192.38 687.152 1745
-188.208 687.152 1745
-184.035 687.152 1745
-179.862 687.152 1745
-176.092 688.727 1749
-171.909 688.727 1749
-167.727 688.727 1749
-163.545 688.727 1749
-160.182 692.271 1758
-155.978 692.271 1758
-151.947 693.059 1760
-147.738 693.059 1760
-143.53 693.059 1760
-221.941 1175.05 2984
-214.805 1175.05 2984
-207.67 1175.05 2984
-200.534 1175.05 2984
-192.362 1168.75 2968
-185.951 1173.08 2979
-178.827 1173.08 2979
-171.703 1173.08 2979
-164.58 1173.08 2979
-157.456 1173.08 2979
-149.777 1168.75 2968
-142.439 1166.78 2963
-135.354 1166.78 2963
-128.269 1166.78 2963
-121.183 1166.78 2963
-114.098 1166.78 2963
-106.651 1162.84 2953
-99.5896 1162.84 2953
-92.3401 1160.48 2947
-84.5694 1150.64 2922
-78.4051 1162.84 2953
-71.5852 1166.78 2963
-64.4997 1166.78 2963
-57.4143 1166.78 2963
-50.3289 1166.78 2963
-43.2434 1166.78 2963
-36.158 1166.78 2963
-29.0726 1166.78 2963
-21.9872 1166.78 2963
-15.0375 1177.41 2990
-7.95874 1188.04 3017
-0.744178 1188.04 3017
6.47038 1188.04 3017
13.5353 1175.05 2984
20.6709 1175.05 2984
27.7134 1171.11 2974
34.3918 1156.54 2937
41.4151 1156.54 2937
48.4384 1156.54 2937
55.4616 1156.54 2937
62.5912 1158.51 2942
69.6265 1158.51 2942
77.0786 1164.81 2958
84.1521 1164.81 2958
91.2255 1164.81 2958
96.0725 1138.43 2891
102.986 1138.43 2891
109.709 1136.46 2886
119.519 1164.81 2958
129.118 1188.04 3017
136.332 1188.04 3017
143.547 1188.04 3017
150.762 1188.04 3017
156.248 1175.05 2984
163.11 1173.08 2979
170.234 1173.08 2979
177.357 1173.08 2979
185.162 1177.41 2990
192.634 1179.38 2995
199.796 1179.38 2995
206.958 1179.38 2995
214.12 1179.38 2995
222.464 1185.68 3011
231.342 1194.35 3033
238.595 1194.35 3033
245.848 1194.35 3033
252.683 1192.38 3028
259.924 1192.38 3028
265.224 1183.71 3006
271.415 1179.38 2995
275.136 1164.81 2958
282.209 1164.81 2958
288.207 1160.48 2947
296.356 1164.81 2958
303.43 1164.81 2958
310.503 1164.81 2958
318.65 1168.75 2968
325.748 1168.75 2968
332.845 1168.75 2968
339.943 1168.75 2968
347.04 1168.75 2968
351.035 1158.51 2942
356.853 1154.57 2932
362.003 1148.67 2917
368.978 1148.67 2917
375.954 1148.67 2917
382.929 1148.67 2917
389.905 1148.67 2917
396.88 1148.67 2917
403.855 1148.67 2917
410.831 1148.67 2917
422.963 1162.84 2953
430.752 1164.81 2958
437.826 1164.81 2958
444.899 1164.81 2958
451.973 1164.81 2958
459.046 1164.81 2958
462.811 1156.54 2937
469.834 1156.54 2937
476.857 1156.54 2937
483.88 1156.54 2937
490.904 1156.54 2937
495.384 1150.64 2922
532.527 1140.4 2896
540.384 1142.37 2901
547.321 1142.37 2901
554.258 1142.37 2901
561.195 1142.37 2901
568.132 1142.37 2901
593.827 1138.43 2891
600.74 1138.43 2891
607.654 1138.43 2891
614.567 1138.43 2891
621.48 1138.43 2891
630.567 1142.37 2901
639.702 1146.3 2911
654.66 1160.48 2947
667.77 1171.11 2974
674.881 1171.11 2974
687.955 1181.35 3000
699.068 1188.04 3017
706.283 1188.04 3017
714.68 1190.01 3022
721.906 1190.01 3022
729.133 1190.01 3022
736.359 1190.01 3022
743.586 1190.01 3022
750.812 1190.01 3022
758.039 1190.01 3022
766.785 1192.38 3028
776.838 1196.71 3039
784.105 1196.71 3039
794.236 1201.04 3050
804.421 1205.37 3061
811.74 1205.37 3061
819.06 1205.37 3061
823.41 1201.04 3050
830.704 1201.04 3050
837.997 1201.04 3050
843.628 1198.68 3044
850.907 1198.68 3044
853.675 1192.38 3028
860.916 1192.38 3028
868.157 1192.38 3028
875.398 1192.38 3028
882.639 1192.38 3028
889.88 1192.38 3028
905.12 1203.01 3055
912.425 1203.01 3055
919.731 1203.01 3055
927.036 1203.01 3055
934.342 1203.01 3055
936.715 1196.71 3039
937.149 1188.04 3017
944.363 1188.04 3017
951.578 1188.04 3017
956.886 1185.68 3011
958.963 1179.38 2995
955.802 1166.78 2963
971.662 1177.41 2990
978.812 1177.41 2990
985.962 1177.41 2990
993.112 1177.41 2990
1000.26 1177.41 2990
1007.41 1177.41 2990
1017.96 1181.35 3000
1028.89 1185.68 3011
1036.09 1185.68 3011
1043.29 1185.68 3011
1050.49 1185.68 3011
1057.69 1185.68 3011
1502.32 1125.04 2857
1509.16 1125.04 2857
1515.99 1125.04 2857
1522.82 1125.04 2857
1524.3 1121.1 2847
1531.11 1121.1 2847
1532.51 1117.16 2837
1539.3 1117.16 2837
1546.08 1117.16 2837
1561.08 1123.07 2852
1567.9 1123.07 2852
1601.77 1142.37 2901
1625.9 1154.57 2932
1647.39 1164.81 2958
1654.46 1164.81 2958
1667.15 1168.75 2968
1674.25 1168.75 2968
1681.35 1168.75 2968
1682.76 1164.81 2958
1695.54 1168.75 2968
1724.44 1183.71 3006
1737.97 1188.04 3017
1745.18 1188.04 3017
1752.39 1188.04 3017
1736.41 1162.84 2953
