ply
format ascii 1.0
comment File generated
element vertex 2256
property float x
property float y
property float z
end_header
-2444.81 667.872 3650
-2426.07 665.128 3635
-2432.68 669.336 3658
-2423.93 669.336 3658
-2415.18 669.336 3658
-2406.43 669.336 3658
-2397.69 669.336 3658
-2388.94 669.336 3658
-2380.19 669.336 3658
-2377.28 670.983 3667
-2368.51 670.983 3667
-2359.74 670.983 3667
-2350.97 670.983 3667
-2342.2 670.983 3667
-2327.71 669.336 3658
-2318.96 669.336 3658
-2310.21 669.336 3658
-2291.4 666.408 3642
-2282.69 666.408 3642
-2294.58 672.447 3675
-2285.8 672.447 3675
-2277.01 672.447 3675
-2308.34 684.34 3740
-2304.93 685.987 3749
-2295.96 685.987 3749
-2287 685.987 3749
-2272.56 684.34 3740
-2269.07 685.987 3749
-2260.1 685.987 3749
-2251.14 685.987 3749
-2227.22 681.413 3724
-1946.43 682.877 3732
-1977.48 696.966 3809
-1968.37 696.966 3809
-1959.26 696.966 3809
-1950.15 696.966 3809
-1932.38 693.855 3792
-1923.31 693.855 3792
-1980.98 739.051 4039
-1971.32 739.051 4039
-1961.67 739.051 4039
-1942.83 735.574 4020
-1887.53 718.191 3925
-1878.14 718.191 3925
-1855.9 713.251 3898
-1864.11 720.021 3935
-1854.7 720.021 3935
-1845.29 720.021 3935
-1835.88 720.021 3935
-1826.47 720.021 3935
-1804.13 714.898 3907
-1794.79 714.898 3907
-1785.44 714.898 3907
-1776.1 714.898 3907
-1766.76 714.898 3907
-1757.41 714.898 3907
-1744.04 713.251 3898
-1710.69 703.37 3844
-1697.52 701.723 3835
-1688.35 701.723 3835
-1679.17 701.723 3835
-1666.08 700.076 3826
-1653.47 698.613 3818
-1644.34 698.613 3818
-1638.64 700.076 3826
-1629.49 700.076 3826
-1620.34 700.076 3826
-1611.19 700.076 3826
-1602.04 700.076 3826
-1592.89 700.076 3826
-1613.55 713.251 3898
-1604.22 713.251 3898
-1594.9 713.251 3898
-1585.58 713.251 3898
-1568.98 709.957 3880
-1534.78 698.613 3818
-1525.65 698.613 3818
-1516.52 698.613 3818
-1503.84 696.966 3809
-1480.99 690.562 3774
-1471.97 690.562 3774
-1449.77 684.34 3740
-1434.66 681.413 3724
-1431.88 684.34 3740
-1426.36 685.987 3749
-1417.39 685.987 3749
-1411.43 687.451 3757
-1402.45 687.451 3757
-1393.47 687.451 3757
-1384.48 687.451 3757
-1375.5 687.451 3757
-1363.6 685.987 3749
-1354.64 685.987 3749
-1339.57 682.877 3732
-1321.73 678.302 3707
-1316.06 679.949 3716
-1307.17 679.949 3716
-1298.28 679.949 3716
-1292.17 681.413 3724
-1283.27 681.413 3724
-1274.36 681.413 3724
-587.839 325.702 1780
-583.582 325.702 1780
-579.326 325.702 1780
-574.746 325.519 1779
-568.568 324.421 1773
-564.328 324.421 1773
-560.088 324.421 1773
-554.595 323.689 1769
-550.364 323.689 1769
-546.134 323.689 1769
-541.904 323.689 1769
-537.674 323.689 1769
-533.443 323.689 1769
-529.213 323.689 1769
-524.983 323.689 1769
-520.753 323.689 1769
-515.939 323.323 1767
-511.134 322.957 1765
-506.913 322.957 1765
-502.693 322.957 1765
-498.472 322.957 1765
-494.251 322.957 1765
-490.031 322.957 1765
-485.81 322.957 1765
-481.589 322.957 1765
-479.533 324.421 1773
-475.293 324.421 1773
-471.053 324.421 1773
-466.813 324.421 1773
-461.53 323.689 1769
-457.3 323.689 1769
-452.557 323.323 1767
-447.063 322.408 1762
-440.839 320.945 1754
-436.645 320.945 1754
-431.711 320.396 1751
-425.57 318.932 1743
-419.226 317.285 1734
-413.883 316.37 1729
-409.748 316.37 1729
-405.144 316.004 1727
-400.55 315.638 1725
-395.966 315.272 1723
-391.845 315.272 1723
-386.15 313.991 1716
-380.933 313.077 1711
-375.3 311.796 1704
-371.225 311.796 1704
-366.72 311.43 1702
-361.584 310.515 1697
-356.894 309.966 1694
-352.843 309.966 1694
-347.969 309.234 1690
-343.724 309.051 1689
-339.685 309.051 1689
-335.646 309.051 1689
-331.607 309.051 1689
-327.568 309.051 1689
-323.529 309.051 1689
-319.491 309.051 1689
-315.452 309.051 1689
-311.413 309.051 1689
-307.374 309.051 1689
-302.976 308.685 1687
-298.942 308.685 1687
-294.558 308.319 1685
-290.184 307.953 1683
-286.159 307.953 1683
-282.135 307.953 1683
-278.11 307.953 1683
-274.085 307.953 1683
-270.061 307.953 1683
-266.036 307.953 1683
-262.012 307.953 1683
-257.987 307.953 1683
-253.963 307.953 1683
-249.938 307.953 1683
-245.913 307.953 1683
-241.889 307.953 1683
-237.864 307.953 1683
-233.84 307.953 1683
-229.815 307.953 1683
-226.059 308.319 1685
-222.03 308.319 1685
-218.518 309.051 1689
-214.479 309.051 1689
-210.44 309.051 1689
-206.523 309.234 1690
-202.722 309.6 1692
-198.676 309.6 1692
-194.859 309.966 1694
-190.921 310.149 1695
-187.088 310.515 1697
-183.57 311.43 1702
-179.5 311.43 1702
-176.048 312.528 1708
-172.669 313.808 1715
-168.862 314.357 1718
-164.754 314.357 1718
-161.02 315.089 1722
-156.993 315.272 1723
-153.05 315.638 1725
-148.925 315.638 1725
-144.8 315.638 1725
-140.675 315.638 1725
-136.709 316.004 1727
-132.579 316.004 1727
-128.449 316.004 1727
-124.607 316.736 1731
-120.816 317.651 1736
-116.665 317.651 1736
-113.097 319.298 1745
-109.298 320.396 1751
-105.291 320.945 1754
-101.097 320.945 1754
-97.0131 321.311 1756
-93.1311 322.408 1762
-88.9176 322.408 1762
-84.7041 322.408 1762
-154.069 732.098 4001
-144.501 732.098 4001
-134.933 732.098 4001
-125.366 732.098 4001
-116.059 733.745 4010
-106.469 733.745 4010
-96.8804 733.745 4010
-87.2912 733.745 4010
-77.5277 732.098 4001
-67.9601 732.098 4001
-57.8379 725.145 3963
-48.1293 721.668 3944
-38.698 721.668 3944
-29.2667 721.668 3944
-19.7902 720.021 3935
-10.259 711.604 3889
35.0937 689.098 3766
44.0993 689.098 3766
53.105 689.098 3766
61.5499 682.877 3732
69.851 676.838 3699
78.5263 675.374 3691
87.3526 675.374 3691
96.1789 675.374 3691
104.778 673.911 3683
113.338 672.447 3675
122.126 672.447 3675
130.629 670.983 3667
139.398 670.983 3667
147.803 669.336 3658
156.551 669.336 3658
165.298 669.336 3658
174.045 669.336 3658
182.793 669.336 3658
191.54 669.336 3658
199.028 665.128 3635
207.264 663.664 3627
215.46 662.2 3619
224.115 662.2 3619
233.283 663.664 3627
241.957 663.664 3627
250.63 663.664 3627
259.303 663.664 3627
268.567 665.128 3635
277.26 665.128 3635
286.503 666.408 3642
295.86 667.872 3650
304.589 667.872 3650
313.317 667.872 3650
322.751 669.336 3658
332.314 670.983 3667
341.083 670.983 3667
349.852 670.983 3667
358.621 670.983 3667
366.488 669.336 3658
375.235 669.336 3658
382.303 666.408 3642
389.402 663.664 3627
395.441 659.272 3603
404.057 659.272 3603
410.038 655.064 3580
415.91 650.855 3557
421.672 646.647 3534
427.445 642.621 3512
435.843 642.621 3512
439.688 636.034 3476
445.164 632.008 3454
450.667 628.166 3433
458.876 628.166 3433
463.276 623.042 3405
467.542 617.919 3377
472.801 614.26 3357
480.828 614.26 3357
486.817 611.698 3343
494.811 611.698 3343
504.911 614.26 3357
515.995 617.919 3377
526.243 620.481 3391
534.352 620.481 3391
546.94 625.604 3419
559.662 630.728 3447
570.211 633.289 3461
578.487 633.289 3461
589.307 636.034 3476
600.026 638.596 3490
609.592 639.877 3497
617.954 639.877 3497
631.689 645.366 3527
640.124 645.366 3527
648.558 645.366 3527
656.992 645.366 3527
665.426 645.366 3527
673.86 645.366 3527
682.294 645.366 3527
690.728 645.366 3527
699.162 645.366 3527
707.597 645.366 3527
716.031 645.366 3527
723.027 644.085 3520
728.327 641.34 3505
736.709 641.34 3505
745.091 641.34 3505
751.752 639.877 3497
758.593 638.596 3490
766.939 638.596 3490
775.284 638.596 3490
780.487 636.034 3476
786.983 634.57 3468
795.276 634.57 3468
803.569 634.57 3468
813.735 636.034 3476
822.047 636.034 3476
833.704 638.596 3490
843.739 639.877 3497
855.756 642.621 3512
864.154 642.621 3512
872.552 642.621 3512
886.469 646.647 3534
894.92 646.647 3534
903.371 646.647 3534
917.756 650.855 3557
930.168 653.6 3572
944.754 657.808 3595
953.351 657.808 3595
966.229 660.736 3611
979.183 663.664 3627
990.035 665.128 3635
998.728 665.128 3635
1013.79 669.336 3658
1025.06 670.983 3667
1036.08 672.447 3675
1044.87 672.447 3675
1053.66 672.447 3675
1064.76 673.911 3683
1073.57 673.911 3683
1082.37 673.911 3683
1091.18 673.911 3683
1099.99 673.911 3683
1108.79 673.911 3683
1117.6 673.911 3683
1126.41 673.911 3683
1135.22 673.911 3683
1144.02 673.911 3683
1152.83 673.911 3683
1161.64 673.911 3683
1167.9 672.447 3675
1176.69 672.447 3675
1185.48 672.447 3675
1194.27 672.447 3675
1205.67 673.911 3683
1214.48 673.911 3683
1223.29 673.911 3683
1232.1 673.911 3683
1240.9 673.911 3683
1246.99 672.447 3675
1255.78 672.447 3675
1261.82 670.983 3667
1270.59 670.983 3667
1279.36 670.983 3667
1288.12 670.983 3667
1296.89 670.983 3667
1305.66 670.983 3667
1314.43 670.983 3667
1326.09 672.447 3675
1334.88 672.447 3675
1343.66 672.447 3675
1352.45 672.447 3675
1361.24 672.447 3675
1370.03 672.447 3675
1375.81 670.983 3667
1384.58 670.983 3667
1393.35 670.983 3667
1402.12 670.983 3667
1407.43 669.336 3658
1416.17 669.336 3658
1424.92 669.336 3658
1433.67 669.336 3658
1442.42 669.336 3658
1457.91 672.447 3675
1466.7 672.447 3675
1475.48 672.447 3675
1484.27 672.447 3675
1493.06 672.447 3675
1498.58 670.983 3667
1503.65 669.336 3658
1512.4 669.336 3658
1521.14 669.336 3658
1529.89 669.336 3658
1535.27 667.872 3650
1544 667.872 3650
1549.33 666.408 3642
1558.04 666.408 3642
1566.74 666.408 3642
1582.37 669.336 3658
1591.12 669.336 3658
1607.3 672.447 3675
1623.13 675.374 3691
1639.03 678.302 3707
1647.89 678.302 3707
1667.93 682.877 3732
1688.09 687.451 3757
1704.75 690.562 3774
1713.78 690.562 3774
1731.02 693.855 3792
1776.34 708.311 3871
1785.59 708.311 3871
1794.85 708.311 3871
1804.11 708.311 3871
1813.37 708.311 3871
1848.05 718.191 3925
1866.42 721.668 3944
1875.86 721.668 3944
1885.29 721.668 3944
1894.72 721.668 3944
1904.15 721.668 3944
1904.36 718.191 3925
1900.58 713.251 3898
1905.5 711.604 3889
1914.79 711.604 3889
1892.93 700.076 3826
1863.79 685.987 3749
1860.27 681.413 3724
1869.18 681.413 3724
1849.34 670.983 3667
1833.78 662.2 3619
1834.29 659.272 3603
1838.81 657.808 3595
1847.41 657.808 3595
1848.26 655.064 3580
1864.6 657.808 3595
1881.54 660.736 3611
1898.55 663.664 3627
1907.22 663.664 3627
1915.9 663.664 3627
1928.81 665.128 3635
1949.76 669.336 3658
1958.51 669.336 3658
1967.26 669.336 3658
1993.83 675.374 3691
2016.22 679.949 3716
2038.19 684.34 3740
2047.13 684.34 3740
2079.72 692.208 3783
2098.15 695.319 3800
2156.59 711.604 3889
2165.89 711.604 3889
2175.19 711.604 3889
2215.38 721.668 3944
2229.89 723.315 3953
2239.34 723.315 3953
2259.61 726.791 3972
2269.1 726.791 3972
2278.6 726.791 3972
2288.1 726.791 3972
2297.6 726.791 3972
2301.87 725.145 3963
2311.35 725.145 3963
2320.82 725.145 3963
2324.42 723.315 3953
2333.87 723.315 3953
2343.32 723.315 3953
2352.78 723.315 3953
2362.23 723.315 3953
2371.68 723.315 3953
2381.14 723.315 3953
2396.64 725.145 3963
2406.11 725.145 3963
2421.08 726.791 3972
2442.2 730.268 3991
2451.74 730.268 3991
2461.29 730.268 3991
2470.83 730.268 3991
2480.38 730.268 3991
2489.92 730.268 3991
2493.83 728.621 3982
2497.06 726.791 3972
2500.88 725.145 3963
2510.36 725.145 3963
2489.95 716.545 3916
2476.34 709.957 3880
2462.55 703.37 3844
2471.75 703.37 3844
2452.54 695.319 3800
2439.6 689.098 3766
2442.76 687.451 3757
2435.43 682.877 3732
2444.35 682.877 3732
2448.01 681.413 3724
2440.43 676.838 3699
2433.38 672.447 3675
2442.17 672.447 3675
2445.62 670.983 3667
2432.97 665.128 3635
2420.17 659.272 3603
2413.28 655.064 3580
2421.84 655.064 3580
2409.36 649.391 3549
529.172 134.123 733
530.925 134.123 733
532.678 134.123 733
534.431 134.123 733
536.184 134.123 733
537.203 133.94 732
538.217 133.757 731
538.487 133.391 729
540.231 133.391 729
541.974 133.391 729
542.971 133.208 728
545.461 133.391 729
547.204 133.391 729
549.7 133.574 730
551.446 133.574 730
553.191 133.574 730
554.177 133.391 729
555.92 133.391 729
557.663 133.391 729
-2370.46 586.895 3166
-2362.89 586.895 3166
-2350.86 585.782 3160
-2338.85 584.67 3154
-2331.31 584.67 3154
-2323.77 584.67 3154
-2316.22 584.67 3154
-2308.68 584.67 3154
-2296.76 583.558 3148
-2289.23 583.558 3148
-2277.36 582.446 3142
-2278.51 584.67 3154
-2296.89 591.344 3190
-2306.49 595.793 3214
-2298.8 595.793 3214
-2322.48 603.949 3258
-2319.66 605.247 3265
-2343.72 613.589 3310
-2335.8 613.589 3310
-2327.89 613.589 3310
-2524.81 672.352 3627
-2549.44 681.25 3675
-2540.65 681.25 3675
-2531.86 681.25 3675
-2528.57 682.733 3683
-2519.76 682.733 3683
-2510.95 682.733 3683
-2502.14 682.733 3683
-2493.34 682.733 3683
-2473.74 679.767 3667
-2464.97 679.767 3667
-2444.81 676.616 3650
-2426.07 673.835 3635
-2432.68 678.099 3658
-2423.93 678.099 3658
-2415.18 678.099 3658
-2406.43 678.099 3658
-2397.69 678.099 3658
-2388.94 678.099 3658
-2380.19 678.099 3658
-2377.28 679.767 3667
-2368.51 679.767 3667
-2359.74 679.767 3667
-2350.97 679.767 3667
-2342.2 679.767 3667
-2327.71 678.099 3658
-2318.96 678.099 3658
-2310.21 678.099 3658
-2291.4 675.133 3642
-2278.3 673.835 3635
-2294.58 681.25 3675
-2285.8 681.25 3675
-2291.88 685.699 3699
-2308.34 693.3 3740
-2304.93 694.968 3749
-2295.96 694.968 3749
-2287 694.968 3749
-2272.56 693.3 3740
-2263.62 693.3 3740
-2225.14 684.216 3691
-2211.51 682.733 3683
-2197.92 681.25 3675
-1964.28 691.817 3732
-1955.35 691.817 3732
-1946.43 691.817 3732
-1977.48 706.09 3809
-1968.37 706.09 3809
-1959.26 706.09 3809
-1950.15 706.09 3809
-1932.38 702.939 3792
-1923.31 702.939 3792
-1914.25 702.939 3792
-1980.98 748.726 4039
-1971.32 748.726 4039
-1961.67 748.726 4039
-1942.83 745.204 4020
-1887.53 727.594 3925
-1878.14 727.594 3925
-1855.9 722.589 3898
-1864.11 729.448 3935
-1854.7 729.448 3935
-1845.29 729.448 3935
-1835.88 729.448 3935
-1826.47 729.448 3935
-1804.13 724.257 3907
-1794.79 724.257 3907
-1785.44 724.257 3907
-1776.1 724.257 3907
-1766.76 724.257 3907
-1757.41 724.257 3907
-1744.04 722.589 3898
-1710.69 712.578 3844
-1697.52 710.91 3835
-1688.35 710.91 3835
-1679.17 710.91 3835
-1666.08 709.242 3826
-1653.47 707.759 3818
-1644.34 707.759 3818
-1638.64 709.242 3826
-1629.49 709.242 3826
-1620.34 709.242 3826
-1611.19 709.242 3826
-1602.04 709.242 3826
-1592.89 709.242 3826
-1613.55 722.589 3898
-1604.22 722.589 3898
-1594.9 722.589 3898
-1585.58 722.589 3898
-1568.98 719.252 3880
-1534.78 707.759 3818
-1525.65 707.759 3818
-1516.52 707.759 3818
-1503.84 706.09 3809
-1480.99 699.602 3774
-1471.97 699.602 3774
-1449.77 693.3 3740
-1434.66 690.334 3724
-1431.88 693.3 3740
-1426.36 694.968 3749
-1417.39 694.968 3749
-1411.43 696.451 3757
-1402.45 696.451 3757
-1393.47 696.451 3757
-1384.48 696.451 3757
-1375.5 696.451 3757
-1366.51 696.451 3757
-1357.53 696.451 3757
-1339.57 691.817 3732
-1321.73 687.182 3707
-1316.06 688.851 3716
-1307.17 688.851 3716
-1298.28 688.851 3716
-1292.17 690.334 3724
-1283.27 690.334 3724
-1274.36 690.334 3724
-587.839 329.966 1780
-583.582 329.966 1780
-579.326 329.966 1780
-574.746 329.781 1779
-568.568 328.668 1773
-564.328 328.668 1773
-560.088 328.668 1773
-554.595 327.927 1769
-550.987 328.298 1771
-546.752 328.298 1771
-542.517 328.298 1771
-538.282 328.298 1771
-534.047 328.298 1771
-529.812 328.298 1771
-525.577 328.298 1771
-521.342 328.298 1771
-515.939 327.556 1767
-511.713 327.556 1767
-507.488 327.556 1767
-502.693 327.185 1765
-498.472 327.185 1765
-494.251 327.185 1765
-490.031 327.185 1765
-485.81 327.185 1765
-481.589 327.185 1765
-479.533 328.668 1773
-475.293 328.668 1773
-471.053 328.668 1773
-466.813 328.668 1773
-461.53 327.927 1769
-457.3 327.927 1769
-452.557 327.556 1767
-447.063 326.629 1762
-440.839 325.146 1754
-436.645 325.146 1754
-431.711 324.59 1751
-425.57 323.107 1743
-419.226 321.439 1734
-413.883 320.512 1729
-409.748 320.512 1729
-405.144 320.141 1727
-400.55 319.771 1725
-395.966 319.4 1723
-391.845 319.4 1723
-386.15 318.102 1716
-380.933 317.175 1711
-375.741 316.248 1706
-371.661 316.248 1706
-366.72 315.507 1702
-361.584 314.58 1697
-356.894 314.024 1694
-352.843 314.024 1694
-347.969 313.282 1690
-343.724 313.097 1689
-339.886 313.282 1690
-335.845 313.282 1690
-331.804 313.282 1690
-327.762 313.282 1690
-323.721 313.282 1690
-319.68 313.282 1690
-315.638 313.282 1690
-311.413 313.097 1689
-307.374 313.097 1689
-303.335 313.097 1689
-299.296 313.097 1689
-294.907 312.726 1687
-290.529 312.356 1685
-286.499 312.356 1685
-282.47 312.356 1685
-278.44 312.356 1685
-274.411 312.356 1685
-270.061 311.985 1683
-266.036 311.985 1683
-262.012 311.985 1683
-258.294 312.356 1685
-254.264 312.356 1685
-250.235 312.356 1685
-246.206 312.356 1685
-242.176 312.356 1685
-238.147 312.356 1685
-234.118 312.356 1685
-230.088 312.356 1685
-226.327 312.726 1687
-222.557 313.097 1689
-218.518 313.097 1689
-214.479 313.097 1689
-210.565 313.282 1690
-206.768 313.653 1692
-202.961 314.024 1694
-198.91 314.024 1694
-194.975 314.209 1695
-191.147 314.58 1697
-187.529 315.322 1701
-183.785 315.878 1704
-179.711 315.878 1704
-176.151 316.805 1709
-172.669 317.917 1715
-168.862 318.473 1718
-164.754 318.473 1718
-161.113 319.4 1723
-157.175 319.771 1725
-153.05 319.771 1725
-148.925 319.771 1725
-144.968 320.141 1727
-140.839 320.141 1727
-136.709 320.141 1727
-132.579 320.141 1727
-128.449 320.141 1727
-124.607 320.883 1731
-120.955 322.18 1738
-116.799 322.18 1738
-113.226 323.849 1747
-109.361 324.776 1752
-105.411 325.517 1756
-101.212 325.517 1756
-97.3446 326.629 1762
-93.5011 327.927 1769
-89.2709 327.927 1769
-85.0406 327.927 1769
-153.337 738.16 3982
-144.501 741.682 4001
-134.933 741.682 4001
-125.366 741.682 4001
-115.509 739.828 3991
-105.965 739.828 3991
-96.4213 739.828 3991
-86.2681 734.638 3963
-76.5976 732.784 3953
-67.1448 732.784 3953
-57.4293 729.448 3935
-46.5917 707.759 3818
-37.4617 707.759 3818
-28.3317 707.759 3818
-19.2017 707.759 3818
-9.75783 685.699 3699
-0.912401 685.699 3699
7.93303 685.699 3699
16.7785 685.699 3699
25.6239 685.699 3699
34.4693 685.699 3699
43.3148 685.699 3699
52.1602 685.699 3699
60.6098 681.25 3675
69.0768 678.099 3658
77.8242 678.099 3658
86.5716 678.099 3658
95.319 678.099 3658
103.839 676.616 3650
112.32 675.133 3642
121.029 675.133 3642
129.739 675.133 3642
138.182 673.835 3635
146.874 673.835 3635
155.566 673.835 3635
164.259 673.835 3635
172.951 673.835 3635
181.244 672.352 3627
189.917 672.352 3627
198.152 670.869 3619
205.892 667.903 3603
214.032 666.42 3595
223.124 667.903 3603
231.74 667.903 3603
240.355 667.903 3603
248.971 667.903 3603
258.159 669.386 3611
267.976 672.352 3627
276.65 672.352 3627
285.952 673.835 3635
295.212 675.133 3642
303.921 675.133 3642
312.63 675.133 3642
321.339 675.133 3642
330.048 675.133 3642
340.246 678.099 3658
348.993 678.099 3658
357.741 678.099 3658
364.885 675.133 3642
373.594 675.133 3642
380.729 672.352 3627
386.825 667.903 3603
392.917 663.64 3580
401.478 663.64 3580
409.122 662.157 3572
414.975 657.893 3549
420.836 653.815 3527
427.445 651.034 3512
435.843 651.034 3512
441.458 646.956 3490
446.969 642.878 3468
451.586 637.687 3440
459.812 637.687 3440
465.181 633.794 3419
471.419 631.199 3405
473.646 623.413 3363
481.688 623.413 3363
484.924 617.296 3330
493.923 618.594 3337
503.858 621.004 3350
512.939 622.301 3357
525.156 627.306 3384
533.248 627.306 3384
544.7 631.199 3405
556.252 635.092 3426
567.904 638.985 3447
576.147 638.985 3447
585.577 640.283 3454
597.619 644.361 3476
608.371 646.956 3490
616.717 646.956 3490
626.316 648.254 3497
634.679 648.254 3497
643.041 648.254 3497
651.404 648.254 3497
659.766 648.254 3497
669.657 649.737 3505
678.038 649.737 3505
686.42 649.737 3505
694.801 649.737 3505
703.183 649.737 3505
711.564 649.737 3505
718.303 648.254 3497
725.211 646.956 3490
733.556 646.956 3490
741.902 646.956 3490
750.247 646.956 3490
755.55 644.361 3476
763.862 644.361 3476
772.174 644.361 3476
778.69 642.878 3468
786.983 642.878 3468
793.671 641.58 3461
801.947 641.58 3461
810.224 641.58 3461
818.5 641.58 3461
828.448 642.878 3468
840.361 645.658 3483
850.395 646.956 3490
858.741 646.956 3490
870.813 649.737 3505
880.951 651.034 3512
891.375 652.517 3520
899.792 652.517 3520
911.822 655.112 3534
926.262 659.376 3557
938.71 662.157 3572
947.251 662.157 3572
961.948 666.42 3595
974.864 669.386 3611
987.857 672.352 3627
996.53 672.352 3627
1005.2 672.352 3627
1022.54 678.099 3658
1033.83 679.767 3667
1042.6 679.767 3667
1051.36 679.767 3667
1062.45 681.25 3675
1071.23 681.25 3675
1080.02 681.25 3675
1088.81 681.25 3675
1097.6 681.25 3675
1108.79 682.733 3683
1117.6 682.733 3683
1126.41 682.733 3683
1135.22 682.733 3683
1144.02 682.733 3683
1152.83 682.733 3683
1159.11 681.25 3675
1167.9 681.25 3675
1176.69 681.25 3675
1185.48 681.25 3675
1194.27 681.25 3675
1203.05 681.25 3675
1211.84 681.25 3675
1220.63 681.25 3675
1226.74 679.767 3667
1235.51 679.767 3667
1241.23 678.099 3658
1249.97 678.099 3658
1255.97 676.616 3650
1267.47 678.099 3658
1276.22 678.099 3658
1284.96 678.099 3658
1293.71 678.099 3658
1302.46 678.099 3658
1308.34 676.616 3650
1319.95 678.099 3658
1331.97 679.767 3667
1340.74 679.767 3667
1349.51 679.767 3667
1358.28 679.767 3667
1367.05 679.767 3667
1375.81 679.767 3667
1381.18 678.099 3658
1389.93 678.099 3658
1398.68 678.099 3658
1407.43 678.099 3658
1413.08 676.616 3650
1424.92 678.099 3658
1433.67 678.099 3658
1442.42 678.099 3658
1454.73 679.767 3667
1463.5 679.767 3667
1472.27 679.767 3667
1481.04 679.767 3667
1489.81 679.767 3667
1494.9 678.099 3658
1503.65 678.099 3658
1512.4 678.099 3658
1521.14 678.099 3658
1526.54 676.616 3650
1531.91 675.133 3642
1540.62 675.133 3642
1549.33 675.133 3642
1558.04 675.133 3642
1566.74 675.133 3642
1578.91 676.616 3650
1587.64 676.616 3650
1603.81 679.767 3667
1619.61 682.733 3683
1631.96 684.216 3691
1640.78 684.216 3691
1664.36 690.334 3724
1688.09 696.451 3757
1701.14 698.119 3766
1710.14 698.119 3766
1726.91 701.271 3783
1776.34 717.584 3871
1785.59 717.584 3871
1794.85 717.584 3871
1804.11 717.584 3871
1813.37 717.584 3871
1839.57 724.257 3907
1857.43 727.594 3925
1866.82 727.594 3925
1876.2 727.594 3925
1885.59 727.594 3925
1894.98 727.594 3925
1895.63 724.257 3907
1896.2 720.92 3889
1892.27 715.915 3862
1901.5 715.915 3862
1884.51 706.09 3809
1855.34 691.817 3732
1856.27 688.851 3716
1865.16 688.851 3716
1844.8 678.099 3658
1829.73 669.386 3611
1834.29 667.903 3603
1831.14 663.64 3580
1839.7 663.64 3580
1848.26 663.64 3580
1864.6 666.42 3595
1881.54 669.386 3611
1894.36 670.869 3619
1903.02 670.869 3619
1915.9 672.352 3627
1928.81 673.835 3635
1949.76 678.099 3658
1958.51 678.099 3658
1972.1 679.767 3667
1993.83 684.216 3691
2011.34 687.182 3707
2038.19 693.3 3740
2047.13 693.3 3740
2070.37 698.119 3766
2093.73 702.939 3792
2126.64 710.91 3835
2135.81 710.91 3835
2175.19 720.92 3889
2189.54 722.589 3898
2224.81 731.116 3944
2234.25 731.116 3944
2243.68 731.116 3944
2263.96 734.638 3963
2273.44 734.638 3963
2282.92 734.638 3963
2292.39 734.638 3963
2296.06 732.784 3953
2305.51 732.784 3953
2314.97 732.784 3953
2313.83 729.448 3935
2323.24 729.448 3935
2343.32 732.784 3953
2352.78 732.784 3953
2362.23 732.784 3953
2371.68 732.784 3953
2381.14 732.784 3953
2396.64 734.638 3963
2406.11 734.638 3963
2421.08 736.306 3972
2442.2 739.828 3991
2451.74 739.828 3991
2461.29 739.828 3991
2470.83 739.828 3991
2480.38 739.828 3991
2489.92 739.828 3991
2493.83 738.16 3982
2503.35 738.16 3982
2506.56 736.306 3972
2516.06 736.306 3972
2507.75 731.116 3944
2499.31 725.925 3916
2474.08 715.915 3862
2483.32 715.915 3862
2475.13 710.91 3835
2461.63 704.422 3800
2453.81 699.602 3774
2451.74 696.451 3757
2460.72 696.451 3757
2458.53 693.3 3740
2456.92 690.334 3724
2449.27 685.699 3699
2458.12 685.699 3699
2466.96 685.699 3699
2454.39 679.767 3667
2436.29 672.352 3627
2434.18 669.386 3611
2442.81 669.386 3611
2446.02 667.903 3603
529.172 135.879 733
530.925 135.879 733
532.678 135.879 733
533.702 135.694 732
535.452 135.694 732
536.469 135.509 731
537.481 135.323 730
538.487 135.138 729
540.231 135.138 729
541.231 134.952 728
542.971 134.952 728
544.712 134.952 728
546.453 134.952 728
548.947 135.138 729
550.69 135.138 729
552.434 135.138 729
553.417 134.952 728
555.158 134.952 728
556.898 134.952 728
-2370.46 594.479 3166
-2362.89 594.479 3166
-2350.86 593.352 3160
-2334.4 591.099 3148
-2326.87 591.099 3148
-2319.35 591.099 3148
-2311.82 591.099 3148
-2304.29 591.099 3148
-2292.38 589.972 3142
-2284.87 589.972 3142
-2277.36 589.972 3142
-2278.51 592.226 3154
-2309.85 602.365 3208
-2311.51 604.806 3221
-2303.81 604.806 3221
-2322.48 611.754 3258
-2346.66 620.203 3303
-2343.72 621.518 3310
-2442.36 649.871 3461
-2465.03 658.133 3505
-2498.7 669.399 3565
-2490.18 669.399 3565
-2524.81 681.041 3627
-2521.69 682.543 3635
-2540.65 690.054 3675
-2531.86 690.054 3675
-2528.57 691.556 3683
-2519.76 691.556 3683
-2510.95 691.556 3683
-2502.14 691.556 3683
-2493.34 691.556 3683
-2473.74 688.552 3667
-2464.97 688.552 3667
-2444.81 685.359 3650
-2426.07 682.543 3635
-2432.68 686.862 3658
-2423.93 686.862 3658
-2415.18 686.862 3658
-2406.43 686.862 3658
-2397.69 686.862 3658
-2388.94 686.862 3658
-2380.19 686.862 3658
-2377.28 688.552 3667
-2368.51 688.552 3667
-2359.74 688.552 3667
-2350.97 688.552 3667
-2342.2 688.552 3667
-2327.71 686.862 3658
-2318.96 686.862 3658
-2310.21 686.862 3658
-2291.4 683.857 3642
-2278.3 682.543 3635
-2294.58 690.054 3675
-2285.8 690.054 3675
-2291.88 694.56 3699
-2308.34 702.259 3740
-2304.93 703.949 3749
-2295.96 703.949 3749
-2287 703.949 3749
-2272.56 702.259 3740
-2263.62 702.259 3740
-2225.14 693.058 3691
-2211.51 691.556 3683
-2197.92 690.054 3675
-1964.28 700.757 3732
-1955.35 700.757 3732
-1946.43 700.757 3732
-1950.48 705.451 3757
-1954.93 710.333 3783
-1945.89 710.333 3783
-1941.45 712.023 3792
-1932.38 712.023 3792
-1923.31 712.023 3792
-1914.25 712.023 3792
-1971.66 754.834 4020
-1962.05 754.834 4020
-1952.44 754.834 4020
-1937.99 752.957 4010
-1883.2 735.306 3916
-1873.83 735.306 3916
-1847.33 728.547 3880
-1838.05 728.547 3880
-1854.7 738.874 3935
-1845.29 738.874 3935
-1835.88 738.874 3935
-1826.47 738.874 3935
-1804.13 733.616 3907
-1794.79 733.616 3907
-1785.44 733.616 3907
-1776.1 733.616 3907
-1766.76 733.616 3907
-1757.41 733.616 3907
-1740.02 730.236 3889
-1706.69 720.097 3835
-1697.52 720.097 3835
-1688.35 720.097 3835
-1679.17 720.097 3835
-1666.08 718.407 3826
-1653.47 716.905 3818
-1644.34 716.905 3818
-1635.21 716.905 3818
-1622.25 715.215 3809
-1613.14 715.215 3809
-1607.82 716.905 3818
-1602.04 718.407 3826
-1592.89 718.407 3826
-1602.37 726.857 3871
-1596.82 728.547 3880
-1587.54 728.547 3880
-1578.26 728.547 3880
-1565.34 726.857 3871
-1534.78 716.905 3818
-1525.65 716.905 3818
-1509.37 713.525 3800
-1500.28 713.525 3800
-1480.99 708.643 3774
-1471.97 708.643 3774
-1449.77 702.259 3740
-1421.94 693.058 3691
-1428.82 700.757 3732
-1419.89 700.757 3732
-1410.97 700.757 3732
-1408.43 703.949 3749
-1402.45 705.451 3757
-1393.47 705.451 3757
-1384.48 705.451 3757
-1375.5 705.451 3757
-1366.51 705.451 3757
-1357.53 705.451 3757
-1330.6 696.062 3707
-1321.73 696.062 3707
-1312.87 696.062 3707
-1304 696.062 3707
-1295.14 696.062 3707
-1283.5 694.56 3699
-1274.65 694.56 3699
-1265.81 694.56 3699
-581.943 333.291 1775
-577.698 333.291 1775
-573.454 333.291 1775
-568.568 332.916 1773
-563.692 332.54 1771
-559.457 332.54 1771
-554.595 332.165 1769
-550.987 332.54 1771
-546.752 332.54 1771
-542.517 332.54 1771
-538.282 332.54 1771
-534.047 332.54 1771
-529.812 332.54 1771
-525.577 332.54 1771
-521.342 332.54 1771
-515.939 331.789 1767
-511.713 331.789 1767
-507.488 331.789 1767
-502.123 331.038 1763
-497.907 331.038 1763
-494.251 331.414 1765
-490.031 331.414 1765
-485.81 331.414 1765
-481.589 331.414 1765
-479.533 332.916 1773
-475.293 332.916 1773
-471.053 332.916 1773
-466.813 332.916 1773
-461.53 332.165 1769
-457.3 332.165 1769
-452.557 331.789 1767
-447.063 330.85 1762
-440.839 329.348 1754
-436.645 329.348 1754
-431.711 328.785 1751
-425.57 327.283 1743
-419.226 325.593 1734
-413.883 324.654 1729
-409.748 324.654 1729
-404.675 323.903 1725
-400.086 323.527 1723
-395.966 323.527 1723
-391.845 323.527 1723
-386.15 322.213 1716
-380.933 321.274 1711
-375.741 320.335 1706
-371.661 320.335 1706
-366.72 319.584 1702
-361.584 318.645 1697
-356.894 318.082 1694
-352.843 318.082 1694
-347.969 317.331 1690
-343.724 317.143 1689
-339.886 317.331 1690
-335.845 317.331 1690
-331.804 317.331 1690
-327.762 317.331 1690
-323.721 317.331 1690
-319.68 317.331 1690
-315.638 317.331 1690
-311.413 317.143 1689
-307.374 317.143 1689
-303.335 317.143 1689
-299.296 317.143 1689
-294.907 316.768 1687
-290.529 316.392 1685
-286.499 316.392 1685
-282.47 316.392 1685
-278.44 316.392 1685
-274.411 316.392 1685
-270.061 316.016 1683
-266.036 316.016 1683
-262.012 316.016 1683
-258.294 316.392 1685
-254.264 316.392 1685
-250.235 316.392 1685
-246.206 316.392 1685
-242.176 316.392 1685
-238.147 316.392 1685
-234.118 316.392 1685
-230.088 316.392 1685
-226.327 316.768 1687
-222.557 317.143 1689
-218.518 317.143 1689
-214.479 317.143 1689
-210.565 317.331 1690
-206.768 317.706 1692
-202.961 318.082 1694
-198.91 318.082 1694
-194.975 318.27 1695
-191.147 318.645 1697
-187.529 319.396 1701
-183.785 319.96 1704
-179.711 319.96 1704
-176.151 320.898 1709
-172.669 322.025 1715
-168.862 322.588 1718
-164.754 322.588 1718
-161.113 323.527 1723
-157.175 323.903 1725
-153.228 324.278 1727
-149.098 324.278 1727
-145.136 324.654 1729
-141.002 324.654 1729
-136.867 324.654 1729
-132.732 324.654 1729
-128.598 324.654 1729
-124.607 325.029 1731
-120.955 326.344 1738
-116.799 326.344 1738
-113.356 328.409 1749
-109.486 329.348 1754
-105.651 330.475 1760
-101.443 330.475 1760
-97.8418 332.54 1771
-93.7125 332.916 1773
-89.4727 332.916 1773
-85.2329 332.916 1773
-153.337 747.699 3982
-144.501 751.267 4001
-134.933 751.267 4001
-125.366 751.267 4001
-115.509 749.389 3991
-105.965 749.389 3991
-96.4213 749.389 3991
-86.2681 744.131 3963
-76.5976 742.254 3953
-67.1448 742.254 3953
-57.4293 738.874 3935
-46.5917 716.905 3818
-37.4617 716.905 3818
-28.3317 716.905 3818
-19.2017 716.905 3818
-9.75783 694.56 3699
-0.912401 694.56 3699
7.93303 694.56 3699
16.7785 694.56 3699
25.6239 694.56 3699
34.4693 694.56 3699
43.3148 694.56 3699
52.1602 694.56 3699
60.6098 690.054 3675
69.0768 686.862 3658
77.8242 686.862 3658
86.5716 686.862 3658
95.319 686.862 3658
103.839 685.359 3650
112.32 683.857 3642
121.029 683.857 3642
129.739 683.857 3642
138.182 682.543 3635
146.874 682.543 3635
155.566 682.543 3635
164.259 682.543 3635
172.951 682.543 3635
181.244 681.041 3627
189.917 681.041 3627
198.152 679.539 3619
205.892 676.534 3603
214.032 675.032 3595
223.124 676.534 3603
231.74 676.534 3603
240.355 676.534 3603
248.971 676.534 3603
258.159 678.036 3611
267.976 681.041 3627
276.65 681.041 3627
285.952 682.543 3635
295.212 683.857 3642
303.921 683.857 3642
312.63 683.857 3642
321.339 683.857 3642
330.048 683.857 3642
340.246 686.862 3658
348.993 686.862 3658
357.741 686.862 3658
364.885 683.857 3642
373.594 683.857 3642
380.729 681.041 3627
386.825 676.534 3603
392.917 672.216 3580
401.478 672.216 3580
409.122 670.713 3572
415.91 667.897 3557
422.626 665.08 3542
428.418 660.949 3520
436.836 660.949 3520
443.356 658.133 3505
448 652.688 3476
452.505 647.242 3447
460.748 647.242 3447
468.038 645.928 3440
471.419 639.356 3405
473.646 631.47 3363
481.688 631.47 3363
484.924 625.273 3330
493.923 626.588 3337
503.858 629.029 3350
512.939 630.343 3357
525.156 635.413 3384
533.248 635.413 3384
544.7 639.356 3405
556.252 643.299 3426
567.904 647.242 3447
576.147 647.242 3447
585.577 648.557 3454
597.619 652.688 3476
608.371 655.316 3490
616.717 655.316 3490
626.316 656.631 3497
634.679 656.631 3497
643.041 656.631 3497
651.404 656.631 3497
659.766 656.631 3497
669.657 658.133 3505
678.038 658.133 3505
686.42 658.133 3505
694.801 658.133 3505
703.183 658.133 3505
711.564 658.133 3505
718.303 656.631 3497
725.211 655.316 3490
733.556 655.316 3490
741.902 655.316 3490
750.247 655.316 3490
755.55 652.688 3476
763.862 652.688 3476
772.174 652.688 3476
778.69 651.185 3468
786.983 651.185 3468
793.671 649.871 3461
801.947 649.871 3461
810.224 649.871 3461
818.5 649.871 3461
828.448 651.185 3468
840.361 654.002 3483
850.395 655.316 3490
858.741 655.316 3490
870.813 658.133 3505
880.951 659.447 3512
891.375 660.949 3520
899.792 660.949 3520
911.822 663.578 3534
926.262 667.897 3557
938.71 670.713 3572
947.251 670.713 3572
961.948 675.032 3595
974.864 678.036 3611
987.857 681.041 3627
996.53 681.041 3627
1005.2 681.041 3627
1022.54 686.862 3658
1033.83 688.552 3667
1042.6 688.552 3667
1051.36 688.552 3667
1062.45 690.054 3675
1071.23 690.054 3675
1080.02 690.054 3675
1088.81 690.054 3675
1097.6 690.054 3675
1108.79 691.556 3683
1117.6 691.556 3683
1126.41 691.556 3683
1135.22 691.556 3683
1144.02 691.556 3683
1152.83 691.556 3683
1159.11 690.054 3675
1167.9 690.054 3675
1176.69 690.054 3675
1185.48 690.054 3675
1194.27 690.054 3675
1203.05 690.054 3675
1211.84 690.054 3675
1220.63 690.054 3675
1226.74 688.552 3667
1235.51 688.552 3667
1241.23 686.862 3658
1249.97 686.862 3658
1255.97 685.359 3650
1267.47 686.862 3658
1276.22 686.862 3658
1284.96 686.862 3658
1293.71 686.862 3658
1302.46 686.862 3658
1308.34 685.359 3650
1319.95 686.862 3658
1331.97 688.552 3667
1340.74 688.552 3667
1349.51 688.552 3667
1358.28 688.552 3667
1367.05 688.552 3667
1375.81 688.552 3667
1381.18 686.862 3658
1389.93 686.862 3658
1398.68 686.862 3658
1407.43 686.862 3658
1413.08 685.359 3650
1424.92 686.862 3658
1433.67 686.862 3658
1442.42 686.862 3658
1454.73 688.552 3667
1463.5 688.552 3667
1472.27 688.552 3667
1481.04 688.552 3667
1489.81 688.552 3667
1494.9 686.862 3658
1503.65 686.862 3658
1512.4 686.862 3658
1521.14 686.862 3658
1526.54 685.359 3650
1531.91 683.857 3642
1540.62 683.857 3642
1549.33 683.857 3642
1558.04 683.857 3642
1566.74 683.857 3642
1578.91 685.359 3650
1587.64 685.359 3650
1603.81 688.552 3667
1619.61 691.556 3683
1631.96 693.058 3691
1640.78 693.058 3691
1664.36 699.254 3724
1688.09 705.451 3757
1701.14 707.141 3766
1710.14 707.141 3766
1726.91 710.333 3783
1776.34 726.857 3871
1785.59 726.857 3871
1794.85 726.857 3871
1804.11 726.857 3871
1813.37 726.857 3871
1822.62 726.857 3871
1848.91 733.616 3907
1858.26 733.616 3907
1867.6 733.616 3907
1876.94 733.616 3907
1886.29 733.616 3907
1886.9 730.236 3889
1883.03 725.167 3862
1874.63 718.407 3826
1883.78 718.407 3826
1880.06 713.525 3800
1855.34 700.757 3732
1856.27 697.752 3716
1865.16 697.752 3716
1844.8 686.862 3658
1829.73 678.036 3611
1826.65 673.718 3588
1831.14 672.216 3580
1839.7 672.216 3580
1848.26 672.216 3580
1864.6 675.032 3595
1881.54 678.036 3611
1894.36 679.539 3619
1903.02 679.539 3619
1915.9 681.041 3627
1928.81 682.543 3635
1949.76 686.862 3658
1958.51 686.862 3658
1972.1 688.552 3667
1998.15 694.56 3699
2024.91 700.757 3732
2038.19 702.259 3740
2061.36 707.141 3766
2074.77 708.643 3774
2093.73 712.023 3792
2126.64 720.097 3835
2135.81 720.097 3835
2165.12 726.857 3871
2189.54 731.926 3898
2214.1 736.996 3925
2223.48 736.996 3925
2238.56 738.874 3935
2253.11 740.564 3944
2262.54 740.564 3944
2271.97 740.564 3944
2281.4 740.564 3944
2285.61 738.874 3935
2295.02 738.874 3935
2304.42 738.874 3935
2313.83 738.874 3935
2323.24 738.874 3935
2332.65 738.874 3935
2336.11 736.996 3925
2345.5 736.996 3925
2360.88 738.874 3935
2375.71 740.564 3944
2396.64 744.131 3963
2406.11 744.131 3963
2421.08 745.821 3972
2442.2 749.389 3991
2451.74 749.389 3991
2461.29 749.389 3991
2470.83 749.389 3991
2480.38 749.389 3991
2489.92 749.389 3991
2493.83 747.699 3982
2503.35 747.699 3982
2506.56 745.821 3972
2516.06 745.821 3972
2507.75 740.564 3944
2499.31 735.306 3916
2479.85 726.857 3871
2489.11 726.857 3871
2475.13 720.097 3835
2461.63 713.525 3800
2465.51 712.023 3792
2457.61 707.141 3766
2466.62 707.141 3766
2458.53 702.259 3740
2456.92 699.254 3724
2454.57 696.062 3707
2463.43 696.062 3707
2466.96 694.56 3699
2475.81 694.56 3699
2446.37 683.857 3642
2455.08 683.857 3642
2459.05 682.543 3635
2462.31 681.041 3627
529.172 137.635 733
530.925 137.635 733
532.678 137.635 733
533.702 137.447 732
535.452 137.447 732
536.469 137.26 731
537.481 137.072 730
537.749 136.696 728
539.49 136.696 728
540.487 136.509 727
541.48 136.321 726
543.216 136.321 726
545.703 136.509 727
548.194 136.696 728
549.935 136.696 728
551.676 136.696 728
552.656 136.509 727
554.395 136.509 727
556.133 136.509 727
-2370.46 602.063 3166
-2362.89 602.063 3166
-2346.39 599.781 3154
-2329.95 597.499 3142
-2322.44 597.499 3142
-2314.93 597.499 3142
-2307.41 597.499 3142
-2299.9 597.499 3142
-2288.01 596.358 3136
-2280.51 596.358 3136
-2273.01 596.358 3136
-2278.51 599.781 3154
-2309.85 610.05 3208
-2320.12 614.804 3233
-2312.39 614.804 3233
-2322.48 619.558 3258
-2385.03 638.385 3357
-2377 638.385 3357
-2447.3 659.493 3468
-2465.03 666.529 3505
-2498.7 677.939 3565
-2490.18 677.939 3565
-2508.11 685.165 3603
-2516.14 689.729 3627
-2535.12 697.336 3667
-2526.35 697.336 3667
-2523.07 698.857 3675
-2514.29 698.857 3675
-2505.5 698.857 3675
-2496.71 698.857 3675
-2482.51 697.336 3667
-2467.67 695.624 3658
-2458.92 695.624 3658
-2444.81 694.103 3650
-2426.07 691.251 3635
-2422.04 692.582 3642
-2418.63 694.103 3650
-2409.9 694.103 3650
-2401.17 694.103 3650
-2392.44 694.103 3650
-2388.94 695.624 3658
-2380.19 695.624 3658
-2377.28 697.336 3667
-2373.68 698.857 3675
-2364.89 698.857 3675
-2356.1 698.857 3675
-2347.31 698.857 3675
-2327.71 695.624 3658
-2318.96 695.624 3658
-2310.21 695.624 3658
-2296.43 694.103 3650
-2287.7 694.103 3650
-2294.58 698.857 3675
-2285.8 698.857 3675
-2302.41 706.654 3716
-2298.46 708.175 3724
-2309.85 714.451 3757
-2300.86 714.451 3757
-2291.88 714.451 3757
-2262.84 708.175 3724
-2253.94 708.175 3724
-2229.96 703.421 3699
-2221.12 703.421 3699
-2207.49 701.9 3691
-1964.28 709.697 3732
-1955.35 709.697 3732
-1946.43 709.697 3732
-1950.48 714.451 3757
-1950.28 717.684 3774
-1941.26 717.684 3774
-1936.84 719.395 3783
-1932.38 721.107 3792
-1923.31 721.107 3792
-1914.25 721.107 3792
-1905.18 721.107 3792
-1862.12 732.707 3853
-1852.9 732.707 3853
-1843.69 732.707 3853
-1821.62 727.572 3826
-1812.47 727.572 3826
-1824.53 736.13 3871
-1823.72 739.553 3889
-1814.42 739.553 3889
-1805.12 739.553 3889
-1795.82 739.553 3889
-1786.52 739.553 3889
-1777.22 739.553 3889
-1767.92 739.553 3889
-1758.62 739.553 3889
-1749.32 739.553 3889
-1715.86 729.284 3835
-1699.12 726.051 3818
-1689.99 726.051 3818
-1680.86 726.051 3818
-1671.73 726.051 3818
-1662.6 726.051 3818
-1653.47 726.051 3818
-1644.34 726.051 3818
-1635.21 726.051 3818
-1622.25 724.339 3809
-1609.33 722.628 3800
-1604.03 724.339 3809
-1602.04 727.572 3826
-1592.89 727.572 3826
-1587.47 729.284 3835
-1582 730.995 3844
-1572.81 730.995 3844
-1563.62 730.995 3844
-1550.79 729.284 3835
-1527.55 722.628 3800
-1518.46 722.628 3800
-1509.37 722.628 3800
-1500.28 722.628 3800
-1480.99 717.684 3774
-1471.97 717.684 3774
-1449.77 711.218 3740
-1428.11 704.943 3707
-1428.82 709.697 3732
-1422.93 711.218 3740
-1413.99 711.218 3740
-1408.43 712.929 3749
-1405.81 716.162 3766
-1396.8 716.162 3766
-1387.8 716.162 3766
-1378.79 716.162 3766
-1369.79 716.162 3766
-1360.78 716.162 3766
-1345.67 712.929 3749
-1321.73 704.943 3707
-1312.87 704.943 3707
-1304 704.943 3707
-1295.14 704.943 3707
-1286.28 704.943 3707
-1277.41 704.943 3707
-1268.55 704.943 3707
-1251.53 700.379 3683
-583.254 338.304 1779
-579 338.304 1779
-574.746 338.304 1779
-568.568 337.163 1773
-563.692 336.783 1771
-559.457 336.783 1771
-554.595 336.402 1769
-550.987 336.783 1771
-546.752 336.783 1771
-542.517 336.783 1771
-538.282 336.783 1771
-534.65 337.163 1773
-530.41 337.163 1773
-526.17 337.163 1773
-521.93 337.163 1773
-515.939 336.022 1767
-511.713 336.022 1767
-507.488 336.022 1767
-502.123 335.261 1763
-497.907 335.261 1763
-494.251 335.642 1765
-490.031 335.642 1765
-485.81 335.642 1765
-481.589 335.642 1765
-478.992 336.783 1771
-474.757 336.783 1771
-470.522 336.783 1771
-466.287 336.783 1771
-461.53 336.402 1769
-457.3 336.402 1769
-452.557 336.022 1767
-447.063 335.071 1762
-441.342 333.93 1756
-437.142 333.93 1756
-431.711 332.979 1751
-425.082 331.078 1741
-418.743 329.366 1732
-413.404 328.415 1727
-409.274 328.415 1727
-404.206 327.655 1723
-400.086 327.655 1723
-395.736 327.465 1722
-391.618 327.465 1722
-385.925 326.133 1715
-380.488 324.992 1709
-375.741 324.422 1706
-371.661 324.422 1706
-366.72 323.661 1702
-362.01 323.091 1699
-356.894 322.14 1694
-352.843 322.14 1694
-347.969 321.379 1690
-343.928 321.379 1690
-339.886 321.379 1690
-335.845 321.379 1690
-331.804 321.379 1690
-327.762 321.379 1690
-323.721 321.379 1690
-319.68 321.379 1690
-315.638 321.379 1690
-311.597 321.379 1690
-307.556 321.379 1690
-303.335 321.189 1689
-299.296 321.189 1689
-294.907 320.809 1687
-290.873 320.809 1687
-286.499 320.428 1685
-282.47 320.428 1685
-278.44 320.428 1685
-274.411 320.428 1685
-270.382 320.428 1685
-266.352 320.428 1685
-262.323 320.428 1685
-258.294 320.428 1685
-254.566 320.809 1687
-250.532 320.809 1687
-246.498 320.809 1687
-242.464 320.809 1687
-238.147 320.428 1685
-234.396 320.809 1687
-230.361 320.809 1687
-226.73 321.379 1690
-222.688 321.379 1690
-218.906 321.76 1692
-214.86 321.76 1692
-210.814 321.76 1692
-207.012 322.14 1694
-203.321 322.71 1697
-199.263 322.71 1697
-195.205 322.71 1697
-191.597 323.471 1701
-187.86 324.042 1704
-184.001 324.422 1706
-179.922 324.422 1706
-176.357 325.373 1711
-172.769 326.324 1716
-169.354 327.655 1723
-165.234 327.655 1723
-161.3 328.035 1725
-157.175 328.035 1725
-153.228 328.415 1727
-149.098 328.415 1727
-145.136 328.796 1729
-141.002 328.796 1729
-136.867 328.796 1729
-132.732 328.796 1729
-128.598 328.796 1729
-124.607 329.176 1731
-120.955 330.507 1738
-116.799 330.507 1738
-113.356 332.599 1749
-109.486 333.55 1754
-105.651 334.691 1760
-101.443 334.691 1760
-97.8418 336.783 1771
-93.7125 337.163 1773
-89.4727 337.163 1773
-85.2329 337.163 1773
-152.605 753.625 3963
-143.454 755.336 3972
-133.955 755.336 3972
-124.457 755.336 3972
-114.698 753.625 3963
-105.222 753.625 3963
-95.7449 753.625 3963
-85.6586 748.3 3935
-75.8807 744.687 3916
-66.5163 744.687 3916
-56.4952 736.13 3871
-46.5917 726.051 3818
-37.4617 726.051 3818
-28.3317 726.051 3818
-19.2017 726.051 3818
-9.75783 703.421 3699
-0.912401 703.421 3699
7.93303 703.421 3699
16.7785 703.421 3699
25.6239 703.421 3699
34.4693 703.421 3699
43.0337 698.857 3675
51.8218 698.857 3675
59.9501 691.251 3635
68.6425 691.251 3635
77.1647 689.729 3627
85.8379 689.729 3627
94.5112 689.729 3627
102.957 688.208 3619
111.364 686.687 3611
119.999 686.687 3611
128.634 686.687 3611
137.269 686.687 3611
145.904 686.687 3611
154.882 688.208 3619
163.536 688.208 3619
172.19 688.208 3619
180.444 686.687 3611
189.079 686.687 3611
196.838 683.644 3595
205.035 682.313 3588
213.615 682.313 3588
222.195 682.313 3588
231.225 683.644 3595
239.822 683.644 3595
248.971 685.165 3603
257.587 685.165 3603
267.385 688.208 3619
276.039 688.208 3619
285.323 689.729 3627
294.645 691.251 3635
303.337 691.251 3635
312.029 691.251 3635
321.339 692.582 3642
330.048 692.582 3642
338.758 692.582 3642
347.467 692.582 3642
356.176 692.582 3642
364.184 691.251 3635
372.876 691.251 3635
379.889 688.208 3619
385.966 683.644 3595
392.039 679.27 3572
400.58 679.27 3572
408.32 677.939 3565
415.91 676.418 3557
422.626 673.565 3542
428.418 669.382 3520
436.836 669.382 3520
443.356 666.529 3505
448 661.014 3476
452.505 655.5 3447
460.748 655.5 3447
468.038 654.168 3440
471.419 647.513 3405
473.646 639.526 3363
481.688 639.526 3363
484.924 633.25 3330
493.923 634.581 3337
502.805 635.722 3343
511.869 637.054 3350
525.156 643.519 3384
533.248 643.519 3384
542.46 644.85 3391
555.115 650.175 3419
564.445 651.506 3426
572.637 651.506 3426
584.39 655.5 3447
593.836 656.831 3454
603.316 658.162 3461
611.593 658.162 3461
622.555 661.014 3476
630.867 661.014 3476
639.18 661.014 3476
647.492 661.014 3476
655.804 661.014 3476
664.116 661.014 3476
672.428 661.014 3476
680.74 661.014 3476
689.053 661.014 3476
697.365 661.014 3476
705.677 661.014 3476
713.989 661.014 3476
722.301 661.014 3476
730.614 661.014 3476
738.926 661.014 3476
747.238 661.014 3476
753.811 659.493 3468
759.028 656.831 3454
767.287 656.831 3454
775.547 656.831 3454
783.806 656.831 3454
792.066 656.831 3454
798.703 655.5 3447
808.585 656.831 3454
816.845 656.831 3454
825.104 656.831 3454
835.053 658.162 3461
845.035 659.493 3468
853.328 659.493 3468
861.621 659.493 3468
875.432 663.677 3490
887.576 666.529 3505
895.958 666.529 3505
908.21 669.382 3520
920.273 672.044 3534
934.768 676.418 3557
943.274 676.418 3557
955.793 679.27 3572
968.654 682.313 3588
981.32 685.165 3603
989.936 685.165 3603
1005.2 689.729 3627
1013.88 689.729 3627
1026.78 692.582 3642
1035.49 692.582 3642
1046.49 694.103 3650
1057.53 695.624 3658
1066.28 695.624 3658
1075.03 695.624 3658
1083.77 695.624 3658
1095.21 697.336 3667
1106.39 698.857 3675
1117.6 700.379 3683
1126.41 700.379 3683
1135.22 700.379 3683
1144.02 700.379 3683
1152.83 700.379 3683
1159.11 698.857 3675
1167.9 698.857 3675
1174.13 697.336 3667
1182.9 697.336 3667
1191.67 697.336 3667
1197.49 695.624 3658
1206.24 695.624 3658
1214.98 695.624 3658
1223.73 695.624 3658
1229.78 694.103 3650
1238.51 694.103 3650
1247.24 694.103 3650
1253.22 692.582 3642
1264.7 694.103 3650
1273.43 694.103 3650
1282.15 694.103 3650
1290.88 694.103 3650
1299.61 694.103 3650
1305.47 692.582 3642
1317.07 694.103 3650
1325.79 694.103 3650
1334.52 694.103 3650
1343.25 694.103 3650
1351.98 694.103 3650
1360.71 694.103 3650
1369.44 694.103 3650
1381.18 695.624 3658
1389.93 695.624 3658
1398.68 695.624 3658
1404.35 694.103 3650
1413.08 694.103 3650
1424.92 695.624 3658
1433.67 695.624 3658
1442.42 695.624 3658
1451.16 695.624 3658
1463.5 697.336 3667
1472.27 697.336 3667
1481.04 697.336 3667
1486.15 695.624 3658
1494.9 695.624 3658
1503.65 695.624 3658
1512.4 695.624 3658
1517.82 694.103 3650
1523.2 692.582 3642
1531.91 692.582 3642
1540.62 692.582 3642
1549.33 692.582 3642
1558.04 692.582 3642
1566.74 692.582 3642
1578.91 694.103 3650
1587.64 694.103 3650
1596.37 694.103 3650
1612.57 697.336 3667
1628.42 700.379 3683
1637.22 700.379 3683
1653.18 703.421 3699
1673.26 708.175 3724
1697.07 714.451 3757
1706.06 714.451 3757
1726.91 719.395 3783
1772.21 734.418 3862
1785.59 736.13 3871
1794.85 736.13 3871
1804.11 736.13 3871
1813.37 736.13 3871
1822.62 736.13 3871
1848.91 742.976 3907
1858.26 742.976 3907
1867.6 742.976 3907
1876.94 742.976 3907
1886.29 742.976 3907
1886.9 739.553 3889
1883.03 734.418 3862
1874.63 727.572 3826
1883.78 727.572 3826
1880.06 722.628 3800
1855.34 709.697 3732
1856.27 706.654 3716
1865.16 706.654 3716
1844.8 695.624 3658
1829.73 686.687 3611
1826.65 682.313 3588
1831.14 680.792 3580
1839.7 680.792 3580
1848.26 680.792 3580
1864.6 683.644 3595
1881.54 686.687 3611
1894.36 688.208 3619
1903.02 688.208 3619
1915.9 689.729 3627
1928.81 691.251 3635
1949.76 695.624 3658
1958.51 695.624 3658
1972.1 697.336 3667
1998.15 703.421 3699
2024.91 709.697 3732
2038.19 711.218 3740
2061.36 716.162 3766
2074.77 717.684 3774
2093.73 721.107 3792
2126.64 729.284 3835
2135.81 729.284 3835
2165.12 736.13 3871
2189.54 741.264 3898
2214.1 746.398 3925
2223.48 746.398 3925
2238.56 748.3 3935
2253.11 750.012 3944
2262.54 750.012 3944
2271.97 750.012 3944
2281.4 750.012 3944
2285.61 748.3 3935
2295.02 748.3 3935
2304.42 748.3 3935
2313.83 748.3 3935
2323.24 748.3 3935
2332.65 748.3 3935
2336.11 746.398 3925
2345.5 746.398 3925
2360.88 748.3 3935
2375.71 750.012 3944
2396.64 753.625 3963
2406.11 753.625 3963
2427.17 757.238 3982
2442.2 758.949 3991
2451.74 758.949 3991
2461.29 758.949 3991
2470.83 758.949 3991
2480.38 758.949 3991
2489.92 758.949 3991
2493.83 757.238 3982
2503.35 757.238 3982
2506.56 755.336 3972
2516.06 755.336 3972
2513.48 751.723 3953
2499.31 744.687 3916
2479.85 736.13 3871
2489.11 736.13 3871
2475.13 729.284 3835
2461.63 722.628 3800
2465.51 721.107 3792
2457.61 716.162 3766
2466.62 716.162 3766
2469.71 714.451 3757
2462.2 709.697 3732
2465.83 708.175 3724
2474.73 708.175 3724
2466.96 703.421 3699
2475.81 703.421 3699
2446.37 692.582 3642
2455.08 692.582 3642
2459.05 691.251 3635
2462.31 689.729 3627
529.172 139.391 733
530.925 139.391 733
532.678 139.391 733
533.702 139.201 732
535.452 139.201 732
536.469 139.011 731
537.481 138.821 730
537.749 138.44 728
539.49 138.44 728
540.487 138.25 727
541.48 138.06 726
543.216 138.06 726
545.703 138.25 727
548.194 138.44 728
549.935 138.44 728
551.676 138.44 728
