ply
format ascii 1.0
comment File generated
element vertex 2150
property float x
property float y
property float z
end_header
-254.921 -217.575 1663
-250.945 -217.575 1663
-246.968 -217.575 1663
-242.845 -217.444 1662
-238.583 -217.183 1660
-234.331 -216.921 1658
-230.227 -216.79 1657
-226.265 -216.79 1657
-222.303 -216.79 1657
-218.077 -216.529 1655
-213.213 -215.613 1648
-209.272 -215.613 1648
-204.958 -215.22 1645
-200.902 -215.089 1644
-196.132 -214.174 1637
-192.217 -214.174 1637
-188.303 -214.174 1637
-184.276 -214.043 1636
-180.143 -213.781 1634
-176.236 -213.781 1634
-172.117 -213.519 1632
-168.112 -213.389 1631
-164.211 -213.389 1631
-160.311 -213.389 1631
-156.411 -213.389 1631
-152.324 -213.127 1629
-148.428 -213.127 1629
-144.533 -213.127 1629
-140.551 -212.996 1628
-136.658 -212.996 1628
-132.847 -213.127 1629
-129.584 -214.174 1637
-126.054 -214.828 1642
-122.127 -214.828 1642
-118.345 -215.089 1644
-114.692 -215.613 1648
-110.885 -215.874 1650
-106.94 -215.874 1650
-103.181 -216.267 1653
-99.7686 -217.444 1662
-96.0824 -218.099 1667
-92.0961 -218.099 1667
-88.2684 -218.491 1670
-84.4263 -218.884 1673
-80.666 -219.538 1678
-76.6534 -219.538 1678
-73.1603 -221.108 1690
-69.119 -221.108 1690
-145.019 -492.717 3766
-136.014 -492.717 3766
-127.008 -492.717 3766
-118.253 -493.764 3774
-109.489 -494.941 3783
-100.442 -494.941 3783
-91.3961 -494.941 3783
-82.3498 -494.941 3783
-73.3035 -494.941 3783
-64.2572 -494.941 3783
-55.2109 -494.941 3783
-46.1646 -494.941 3783
-36.9515 -492.717 3766
-27.9459 -492.717 3766
-18.8547 -490.493 3749
-9.84488 -488.269 3732
-0.920541 -488.269 3732
8.0038 -488.269 3732
17.0053 -490.493 3749
25.9703 -490.493 3749
35.0937 -492.717 3766
44.0993 -492.717 3766
53.105 -492.717 3766
62.1106 -492.717 3766
70.9463 -491.539 3757
79.7602 -490.493 3749
88.7252 -490.493 3749
97.2472 -488.269 3732
105.944 -487.222 3724
114.602 -486.175 3716
123.489 -486.175 3716
132.375 -486.175 3716
141.869 -488.269 3732
150.793 -488.269 3732
159.718 -488.269 3732
168.642 -488.269 3732
178.756 -491.539 3757
187.74 -491.539 3757
196.724 -491.539 3757
204.339 -488.269 3732
212.807 -487.222 3724
220.7 -484.998 3707
229.069 -483.951 3699
237.914 -483.951 3699
246.226 -482.904 3691
253.394 -479.764 3667
262.163 -479.764 3667
270.932 -479.764 3667
279.701 -479.764 3667
288.469 -479.764 3667
298.535 -481.858 3683
308.01 -482.904 3691
316.836 -482.904 3691
327.074 -484.998 3707
337.48 -487.222 3724
346.385 -487.222 3724
355.29 -487.222 3724
363.413 -486.175 3716
372.299 -486.175 3716
381.185 -486.175 3716
387.447 -482.904 3691
394.555 -480.811 3675
403.343 -480.811 3675
412.131 -480.811 3675
420.919 -480.811 3675
429.707 -480.811 3675
440.405 -482.904 3691
449.231 -482.904 3691
458.057 -482.904 3691
466.883 -482.904 3691
475.71 -482.904 3691
483.486 -481.858 3683
492.293 -481.858 3683
498.923 -479.764 3667
507.692 -479.764 3667
515.194 -478.587 3658
523.941 -478.587 3658
532.688 -478.587 3658
1182.13 -534.976 4089
1191.91 -534.976 4089
1201.69 -534.976 4089
1199.62 -529.743 4049
1209.3 -529.743 4049
1218.98 -529.743 4049
1228.66 -529.743 4049
1241.41 -531.051 4059
1260.36 -534.976 4089
1270.14 -534.976 4089
1279.91 -534.976 4089
1289.69 -534.976 4089
1299.47 -534.976 4089
1309.25 -534.976 4089
1319.03 -534.976 4089
1328.8 -534.976 4089
1338.58 -534.976 4089
1348.36 -534.976 4089
1358.14 -534.976 4089
1367.92 -534.976 4089
1377.69 -534.976 4089
1387.47 -534.976 4089
1397.25 -534.976 4089
1407.03 -534.976 4089
1413.34 -533.668 4079
1416.12 -531.051 4059
1425.82 -531.051 4059
1431.99 -529.743 4049
1441.68 -529.743 4049
1451.36 -529.743 4049
1461.04 -529.743 4049
1470.72 -529.743 4049
1462.86 -523.463 4001
1754.74 -533.668 4079
1768.82 -534.976 4089
1778.59 -534.976 4089
1788.37 -534.976 4089
1789.36 -532.359 4069
1799.09 -532.359 4069
1799.93 -529.743 4049
1809.61 -529.743 4049
1814.8 -528.434 4039
1824.46 -528.434 4039
1830.03 -527.257 4030
1830.53 -524.64 4010
1805.71 -514.828 3935
1828.03 -518.491 3963
1837.51 -518.491 3963
1846.99 -518.491 3963
1860.68 -519.669 3972
1870.18 -519.669 3972
1879.67 -519.669 3972
2422.87 -516.005 3944
2432.3 -516.005 3944
2441.73 -516.005 3944
2439.36 -513.519 3925
2448.74 -513.519 3925
2452.49 -512.342 3916
2461.86 -512.342 3916
2471.22 -512.342 3916
2504.02 -517.183 3953
2513.48 -517.183 3953
2541.44 -520.977 3982
2550.96 -520.977 3982
2560.48 -520.977 3982
2480.94 -502.922 3844
2490.13 -502.922 3844
2776.79 -509.987 3898
2786.11 -509.987 3898
2795.43 -509.987 3898
2772.37 -504.099 3853
2788.08 -505.277 3862
2842.95 -513.519 3925
2893.76 -520.977 3982
2903.28 -520.977 3982
2940.6 -525.948 4020
2993.51 -533.668 4079
3003.26 -533.668 4079
3013.02 -533.668 4079
3022.77 -533.668 4079
3032.53 -533.668 4079
3042.28 -533.668 4079
3044.55 -532.359 4069
3031.76 -528.434 4039
3034.65 -527.257 4030
3044.28 -527.257 4030
3038.76 -524.64 4010
3048.35 -524.64 4010
3036.59 -520.977 3982
3046.11 -520.977 3982
-2476.41 -469.824 3658
-2529.05 -481.512 3749
-2596.05 -496.025 3862
-2586.81 -496.025 3862
-2577.58 -496.025 3862
-2556.37 -493.714 3844
-2547.18 -493.714 3844
-2537.99 -493.714 3844
-2558.4 -499.493 3889
-2549.1 -499.493 3889
-2625.35 -516.319 4020
-2615.74 -516.319 4020
-2606.12 -516.319 4020
-2449.25 -487.035 3792
-2440.18 -487.035 3792
-2382.39 -477.274 3716
-1214.97 -423.458 3297
-1207.08 -423.458 3297
-1199.2 -423.458 3297
-1191.32 -423.458 3297
-1183.43 -423.458 3297
-1175.55 -423.458 3297
-1167.66 -423.458 3297
-1161.89 -424.229 3303
-1163.43 -427.697 3330
-1155.46 -427.697 3330
-1147.5 -427.697 3330
-1139.54 -427.697 3330
-1131.57 -427.697 3330
-1123.61 -427.697 3330
-1108.95 -425.128 3310
-1094.38 -422.559 3290
-1086.51 -422.559 3290
-1076.68 -421.789 3284
-1062.64 -419.348 3265
-1048.69 -416.908 3246
-1040.93 -416.908 3246
-1033.17 -416.908 3246
-1023.2 -416.009 3239
-549.892 -225.279 1754
-545.698 -225.279 1754
-540.886 -225.022 1752
-536.696 -225.022 1752
-531.595 -224.637 1749
-525.603 -223.866 1743
-520.538 -223.481 1740
-516.377 -223.481 1740
-511.627 -223.224 1738
-505.719 -222.454 1732
-501.288 -222.325 1731
-497.148 -222.325 1731
-491.3 -221.555 1725
-485.763 -220.912 1720
-481.09 -220.656 1718
-476.427 -220.399 1716
-472.323 -220.399 1716
-467.401 -220.013 1713
-461.952 -219.371 1708
-456.796 -218.857 1704
-452.721 -218.857 1704
-448.12 -218.601 1702
-441.962 -217.573 1694
-436.878 -217.059 1690
-432.836 -217.059 1690
-427.526 -216.417 1685
-421.486 -215.39 1677
-417.476 -215.39 1677
-413.466 -215.39 1677
-408.235 -214.747 1672
-403.269 -214.234 1668
-398.084 -213.591 1663
-394.107 -213.591 1663
-389.896 -213.463 1662
-385.457 -213.206 1660
-380.798 -212.821 1657
-376.381 -212.564 1655
-372.423 -212.564 1655
-368.02 -212.307 1653
-364.068 -212.307 1653
-360.115 -212.307 1653
-356.162 -212.307 1653
-351.996 -212.179 1652
-348.256 -212.307 1653
-344.303 -212.307 1653
-340.351 -212.307 1653
-336.398 -212.307 1653
-332.847 -212.564 1655
-329.287 -212.821 1657
-325.325 -212.821 1657
-321.362 -212.821 1657
-317.591 -212.949 1658
-314.005 -213.206 1660
-310.035 -213.206 1660
-306.066 -213.206 1660
-302.096 -213.206 1660
-298.665 -213.591 1663
-294.689 -213.591 1663
-290.712 -213.591 1663
-287.08 -213.848 1665
-283.099 -213.848 1665
-279.117 -213.848 1665
-274.805 -213.591 1663
-270.665 -213.463 1662
-266.691 -213.463 1662
-262.875 -213.591 1663
-258.898 -213.591 1663
-254.921 -213.591 1663
-250.492 -213.206 1660
-246.522 -213.206 1660
-242.553 -213.206 1660
-238.296 -212.949 1658
-234.19 -212.821 1657
-230.227 -212.821 1657
-226.265 -212.821 1657
-222.034 -212.564 1655
-217.813 -212.307 1653
-213.213 -211.665 1648
-209.272 -211.665 1648
-204.958 -211.28 1645
-200.902 -211.151 1644
-196.132 -210.252 1637
-192.217 -210.252 1637
-188.303 -210.252 1637
-184.276 -210.124 1636
-180.143 -209.867 1634
-176.236 -209.867 1634
-172.117 -209.61 1632
-168.112 -209.481 1631
-164.211 -209.481 1631
-160.311 -209.481 1631
-156.219 -209.225 1629
-152.324 -209.225 1629
-148.428 -209.225 1629
-144.533 -209.225 1629
-140.551 -209.096 1628
-136.658 -209.096 1628
-132.847 -209.225 1629
-129.584 -210.252 1637
-125.9 -210.637 1640
-121.978 -210.637 1640
-118.201 -210.894 1642
-114.622 -211.536 1647
-110.751 -211.665 1648
-106.81 -211.665 1648
-102.994 -211.922 1650
-99.6485 -213.206 1660
-95.7943 -213.463 1662
-91.8199 -213.463 1662
-88.1098 -214.105 1667
-84.174 -214.234 1668
-80.3776 -214.747 1672
-76.3793 -214.747 1672
-72.3811 -214.747 1672
-145.019 -483.695 3766
-136.014 -483.695 3766
-127.008 -483.695 3766
-118.253 -484.723 3774
-109.489 -485.879 3783
-100.442 -485.879 3783
-91.3961 -485.879 3783
-82.3498 -485.879 3783
-73.3035 -485.879 3783
-64.2572 -485.879 3783
-55.2109 -485.879 3783
-46.0548 -484.723 3774
-36.9515 -483.695 3766
-27.9459 -483.695 3766
-18.8547 -481.512 3749
-9.84488 -479.329 3732
-0.920541 -479.329 3732
7.98665 -478.301 3724
16.9644 -480.356 3740
25.9079 -480.356 3740
34.9352 -481.512 3749
43.9002 -481.512 3749
52.8652 -481.512 3749
61.8302 -481.512 3749
70.7952 -481.512 3749
79.3985 -479.329 3732
88.3229 -479.329 3732
96.8303 -477.274 3716
105.46 -476.118 3707
114.325 -476.118 3707
123.489 -477.274 3716
132.375 -477.274 3716
141.261 -477.274 3716
150.47 -478.301 3724
159.718 -479.329 3732
168.642 -479.329 3732
177.566 -479.329 3732
186.491 -479.329 3732
195.415 -479.329 3732
203.901 -478.301 3724
211.835 -476.118 3707
220.223 -475.09 3699
228.573 -474.063 3691
237.4 -474.063 3691
244.625 -470.98 3667
253.394 -470.98 3667
261.519 -469.824 3658
270.267 -469.824 3658
279.014 -469.824 3658
288.469 -470.98 3667
297.887 -472.008 3675
308.01 -474.063 3691
316.836 -474.063 3691
326.368 -475.09 3699
335.939 -476.118 3707
344.803 -476.118 3707
353.668 -476.118 3707
360.968 -474.063 3691
369.794 -474.063 3691
378.62 -474.063 3691
385.767 -472.008 3675
394.555 -472.008 3675
401.478 -469.824 3658
410.225 -469.824 3658
420.003 -470.98 3667
429.707 -472.008 3675
438.495 -472.008 3675
449.231 -474.063 3691
458.057 -474.063 3691
466.883 -474.063 3691
475.71 -474.063 3691
483.486 -473.035 3683
492.293 -473.035 3683
498.923 -470.98 3667
507.692 -470.98 3667
515.194 -469.824 3658
523.941 -469.824 3658
532.688 -469.824 3658
1182.13 -525.181 4089
1191.91 -525.181 4089
1201.69 -525.181 4089
1199.62 -520.043 4049
1209.3 -520.043 4049
1218.98 -520.043 4049
1228.66 -520.043 4049
1241.41 -521.328 4059
1260.36 -525.181 4089
1270.14 -525.181 4089
1279.91 -525.181 4089
1289.69 -525.181 4089
1299.47 -525.181 4089
1309.25 -525.181 4089
1319.03 -525.181 4089
1328.8 -525.181 4089
1338.58 -525.181 4089
1348.36 -525.181 4089
1358.14 -525.181 4089
1367.92 -525.181 4089
1377.69 -525.181 4089
1387.47 -525.181 4089
1397.25 -525.181 4089
1407.03 -525.181 4089
1409.88 -522.612 4069
1416.12 -521.328 4059
1425.82 -521.328 4059
1431.99 -520.043 4049
1441.68 -520.043 4049
1451.36 -520.043 4049
1461.04 -520.043 4049
1470.72 -520.043 4049
1462.86 -513.878 4001
1768.82 -525.181 4089
1778.59 -525.181 4089
1788.37 -525.181 4089
1789.36 -522.612 4069
1799.09 -522.612 4069
1799.93 -520.043 4049
1809.61 -520.043 4049
1814.8 -518.759 4039
1824.46 -518.759 4039
1830.03 -517.603 4030
1830.53 -515.034 4010
1805.71 -505.401 3935
1828.03 -508.998 3963
1837.51 -508.998 3963
1846.99 -508.998 3963
1860.68 -510.154 3972
1870.18 -510.154 3972
1879.67 -510.154 3972
2422.87 -506.557 3944
2432.3 -506.557 3944
2441.73 -506.557 3944
2439.36 -504.117 3925
2448.74 -504.117 3925
2452.49 -502.961 3916
2461.86 -502.961 3916
2471.22 -502.961 3916
2504.02 -507.713 3953
2513.48 -507.713 3953
2522.93 -507.713 3953
2520.85 -505.401 3935
2530.26 -505.401 3935
2480.94 -493.714 3844
2490.13 -493.714 3844
2776.79 -500.649 3898
2786.11 -500.649 3898
2795.43 -500.649 3898
2772.37 -494.869 3853
2788.08 -496.025 3862
2842.95 -504.117 3925
2872.68 -507.713 3953
2882.14 -507.713 3953
2891.59 -507.713 3953
2950.21 -516.319 4020
2995.9 -522.612 4069
3005.63 -522.612 4069
3015.36 -522.612 4069
3025.09 -522.612 4069
3034.82 -522.612 4069
3037.07 -521.328 4059
3031.76 -518.759 4039
3027.12 -516.319 4020
3036.73 -516.319 4020
3017.55 -511.438 3982
3027.07 -511.438 3982
3000.75 -505.401 3935
3010.16 -505.401 3935
-2476.41 -461.061 3658
-2517.59 -470.389 3732
-2508.66 -470.389 3732
-2499.74 -470.389 3732
-2524.85 -476.817 3783
-2539.08 -481.228 3818
-2529.95 -481.228 3818
-2520.82 -481.228 3818
-2528.79 -484.505 3844
-2525.5 -485.64 3853
-2516.29 -485.64 3853
-2507.07 -485.64 3853
-2469.34 -480.094 3809
-2449.25 -477.951 3792
-2440.18 -477.951 3792
-2382.39 -468.372 3716
-1214.97 -415.56 3297
-1207.08 -415.56 3297
-1199.2 -415.56 3297
-1191.32 -415.56 3297
-1183.43 -415.56 3297
-1173.05 -414.678 3290
-1158.46 -412.283 3271
-1150.63 -412.283 3271
-1151.9 -415.56 3297
-1144.01 -415.56 3297
-1138.19 -416.317 3303
-1135.09 -418.081 3317
-1127.16 -418.081 3317
-1119.22 -418.081 3317
-1106.6 -416.317 3303
-1092.38 -413.922 3284
-1084.53 -413.922 3284
-1070.45 -411.527 3265
-1060.36 -410.645 3258
-1048.69 -409.132 3246
-1038.69 -408.25 3239
-1030.94 -408.25 3239
-1017.51 -405.981 3221
-549.892 -221.078 1754
-545.698 -221.078 1754
-541.503 -221.078 1754
-537.309 -221.078 1754
-530.987 -220.195 1747
-525 -219.439 1741
-520.538 -219.313 1740
-516.377 -219.313 1740
-511.627 -219.061 1738
-505.719 -218.305 1732
-501.288 -218.179 1731
-497.148 -218.179 1731
-491.3 -217.422 1725
-485.763 -216.792 1720
-480.53 -216.288 1716
-476.149 -216.162 1715
-472.048 -216.162 1715
-467.401 -215.91 1713
-461.952 -215.28 1708
-456.796 -214.775 1704
-452.721 -214.775 1704
-448.12 -214.523 1702
-441.962 -213.515 1694
-436.878 -213.011 1690
-432.836 -213.011 1690
-427.526 -212.381 1685
-421.486 -211.372 1677
-416.978 -211.12 1675
-412.973 -211.12 1675
-407.746 -210.49 1670
-403.028 -210.112 1667
-398.084 -209.608 1663
-394.107 -209.608 1663
-389.896 -209.482 1662
-385.457 -209.23 1660
-380.338 -208.599 1655
-375.926 -208.347 1653
-371.973 -208.347 1653
-368.02 -208.347 1653
-364.068 -208.347 1653
-360.115 -208.347 1653
-356.162 -208.347 1653
-351.996 -208.221 1652
-348.256 -208.347 1653
-344.303 -208.347 1653
-340.351 -208.347 1653
-336.398 -208.347 1653
-332.847 -208.599 1655
-329.287 -208.852 1657
-325.325 -208.852 1657
-321.362 -208.852 1657
-317.4 -208.852 1657
-314.005 -209.23 1660
-310.035 -209.23 1660
-306.066 -209.23 1660
-302.096 -209.23 1660
-298.665 -209.608 1663
-294.689 -209.608 1663
-290.712 -209.608 1663
-286.735 -209.608 1663
-282.759 -209.608 1663
-278.782 -209.608 1663
-274.805 -209.608 1663
-270.665 -209.482 1662
-266.691 -209.482 1662
-262.717 -209.482 1662
-258.431 -209.23 1660
-254.462 -209.23 1660
-250.492 -209.23 1660
-246.522 -209.23 1660
-242.261 -208.978 1658
-238.152 -208.852 1657
-233.907 -208.599 1655
-229.949 -208.599 1655
-225.992 -208.599 1655
-221.766 -208.347 1653
-217.681 -208.221 1652
-213.084 -207.591 1647
-209.145 -207.591 1647
-204.833 -207.213 1644
-200.413 -206.709 1640
-196.132 -206.331 1637
-192.217 -206.331 1637
-188.188 -206.205 1636
-184.05 -205.953 1634
-180.143 -205.953 1634
-176.236 -205.953 1634
-172.117 -205.7 1632
-168.112 -205.574 1631
-164.211 -205.574 1631
-160.311 -205.574 1631
-156.219 -205.322 1629
-152.23 -205.196 1628
-148.337 -205.196 1628
-144.444 -205.196 1628
-140.378 -204.944 1626
-136.658 -205.196 1628
-132.847 -205.322 1629
-129.505 -206.205 1636
-125.823 -206.583 1639
-121.904 -206.583 1639
-118.057 -206.709 1640
-114.483 -207.339 1645
-110.751 -207.717 1648
-106.81 -207.717 1648
-102.869 -207.717 1648
-99.4685 -208.852 1657
-95.7943 -209.482 1662
-91.8199 -209.482 1662
-88.0041 -209.86 1665
-84.1235 -210.112 1667
-80.3776 -210.742 1672
-76.3793 -210.742 1672
-72.3811 -210.742 1672
-145.019 -474.674 3766
-136.014 -474.674 3766
-127.008 -474.674 3766
-118.253 -475.682 3774
-109.489 -476.817 3783
-100.442 -476.817 3783
-91.3961 -476.817 3783
-82.3498 -476.817 3783
-73.3035 -476.817 3783
-64.2572 -476.817 3783
-55.2109 -476.817 3783
-46.1646 -476.817 3783
-37.03 -475.682 3774
-28.0052 -475.682 3774
-18.9402 -474.674 3766
-9.88973 -472.531 3749
-0.924734 -472.531 3749
8.02096 -471.397 3740
16.9644 -471.397 3740
25.9079 -471.397 3740
35.0098 -473.54 3757
43.9939 -473.54 3757
52.978 -473.54 3757
61.8302 -472.531 3749
70.7952 -472.531 3749
79.2283 -469.38 3724
88.1336 -469.38 3724
96.8303 -468.372 3716
105.46 -467.237 3707
114.325 -467.237 3707
123.489 -468.372 3716
132.375 -468.372 3716
141.261 -468.372 3716
150.47 -469.38 3724
159.375 -469.38 3724
168.28 -469.38 3724
177.186 -469.38 3724
186.091 -469.38 3724
194.996 -469.38 3724
202.971 -467.237 3707
211.835 -467.237 3707
220.223 -466.229 3699
228.078 -464.212 3683
236.885 -464.212 3683
244.625 -462.196 3667
252.772 -461.061 3658
260.947 -460.053 3650
269.676 -460.053 3650
278.404 -460.053 3650
288.469 -462.196 3667
297.887 -463.204 3675
306.675 -463.204 3675
315.463 -463.204 3675
324.251 -463.204 3675
334.489 -465.221 3691
343.315 -465.221 3691
352.142 -465.221 3691
359.403 -463.204 3675
368.191 -463.204 3675
376.979 -463.204 3675
384.927 -462.196 3667
393.696 -462.196 3667
400.599 -460.053 3650
410.225 -461.061 3658
420.003 -462.196 3667
428.772 -462.196 3667
438.495 -463.204 3675
449.231 -465.221 3691
458.057 -465.221 3691
466.883 -465.221 3691
475.71 -465.221 3691
483.486 -464.212 3683
492.293 -464.212 3683
500.012 -463.204 3675
508.8 -463.204 3675
517.588 -463.204 3675
526.376 -463.204 3675
535.164 -463.204 3675
543.952 -463.204 3675
1141.52 -510.344 4049
1151.21 -510.344 4049
1163.75 -511.604 4059
1182.13 -515.385 4089
1191.91 -515.385 4089
1201.69 -515.385 4089
1199.62 -510.344 4049
1209.3 -510.344 4049
1221.99 -511.604 4059
1231.7 -511.604 4059
1244.46 -512.865 4069
1260.36 -515.385 4089
1270.14 -515.385 4089
1279.91 -515.385 4089
1289.69 -515.385 4089
1299.47 -515.385 4089
1309.25 -515.385 4089
1319.03 -515.385 4089
1328.8 -515.385 4089
1338.58 -515.385 4089
1358.14 -515.385 4089
1367.92 -515.385 4089
1377.69 -515.385 4089
1387.47 -515.385 4089
1397.25 -515.385 4089
1407.03 -515.385 4089
1409.88 -512.865 4069
1419.61 -512.865 4069
1429.34 -512.865 4069
1435.53 -511.604 4059
1441.68 -510.344 4049
1447.77 -509.083 4039
1457.43 -509.083 4039
1467.09 -509.083 4039
1466.15 -505.428 4010
1768.82 -515.385 4089
1778.59 -515.385 4089
1788.37 -515.385 4089
1789.36 -512.865 4069
1799.09 -512.865 4069
1799.93 -510.344 4049
1809.61 -510.344 4049
1819.29 -510.344 4049
1828.97 -510.344 4049
1838.65 -510.344 4049
1839.66 -507.949 4030
1809.84 -497.109 3944
1828.03 -499.504 3963
1837.51 -499.504 3963
1846.99 -499.504 3963
1860.68 -500.639 3972
1870.18 -500.639 3972
1879.67 -500.639 3972
2422.87 -497.109 3944
2432.3 -497.109 3944
2441.73 -497.109 3944
2439.36 -494.715 3925
2448.74 -494.715 3925
2452.49 -493.58 3916
2461.86 -493.58 3916
2471.22 -493.58 3916
2480.58 -493.58 3916
2484.23 -492.446 3907
2493.57 -492.446 3907
2462.55 -484.505 3844
2471.75 -484.505 3844
2480.94 -484.505 3844
2490.13 -484.505 3844
2487.62 -482.236 3826
2748.3 -487.908 3871
2776.79 -491.311 3898
2786.11 -491.311 3898
2795.43 -491.311 3898
2772.37 -485.64 3853
2781.58 -485.64 3853
2842.95 -494.715 3925
2872.68 -498.244 3953
2882.14 -498.244 3953
2891.59 -498.244 3953
2928.93 -503.033 3991
2995.9 -512.865 4069
3005.63 -512.865 4069
3015.36 -512.865 4069
3025.09 -512.865 4069
3034.82 -512.865 4069
3037.07 -511.604 4059
3039.27 -510.344 4049
3027.12 -506.689 4020
3036.73 -506.689 4020
3017.55 -501.899 3982
2991.34 -495.975 3935
3000.75 -495.975 3935
3010.16 -495.975 3935
-2450.96 -444.509 3595
-2442.36 -444.509 3595
-2476.41 -452.299 3658
-2495.32 -457.368 3699
-2491.86 -458.357 3707
-2482.99 -458.357 3707
-2474.13 -458.357 3707
-2465.26 -458.357 3707
-2484.23 -463.55 3749
-2475.26 -463.55 3749
-2477.48 -465.652 3766
-2468.48 -465.652 3766
-2459.47 -465.652 3766
-2450.47 -465.652 3766
-2441.46 -465.652 3766
-2410.49 -461.448 3732
-2401.57 -461.448 3732
-2392.64 -461.448 3732
-2357.53 -456.379 3691
-2343.62 -455.39 3683
-1237.69 -412.608 3337
-1229.71 -412.608 3337
-1221.73 -412.608 3337
-1201.38 -408.404 3303
-1177.22 -402.84 3258
-1169.43 -402.84 3258
-1161.64 -402.84 3258
-1149.6 -401.356 3246
-1143.95 -402.098 3252
-1142.81 -404.447 3271
-1134.99 -404.447 3271
-1129.58 -405.313 3278
-1128.24 -407.662 3297
-1120.36 -407.662 3297
-1112.48 -407.662 3297
-1100.24 -406.055 3284
-1086.06 -403.706 3265
-1078.25 -403.706 3265
-1070.45 -403.706 3265
-1058.41 -402.098 3252
-1042.56 -399.007 3227
-1032.91 -398.265 3221
-1025.21 -398.265 3221
-1015.3 -397.4 3214
-549.892 -216.876 1754
-545.698 -216.876 1754
-541.503 -216.876 1754
-537.309 -216.876 1754
-530.987 -216.01 1747
-525 -215.268 1741
-520.538 -215.145 1740
-516.377 -215.145 1740
-511.627 -214.897 1738
-505.719 -214.156 1732
-501.288 -214.032 1731
-497.148 -214.032 1731
-491.3 -213.29 1725
-485.763 -212.672 1720
-480.53 -212.177 1716
-476.149 -212.054 1715
-472.048 -212.054 1715
-467.401 -211.806 1713
-461.952 -211.188 1708
-456.796 -210.694 1704
-452.721 -210.694 1704
-448.12 -210.446 1702
-441.962 -209.457 1694
-436.878 -208.962 1690
-432.836 -208.962 1690
-427.526 -208.344 1685
-421.486 -207.355 1677
-416.978 -207.108 1675
-412.973 -207.108 1675
-407.746 -206.49 1670
-402.544 -205.871 1665
-398.084 -205.624 1663
-394.107 -205.624 1663
-389.427 -205.253 1660
-384.993 -205.006 1658
-380.798 -204.882 1657
-375.926 -204.388 1653
-371.973 -204.388 1653
-368.02 -204.388 1653
-364.068 -204.388 1653
-359.897 -204.264 1652
-355.946 -204.264 1652
-351.996 -204.264 1652
-348.046 -204.264 1652
-344.303 -204.388 1653
-340.351 -204.388 1653
-336.398 -204.388 1653
-332.445 -204.388 1653
-329.287 -204.882 1657
-325.325 -204.882 1657
-321.362 -204.882 1657
-317.4 -204.882 1657
-314.005 -205.253 1660
-310.035 -205.253 1660
-306.066 -205.253 1660
-302.096 -205.253 1660
-298.665 -205.624 1663
-294.689 -205.624 1663
-290.712 -205.624 1663
-286.735 -205.624 1663
-282.759 -205.624 1663
-278.782 -205.624 1663
-274.64 -205.5 1662
-270.34 -205.253 1660
-266.049 -205.006 1658
-262.401 -205.253 1660
-258.431 -205.253 1660
-254.462 -205.253 1660
-250.492 -205.253 1660
-246.522 -205.253 1660
-242.114 -204.882 1657
-237.865 -204.635 1655
-233.907 -204.635 1655
-229.672 -204.388 1653
-225.719 -204.388 1653
-221.632 -204.264 1652
-217.418 -204.017 1650
-212.825 -203.398 1645
-208.892 -203.398 1645
-204.584 -203.027 1642
-200.413 -202.78 1640
-196.012 -202.286 1636
-192.1 -202.286 1636
-188.188 -202.286 1636
-184.05 -202.038 1634
-179.922 -201.791 1632
-176.02 -201.791 1632
-172.012 -201.667 1631
-168.112 -201.667 1631
-164.01 -201.42 1629
-160.115 -201.42 1629
-156.123 -201.296 1628
-152.23 -201.296 1628
-148.337 -201.296 1628
-144.444 -201.296 1628
-140.378 -201.049 1626
-136.49 -201.049 1626
-132.847 -201.42 1629
-129.347 -202.038 1634
-125.67 -202.409 1637
-121.755 -202.409 1637
-117.985 -202.656 1639
-114.274 -203.027 1642
-110.751 -203.769 1648
-106.81 -203.769 1648
-102.869 -203.769 1648
-99.4685 -204.882 1657
-95.7943 -205.5 1662
-91.8199 -205.5 1662
-88.0041 -205.871 1665
-84.1235 -206.119 1667
-80.1853 -206.242 1668
-76.1966 -206.242 1668
-72.2079 -206.242 1668
-152.634 -461.448 3732
-144.018 -462.438 3740
-136.014 -465.652 3766
-127.008 -465.652 3766
-118.253 -466.642 3774
-109.489 -467.754 3783
-100.442 -467.754 3783
-91.3961 -467.754 3783
-82.3498 -467.754 3783
-73.3035 -467.754 3783
-64.2572 -467.754 3783
-55.2109 -467.754 3783
-46.1646 -467.754 3783
-37.1183 -467.754 3783
-28.072 -467.754 3783
-18.9402 -465.652 3766
-9.88973 -463.55 3749
-0.924734 -463.55 3749
8.02096 -462.438 3740
17.0415 -464.54 3757
26.0257 -464.54 3757
35.0098 -464.54 3757
43.9939 -464.54 3757
52.978 -464.54 3757
61.9622 -464.54 3757
70.7952 -463.55 3749
79.7602 -463.55 3749
88.7252 -463.55 3749
97.0388 -460.459 3724
105.46 -458.357 3707
114.325 -458.357 3707
123.489 -459.47 3716
132.375 -459.47 3716
141.261 -459.47 3716
150.47 -460.459 3724
159.375 -460.459 3724
168.28 -460.459 3724
177.186 -460.459 3724
186.091 -460.459 3724
194.996 -460.459 3724
202.971 -458.357 3707
211.378 -457.368 3699
220.223 -457.368 3699
228.078 -455.39 3683
236.885 -455.39 3683
244.625 -453.411 3667
252.772 -452.299 3658
260.947 -451.309 3650
269.676 -451.309 3650
278.404 -451.309 3650
287.132 -451.309 3650
297.238 -453.411 3667
306.675 -454.401 3675
315.463 -454.401 3675
324.251 -454.401 3675
333.039 -454.401 3675
341.827 -454.401 3675
350.615 -454.401 3675
358.621 -453.411 3667
367.39 -453.411 3667
376.159 -453.411 3667
383.983 -452.299 3658
391.871 -451.309 3650
399.721 -450.32 3642
409.328 -451.309 3650
418.972 -452.299 3658
427.72 -452.299 3658
438.495 -454.401 3675
448.257 -455.39 3683
458.057 -456.379 3691
466.883 -456.379 3691
475.71 -456.379 3691
483.486 -455.39 3683
492.293 -455.39 3683
500.012 -454.401 3675
508.8 -454.401 3675
518.715 -455.39 3683
528.668 -456.379 3691
537.494 -456.379 3691
546.32 -456.379 3691
1126.53 -498.295 4030
1141.52 -500.644 4049
1151.21 -500.644 4049
1163.75 -501.881 4059
1173.46 -501.881 4059
1183.17 -501.881 4059
1184.35 -498.295 4030
1196.65 -499.408 4039
1212.29 -501.881 4059
1225 -503.117 4069
1234.73 -503.117 4069
1244.46 -503.117 4069
1260.36 -505.59 4089
1270.14 -505.59 4089
1279.91 -505.59 4089
1299.47 -505.59 4089
1309.25 -505.59 4089
1319.03 -505.59 4089
1328.8 -505.59 4089
1390.42 -503.117 4069
1400.15 -503.117 4069
1409.88 -503.117 4069
1419.61 -503.117 4069
1429.34 -503.117 4069
1435.53 -501.881 4059
1441.68 -500.644 4049
1447.77 -499.408 4039
1457.43 -499.408 4039
1460.19 -497.059 4020
1466.15 -495.822 4010
1768.82 -505.59 4089
1778.59 -505.59 4089
1788.37 -505.59 4089
1784.96 -501.881 4059
1794.66 -501.881 4059
1799.93 -500.644 4049
1809.61 -500.644 4049
1819.29 -500.644 4049
1828.97 -500.644 4049
1838.65 -500.644 4049
1839.66 -498.295 4030
1822.69 -491.124 3972
1832.18 -491.124 3972
1841.68 -491.124 3972
1851.18 -491.124 3972
1856.46 -490.011 3963
1861.23 -488.774 3953
1870.68 -488.774 3953
2422.87 -487.662 3944
2432.3 -487.662 3944
2441.73 -487.662 3944
2439.36 -485.312 3925
2448.74 -485.312 3925
2441.22 -481.974 3898
2467.51 -485.312 3925
2476.9 -485.312 3925
2486.29 -485.312 3925
2478.5 -481.974 3898
2476.34 -479.748 3880
2485.62 -479.748 3880
2494.89 -479.748 3880
2492.55 -477.523 3862
2501.79 -477.523 3862
2511.03 -477.523 3862
2532.6 -464.54 3757
2547.67 -465.652 3766
2556.68 -465.652 3766
2565.68 -465.652 3766
2655.74 -465.652 3766
2664.74 -465.652 3766
2748.3 -478.635 3871
2757.55 -478.635 3871
2766.81 -478.635 3871
2776.07 -478.635 3871
2772.37 -476.41 3853
2775.09 -475.297 3844
2816.87 -480.861 3889
2852.33 -485.312 3925
2861.72 -485.312 3925
2891.59 -488.774 3953
2928.93 -493.473 3991
2988.54 -501.881 4059
2998.25 -501.881 4059
3007.95 -501.881 4059
3017.66 -501.881 4059
3027.36 -501.881 4059
3037.07 -501.881 4059
3039.27 -500.644 4049
3027.12 -497.059 4020
3036.73 -497.059 4020
3017.55 -492.36 3982
2991.34 -486.549 3935
3000.75 -486.549 3935
3010.16 -486.549 3935
-2457.85 -434.078 3580
-2459.55 -435.897 3595
-2456.41 -436.867 3603
-2447.79 -436.867 3603
-2460.84 -440.747 3635
-2462.27 -442.566 3650
-2453.54 -442.566 3650
-2444.81 -442.566 3650
-2447.43 -444.627 3667
-2449.3 -446.567 3683
-2456.4 -449.477 3707
-2447.53 -449.477 3707
-2460.38 -453.478 3740
-2451.43 -453.478 3740
-2442.49 -453.478 3740
-2433.55 -453.478 3740
-2424.6 -453.478 3740
-2421.47 -454.57 3749
-2412.51 -454.57 3749
-2403.54 -454.57 3749
-2373.5 -450.568 3716
-2348.71 -447.537 3691
-1261.63 -404.614 3337
-1253.65 -404.614 3337
-1245.67 -404.614 3337
-1237.69 -404.614 3337
-1229.71 -404.614 3337
-1221.73 -404.614 3337
-1201.38 -400.492 3303
-1177.22 -395.035 3258
-1169.43 -395.035 3258
-1161.64 -395.035 3258
-1149.6 -393.581 3246
-1143.95 -394.308 3252
-1142.81 -396.612 3271
-1134.99 -396.612 3271
-1129.58 -397.461 3278
-1128.24 -399.764 3297
-1120.36 -399.764 3297
-1112.48 -399.764 3297
-1100.24 -398.188 3284
-1086.06 -395.884 3265
-1078.25 -395.884 3265
-1070.45 -395.884 3265
-1058.41 -394.308 3252
-1042.56 -391.277 3227
-1032.91 -390.549 3221
-1025.21 -390.549 3221
-1015.3 -389.7 3214
-549.892 -212.674 1754
-545.698 -212.674 1754
-541.503 -212.674 1754
-537.309 -212.674 1754
-530.987 -211.825 1747
-525 -211.098 1741
-520.538 -210.977 1740
-516.377 -210.977 1740
-511.627 -210.734 1738
-505.719 -210.007 1732
-501.288 -209.885 1731
-497.148 -209.885 1731
-491.3 -209.158 1725
-485.763 -208.552 1720
-480.53 -208.067 1716
-476.149 -207.945 1715
-472.048 -207.945 1715
-467.401 -207.703 1713
-461.952 -207.097 1708
-456.796 -206.612 1704
-452.721 -206.612 1704
-448.12 -206.369 1702
-441.962 -205.399 1694
-436.878 -204.914 1690
-432.836 -204.914 1690
-427.526 -204.308 1685
-421.486 -203.338 1677
-416.978 -203.095 1675
-412.973 -203.095 1675
-407.746 -202.489 1670
-402.544 -201.883 1665
-398.084 -201.64 1663
-394.107 -201.64 1663
-389.427 -201.277 1660
-384.993 -201.034 1658
-380.798 -200.913 1657
-375.926 -200.428 1653
-371.973 -200.428 1653
-368.02 -200.428 1653
-364.068 -200.428 1653
-359.897 -200.307 1652
-355.946 -200.307 1652
-351.996 -200.307 1652
-348.046 -200.307 1652
-344.303 -200.428 1653
-340.351 -200.428 1653
-336.398 -200.428 1653
-332.445 -200.428 1653
-329.287 -200.913 1657
-325.325 -200.913 1657
-321.362 -200.913 1657
-317.4 -200.913 1657
-314.005 -201.277 1660
-310.035 -201.277 1660
-306.066 -201.277 1660
-302.096 -201.277 1660
-298.665 -201.64 1663
-294.689 -201.64 1663
-290.712 -201.64 1663
-286.735 -201.64 1663
-282.759 -201.64 1663
-278.782 -201.64 1663
-274.64 -201.519 1662
-270.34 -201.277 1660
-266.37 -201.277 1660
-262.401 -201.277 1660
-258.431 -201.277 1660
-254.462 -201.277 1660
-250.492 -201.277 1660
-246.522 -201.277 1660
-242.114 -200.913 1657
-237.865 -200.67 1655
-233.907 -200.67 1655
-229.672 -200.428 1653
-225.719 -200.428 1653
-221.632 -200.307 1652
-217.418 -200.064 1650
-212.825 -199.458 1645
-208.892 -199.458 1645
-204.584 -199.094 1642
-200.413 -198.852 1640
-196.012 -198.367 1636
-192.1 -198.367 1636
-188.188 -198.367 1636
-184.05 -198.124 1634
-179.922 -197.882 1632
-176.02 -197.882 1632
-172.012 -197.76 1631
-168.112 -197.76 1631
-164.01 -197.518 1629
-160.115 -197.518 1629
-156.123 -197.396 1628
-152.23 -197.396 1628
-148.337 -197.396 1628
-144.444 -197.396 1628
-140.378 -197.154 1626
-136.49 -197.154 1626
-132.847 -197.518 1629
-129.347 -198.124 1634
-125.67 -198.488 1637
-121.755 -198.488 1637
-117.985 -198.73 1639
-114.274 -199.094 1642
-110.751 -199.822 1648
-106.81 -199.822 1648
-102.869 -199.822 1648
-99.4685 -200.913 1657
-95.7943 -201.519 1662
-91.8199 -201.519 1662
-88.0041 -201.883 1665
-84.1235 -202.125 1667
-80.1853 -202.247 1668
-76.1966 -202.247 1668
-72.2079 -202.247 1668
-152.634 -452.508 3732
-144.018 -453.478 3740
-136.014 -456.631 3766
-127.008 -456.631 3766
-118.253 -457.601 3774
-109.489 -458.692 3783
-100.442 -458.692 3783
-91.3961 -458.692 3783
-82.3498 -458.692 3783
-73.3035 -458.692 3783
-64.2572 -458.692 3783
-55.2109 -458.692 3783
-46.1646 -458.692 3783
-37.1183 -458.692 3783
-28.072 -458.692 3783
-18.9402 -456.631 3766
-9.88973 -454.57 3749
-0.924734 -454.57 3749
8.02096 -453.478 3740
17.0415 -455.54 3757
26.0257 -455.54 3757
35.0098 -455.54 3757
43.9939 -455.54 3757
52.978 -455.54 3757
61.9622 -455.54 3757
70.7952 -454.57 3749
79.7602 -454.57 3749
88.7252 -454.57 3749
97.0388 -451.538 3724
105.716 -450.568 3716
114.325 -449.477 3707
123.489 -450.568 3716
132.375 -450.568 3716
141.261 -450.568 3716
150.47 -451.538 3724
159.375 -451.538 3724
168.28 -451.538 3724
177.186 -451.538 3724
186.091 -451.538 3724
194.996 -451.538 3724
202.971 -449.477 3707
211.378 -448.507 3699
220.223 -448.507 3699
228.078 -446.567 3683
236.885 -446.567 3683
245.159 -445.597 3675
252.772 -443.536 3658
260.947 -442.566 3650
269.676 -442.566 3650
278.404 -442.566 3650
287.132 -442.566 3650
297.238 -444.627 3667
306.675 -445.597 3675
315.463 -445.597 3675
324.251 -445.597 3675
333.039 -445.597 3675
341.827 -445.597 3675
350.615 -445.597 3675
358.621 -444.627 3667
367.39 -444.627 3667
376.159 -444.627 3667
383.983 -443.536 3658
391.871 -442.566 3650
399.721 -441.596 3642
409.328 -442.566 3650
418.972 -443.536 3658
427.72 -443.536 3658
438.495 -445.597 3675
448.257 -446.567 3683
458.057 -447.537 3691
466.883 -447.537 3691
475.71 -447.537 3691
483.486 -446.567 3683
492.293 -446.567 3683
500.012 -445.597 3675
508.8 -445.597 3675
518.715 -446.567 3683
528.668 -447.537 3691
537.494 -447.537 3691
546.32 -447.537 3691
1126.53 -488.641 4030
1141.52 -490.945 4049
1151.21 -490.945 4049
1163.75 -492.158 4059
1173.46 -492.158 4059
1183.17 -492.158 4059
1184.35 -488.641 4030
1202.58 -492.158 4059
1215.27 -493.37 4069
1225 -493.37 4069
1234.73 -493.37 4069
1244.46 -493.37 4069
1260.36 -495.795 4089
1270.14 -495.795 4089
1279.91 -495.795 4089
1289.69 -495.795 4089
1299.47 -495.795 4089
1309.25 -495.795 4089
1319.03 -495.795 4089
1328.8 -495.795 4089
1338.58 -495.795 4089
1387.47 -495.795 4089
1397.25 -495.795 4089
1407.03 -495.795 4089
1409.88 -493.37 4069
1419.61 -493.37 4069
1429.34 -493.37 4069
1435.53 -492.158 4059
1441.68 -490.945 4049
1447.77 -489.732 4039
1457.43 -489.732 4039
1460.19 -487.429 4020
1466.15 -486.216 4010
1468.74 -483.912 3991
1478.29 -483.912 3991
1768.82 -495.795 4089
1778.59 -495.795 4089
1788.37 -495.795 4089
1784.96 -492.158 4059
1794.66 -492.158 4059
1799.93 -490.945 4049
1809.61 -490.945 4049
1823.78 -492.158 4059
1833.49 -492.158 4059
1843.2 -492.158 4059
1848.34 -490.945 4049
1840.12 -486.216 4010
1849.71 -486.216 4010
1850.49 -483.912 3991
1860.04 -483.912 3991
1869.58 -483.912 3991
1879.12 -483.912 3991
1870.68 -479.305 3953
2442.6 -489.732 4039
2452.26 -489.732 4039
2461.91 -489.732 4039
2471.57 -489.732 4039
2481.23 -489.732 4039
2479.17 -487.429 4020
2441.73 -478.214 3944
2439.36 -475.91 3925
2448.74 -475.91 3925
2458.13 -475.91 3925
2473.8 -477.122 3935
2483.21 -477.122 3935
2492.62 -477.122 3935
2502.03 -477.122 3935
2499.31 -474.819 3916
2497.15 -472.636 3898
2506.47 -472.636 3898
2492.55 -468.271 3862
2501.79 -468.271 3862
2511.03 -468.271 3862
2532.6 -455.54 3757
2547.67 -456.631 3766
2556.68 -456.631 3766
2565.68 -456.631 3766
2568.53 -455.54 3757
2577.52 -455.54 3757
2535.56 -446.567 3683
2619.71 -456.631 3766
2628.72 -456.631 3766
2643.33 -457.601 3774
2652.35 -457.601 3774
2667.73 -458.692 3783
2676.77 -458.692 3783
2748.3 -469.362 3871
2757.55 -469.362 3871
2766.81 -469.362 3871
2776.07 -469.362 3871
2772.37 -467.18 3853
2775.09 -466.089 3844
2816.87 -471.545 3889
2852.33 -475.91 3925
2861.72 -475.91 3925
2891.59 -479.305 3953
2928.93 -483.912 3991
2988.54 -492.158 4059
2998.25 -492.158 4059
3007.95 -492.158 4059
3017.66 -492.158 4059
3027.36 -492.158 4059
3037.07 -492.158 4059
3039.27 -490.945 4049
3027.12 -487.429 4020
3036.73 -487.429 4020
3024.37 -483.912 3991
3005.02 -479.305 3953
3007.61 -478.214 3944
3017.04 -478.214 3944
-2457.85 -425.502 3580
-2459.55 -427.285 3595
-2456.41 -428.236 3603
-2447.79 -428.236 3603
-2460.84 -432.039 3635
-2462.27 -433.822 3650
-2453.54 -433.822 3650
-2444.81 -433.822 3650
-2447.43 -435.843 3667
-2449.3 -437.744 3683
-2456.4 -440.597 3707
-2447.53 -440.597 3707
-2460.38 -444.519 3740
-2451.43 -444.519 3740
-2442.49 -444.519 3740
-2433.55 -444.519 3740
-2441.46 -447.609 3766
-2437.62 -448.56 3774
-2428.6 -448.56 3774
-2419.57 -448.56 3774
-2394.58 -445.589 3749
-2369.71 -442.618 3724
-2360.8 -442.618 3724
-2331.05 -438.695 3691
-1269.61 -396.621 3337
-1261.63 -396.621 3337
-1253.65 -396.621 3337
-1245.67 -396.621 3337
-1237.69 -396.621 3337
-1229.71 -396.621 3337
-1221.73 -396.621 3337
-1201.38 -392.579 3303
-1177.22 -387.231 3258
-1169.43 -387.231 3258
-1157.36 -385.805 3246
-1149.6 -385.805 3246
-1141.84 -385.805 3246
-1138.27 -387.231 3258
-1130.48 -387.231 3258
-1122.69 -387.231 3258
-1121.74 -389.608 3278
-1113.9 -389.608 3278
-1106.06 -389.608 3278
-1098.23 -389.608 3278
-1086.06 -388.063 3265
-1078.25 -388.063 3265
-1068.15 -387.231 3258
-1056.46 -385.805 3246
-1038.36 -382.001 3214
-1028.75 -381.288 3208
-1021.07 -381.288 3208
-1013.4 -381.288 3208
-550.519 -208.71 1756
-546.32 -208.71 1756
-541.503 -208.472 1754
-537.309 -208.472 1754
-531.595 -207.878 1749
-525.603 -207.165 1743
-520.538 -206.808 1740
-516.377 -206.808 1740
-511.627 -206.571 1738
-506.887 -206.333 1736
-501.288 -205.739 1731
-497.148 -205.739 1731
-490.731 -204.788 1723
-485.763 -204.431 1720
-480.53 -203.956 1716
-475.594 -203.599 1713
-471.497 -203.599 1713
-466.31 -203.124 1709
-461.411 -202.767 1706
-456.26 -202.292 1702
-452.19 -202.292 1702
-447.33 -201.935 1699
-442.223 -201.46 1695
-436.878 -200.866 1690
-432.836 -200.866 1690
-428.034 -200.509 1687
-421.486 -199.321 1677
-416.978 -199.083 1675
-412.973 -199.083 1675
-407.746 -198.489 1670
-403.028 -198.132 1667
-398.084 -197.657 1663
-394.107 -197.657 1663
-389.896 -197.538 1662
-385.457 -197.3 1660
-380.798 -196.943 1657
-376.836 -196.943 1657
-372.873 -196.943 1657
-368.02 -196.468 1653
-364.068 -196.468 1653
-359.897 -196.349 1652
-355.946 -196.349 1652
-351.996 -196.349 1652
-348.046 -196.349 1652
-344.095 -196.349 1652
-340.351 -196.468 1653
-336.398 -196.468 1653
-332.445 -196.468 1653
-328.89 -196.706 1655
-324.932 -196.706 1655
-320.974 -196.706 1655
-317.4 -196.943 1657
-314.005 -197.3 1660
-310.035 -197.3 1660
-306.066 -197.3 1660
-302.096 -197.3 1660
-298.665 -197.657 1663
-294.689 -197.657 1663
-290.712 -197.657 1663
-286.735 -197.657 1663
-282.589 -197.538 1662
-278.614 -197.538 1662
-274.64 -197.538 1662
-270.34 -197.3 1660
-266.37 -197.3 1660
-262.401 -197.3 1660
-258.431 -197.3 1660
-254.462 -197.3 1660
-250.492 -197.3 1660
-246.522 -197.3 1660
-242.114 -196.943 1657
-237.865 -196.706 1655
-233.907 -196.706 1655
-229.533 -196.349 1652
-225.582 -196.349 1652
-221.363 -196.111 1650
-217.418 -196.111 1650
-212.696 -195.398 1644
-208.765 -195.398 1644
-204.335 -194.923 1640
-200.291 -194.804 1639
-196.012 -194.447 1636
-192.1 -194.447 1636
-187.958 -194.21 1634
-183.825 -193.972 1632
-179.812 -193.853 1631
-175.912 -193.853 1631
-171.801 -193.615 1629
-167.905 -193.615 1629
-163.909 -193.497 1628
-160.016 -193.497 1628
-156.123 -193.497 1628
-152.043 -193.259 1626
-148.155 -193.259 1626
-144.267 -193.259 1626
-140.378 -193.259 1626
-136.49 -193.259 1626
-132.765 -193.497 1628
-129.189 -193.972 1632
-125.67 -194.566 1637
-121.755 -194.566 1637
-117.985 -194.804 1639
-114.065 -194.804 1639
-110.549 -195.517 1645
-106.615 -195.517 1645
-102.869 -195.874 1648
-99.4685 -196.943 1657
-95.7943 -197.538 1662
-91.8199 -197.538 1662
-87.8984 -197.657 1663
-84.1235 -198.132 1667
-80.1372 -198.132 1667
-76.1509 -198.132 1667
-152.634 -443.568 3732
-144.018 -444.519 3740
-135.075 -444.519 3740
-126.131 -444.519 3740
-118.002 -447.609 3766
-109.489 -449.63 3783
-100.442 -449.63 3783
-91.3961 -449.63 3783
-82.3498 -449.63 3783
-73.3035 -449.63 3783
-64.2572 -449.63 3783
-55.2109 -449.63 3783
-46.1646 -449.63 3783
-37.1183 -449.63 3783
-28.072 -449.63 3783
-18.9402 -447.609 3766
-9.88973 -445.589 3749
-0.924734 -445.589 3749
8.02096 -444.519 3740
17.0415 -446.54 3757
26.0257 -446.54 3757
35.0098 -446.54 3757
43.9939 -446.54 3757
52.978 -446.54 3757
61.9622 -446.54 3757
70.7952 -445.589 3749
79.7602 -445.589 3749
88.7252 -445.589 3749
97.0388 -442.618 3724
105.716 -441.667 3716
114.325 -440.597 3707
123.489 -441.667 3716
132.375 -441.667 3716
141.261 -441.667 3716
150.47 -442.618 3724
159.375 -442.618 3724
168.28 -442.618 3724
177.186 -442.618 3724
186.091 -442.618 3724
194.996 -442.618 3724
202.971 -440.597 3707
211.378 -439.646 3699
220.223 -439.646 3699
228.078 -437.744 3683
236.885 -437.744 3683
245.159 -436.794 3675
252.772 -434.773 3658
260.947 -433.822 3650
269.676 -433.822 3650
278.404 -433.822 3650
287.132 -433.822 3650
297.238 -435.843 3667
306.007 -435.843 3667
314.776 -435.843 3667
323.545 -435.843 3667
333.039 -436.794 3675
341.827 -436.794 3675
350.615 -436.794 3675
358.621 -435.843 3667
367.39 -435.843 3667
376.159 -435.843 3667
383.983 -434.773 3658
391.012 -432.871 3642
399.721 -432.871 3642
409.328 -433.822 3650
418.972 -434.773 3658
427.72 -434.773 3658
437.541 -435.843 3667
447.284 -436.794 3675
457.064 -437.744 3683
465.872 -437.744 3683
474.679 -437.744 3683
482.436 -436.794 3675
491.224 -436.794 3675
500.012 -436.794 3675
508.8 -436.794 3675
518.715 -437.744 3683
528.668 -438.695 3691
537.494 -438.695 3691
546.32 -438.695 3691
1126.53 -478.987 4030
1136.17 -478.987 4030
1145.8 -478.987 4030
1155.44 -478.987 4030
1165.08 -478.987 4030
1174.71 -478.987 4030
1184.35 -478.987 4030
1202.58 -482.434 4059
1215.27 -483.623 4069
1225 -483.623 4069
1234.73 -483.623 4069
1244.46 -483.623 4069
1260.36 -486 4089
1270.14 -486 4089
1279.91 -486 4089
1289.69 -486 4089
1299.47 -486 4089
1309.25 -486 4089
1319.03 -486 4089
1328.8 -486 4089
1338.58 -486 4089
1387.47 -486 4089
1397.25 -486 4089
1407.03 -486 4089
1409.88 -483.623 4069
1419.61 -483.623 4069
1429.34 -483.623 4069
1431.99 -481.246 4049
1441.68 -481.246 4049
1444.55 -478.987 4030
1454.19 -478.987 4030
1460.19 -477.799 4020
1466.15 -476.61 4010
1468.74 -474.352 3991
1478.29 -474.352 3991
1755.84 -482.434 4059
1765.55 -482.434 4059
1775.25 -482.434 4059
1780.56 -481.246 4049
1790.24 -481.246 4049
1799.93 -481.246 4049
1809.61 -481.246 4049
1823.78 -482.434 4059
1833.49 -482.434 4059
1843.2 -482.434 4059
1848.34 -481.246 4049
1840.12 -476.61 4010
1849.71 -476.61 4010
1850.49 -474.352 3991
1860.04 -474.352 3991
1869.58 -474.352 3991
1879.12 -474.352 3991
1870.68 -469.835 3953
2442.6 -480.057 4039
2452.26 -480.057 4039
2461.91 -480.057 4039
2471.57 -480.057 4039
2481.23 -480.057 4039
2479.17 -477.799 4020
2441.73 -468.766 3944
2439.36 -466.508 3925
2448.74 -466.508 3925
2458.13 -466.508 3925
2473.8 -467.696 3935
2483.21 -467.696 3935
2492.62 -467.696 3935
2502.03 -467.696 3935
2499.31 -465.438 3916
2497.15 -463.298 3898
2506.47 -463.298 3898
2492.55 -459.02 3862
2501.79 -459.02 3862
2511.03 -459.02 3862
2532.6 -446.54 3757
2547.67 -447.609 3766
2556.68 -447.609 3766
2565.68 -447.609 3766
2568.53 -446.54 3757
2577.52 -446.54 3757
2535.56 -437.744 3683
2619.71 -447.609 3766
2628.72 -447.609 3766
2643.33 -448.56 3774
2652.35 -448.56 3774
2667.73 -449.63 3783
2676.77 -449.63 3783
2704.28 -452.72 3809
2713.39 -452.72 3809
2722.49 -452.72 3809
2731.6 -452.72 3809
2728.48 -450.7 3792
2737.55 -450.7 3792
2784.28 -456.88 3844
2826.17 -462.229 3889
2835.47 -462.229 3889
2891.59 -469.835 3953
2922.32 -473.282 3982
2981.18 -481.246 4049
2990.86 -481.246 4049
3007.95 -482.434 4059
3017.66 -482.434 4059
3027.36 -482.434 4059
3037.07 -482.434 4059
3039.27 -481.246 4049
3027.12 -477.799 4020
3036.73 -477.799 4020
3024.37 -474.352 3991
3005.02 -469.835 3953
3007.61 -468.766 3944
3017.04 -468.766 3944
-2457.85 -416.926 3580
-2459.55 -418.673 3595
-2456.41 -419.605 3603
-2447.79 -419.605 3603
-2450.01 -421.468 3619
-2452.15 -423.332 3635
-2443.46 -423.332 3635
-2434.76 -423.332 3635
-2436.08 -425.079 3650
-2432.68 -426.01 3658
-2451.1 -430.785 3699
-2442.25 -430.785 3699
-2449.85 -433.697 3724
-2440.95 -433.697 3724
-2442.49 -435.56 3740
-2433.55 -435.56 3740
-2441.46 -438.588 3766
-2437.62 -439.52 3774
-2428.6 -439.52 3774
-2419.57 -439.52 3774
-2394.58 -436.608 3749
-2369.71 -433.697 3724
-2360.8 -433.697 3724
-2331.05 -429.854 3691
-1269.61 -388.627 3337
-1261.63 -388.627 3337
-1253.65 -388.627 3337
-1245.67 -388.627 3337
-1237.69 -388.627 3337
-1229.71 -388.627 3337
-1214.41 -386.298 3317
-1196.65 -383.153 3290
-1175.06 -378.728 3252
-1167.28 -378.728 3252
-1157.36 -378.029 3246
-1149.6 -378.029 3246
-1141.84 -378.029 3246
-1136.17 -378.728 3252
-1128.4 -378.728 3252
-1122.69 -379.426 3258
-1121.74 -381.756 3278
-1113.9 -381.756 3278
-1106.06 -381.756 3278
-1098.23 -381.756 3278
-1086.06 -380.242 3265
-1078.25 -380.242 3265
-1068.15 -379.426 3258
-1056.46 -378.029 3246
-1036.42 -373.603 3208
-1028.75 -373.603 3208
-1021.07 -373.603 3208
-1009.61 -372.206 3196
-550.519 -204.504 1756
-546.32 -204.504 1756
-541.503 -204.271 1754
-537.309 -204.271 1754
-531.595 -203.688 1749
-525.603 -202.99 1743
-520.538 -202.64 1740
-516.377 -202.64 1740
-511.627 -202.407 1738
-506.887 -202.174 1736
-501.288 -201.592 1731
-497.148 -201.592 1731
-490.731 -200.66 1723
-485.763 -200.311 1720
-480.53 -199.845 1716
-475.594 -199.496 1713
-471.497 -199.496 1713
-466.037 -198.914 1708
-461.411 -198.681 1706
-455.992 -198.098 1701
-451.924 -198.098 1701
-447.33 -197.865 1699
-442.223 -197.4 1695
-436.878 -196.817 1690
-432.836 -196.817 1690
-428.034 -196.468 1687
-421.486 -195.303 1677
-416.978 -195.07 1675
-412.973 -195.07 1675
-407.746 -194.488 1670
-403.028 -194.139 1667
-398.084 -193.673 1663
-394.107 -193.673 1663
-389.896 -193.556 1662
-385.457 -193.323 1660
-380.798 -192.974 1657
-376.836 -192.974 1657
-372.873 -192.974 1657
-368.02 -192.508 1653
-364.068 -192.508 1653
-360.115 -192.508 1653
-356.162 -192.508 1653
-351.996 -192.392 1652
-348.046 -192.392 1652
-344.095 -192.392 1652
-340.145 -192.392 1652
-336.194 -192.392 1652
-332.445 -192.508 1653
-328.89 -192.741 1655
-324.932 -192.741 1655
-320.974 -192.741 1655
-317.4 -192.974 1657
-313.627 -193.091 1658
-310.035 -193.323 1660
-306.066 -193.323 1660
-302.096 -193.323 1660
-298.486 -193.556 1662
-294.512 -193.556 1662
-290.537 -193.556 1662
-286.563 -193.556 1662
-282.589 -193.556 1662
-278.614 -193.556 1662
-274.64 -193.556 1662
-270.665 -193.556 1662
-266.37 -193.323 1660
-262.717 -193.556 1662
-258.742 -193.556 1662
-254.768 -193.556 1662
-250.492 -193.323 1660
-246.522 -193.323 1660
-242.261 -193.091 1658
-237.865 -192.741 1655
-233.624 -192.508 1653
-229.533 -192.392 1652
-225.582 -192.392 1652
-221.363 -192.159 1650
-217.154 -191.926 1648
-212.437 -191.227 1642
-208.511 -191.227 1642
-204.21 -190.878 1639
-200.291 -190.878 1639
-195.773 -190.295 1634
-191.865 -190.295 1634
-187.958 -190.295 1634
-183.712 -189.946 1631
-179.592 -189.713 1629
-175.696 -189.713 1629
-171.801 -189.713 1629
-167.802 -189.597 1628
-163.708 -189.364 1626
-159.82 -189.364 1626
-155.931 -189.364 1626
-152.043 -189.364 1626
-147.973 -189.131 1624
-144.089 -189.131 1624
-140.206 -189.131 1624
-136.322 -189.131 1624
-132.765 -189.597 1628
-129.189 -190.063 1632
-125.593 -190.528 1636
-121.681 -190.528 1636
-117.841 -190.645 1637
-114.065 -190.878 1639
-110.549 -191.577 1645
-106.615 -191.577 1645
-102.869 -191.926 1648
-99.4685 -192.974 1657
-95.7943 -193.556 1662
-91.8199 -193.556 1662
-87.8984 -193.673 1663
-84.1235 -194.139 1667
-80.1372 -194.139 1667
-76.1509 -194.139 1667
-152.634 -434.628 3732
-144.018 -435.56 3740
-135.075 -435.56 3740
-126.131 -435.56 3740
-117.47 -436.608 3749
-109.228 -439.52 3774
-100.203 -439.52 3774
-91.1787 -439.52 3774
-82.1539 -439.52 3774
-73.1291 -439.52 3774
-64.1043 -439.52 3774
-54.9628 -438.588 3766
-45.9572 -438.588 3766
-36.9515 -438.588 3766
-27.9459 -438.588 3766
-18.895 -437.54 3757
-9.88973 -436.608 3749
-0.922514 -435.56 3740
8.02096 -435.56 3740
16.9644 -435.56 3740
25.9079 -435.56 3740
35.0098 -437.54 3757
43.9939 -437.54 3757
52.978 -437.54 3757
61.8302 -436.608 3749
70.7952 -436.608 3749
79.7602 -436.608 3749
88.7252 -436.608 3749
97.0388 -433.697 3724
105.716 -432.765 3716
114.325 -431.717 3707
123.489 -432.765 3716
132.375 -432.765 3716
141.261 -432.765 3716
150.47 -433.697 3724
159.375 -433.697 3724
168.28 -433.697 3724
177.186 -433.697 3724
186.091 -433.697 3724
194.996 -433.697 3724
202.971 -431.717 3707
211.378 -430.785 3699
220.223 -430.785 3699
228.078 -428.922 3683
236.885 -428.922 3683
245.159 -427.99 3675
252.772 -426.01 3658
260.947 -425.079 3650
269.676 -425.079 3650
278.404 -425.079 3650
287.132 -425.079 3650
297.238 -427.058 3667
306.007 -427.058 3667
314.776 -427.058 3667
323.545 -427.058 3667
332.314 -427.058 3667
341.083 -427.058 3667
349.852 -427.058 3667
358.621 -427.058 3667
367.39 -427.058 3667
376.159 -427.058 3667
383.143 -425.079 3650
391.012 -424.147 3642
398.953 -423.332 3635
408.431 -424.147 3642
418.056 -425.079 3650
426.784 -425.079 3650
436.467 -426.01 3658
445.214 -426.01 3658
456.072 -427.99 3675
464.86 -427.99 3675
473.648 -427.99 3675
482.436 -427.99 3675
491.224 -427.99 3675
498.923 -427.058 3667
508.8 -427.99 3675
518.715 -428.922 3683
527.522 -428.922 3683
536.329 -428.922 3683
545.136 -428.922 3683
1129.05 -470.382 4039
1144.34 -472.711 4059
1154.05 -472.711 4059
1163.75 -472.711 4059
