ply
format ascii 1.0
comment File generated
element vertex 2249
property float x
property float y
property float z
end_header
-1313.87 1239.38 2337
-1313.32 1244.15 2346
-1309.94 1246.27 2350
-1304.32 1246.27 2350
-1302.01 1249.45 2356
-1298.58 1251.57 2360
-1300.06 1258.47 2373
-1294.39 1258.47 2373
-1297.94 1267.48 2390
-1292.23 1267.48 2390
-1286.51 1267.48 2390
-1280.8 1267.48 2390
-1273.48 1265.89 2387
-1261.93 1260.06 2376
-1256.25 1260.06 2376
-1243.73 1253.16 2363
-1229.17 1244.15 2346
-1218.86 1239.38 2337
-1213.28 1239.38 2337
-1205.62 1237.25 2333
-1198.5 1235.66 2330
-1192.93 1235.66 2330
-1192.45 1240.97 2340
-1186.85 1240.97 2340
-1182.77 1242.56 2343
-1177.17 1242.56 2343
-1171.57 1242.56 2343
-1165.97 1242.56 2343
-1161.85 1244.15 2346
-1156.24 1244.15 2346
-1150.63 1244.15 2346
-1145.02 1244.15 2346
-1136.49 1240.97 2340
-1127.52 1237.25 2333
-1123.86 1239.38 2337
-1118.27 1239.38 2337
-1112.68 1239.38 2337
-1122.73 1256.88 2370
-1117.06 1256.88 2370
-1111.39 1256.88 2370
-1105.73 1256.88 2370
-1098.2 1254.75 2366
-1092.54 1254.75 2366
-1085.51 1253.16 2363
-1079.86 1253.16 2363
-1072.84 1251.57 2360
-1067.2 1251.57 2360
-1048.06 1235.66 2330
-1041.15 1234.07 2327
-1035.58 1234.07 2327
-1032.67 1237.25 2333
-1038.98 1251.57 2360
-1033.34 1251.57 2360
-1029 1253.16 2363
-1023.35 1253.16 2363
-1017.7 1253.16 2363
-1010.76 1251.57 2360
-1003.42 1249.45 2356
-995.242 1246.27 2350
-989.623 1246.27 2350
-981.072 1242.56 2343
-972.971 1239.38 2337
-965.727 1237.25 2333
-960.148 1237.25 2333
-950.477 1231.95 2323
-944.922 1231.95 2323
-935.728 1227.18 2314
-930.195 1227.18 2314
-923.462 1225.59 2311
-916.347 1223.47 2307
-907.277 1218.69 2298
-901.782 1218.69 2298
-896.287 1218.69 2298
-890.792 1218.69 2298
-885.296 1218.69 2298
-879.801 1218.69 2298
-874.306 1218.69 2298
-868.811 1218.69 2298
-863.315 1218.69 2298
-858.94 1220.28 2301
-853.438 1220.28 2301
-847.935 1220.28 2301
-842.433 1220.28 2301
-838.022 1221.87 2304
-832.512 1221.87 2304
-827.003 1221.87 2304
-826.128 1228.77 2317
-821.65 1230.36 2320
-817.158 1231.95 2323
-811.603 1231.95 2323
-807.435 1234.07 2327
-801.871 1234.07 2327
-796.306 1234.07 2327
-788.363 1230.36 2320
-782.815 1230.36 2320
-775.257 1227.18 2314
-769.724 1227.18 2314
-764.19 1227.18 2314
-760.624 1230.36 2320
-757.354 1234.07 2327
-751.79 1234.07 2327
-746.225 1234.07 2327
-740.661 1234.07 2327
-735.096 1234.07 2327
-729.532 1234.07 2327
-723.967 1234.07 2327
-718.403 1234.07 2327
-716.82 1240.97 2340
-714.264 1246.27 2350
-708.645 1246.27 2350
-703.025 1246.27 2350
-697.405 1246.27 2350
-691.786 1246.27 2350
-684.998 1244.15 2346
-680.547 1246.27 2350
-679.522 1254.75 2366
-680.7 1267.48 2390
-674.985 1267.48 2390
-674.03 1276.5 2407
-668.274 1276.5 2407
-662.518 1276.5 2407
-656.763 1276.5 2407
-514.963 1009.74 1904
-510.41 1009.74 1904
-505.857 1009.74 1904
-500.251 1007.62 1900
-495.708 1007.62 1900
-491.164 1007.62 1900
-483.803 1001.79 1889
-478.779 1000.73 1887
-474.266 1000.73 1887
-469.256 999.667 1885
-464.255 998.607 1883
-457.555 993.834 1874
-451.14 989.591 1866
-446.677 989.591 1866
-438.897 982.167 1852
-434 981.106 1850
-427.95 977.394 1843
-423.543 977.394 1843
-416.407 971.03 1831
-410.228 966.787 1823
-402.752 959.362 1809
-398.426 959.362 1809
-391.268 952.468 1796
-383.957 945.044 1782
-375.647 934.967 1763
-369.535 930.194 1754
-365.341 930.194 1754
-360.529 928.603 1751
-354.103 922.77 1740
-349.54 921.709 1738
-345.384 921.709 1738
-341.228 921.709 1738
-336.296 919.588 1734
-332.149 919.588 1734
-328.759 921.709 1738
-324.603 921.709 1738
-320.447 921.709 1738
-316.655 922.77 1740
-312.494 922.77 1740
-308.333 922.77 1740
-304.173 922.77 1740
-300.529 924.361 1743
-296.701 925.421 1745
-292.528 925.421 1745
-288.686 926.482 1747
-284.834 927.543 1749
-280.972 928.603 1751
-276.785 928.603 1751
-272.754 929.134 1752
-268.871 930.194 1754
-264.676 930.194 1754
-260.779 931.255 1756
-256.58 931.255 1756
-252.668 932.316 1758
-248.747 933.376 1760
-244.816 934.437 1762
-240.603 934.437 1762
-236.523 934.967 1763
-232.835 937.089 1767
-228.868 938.149 1769
-224.638 938.149 1769
-220.906 940.271 1773
-217.155 942.392 1777
-213.505 945.044 1782
-209.243 945.044 1782
-204.982 945.044 1782
-200.946 946.104 1784
-196.68 946.104 1784
-192.414 946.104 1784
-188.57 948.226 1788
-184.294 948.226 1788
-180.421 950.347 1792
-176.136 950.347 1792
-171.851 950.347 1792
-197.264 1246.27 2350
-191.889 1247.86 2353
-186.263 1247.86 2353
-180.636 1247.86 2353
-175.009 1247.86 2353
-169.382 1247.86 2353
-163.547 1246.27 2350
-157.927 1246.27 2350
-151.66 1240.97 2340
-145.627 1237.25 2333
-140.048 1237.25 2333
-134.469 1237.25 2333
-128.89 1237.25 2333
-123.311 1237.25 2333
-117.733 1237.25 2333
-112.49 1240.97 2340
-106.895 1240.97 2340
-101.429 1242.56 2343
-95.9486 1244.15 2346
-90.4927 1246.27 2350
-84.8731 1246.27 2350
-79.2535 1246.27 2350
-73.634 1246.27 2350
-68.0144 1246.27 2350
-62.3948 1246.27 2350
-56.7753 1246.27 2350
-51.1557 1246.27 2350
-45.5943 1247.86 2353
-39.9675 1247.86 2353
-34.3408 1247.86 2353
-28.7141 1247.86 2353
-23.0873 1247.86 2353
-17.4606 1247.86 2353
-11.7685 1240.97 2340
-6.15437 1237.25 2333
-0.574721 1235.66 2330
4.99701 1235.66 2330
10.5551 1234.07 2327
16.1197 1234.07 2327
21.6843 1234.07 2327
27.2488 1234.07 2327
32.7147 1230.36 2320
38.0481 1223.47 2307
43.697 1227.18 2314
49.2305 1227.18 2314
54.764 1227.18 2314
60.4538 1230.36 2320
66.0016 1230.36 2320
71.5494 1230.36 2320
77.0973 1230.36 2320
82.5382 1228.77 2317
87.6987 1223.47 2307
93.2155 1223.47 2307
98.7322 1223.47 2307
104.701 1228.77 2317
110.86 1235.66 2330
116.432 1235.66 2330
122.003 1235.66 2330
127.739 1237.25 2333
133.318 1237.25 2333
138.897 1237.25 2333
144.476 1237.25 2333
150.055 1237.25 2333
156.101 1240.97 2340
161.697 1240.97 2340
167.721 1244.15 2346
173.331 1244.15 2346
178.941 1244.15 2346
184.079 1240.97 2340
189.675 1240.97 2340
195.271 1240.97 2340
201.381 1244.15 2346
208.226 1251.57 2360
214.414 1254.75 2366
220.072 1254.75 2366
226.397 1258.47 2373
232.072 1258.47 2373
237.746 1258.47 2373
243.421 1258.47 2373
248.361 1254.75 2366
254.018 1254.75 2366
259.676 1254.75 2366
264.213 1249.45 2356
269.847 1249.45 2356
275.13 1247.86 2353
280.756 1247.86 2353
285.531 1244.15 2346
291.141 1244.15 2346
296.372 1242.56 2343
301.201 1239.38 2337
306.79 1239.38 2337
312.378 1239.38 2337
317.967 1239.38 2337
322.586 1235.66 2330
328.58 1237.25 2333
334.159 1237.25 2333
339.738 1237.25 2333
345.317 1237.25 2333
350.896 1237.25 2333
356.016 1235.66 2330
361.123 1234.07 2327
367.16 1235.66 2330
372.732 1235.66 2330
378.303 1235.66 2330
383.875 1235.66 2330
389.447 1235.66 2330
395.019 1235.66 2330
400.59 1235.66 2330
406.162 1235.66 2330
411.734 1235.66 2330
417.305 1235.66 2330
422.877 1235.66 2330
428.449 1235.66 2330
434.021 1235.66 2330
438.272 1231.95 2323
443.827 1231.95 2323
449.382 1231.95 2323
454.937 1231.95 2323
460.492 1231.95 2323
468.053 1237.25 2333
473.632 1237.25 2333
480.649 1240.97 2340
486.244 1240.97 2340
491.84 1240.97 2340
497.436 1240.97 2340
503.031 1240.97 2340
508.627 1240.97 2340
514.223 1240.97 2340
518.263 1237.25 2333
522.495 1234.07 2327
528.74 1235.66 2330
534.312 1235.66 2330
539.884 1235.66 2330
546.158 1237.25 2333
551.737 1237.25 2333
557.316 1237.25 2333
562.171 1235.66 2330
567.742 1235.66 2330
573.314 1235.66 2330
579.631 1237.25 2333
585.21 1237.25 2333
590.789 1237.25 2333
594.834 1234.07 2327
599.367 1231.95 2323
604.922 1231.95 2323
609.688 1230.36 2320
615.236 1230.36 2320
620.784 1230.36 2320
627.142 1231.95 2323
632.697 1231.95 2323
638.252 1231.95 2323
644.915 1234.07 2327
650.48 1234.07 2327
656.044 1234.07 2327
663.315 1237.25 2333
668.894 1237.25 2333
674.473 1237.25 2333
680.052 1237.25 2333
685.63 1237.25 2333
690.321 1235.66 2330
695.892 1235.66 2330
701.464 1235.66 2330
707.036 1235.66 2330
711.69 1234.07 2327
717.255 1234.07 2327
722.819 1234.07 2327
728.384 1234.07 2327
733.948 1234.07 2327
740.466 1235.66 2330
746.038 1235.66 2330
751.61 1235.66 2330
757.181 1235.66 2330
760.462 1231.95 2323
770.633 1239.38 2337
776.222 1239.38 2337
781.81 1239.38 2337
787.399 1239.38 2337
792.987 1239.38 2337
792.766 1230.36 2320
802.788 1237.25 2333
814.257 1246.27 2350
824.412 1253.16 2363
830.063 1253.16 2363
835.713 1253.16 2363
841.364 1253.16 2363
845.939 1251.57 2360
851.583 1251.57 2360
854.684 1247.86 2353
860.31 1247.86 2353
863.361 1244.15 2346
868.971 1244.15 2346
873.462 1242.56 2343
877.94 1240.97 2340
883.535 1240.97 2340
889.131 1240.97 2340
893.58 1239.38 2337
897.629 1237.25 2333
903.208 1237.25 2333
910.345 1239.38 2337
915.934 1239.38 2337
921.522 1239.38 2337
927.11 1239.38 2337
932.699 1239.38 2337
935.477 1235.66 2330
941.049 1235.66 2330
943.776 1231.95 2323
948.106 1230.36 2320
953.653 1230.36 2320
957.961 1228.77 2317
962.254 1227.18 2314
966.533 1225.59 2311
972.059 1225.59 2311
977.585 1225.59 2311
984.388 1227.18 2314
989.921 1227.18 2314
995.455 1227.18 2314
1000.99 1227.18 2314
1006.52 1227.18 2314
1013.37 1228.77 2317
1018.91 1228.77 2317
1024.45 1228.77 2317
1029.99 1228.77 2317
1035.53 1228.77 2317
1039.72 1227.18 2314
1045.26 1227.18 2314
1050.79 1227.18 2314
1059.06 1230.36 2320
1064.61 1230.36 2320
1070.16 1230.36 2320
1075.71 1230.36 2320
1079.86 1228.77 2317
1080.71 1223.47 2307
1086.23 1223.47 2307
1091.74 1223.47 2307
1099.16 1225.59 2311
1104.69 1225.59 2311
1110.22 1225.59 2311
1113.81 1223.47 2307
1114.96 1218.69 2298
1121.92 1220.28 2301
1135.26 1228.77 2317
1140.8 1228.77 2317
1180.98 1265.89 2387
1186.68 1265.89 2387
1192.39 1265.89 2387
1198.1 1265.89 2387
1171.53 1231.95 2323
1172.53 1227.18 2314
1176.53 1225.59 2311
1182.06 1225.59 2311
1182.45 1220.28 2301
1187.95 1220.28 2301
1200.19 1227.18 2314
1207.29 1228.77 2317
1212.83 1228.77 2317
1219.95 1230.36 2320
1225.5 1230.36 2320
1231.04 1230.36 2320
1236.59 1230.36 2320
1242.14 1230.36 2320
1247.69 1230.36 2320
1253.24 1230.36 2320
1258.78 1230.36 2320
1257.25 1223.47 2307
1261.12 1221.87 2304
1263.33 1218.69 2298
1268.83 1218.69 2298
1272.66 1217.1 2295
1274.25 1213.39 2288
1276.36 1210.21 2282
1285.19 1213.39 2288
1290.66 1213.39 2288
1298.4 1215.51 2292
1303.88 1215.51 2292
1311.08 1217.1 2295
1316.56 1217.1 2295
1323.78 1218.69 2298
1331.01 1220.28 2301
1336.51 1220.28 2301
1342.02 1220.28 2301
1347.52 1220.28 2301
1353.02 1220.28 2301
1356.75 1218.69 2298
1364.02 1220.28 2301
1369.53 1220.28 2301
1375.03 1220.28 2301
1382.33 1221.87 2304
1387.84 1221.87 2304
1393.35 1221.87 2304
1397.04 1220.28 2301
1402.54 1220.28 2301
1408.04 1220.28 2301
1405.56 1213.39 2288
1405.48 1208.62 2279
1409.07 1207.03 2276
1414.52 1207.03 2276
1416.22 1203.84 2270
1417.89 1200.66 2264
1423.3 1200.66 2264
1430.61 1202.25 2267
1439.83 1205.43 2273
1445.26 1205.43 2273
1450.7 1205.43 2273
1454.21 1203.84 2270
1459.64 1203.84 2270
1461.2 1200.66 2264
1474.38 1207.03 2276
1487.63 1213.39 2288
1499.63 1218.69 2298
1505.12 1218.69 2298
1510.62 1218.69 2298
1516.11 1218.69 2298
1521.61 1218.69 2298
1529.1 1220.28 2301
1534.6 1220.28 2301
1542.11 1221.87 2304
1552.32 1225.59 2311
1565.94 1231.95 2323
1571.49 1231.95 2323
1577.05 1231.95 2323
1580.56 1230.36 2320
1586.11 1230.36 2320
1585.48 1225.59 2311
1579.99 1217.1 2295
1580.64 1213.39 2288
1599.28 1223.47 2307
1604.8 1223.47 2307
1610.32 1223.47 2307
1615.83 1223.47 2307
1621.35 1223.47 2307
1622.64 1220.28 2301
1618.94 1213.39 2288
1629.38 1217.1 2295
1634.87 1217.1 2295
1640.36 1217.1 2295
1645.85 1217.1 2295
1651.33 1217.1 2295
1647.44 1210.21 2282
1652.89 1210.21 2282
1645.27 1200.66 2264
1652.87 1202.25 2267
1658.29 1202.25 2267
1670.32 1207.03 2276
1675.76 1207.03 2276
1690.07 1213.39 2288
1695.54 1213.39 2288
1701.01 1213.39 2288
1706.48 1213.39 2288
1711.95 1213.39 2288
1717.42 1213.39 2288
1728.17 1217.1 2295
1738.19 1220.28 2301
1743.69 1220.28 2301
1753.75 1223.47 2307
1769.18 1230.36 2320
1774.73 1230.36 2320
-1725.06 1227.39 2304
-1724.78 1231.12 2311
-1723.71 1234.32 2317
-1722.62 1237.52 2323
-1717.07 1237.52 2323
-1711.51 1237.52 2323
-1705.96 1237.52 2323
-1700.4 1237.52 2323
-1694.85 1237.52 2323
-1689.29 1237.52 2323
-1683.74 1237.52 2323
-1683.24 1241.24 2330
-1677.67 1241.24 2330
-1672.1 1241.24 2330
-1657.23 1234.32 2317
-1651.68 1234.32 2317
-1641.88 1231.12 2311
-1638.48 1232.72 2314
-1635.06 1234.32 2317
-1631.63 1235.92 2320
-1626.08 1235.92 2320
-1620.54 1235.92 2320
-1605.94 1228.99 2307
-1600.42 1228.99 2307
-1590.76 1225.8 2301
-1585.26 1225.8 2301
-1579.75 1225.8 2301
-1574.25 1225.8 2301
-1568.75 1225.8 2301
-1563.25 1225.8 2301
-1536.76 1209.28 2270
-1531.33 1209.28 2270
-1525.9 1209.28 2270
-1526.5 1214.08 2279
-1523.05 1215.67 2282
-1519.59 1217.27 2285
-1514.13 1217.27 2285
-1508.66 1217.27 2285
-1499.25 1214.08 2279
-1493.8 1214.08 2279
-1488.35 1214.08 2279
-1482.9 1214.08 2279
-1477.45 1214.08 2279
-1477.82 1218.87 2288
-1474.92 1221 2292
-1469.44 1221 2292
-1463.96 1221 2292
-1452.11 1215.67 2282
-1446.66 1215.67 2282
-1437.41 1212.48 2276
-1426.3 1207.68 2267
-1424.64 1210.88 2273
-1419.21 1210.88 2273
-1413.77 1210.88 2273
-1413.91 1215.67 2282
-1410.31 1217.27 2285
-1404.84 1217.27 2285
-1399.38 1217.27 2285
-1393.92 1217.27 2285
-1388.45 1217.27 2285
-1382.99 1217.27 2285
-1375.72 1215.67 2282
-1370.26 1215.67 2282
-1361.21 1212.48 2276
-1355.77 1212.48 2276
-1350.33 1212.48 2276
-1354.34 1221 2292
-1348.86 1221 2292
-1345.14 1222.6 2295
-1339.65 1222.6 2295
-1335.9 1224.2 2298
-1330.41 1224.2 2298
-1330.1 1228.99 2307
-1324.59 1228.99 2307
-1321.36 1231.12 2311
-1315.83 1231.12 2311
-1312 1232.72 2314
-1306.47 1232.72 2314
-1304.31 1235.92 2320
-1298.76 1235.92 2320
-1298.79 1241.24 2330
-1293.22 1241.24 2330
-1291.51 1244.97 2337
-1289.23 1248.17 2343
-1292.94 1257.23 2360
-1287.29 1257.23 2360
-1294.14 1269.48 2383
-1290.61 1271.61 2387
-1284.9 1271.61 2387
-1279.19 1271.61 2387
-1273.48 1271.61 2387
-1260.34 1264.15 2373
-1254.66 1264.15 2373
-1243.73 1258.82 2363
-1229.17 1249.77 2346
-1218.86 1244.97 2337
-1213.28 1244.97 2337
-1205.62 1242.84 2333
-1198.5 1241.24 2330
-1192.93 1241.24 2330
-1192.45 1246.57 2340
-1186.85 1246.57 2340
-1182.77 1248.17 2343
-1177.17 1248.17 2343
-1171.57 1248.17 2343
-1164.47 1246.57 2340
-1158.88 1246.57 2340
-1153.28 1246.57 2340
-1147.69 1246.57 2340
-1142.09 1246.57 2340
-1130.18 1239.65 2327
-1122.68 1237.52 2323
-1117.13 1237.52 2323
-1111.57 1237.52 2323
-1112.68 1244.97 2337
-1122.73 1262.55 2370
-1117.06 1262.55 2370
-1111.39 1262.55 2370
-1105.73 1262.55 2370
-1098.2 1260.42 2366
-1092.54 1260.42 2366
-1085.51 1258.82 2363
-1079.86 1258.82 2363
-1072.84 1257.23 2360
-1067.2 1257.23 2360
-1048.06 1241.24 2330
-1041.15 1239.65 2327
-1035.58 1239.65 2327
-1032.67 1242.84 2333
-1034.58 1251.9 2350
-1028.96 1251.9 2350
-1029 1258.82 2363
-1023.35 1258.82 2363
-1017.7 1258.82 2363
-1010.76 1257.23 2360
-1002.14 1253.5 2353
-988.043 1242.84 2333
-982.464 1242.84 2333
-976.885 1242.84 2333
-971.306 1242.84 2333
-961.587 1237.52 2323
-956.032 1237.52 2323
-950.477 1237.52 2323
-940.041 1231.12 2311
-934.515 1231.12 2311
-928.989 1231.12 2311
-921.864 1228.99 2307
-910.389 1221 2292
-904.908 1221 2292
-899.427 1221 2292
-893.947 1221 2292
-886.915 1218.87 2288
-881.444 1218.87 2288
-875.973 1218.87 2288
-870.501 1218.87 2288
-865.03 1218.87 2288
-859.559 1218.87 2288
-855.581 1221 2292
-850.1 1221 2292
-844.619 1221 2292
-841.335 1224.2 2298
-836.931 1225.8 2301
-831.428 1225.8 2301
-825.926 1225.8 2301
-820.423 1225.8 2301
-818.463 1231.12 2311
-815.047 1234.32 2317
-809.506 1234.32 2317
-803.966 1234.32 2317
-798.425 1234.32 2317
-792.884 1234.32 2317
-787.344 1234.32 2317
-780.791 1232.72 2314
-772.912 1228.99 2307
-767.395 1228.99 2307
-761.879 1228.99 2307
-758.657 1232.72 2314
-754.1 1234.32 2317
-748.559 1234.32 2317
-743.018 1234.32 2317
-737.478 1234.32 2317
-731.937 1234.32 2317
-726.397 1234.32 2317
-719.923 1232.72 2314
-715.315 1234.32 2317
-712.838 1239.65 2327
-709.097 1242.84 2333
-703.518 1242.84 2333
-697.939 1242.84 2333
-692.36 1242.84 2333
-686.781 1242.84 2333
-681.203 1242.84 2333
-677.651 1246.57 2340
-674.927 1251.9 2350
-675.004 1262.55 2370
-669.336 1262.55 2370
-666.469 1267.88 2380
-660.778 1267.88 2380
-655.087 1267.88 2380
-513.881 1012.17 1900
-509.338 1012.17 1900
-504.794 1012.17 1900
-499.724 1011.11 1898
-495.186 1011.11 1898
-490.647 1011.11 1898
-483.291 1005.25 1887
-478.779 1005.25 1887
-474.266 1005.25 1887
-469.256 1004.18 1885
-463.762 1002.05 1881
-457.555 998.323 1874
-451.14 994.061 1866
-446.677 994.061 1866
-438.897 986.603 1852
-434 985.538 1850
-427.95 981.808 1843
-423.543 981.808 1843
-416.407 975.416 1831
-410.228 971.154 1823
-402.752 963.696 1809
-398.426 963.696 1809
-392.139 958.901 1800
-383.957 949.312 1782
-375.647 939.191 1763
-369.535 934.396 1754
-365.341 934.396 1754
-360.529 932.798 1751
-354.306 927.471 1741
-349.54 925.873 1738
-345.384 925.873 1738
-341.228 925.873 1738
-336.296 923.742 1734
-332.149 923.742 1734
-328.759 925.873 1738
-324.603 925.873 1738
-320.447 925.873 1738
-316.655 926.938 1740
-312.494 926.938 1740
-308.333 926.938 1740
-304.173 926.938 1740
-300.529 928.536 1743
-296.701 929.602 1745
-292.528 929.602 1745
-288.686 930.667 1747
-284.834 931.732 1749
-280.972 932.798 1751
-276.785 932.798 1751
-272.754 933.331 1752
-268.871 934.396 1754
-264.676 934.396 1754
-260.779 935.462 1756
-256.58 935.462 1756
-252.668 936.527 1758
-248.747 937.592 1760
-244.816 938.658 1762
-240.603 938.658 1762
-236.523 939.191 1763
-233.098 942.387 1769
-229.127 943.452 1771
-224.892 943.452 1771
-221.404 946.649 1777
-217.522 948.247 1780
-213.744 950.378 1784
-209.478 950.378 1784
-205.212 950.378 1784
-201.622 953.574 1790
-197.341 953.574 1790
-193.061 953.574 1790
-188.781 953.574 1790
-184.706 954.64 1792
-180.824 956.771 1796
-176.529 956.771 1796
-172.234 956.771 1796
-197.264 1251.9 2350
-191.889 1253.5 2353
-186.263 1253.5 2353
-180.636 1253.5 2353
-175.009 1253.5 2353
-169.382 1253.5 2353
-163.547 1251.9 2350
-157.927 1251.9 2350
-151.66 1246.57 2340
-145.627 1242.84 2333
-140.048 1242.84 2333
-134.469 1242.84 2333
-128.89 1242.84 2333
-123.311 1242.84 2333
-117.733 1242.84 2333
-112.49 1246.57 2340
-106.895 1246.57 2340
-101.429 1248.17 2343
-95.9486 1249.77 2346
-90.4927 1251.9 2350
-84.8731 1251.9 2350
-79.2535 1251.9 2350
-73.634 1251.9 2350
-68.0144 1251.9 2350
-62.3948 1251.9 2350
-56.7753 1251.9 2350
-51.1557 1251.9 2350
-45.5943 1253.5 2353
-39.9675 1253.5 2353
-34.3408 1253.5 2353
-28.7141 1253.5 2353
-23.0873 1253.5 2353
-17.4606 1253.5 2353
-11.7685 1246.57 2340
-6.15437 1242.84 2333
-0.574721 1241.24 2330
4.99701 1241.24 2330
10.5551 1239.65 2327
16.1197 1239.65 2327
21.6843 1239.65 2327
27.2488 1239.65 2327
32.7147 1235.92 2320
38.0481 1228.99 2307
43.5648 1228.99 2307
49.1667 1231.12 2311
54.693 1231.12 2311
60.2975 1232.72 2314
65.8309 1232.72 2314
71.3644 1232.72 2314
76.7982 1231.12 2311
82.182 1228.99 2307
87.5847 1227.39 2304
93.0943 1227.39 2304
98.6038 1227.39 2304
104.113 1227.39 2304
109.956 1231.12 2311
115.482 1231.12 2311
121.009 1231.12 2311
126.535 1231.12 2311
132.061 1231.12 2311
137.766 1232.72 2314
143.671 1235.92 2320
149.219 1235.92 2320
154.967 1237.52 2323
160.522 1237.52 2323
166.363 1239.65 2327
171.927 1239.65 2327
177.492 1239.65 2327
183.057 1239.65 2327
188.621 1239.65 2327
194.186 1239.65 2327
200.265 1242.84 2333
206.991 1249.77 2346
213.507 1255.1 2356
219.141 1255.1 2356
225.157 1257.23 2360
230.8 1257.23 2360
236.444 1257.23 2360
242.087 1257.23 2360
247.311 1255.1 2356
252.945 1255.1 2356
258.579 1255.1 2356
263.54 1251.9 2350
269.159 1251.9 2350
274.311 1249.77 2346
279.921 1249.77 2346
285.166 1248.17 2343
290.397 1246.57 2340
295.613 1244.97 2337
300.686 1242.84 2333
306.265 1242.84 2333
311.844 1242.84 2333
317.014 1241.24 2330
322.171 1239.65 2327
327.735 1239.65 2327
333.3 1239.65 2327
338.864 1239.65 2327
344.429 1239.65 2327
349.993 1239.65 2327
355.558 1239.65 2327
361.123 1239.65 2327
366.687 1239.65 2327
372.252 1239.65 2327
377.816 1239.65 2327
383.381 1239.65 2327
388.945 1239.65 2327
395.019 1241.24 2330
400.59 1241.24 2330
406.162 1241.24 2330
411.734 1241.24 2330
417.305 1241.24 2330
422.877 1241.24 2330
427.897 1239.65 2327
432.717 1237.52 2323
437.14 1234.32 2317
442.68 1234.32 2317
448.221 1234.32 2317
453.762 1234.32 2317
459.302 1234.32 2317
466.047 1237.52 2323
471.602 1237.52 2323
479.211 1242.84 2333
484.79 1242.84 2333
490.369 1242.84 2333
495.948 1242.84 2333
500.882 1241.24 2330
506.453 1241.24 2330
512.025 1241.24 2330
517.597 1241.24 2330
521.597 1237.52 2323
528.059 1239.65 2327
534.312 1241.24 2330
539.884 1241.24 2330
545.455 1241.24 2330
551.027 1241.24 2330
556.599 1241.24 2330
561.447 1239.65 2327
567.011 1239.65 2327
572.576 1239.65 2327
578.141 1239.65 2327
583.705 1239.65 2327
589.27 1239.65 2327
593.812 1237.52 2323
599.367 1237.52 2323
604.922 1237.52 2323
608.112 1232.72 2314
614.441 1234.32 2317
620.784 1235.92 2320
627.142 1237.52 2323
632.697 1237.52 2323
638.252 1237.52 2323
644.915 1239.65 2327
650.48 1239.65 2327
656.044 1239.65 2327
662.462 1241.24 2330
668.034 1241.24 2330
673.605 1241.24 2330
679.177 1241.24 2330
684.749 1241.24 2330
689.432 1239.65 2327
693.802 1237.52 2323
699.357 1237.52 2323
703.091 1234.32 2317
707.714 1232.72 2314
713.248 1232.72 2314
718.781 1232.72 2314
724.315 1232.72 2314
729.848 1232.72 2314
735.381 1232.72 2314
740.915 1232.72 2314
745.481 1231.12 2311
751.007 1231.12 2311
757.515 1232.72 2314
764.038 1234.32 2317
769.579 1234.32 2317
775.119 1234.32 2317
780.66 1234.32 2317
786.201 1234.32 2317
791.741 1234.32 2317
797.282 1234.32 2317
808.367 1242.84 2333
824.412 1258.82 2363
830.063 1258.82 2363
835.713 1258.82 2363
841.364 1258.82 2363
842.355 1251.9 2350
847.974 1251.9 2350
849.961 1246.57 2340
855.557 1246.57 2340
860.049 1244.97 2337
865.637 1244.97 2337
869.734 1242.84 2333
875.313 1242.84 2333
880.892 1242.84 2333
886.471 1242.84 2333
892.05 1242.84 2333
893.782 1237.52 2323
900.885 1239.65 2327
906.45 1239.65 2327
912.014 1239.65 2327
917.579 1239.65 2327
921.557 1237.52 2323
927.112 1237.52 2323
930.258 1234.32 2317
933.375 1231.12 2311
938.901 1231.12 2311
944.427 1231.12 2311
949.954 1231.12 2311
955.48 1231.12 2311
961.006 1231.12 2311
963.605 1227.39 2304
969.115 1227.39 2304
974.624 1227.39 2304
981.41 1228.99 2307
986.927 1228.99 2307
992.443 1228.99 2307
997.96 1228.99 2307
1005.22 1231.12 2311
1010.74 1231.12 2311
1016.27 1231.12 2311
1021.8 1231.12 2311
1027.32 1231.12 2311
1031.06 1228.99 2307
1036.58 1228.99 2307
1042.09 1228.99 2307
1047.61 1228.99 2307
1053.13 1228.99 2307
1058.64 1228.99 2307
1064.16 1228.99 2307
1066.9 1225.8 2301
1069.6 1222.6 2295
1073.68 1221 2292
1079.17 1221 2292
1084.65 1221 2292
1090.13 1221 2292
1095.61 1221 2292
1101.09 1221 2292
1103.19 1217.27 2285
1102.83 1210.88 2273
1111.19 1214.08 2279
1119.58 1217.27 2285
1125.05 1217.27 2285
1130.51 1217.27 2285
1135.97 1217.27 2285
1152.43 1228.99 2307
1157.95 1228.99 2307
1163.46 1228.99 2307
1168.98 1228.99 2307
1171.44 1225.8 2301
1176.94 1225.8 2301
1180.9 1224.2 2298
1187.95 1225.8 2301
1193.45 1225.8 2301
1200.52 1227.39 2304
1206.03 1227.39 2304
1216.79 1232.72 2314
1222.33 1232.72 2314
1227.86 1232.72 2314
1231.8 1231.12 2311
1237.32 1231.12 2311
1242.85 1231.12 2311
1248.37 1231.12 2311
1253.9 1231.12 2311
1255.61 1227.39 2304
1256.2 1222.6 2295
1261.68 1222.6 2295
1267.17 1222.6 2295
1272.66 1222.6 2295
1270.91 1215.67 2282
1276.36 1215.67 2282
1283.51 1217.27 2285
1288.97 1217.27 2285
1296.13 1218.87 2288
1301.61 1218.87 2288
1311.08 1222.6 2295
1316.56 1222.6 2295
1322.05 1222.6 2295
1329.28 1224.2 2298
1334.77 1224.2 2298
1340.27 1224.2 2298
1345.76 1224.2 2298
1351.26 1224.2 2298
1354.98 1222.6 2295
1360.47 1222.6 2295
1365.96 1222.6 2295
1371.44 1222.6 2295
1375.13 1221 2292
1380.61 1221 2292
1386.09 1221 2292
1391.57 1221 2292
1394.62 1218.87 2288
1400.09 1218.87 2288
1401.87 1215.67 2282
1401.78 1210.88 2273
1401.64 1206.08 2264
1400.84 1200.76 2254
1406.23 1200.76 2254
1404.11 1194.36 2242
1418.9 1202.36 2257
1430.61 1207.68 2267
1437.93 1209.28 2270
1443.36 1209.28 2270
1448.78 1209.28 2270
1454.21 1209.28 2270
1459.64 1209.28 2270
1461.2 1206.08 2264
1474.38 1212.48 2276
1487.63 1218.87 2288
1499.63 1224.2 2298
1505.12 1224.2 2298
1510.62 1224.2 2298
1516.11 1224.2 2298
1521.61 1224.2 2298
1529.1 1225.8 2301
1534.6 1225.8 2301
1542.11 1227.39 2304
1552.32 1231.12 2311
1557.85 1231.12 2311
1563.37 1231.12 2311
1568.9 1231.12 2311
1574.43 1231.12 2311
1579.95 1231.12 2311
1563.52 1214.08 2279
1549.7 1199.16 2251
1550.94 1195.96 2245
1556.3 1195.96 2245
1561.67 1195.96 2245
1558.66 1189.57 2233
1564 1189.57 2233
1556.69 1179.98 2215
1561.99 1179.98 2215
1567.29 1179.98 2215
1600.27 1200.76 2254
1614.92 1207.68 2267
1620.34 1207.68 2267
1625.77 1207.68 2267
1631.19 1207.68 2267
1636.61 1207.68 2267
1642.03 1207.68 2267
1645.27 1206.08 2264
1652.87 1207.68 2267
1658.29 1207.68 2267
1670.32 1212.48 2276
1675.76 1212.48 2276
1690.07 1218.87 2288
1695.54 1218.87 2288
1701.01 1218.87 2288
1706.48 1218.87 2288
1711.95 1218.87 2288
1717.42 1218.87 2288
1728.17 1222.6 2295
1738.19 1225.8 2301
1743.69 1225.8 2301
1753.75 1228.99 2307
1769.18 1235.92 2320
1774.73 1235.92 2320
-1725.06 1232.91 2304
-1724.78 1236.66 2311
-1723.71 1239.87 2317
-1722.62 1243.08 2323
-1717.07 1243.08 2323
-1711.51 1243.08 2323
-1705.96 1243.08 2323
-1700.4 1243.08 2323
-1694.85 1243.08 2323
-1689.29 1243.08 2323
-1683.74 1243.08 2323
-1683.24 1246.83 2330
-1677.67 1246.83 2330
-1672.1 1246.83 2330
-1657.23 1239.87 2317
-1651.68 1239.87 2317
-1641.88 1236.66 2311
-1638.48 1238.26 2314
-1635.06 1239.87 2317
-1631.63 1241.47 2320
-1626.08 1241.47 2320
-1620.54 1241.47 2320
-1605.94 1234.52 2307
-1600.42 1234.52 2307
-1590.76 1231.31 2301
-1585.26 1231.31 2301
-1579.75 1231.31 2301
-1574.25 1231.31 2301
-1568.75 1231.31 2301
-1561.21 1229.7 2298
-1536.76 1214.72 2270
-1531.33 1214.72 2270
-1523.88 1213.11 2267
-1524.49 1217.93 2276
-1519.05 1217.93 2276
-1519.59 1222.75 2285
-1514.13 1222.75 2285
-1508.66 1222.75 2285
-1495.3 1216.32 2273
-1487.9 1214.72 2270
-1482.47 1214.72 2270
-1477.05 1214.72 2270
-1471.62 1214.72 2270
-1473.94 1221.14 2282
-1474.92 1226.49 2292
-1469.44 1226.49 2292
-1463.96 1226.49 2292
-1452.11 1221.14 2282
-1446.66 1221.14 2282
-1435.51 1216.32 2273
-1430.08 1216.32 2273
-1424.64 1216.32 2273
-1422.95 1219.54 2279
-1417.5 1219.54 2279
-1417.63 1224.35 2288
-1412.16 1224.35 2288
-1406.69 1224.35 2288
-1399.38 1222.75 2285
-1393.92 1222.75 2285
-1388.45 1222.75 2285
-1384.8 1224.35 2288
-1379.33 1224.35 2288
-1373.86 1224.35 2288
-1368.39 1224.35 2288
-1362.92 1224.35 2288
-1355.67 1222.75 2285
-1350.2 1222.75 2285
-1344.74 1222.75 2285
-1339.27 1222.75 2285
-1333.81 1222.75 2285
-1328.35 1222.75 2285
-1322.88 1222.75 2285
-1323.18 1228.1 2295
-1317.7 1228.1 2295
-1312.21 1228.1 2295
-1310.14 1231.31 2301
-1308.04 1234.52 2307
-1302.52 1234.52 2307
-1297 1234.52 2307
-1295.4 1238.26 2314
-1289.87 1238.26 2314
-1284.34 1238.26 2314
-1280.46 1239.87 2317
-1276.57 1241.47 2320
-1283.62 1253.78 2343
-1278.02 1253.78 2343
-1277.85 1259.13 2353
-1283.04 1269.84 2373
-1277.36 1269.84 2373
-1271.69 1269.84 2373
-1266.01 1269.84 2373
-1256.62 1266.09 2366
-1250.96 1266.09 2366
-1233.2 1253.78 2343
-1227.6 1253.78 2343
-1216.78 1248.43 2333
-1211.2 1248.43 2333
-1205.62 1248.43 2333
-1196.95 1245.22 2327
-1191.39 1245.22 2327
-1188.88 1248.43 2333
-1183.3 1248.43 2333
-1179.74 1250.57 2337
-1174.16 1250.57 2337
-1168.57 1250.57 2337
-1160.99 1248.43 2333
-1155.41 1248.43 2333
-1149.83 1248.43 2333
-1144.25 1248.43 2333
-1135.74 1245.22 2327
-1126.78 1241.47 2320
-1113.5 1232.91 2304
-1117.13 1243.08 2323
-1111.57 1243.08 2323
-1112.68 1250.57 2337
-1107.09 1250.57 2337
-1101.51 1250.57 2337
-1095.92 1250.57 2337
-1099.19 1260.74 2356
-1095.42 1262.88 2360
-1091.16 1264.48 2363
-1085.51 1264.48 2363
-1079.86 1264.48 2363
-1072.84 1262.88 2360
-1067.2 1262.88 2360
-1048.06 1246.83 2330
-1041.15 1245.22 2327
-1035.58 1245.22 2327
-1031.35 1246.83 2330
-1027.09 1248.43 2333
-1021.52 1248.43 2333
-1023.34 1257.53 2350
-1017.72 1257.53 2350
-1012.1 1257.53 2350
-1004.77 1255.39 2346
-986.807 1239.87 2317
-981.266 1239.87 2317
-975.726 1239.87 2317
-968.929 1238.26 2314
-960.481 1234.52 2307
-954.964 1234.52 2307
-949.448 1234.52 2307
-940.249 1229.7 2298
-933.533 1228.1 2295
-922.788 1221.14 2282
-917.331 1221.14 2282
-911.874 1221.14 2282
-905.226 1219.54 2279
-899.776 1219.54 2279
-894.326 1219.54 2279
-886.536 1216.32 2273
-881.101 1216.32 2273
-876.821 1217.93 2276
-871.378 1217.93 2276
-865.936 1217.93 2276
-860.493 1217.93 2276
-855.051 1217.93 2276
-852.968 1222.75 2285
-847.503 1222.75 2285
-843.145 1224.35 2288
-841.335 1229.7 2298
-835.839 1229.7 2298
-830.344 1229.7 2298
-823.772 1228.1 2295
-820.423 1231.31 2301
-815.984 1232.91 2304
-812.936 1236.66 2311
-807.41 1236.66 2311
-801.884 1236.66 2311
-796.357 1236.66 2311
-790.831 1236.66 2311
-782.926 1232.91 2304
-777.417 1232.91 2304
-770.902 1231.31 2301
-765.4 1231.31 2301
-759.897 1231.31 2301
-754.395 1231.31 2301
-750.845 1234.52 2307
-746.621 1236.66 2311
-741.094 1236.66 2311
-735.568 1236.66 2311
-730.042 1236.66 2311
-724.516 1236.66 2311
-718.989 1236.66 2311
-713.463 1236.66 2311
-709.775 1239.87 2317
-707.273 1245.22 2327
-701.709 1245.22 2327
-697.042 1246.83 2330
-691.47 1246.83 2330
-685.898 1246.83 2330
-679.451 1245.22 2327
-673.886 1245.22 2327
-672.055 1252.18 2340
-672.156 1262.88 2360
-666.512 1262.88 2360
-660.869 1262.88 2360
-655.225 1262.88 2360
-649.582 1262.88 2360
-513.341 1015.65 1898
-508.802 1015.65 1898
-504.263 1015.65 1898
-499.198 1014.58 1896
-494.664 1014.58 1896
-490.13 1014.58 1896
-482.779 1008.7 1885
-478.271 1008.7 1885
-473.764 1008.7 1885
-468.758 1007.63 1883
-463.762 1006.56 1881
-457.555 1002.81 1874
-450.656 997.461 1864
-446.199 997.461 1864
-438.897 991.039 1852
-433.296 988.364 1847
-427.95 986.223 1843
-423.543 986.223 1843
-416.407 979.802 1831
-410.228 975.521 1823
-402.752 968.029 1809
-398.426 968.029 1809
-392.139 963.213 1800
-383.957 953.581 1782
-375.647 943.414 1763
-369.535 938.598 1754
-365.341 938.598 1754
-360.529 936.992 1751
-354.306 931.641 1741
-349.54 930.036 1738
-345.384 930.036 1738
-341.228 930.036 1738
-336.296 927.895 1734
-332.149 927.895 1734
-328.759 930.036 1738
-324.603 930.036 1738
-320.447 930.036 1738
-316.655 931.106 1740
-312.494 931.106 1740
-308.333 931.106 1740
-304.173 931.106 1740
-300.529 932.712 1743
-296.701 933.782 1745
-292.528 933.782 1745
-288.686 934.852 1747
-284.834 935.922 1749
-280.972 936.992 1751
-276.785 936.992 1751
-272.754 937.528 1752
-268.871 938.598 1754
-264.676 938.598 1754
-260.779 939.668 1756
-256.58 939.668 1756
-252.668 940.738 1758
-248.747 941.809 1760
-244.816 942.879 1762
-240.603 942.879 1762
-236.523 943.414 1763
-233.098 946.625 1769
-229.127 947.695 1771
-224.892 947.695 1771
-221.404 950.906 1777
-217.522 952.511 1780
-213.744 954.651 1784
-209.478 954.651 1784
-205.212 954.651 1784
-201.622 957.862 1790
-197.341 957.862 1790
-193.061 957.862 1790
-188.781 957.862 1790
-184.706 958.932 1792
-180.824 961.073 1796
-176.529 961.073 1796
-172.234 961.073 1796
-197.264 1257.53 2350
-191.889 1259.13 2353
-186.263 1259.13 2353
-180.636 1259.13 2353
-175.009 1259.13 2353
-169.382 1259.13 2353
-163.547 1257.53 2350
-157.927 1257.53 2350
-151.66 1252.18 2340
-145.44 1246.83 2330
-139.868 1246.83 2330
-134.296 1246.83 2330
-128.725 1246.83 2330
-123.153 1246.83 2330
-117.581 1246.83 2330
-112.009 1246.83 2330
-106.438 1246.83 2330
-100.996 1248.43 2333
-95.8259 1253.78 2343
-90.2231 1253.78 2343
-84.6203 1253.78 2343
-79.0174 1253.78 2343
-73.4146 1253.78 2343
-67.8118 1253.78 2343
-62.209 1253.78 2343
-56.6062 1253.78 2343
-50.8727 1250.57 2337
-45.2843 1250.57 2337
-39.6958 1250.57 2337
-34.1073 1250.57 2337
-28.47 1248.43 2333
-22.8911 1248.43 2333
-17.3122 1248.43 2333
-11.6679 1241.47 2320
-6.10425 1238.26 2314
-0.570775 1238.26 2314
4.9627 1238.26 2314
10.4962 1238.26 2314
16.0089 1236.66 2311
21.5352 1236.66 2311
27.0615 1236.66 2311
32.5314 1234.52 2307
37.8997 1229.7 2298
43.4515 1231.31 2301
49.1667 1236.66 2311
54.693 1236.66 2311
60.2975 1238.26 2314
65.8309 1238.26 2314
71.3644 1238.26 2314
76.7982 1236.66 2311
82.182 1234.52 2307
87.5847 1232.91 2304
93.0943 1232.91 2304
98.6038 1232.91 2304
104.113 1232.91 2304
109.956 1236.66 2311
115.482 1236.66 2311
121.009 1236.66 2311
126.535 1236.66 2311
132.061 1236.66 2311
137.766 1238.26 2314
143.671 1241.47 2320
149.219 1241.47 2320
154.967 1243.08 2323
160.522 1243.08 2323
166.363 1245.22 2327
171.927 1245.22 2327
177.492 1245.22 2327
183.057 1245.22 2327
188.621 1245.22 2327
194.186 1245.22 2327
200.265 1248.43 2333
206.991 1255.39 2346
213.507 1260.74 2356
219.141 1260.74 2356
225.157 1262.88 2360
230.8 1262.88 2360
236.444 1262.88 2360
242.087 1262.88 2360
247.311 1260.74 2356
252.945 1260.74 2356
258.579 1260.74 2356
263.54 1257.53 2350
269.159 1257.53 2350
274.311 1255.39 2346
279.921 1255.39 2346
285.166 1253.78 2343
290.397 1252.18 2340
295.613 1250.57 2337
300.686 1248.43 2333
306.265 1248.43 2333
311.844 1248.43 2333
317.014 1246.83 2330
322.171 1245.22 2327
327.735 1245.22 2327
333.3 1245.22 2327
338.864 1245.22 2327
344.429 1245.22 2327
349.993 1245.22 2327
355.558 1245.22 2327
361.123 1245.22 2327
366.687 1245.22 2327
372.252 1245.22 2327
377.816 1245.22 2327
383.381 1245.22 2327
388.945 1245.22 2327
395.019 1246.83 2330
400.59 1246.83 2330
406.162 1246.83 2330
411.734 1246.83 2330
417.305 1246.83 2330
422.877 1246.83 2330
427.897 1245.22 2327
432.717 1243.08 2323
437.14 1239.87 2317
442.68 1239.87 2317
448.221 1239.87 2317
453.762 1239.87 2317
459.302 1239.87 2317
466.047 1243.08 2323
471.602 1243.08 2323
479.211 1248.43 2333
484.79 1248.43 2333
490.369 1248.43 2333
495.948 1248.43 2333
500.882 1246.83 2330
506.453 1246.83 2330
512.025 1246.83 2330
517.597 1246.83 2330
521.597 1243.08 2323
528.059 1245.22 2327
534.312 1246.83 2330
539.884 1246.83 2330
545.455 1246.83 2330
551.027 1246.83 2330
556.599 1246.83 2330
561.447 1245.22 2327
567.011 1245.22 2327
569.377 1238.26 2314
575.656 1239.87 2317
581.197 1239.87 2317
586.737 1239.87 2317
592.278 1239.87 2317
597.819 1239.87 2317
603.359 1239.87 2317
606.272 1234.52 2307
612.849 1236.66 2311
619.981 1239.87 2317
626.332 1241.47 2320
631.88 1241.47 2320
637.427 1241.47 2320
642.975 1241.47 2320
650.48 1245.22 2327
656.044 1245.22 2327
661.609 1245.22 2327
667.174 1245.22 2327
672.738 1245.22 2327
678.303 1245.22 2327
682.692 1243.08 2323
687.358 1241.47 2320
692.01 1239.87 2317
697.55 1239.87 2317
701.27 1236.66 2311
704.656 1232.91 2304
710.165 1232.91 2304
715.675 1232.91 2304
721.184 1232.91 2304
726.694 1232.91 2304
732.203 1232.91 2304
737.713 1232.91 2304
742.255 1231.31 2301
747.757 1231.31 2301
753.26 1231.31 2301
760.741 1234.52 2307
766.257 1234.52 2307
771.774 1234.52 2307
777.291 1234.52 2307
782.807 1234.52 2307
788.324 1234.52 2307
793.841 1234.52 2307
802.823 1239.87 2317
813.945 1248.43 2333
820.929 1250.57 2337
826.518 1250.57 2337
832.106 1250.57 2337
836.261 1248.43 2333
841.84 1248.43 2333
847.419 1248.43 2333
852.998 1248.43 2333
856.369 1245.22 2327
861.933 1245.22 2327
866.007 1243.08 2323
871.562 1243.08 2323
877.117 1243.08 2323
882.672 1243.08 2323
887.079 1241.47 2320
892.627 1241.47 2320
898.175 1241.47 2320
903.723 1241.47 2320
909.271 1241.47 2320
914.819 1241.47 2320
917.986 1238.26 2314
918.331 1231.31 2301
923.834 1231.31 2301
928.124 1229.7 2298
929.557 1224.35 2288
935.028 1224.35 2288
940.5 1224.35 2288
945.971 1224.35 2288
950.195 1222.75 2285
951.895 1217.93 2276
958.599 1219.54 2279
964.049 1219.54 2279
970.775 1221.14 2282
977.515 1222.75 2285
988.572 1229.7 2298
994.067 1229.7 2298
999.562 1229.7 2298
1005.06 1229.7 2298
1010.55 1229.7 2298
1017.37 1231.31 2301
1022.88 1231.31 2301
1028.38 1231.31 2301
1033.88 1231.31 2301
1039.38 1231.31 2301
1044.89 1231.31 2301
1049.02 1229.7 2298
1054.51 1229.7 2298
1060.01 1229.7 2298
1060.87 1224.35 2288
1064.94 1222.75 2285
1066.19 1217.93 2276
1071.63 1217.93 2276
1077.07 1217.93 2276
1081.09 1216.32 2273
1083.66 1213.11 2267
1089.08 1213.11 2267
1091.6 1209.9 2261
1089.25 1201.34 2245
1099 1206.16 2254
1104.39 1206.16 2254
1109.78 1206.16 2254
1115.17 1206.16 2254
1120.56 1206.16 2254
1135.44 1216.32 2273
1145.4 1221.14 2282
1150.85 1221.14 2282
1156.31 1221.14 2282
1161.77 1221.14 2282
1167.23 1221.14 2282
1172.68 1221.14 2282
1179.69 1222.75 2285
1185.15 1222.75 2285
1198.95 1231.31 2301
1204.46 1231.31 2301
1209.96 1231.31 2301
1215.46 1231.31 2301
1220.96 1231.31 2301
1228.06 1232.91 2304
1233.57 1232.91 2304
1239.08 1232.91 2304
1244.59 1232.91 2304
1250.1 1232.91 2304
1246.89 1224.35 2288
1252.36 1224.35 2288
1257.83 1224.35 2288
1263.31 1224.35 2288
1267.11 1222.75 2285
1270.91 1221.14 2282
1278.04 1222.75 2285
1283.51 1222.75 2285
1288.97 1222.75 2285
1296.13 1224.35 2288
1301.61 1224.35 2288
1307.08 1224.35 2288
1312.55 1224.35 2288
1322.05 1228.1 2295
1327.54 1228.1 2295
1333.03 1228.1 2295
1338.52 1228.1 2295
1344 1228.1 2295
1345.38 1224.35 2288
1350.85 1224.35 2288
1356.32 1224.35 2288
1360 1222.75 2285
1365.47 1222.75 2285
1367.33 1219.54 2279
1372.78 1219.54 2279
1378.23 1219.54 2279
1385.5 1221.14 2282
1390.96 1221.14 2282
1396.42 1221.14 2282
1396.35 1216.32 2273
1396.23 1211.51 2264
1401.64 1211.51 2264
1395.25 1201.34 2245
1400.62 1201.34 2245
1404.11 1199.74 2242
1418.9 1207.76 2257
1428.71 1211.51 2264
1437.93 1214.72 2270
1443.36 1214.72 2270
1448.78 1214.72 2270
1454.21 1214.72 2270
1459.64 1214.72 2270
1461.2 1211.51 2264
1474.38 1217.93 2276
1487.63 1224.35 2288
1499.63 1229.7 2298
1505.12 1229.7 2298
1510.62 1229.7 2298
1516.11 1229.7 2298
1521.61 1229.7 2298
1529.1 1231.31 2301
1534.6 1231.31 2301
1542.11 1232.91 2304
1547.62 1232.91 2304
1553.13 1232.91 2304
1558.64 1232.91 2304
1564.15 1232.91 2304
1552.63 1219.54 2279
1558.07 1219.54 2279
1544.32 1204.55 2251
1526.98 1186.89 2218
1526.76 1182.61 2210
1532.04 1182.61 2210
1537.33 1182.61 2210
1540.52 1181.01 2207
1545.79 1181.01 2207
1551.07 1181.01 2207
1560.58 1184.22 2213
1565.87 1184.22 2213
1578.97 1190.1 2224
1607.8 1207.76 2257
1616.06 1209.9 2261
1621.46 1209.9 2261
1626.87 1209.9 2261
1632.28 1209.9 2261
1637.68 1209.9 2261
1635.82 1204.55 2251
1650.68 1211.51 2264
1656.1 1211.51 2264
1663.71 1213.11 2267
1669.13 1213.11 2267
1681.2 1217.93 2276
1693.32 1222.75 2285
1701.01 1224.35 2288
1706.48 1224.35 2288
1711.95 1224.35 2288
1715.17 1222.75 2285
1722.9 1224.35 2288
1735.92 1229.7 2298
1741.42 1229.7 2298
1751.47 1232.91 2304
1762.32 1236.66 2311
1767.85 1236.66 2311
-1706.34 1224.99 2279
-1719.55 1238.43 2304
-1716.27 1240.04 2307
-1715.95 1243.81 2314
-1710.41 1243.81 2314
-1704.88 1243.81 2314
-1699.35 1243.81 2314
-1693.81 1243.81 2314
-1688.28 1243.81 2314
-1680.57 1242.19 2311
-1675.04 1242.19 2311
-1669.51 1242.19 2311
-1663.99 1242.19 2311
-1655.59 1240.04 2307
-1650.07 1240.04 2307
-1647.41 1242.19 2311
-1641.88 1242.19 2311
-1636.36 1242.19 2311
-1630.83 1242.19 2311
-1625.3 1242.19 2311
-1619.78 1242.19 2311
-1611.46 1240.04 2307
-1599.67 1235.21 2298
-1594.18 1235.21 2298
-1584.54 1231.98 2292
-1583.19 1235.21 2298
-1577.69 1235.21 2298
-1572.2 1235.21 2298
-1566.7 1235.21 2298
-1561.21 1235.21 2298
-1536.76 1220.16 2270
-1531.33 1220.16 2270
-1523.88 1218.54 2267
-1524.49 1223.38 2276
-1519.05 1223.38 2276
-1519.59 1228.22 2285
-1514.13 1228.22 2285
-1508.66 1228.22 2285
-1495.3 1221.77 2273
-1487.9 1220.16 2270
-1482.47 1220.16 2270
-1477.05 1220.16 2270
-1471.62 1220.16 2270
-1473.94 1226.61 2282
-1474.92 1231.98 2292
-1469.44 1231.98 2292
-1463.96 1231.98 2292
-1452.11 1226.61 2282
-1446.66 1226.61 2282
-1435.51 1221.77 2273
-1430.08 1221.77 2273
-1428.4 1224.99 2279
-1422.95 1224.99 2279
-1417.5 1224.99 2279
-1417.63 1229.83 2288
-1412.16 1229.83 2288
-1406.69 1229.83 2288
-1399.38 1228.22 2285
-1393.92 1228.22 2285
-1388.45 1228.22 2285
-1384.8 1229.83 2288
-1379.33 1229.83 2288
-1373.86 1229.83 2288
-1368.39 1229.83 2288
-1362.92 1229.83 2288
-1355.67 1228.22 2285
-1350.2 1228.22 2285
-1344.74 1228.22 2285
-1339.27 1228.22 2285
-1333.81 1228.22 2285
-1328.35 1228.22 2285
-1324.62 1229.83 2288
-1323.18 1233.59 2295
-1317.7 1233.59 2295
-1312.21 1233.59 2295
-1310.14 1236.82 2301
-1308.04 1240.04 2307
-1302.52 1240.04 2307
-1297 1240.04 2307
-1295.4 1243.81 2314
-1289.87 1243.81 2314
-1284.34 1243.81 2314
-1280.46 1245.42 2317
-1276.57 1247.03 2320
-1283.62 1259.4 2343
-1278.02 1259.4 2343
-1277.85 1264.77 2353
-1283.04 1275.52 2373
-1277.36 1275.52 2373
-1271.69 1275.52 2373
-1266.01 1275.52 2373
-1256.62 1271.76 2366
-1250.96 1271.76 2366
-1233.2 1259.4 2343
-1227.6 1259.4 2343
-1216.78 1254.02 2333
-1211.2 1254.02 2333
-1205.62 1254.02 2333
-1196.95 1250.8 2327
-1191.39 1250.8 2327
-1188.88 1254.02 2333
-1183.3 1254.02 2333
-1179.74 1256.17 2337
-1174.16 1256.17 2337
-1168.57 1256.17 2337
-1160.99 1254.02 2333
-1155.41 1254.02 2333
-1149.83 1254.02 2333
-1144.25 1254.02 2333
-1135.74 1250.8 2327
-1126.78 1247.03 2320
-1113.5 1238.43 2304
-1117.13 1248.65 2323
-1111.57 1248.65 2323
-1112.68 1256.17 2337
-1107.09 1256.17 2337
-1101.51 1256.17 2337
-1095.92 1256.17 2337
-1099.19 1266.38 2356
-1095.42 1268.53 2360
-1091.16 1270.15 2363
-1085.51 1270.15 2363
-1079.86 1270.15 2363
-1025.59 1245.42 2317
-1020.05 1245.42 2317
-1014.51 1245.42 2317
-1002 1236.82 2301
-996.5 1236.82 2301
-992.29 1238.43 2304
-986.78 1238.43 2304
-981.27 1238.43 2304
-974.49 1236.82 2301
-968.988 1236.82 2301
-963.486 1236.82 2301
-954.236 1231.98 2292
-948.755 1231.98 2292
-943.274 1231.98 2292
-934.929 1228.22 2285
-928.245 1226.61 2282
-921.575 1224.99 2279
-916.125 1224.99 2279
-905.88 1218.54 2267
-899.268 1216.93 2264
-893.854 1216.93 2264
-889.617 1218.54 2267
-884.196 1218.54 2267
-878.775 1218.54 2267
-873.354 1218.54 2267
-869.081 1220.16 2270
-863.653 1220.16 2270
-859.359 1221.77 2273
-853.923 1221.77 2273
-849.608 1223.38 2276
-845.278 1224.99 2279
-839.828 1224.99 2279
-837.673 1229.83 2288
-832.202 1229.83 2288
-828.176 1231.98 2292
-822.695 1231.98 2292
-817.214 1231.98 2292
-811.734 1231.98 2292
-810.474 1238.43 2304
-804.964 1238.43 2304
-799.455 1238.43 2304
-792.911 1236.82 2301
-787.409 1236.82 2301
-779.868 1233.59 2295
-772.018 1229.83 2288
-765.542 1228.22 2285
-760.077 1228.22 2285
-754.613 1228.22 2285
-749.149 1228.22 2285
-746.94 1233.59 2295
-741.452 1233.59 2295
-735.964 1233.59 2295
-730.475 1233.59 2295
-724.987 1233.59 2295
-719.499 1233.59 2295
-714.011 1233.59 2295
-709.45 1235.21 2298
-706.711 1240.04 2307
-704.234 1245.42 2317
-698.693 1245.42 2317
-694.05 1247.03 2320
-688.502 1247.03 2320
-682.955 1247.03 2320
-676.531 1245.42 2317
-671.859 1247.03 2320
-669.183 1252.41 2330
-667.314 1259.4 2343
-661.711 1259.4 2343
-656.948 1261.01 2346
-651.338 1261.01 2346
-645.728 1261.01 2346
-512.259 1018.05 1894
-507.73 1018.05 1894
-503.2 1018.05 1894
-498.671 1018.05 1894
-494.142 1018.05 1894
-489.613 1018.05 1894
-482.779 1013.21 1885
-478.271 1013.21 1885
-473.764 1013.21 1885
-469.256 1013.21 1885
-463.762 1011.06 1881
-458.776 1009.99 1879
-451.623 1004.08 1868
-447.156 1004.08 1868
-439.371 996.551 1854
-433.296 992.788 1847
-427.95 990.638 1843
-423.543 990.638 1843
-416.862 985.263 1833
-411.578 983.113 1829
-404.088 975.588 1815
-399.747 975.588 1815
-393.664 971.288 1807
-385.68 962.15 1790
-377.352 951.937 1771
-370.378 944.95 1758
-366.174 944.95 1758
-361.146 942.8 1754
-354.306 935.812 1741
-349.942 935.274 1740
-345.781 935.274 1740
-341.228 934.199 1738
-336.684 933.124 1736
-332.532 933.124 1736
-328.759 934.199 1738
-324.603 934.199 1738
-320.447 934.199 1738
-316.655 935.274 1740
-312.494 935.274 1740
-308.333 935.274 1740
-304.173 935.274 1740
-300.529 936.887 1743
-296.701 937.962 1745
-292.528 937.962 1745
-288.355 937.962 1745
-284.508 939.037 1747
-280.972 941.187 1751
-276.785 941.187 1751
-272.754 941.725 1752
-268.564 941.725 1752
-264.978 943.875 1756
-261.076 944.95 1758
-256.872 944.95 1758
-252.668 944.95 1758
-248.747 946.025 1760
-244.955 947.637 1763
-240.739 947.637 1763
-236.792 948.712 1765
-233.362 951.937 1771
-229.385 953.012 1773
-225.146 953.012 1773
-221.404 955.162 1777
-217.522 956.775 1780
-213.744 958.925 1784
-209.478 958.925 1784
-205.442 960 1786
-201.622 962.15 1790
-197.341 962.15 1790
-193.061 962.15 1790
-188.781 962.15 1790
-184.706 963.225 1792
-180.824 965.375 1796
-176.529 965.375 1796
-172.234 965.375 1796
-197.264 1263.16 2350
-191.889 1264.77 2353
-186.263 1264.77 2353
-180.636 1264.77 2353
-175.009 1264.77 2353
-169.382 1264.77 2353
-163.547 1263.16 2350
-157.927 1263.16 2350
-151.465 1256.17 2337
-145.003 1248.65 2323
-139.448 1248.65 2323
-134.296 1252.41 2330
-128.725 1252.41 2330
-123.153 1252.41 2330
-117.581 1252.41 2330
-112.009 1252.41 2330
-106.438 1252.41 2330
-100.866 1252.41 2330
-95.7032 1257.78 2340
-90.1076 1257.78 2340
-84.5119 1257.78 2340
-78.9163 1257.78 2340
-73.3206 1257.78 2340
-67.725 1257.78 2340
-62.0497 1256.17 2337
-56.4612 1256.17 2337
-50.7857 1254.02 2333
-45.2067 1254.02 2333
-39.458 1248.65 2323
-33.903 1248.65 2323
-28.348 1248.65 2323
-22.793 1248.65 2323
-17.1935 1245.42 2317
-11.6377 1243.81 2314
-6.07787 1238.43 2304
-0.567568 1236.82 2301
4.93482 1236.82 2301
10.41 1233.59 2295
15.898 1233.59 2295
21.3861 1233.59 2295
26.8741 1233.59 2295
32.3622 1233.59 2295
37.8502 1233.59 2295
43.3382 1233.59 2295
48.8901 1235.21 2298
54.3853 1235.21 2298
60.0369 1238.43 2304
65.6318 1240.04 2307
71.1485 1240.04 2307
76.6653 1240.04 2307
82.0751 1238.43 2304
87.4706 1236.82 2301
92.973 1236.82 2301
98.347 1235.21 2298
103.842 1235.21 2298
109.48 1236.82 2301
115.132 1238.43 2304
120.799 1240.04 2307
126.316 1240.04 2307
131.833 1240.04 2307
137.349 1240.04 2307
142.866 1240.04 2307
148.383 1240.04 2307
154.367 1243.81 2314
160.315 1247.03 2320
165.862 1247.03 2320
171.41 1247.03 2320
176.958 1247.03 2320
182.27 1245.42 2317
187.811 1245.42 2317
193.101 1243.81 2314
199.149 1247.03 2320
205.844 1254.02 2333
212.964 1263.16 2350
218.583 1263.16 2350
224.489 1264.77 2353
230.409 1266.38 2356
236.043 1266.38 2356
241.677 1266.38 2356
246.996 1264.77 2353
252.301 1263.16 2350
257.92 1263.16 2350
262.755 1259.4 2343
268.358 1259.4 2343
273.96 1259.4 2343
279.563 1259.4 2343
285.166 1259.4 2343
290.397 1257.78 2340
295.613 1256.17 2337
300.686 1254.02 2333
306.265 1254.02 2333
311.844 1254.02 2333
317.014 1252.41 2330
322.171 1250.8 2327
327.735 1250.8 2327
332.727 1248.65 2323
338.864 1250.8 2327
344.429 1250.8 2327
349.993 1250.8 2327
354.947 1248.65 2323
360.036 1247.03 2320
366.057 1248.65 2323
371.612 1248.65 2323
377.167 1248.65 2323
382.722 1248.65 2323
388.277 1248.65 2323
393.832 1248.65 2323
399.387 1248.65 2323
404.942 1248.65 2323
410.497 1248.65 2323
416.052 1248.65 2323
421.607 1248.65 2323
426.61 1247.03 2320
431.599 1245.42 2317
436.574 1243.81 2314
442.107 1243.81 2314
447.641 1243.81 2314
452.587 1242.19 2311
458.113 1242.19 2311
463.639 1242.19 2311
469.166 1242.19 2311
477.157 1248.65 2323
484.166 1252.41 2330
489.738 1252.41 2330
495.31 1252.41 2330
498.087 1245.42 2317
503.628 1245.42 2317
509.168 1245.42 2317
514.709 1245.42 2317
518.004 1240.04 2307
523.521 1240.04 2307
529.038 1240.04 2307
534.554 1240.04 2307
540.071 1240.04 2307
545.588 1240.04 2307
551.105 1240.04 2307
558.31 1243.81 2314
563.844 1243.81 2314
569.377 1243.81 2314
575.656 1245.42 2317
581.197 1245.42 2317
586.737 1245.42 2317
592.278 1245.42 2317
597.819 1245.42 2317
603.359 1245.42 2317
606.272 1240.04 2307
612.849 1242.19 2311
619.981 1245.42 2317
626.332 1247.03 2320
631.88 1247.03 2320
637.427 1247.03 2320
642.975 1247.03 2320
650.48 1250.8 2327
656.044 1250.8 2327
661.609 1250.8 2327
667.174 1250.8 2327
672.738 1250.8 2327
678.303 1250.8 2327
682.692 1248.65 2323
687.358 1247.03 2320
692.01 1245.42 2317
697.55 1245.42 2317
701.27 1242.19 2311
704.656 1238.43 2304
710.165 1238.43 2304
715.675 1238.43 2304
721.184 1238.43 2304
726.694 1238.43 2304
732.203 1238.43 2304
737.713 1238.43 2304
742.255 1236.82 2301
