ply
format ascii 1.0
comment File generated
element vertex 2261
property float x
property float y
property float z
end_header
629.555 1167.54 2717
639.096 1173.12 2730
648.935 1179.14 2744
655.497 1179.14 2744
665.195 1184.73 2757
674.225 1189.02 2767
681.826 1190.74 2771
688.452 1190.74 2771
696.332 1192.89 2776
702.971 1192.89 2776
709.609 1192.89 2776
714.957 1190.74 2771
708.563 1169.26 2721
707.186 1156.37 2691
711.234 1152.5 2682
720.056 1156.37 2691
726.491 1156.37 2691
735.105 1159.8 2699
755.022 1180.86 2748
761.593 1180.86 2748
768.164 1180.86 2748
774.736 1180.86 2748
781.307 1180.86 2748
787.878 1180.86 2748
793.293 1179.14 2744
799.855 1179.14 2744
806.417 1179.14 2744
814.164 1180.86 2748
820.735 1180.86 2748
831.521 1186.88 2762
838.126 1186.88 2762
844.73 1186.88 2762
851.335 1186.88 2762
850.796 1176.99 2739
858.911 1179.14 2744
871.15 1186.88 2762
879.343 1189.02 2767
885.96 1189.02 2767
892.577 1189.02 2767
895.944 1184.73 2757
902.537 1184.73 2757
906.162 1180.86 2748
920.372 1190.74 2771
939.711 1207.07 2809
951.145 1213.09 2823
957.896 1213.09 2823
971.139 1221.25 2842
977.935 1221.25 2842
988.196 1225.55 2852
995.016 1225.55 2852
1001.84 1225.55 2852
1059.16 1213.09 2823
1065.91 1213.09 2823
1072.66 1213.09 2823
1079.41 1213.09 2823
1082.31 1208.79 2813
1089.04 1208.79 2813
1090.31 1202.78 2799
1089.56 1194.61 2780
1083.59 1180.86 2748
1090.16 1180.86 2748
1082.76 1165.82 2713
1078.41 1154.22 2686
1077.97 1146.91 2669
1075.82 1137.89 2648
1096.04 1152.5 2682
1102.46 1152.5 2682
1108.87 1152.5 2682
1122.35 1159.8 2699
1128.81 1159.8 2699
1135.26 1159.8 2699
1149.33 1167.54 2717
1172.84 1184.73 2757
1197.4 1202.78 2799
1204.1 1202.78 2799
1210.79 1202.78 2799
1217.48 1202.78 2799
1224.18 1202.78 2799
1227.39 1192.89 2776
1235.81 1194.61 2780
1265.7 1216.96 2832
1272.47 1216.96 2832
1305.89 1242.31 2891
1312.81 1242.31 2891
1322 1244.46 2896
1328.93 1244.46 2896
1335.85 1244.46 2896
1338.14 1240.16 2886
1345.04 1240.16 2886
1351.94 1240.16 2886
1358.84 1240.16 2886
1370.48 1244.46 2896
1377.4 1244.46 2896
1386.72 1246.61 2901
1393.66 1246.61 2901
1405.42 1250.9 2911
1425 1262.08 2937
1432.02 1262.08 2937
1439.04 1262.08 2937
1436.22 1253.48 2917
1435.28 1246.61 2901
1442.22 1246.61 2901
1449.15 1246.61 2901
1456.09 1246.61 2901
1463.03 1246.61 2901
1469.96 1246.61 2901
1461.63 1233.71 2871
1461.33 1227.7 2857
1468.17 1227.7 2857
1475 1227.7 2857
1468.86 1216.96 2832
1470.95 1213.09 2823
1472.46 1208.79 2813
1477.08 1207.07 2809
1483.8 1207.07 2809
1487.87 1204.92 2804
1491.91 1202.78 2799
1498.6 1202.78 2799
1505.29 1202.78 2799
1509.28 1200.63 2794
1506.2 1192.89 2776
1507.93 1189.02 2767
1514.55 1189.02 2767
1521.17 1189.02 2767
1522.26 1184.73 2757
1528.85 1184.73 2757
1535.45 1184.73 2757
1542.04 1184.73 2757
1546.39 1183.01 2753
1542.82 1175.27 2735
1528.96 1159.8 2699
1538.26 1161.95 2704
1544.73 1161.95 2704
1551.19 1161.95 2704
1559.96 1163.67 2708
1566.44 1163.67 2708
1572.91 1163.67 2708
1566.56 1154.22 2686
1565.37 1148.63 2673
1584.7 1158.08 2695
1591.14 1158.08 2695
1597.59 1158.08 2695
1609.39 1161.95 2704
1629 1171.41 2726
1640.92 1175.27 2735
1647.46 1175.27 2735
1681.21 1194.61 2780
1693.93 1198.91 2790
1714.62 1208.79 2813
1721.35 1208.79 2813
1739.75 1216.96 2832
1746.52 1216.96 2832
1756.39 1219.1 2837
1763.17 1219.1 2837
1769.96 1219.1 2837
1776.74 1219.1 2837
1783.53 1219.1 2837
1790.31 1219.1 2837
1797.09 1219.1 2837
1807.06 1221.25 2842
1817.04 1223.4 2847
1823.85 1223.4 2847
1830.66 1223.4 2847
1837.47 1223.4 2847
1844.28 1223.4 2847
1851.08 1223.4 2847
1854.63 1221.25 2842
1858.15 1219.1 2837
1861.65 1216.96 2832
1868.42 1216.96 2832
1872.54 1215.24 2828
1879.31 1215.24 2828
1876.07 1208.79 2813
1882.79 1208.79 2813
1889.52 1208.79 2813
1886.81 1202.78 2799
1893.5 1202.78 2799
1906.98 1207.07 2809
1913.7 1207.07 2809
1926.57 1210.94 2818
1933.31 1210.94 2818
1940.05 1210.94 2818
1940.57 1207.07 2809
1936.89 1200.63 2794
1937.31 1196.76 2785
1943.97 1196.76 2785
1950.63 1196.76 2785
-2093.3 1223.74 2832
-2086.53 1223.74 2832
-2079.75 1223.74 2832
-2070.05 1222.01 2828
-2052.35 1215.53 2813
-2018.71 1199.54 2776
-2012.08 1199.54 2776
-2005.44 1199.54 2776
-1998.8 1199.54 2776
-1934.03 1164.54 2695
-1927.59 1164.54 2695
-1893.34 1147.69 2656
-1890.54 1149.85 2661
-1884.18 1149.85 2661
-1877.82 1149.85 2661
-1859.5 1142.5 2644
-1850.37 1140.77 2640
-1790.27 1107.5 2563
-1784.14 1107.5 2563
-1769.69 1102.32 2551
-1763.59 1102.32 2551
-1754.74 1100.59 2547
-1748.64 1100.59 2547
-1729.55 1092.38 2528
-1718.06 1088.92 2520
-1712.03 1088.92 2520
-1255.8 1187.44 2748
-1251.5 1189.6 2753
-1244.91 1189.6 2753
-1238.33 1189.6 2753
-1229.51 1187.44 2748
-1222.94 1187.44 2748
-1216.37 1187.44 2748
-1209.8 1187.44 2748
-1191.4 1175.78 2721
-1177.49 1168.43 2704
-1171.03 1168.43 2704
-1160.69 1164.54 2695
-1137.54 1147.69 2656
-1129.48 1145.96 2652
-1123.14 1145.96 2652
-1116.8 1145.96 2652
-1110.46 1145.96 2652
-1097.04 1138.61 2635
-1124.68 1174.05 2717
-1118.18 1174.05 2717
-1120.69 1183.55 2739
-1114.14 1183.55 2739
-1107.59 1183.55 2739
-1101.04 1183.55 2739
-1087.3 1175.78 2721
-1089.92 1185.71 2744
-1096 1199.54 2776
-1089.36 1199.54 2776
-1084.28 1201.27 2780
-1077.63 1201.27 2780
-1072.91 1203.43 2785
-1066.25 1203.43 2785
-1059.59 1203.43 2785
-1052.93 1203.43 2785
-1046.27 1203.43 2785
-1039.61 1203.43 2785
-1029.61 1199.54 2776
-1022.98 1199.54 2776
-1017.8 1201.27 2780
-1011.15 1201.27 2780
-1004.51 1201.27 2780
-997.859 1201.27 2780
-991.211 1201.27 2780
-983.147 1199.54 2776
-971.584 1193.49 2762
-960.088 1187.44 2748
-953.516 1187.44 2748
-943.844 1183.55 2739
-932.845 1177.94 2726
-924.628 1175.78 2721
-918.121 1175.78 2721
-911.614 1175.78 2721
-905.107 1175.78 2721
-891.335 1166.27 2699
-869.472 1145.96 2652
-863.13 1145.96 2652
-856.788 1145.96 2652
-850.447 1145.96 2652
-562.901 800.271 1852
-560.281 802.863 1858
-555.838 802.863 1858
-551.395 802.863 1858
-547.541 803.728 1860
-543.093 803.728 1860
-538.645 803.728 1860
-533.049 801.999 1856
-526.047 798.11 1847
-521.631 798.11 1847
-518.054 799.406 1850
-514.185 800.271 1852
-509.757 800.271 1852
-505.328 800.271 1852
-500.358 799.406 1850
-495.934 799.406 1850
-490.713 798.11 1847
-484.717 795.518 1841
-478.227 792.061 1833
-473.844 792.061 1833
-467.924 789.468 1827
-461.525 786.011 1819
-454.662 781.69 1809
-450.336 781.69 1809
-444.778 779.529 1804
-437.046 773.48 1790
-430.348 769.159 1780
-426.091 769.159 1780
-416.621 759.652 1758
-409.836 754.899 1747
-402.64 749.282 1734
-398.494 749.282 1734
-394.347 749.282 1734
-388.625 746.257 1727
-383.605 744.528 1723
-379.265 744.096 1722
-375.147 744.096 1722
-371.029 744.096 1722
-366.485 743.232 1720
-362.793 744.096 1722
-358.884 744.528 1723
-354.764 744.528 1723
-351.05 745.393 1725
-346.925 745.393 1725
-343.198 746.257 1727
-339.068 746.257 1727
-334.938 746.257 1727
-331.575 747.985 1731
-327.624 748.417 1732
-323.483 748.417 1732
-319.341 748.417 1732
-315.199 748.417 1732
-311.417 749.282 1734
-307.27 749.282 1734
-303.473 750.146 1736
-299.667 751.01 1738
-295.511 751.01 1738
-291.355 751.01 1738
-287.529 751.874 1740
-283.531 752.306 1741
-279.368 752.306 1741
-275.521 753.171 1743
-271.353 753.171 1743
-267.491 754.035 1745
-263.62 754.899 1747
-259.74 755.763 1749
-255.557 755.763 1749
-251.375 755.763 1749
-247.192 755.763 1749
-243.427 757.06 1752
-239.237 757.06 1752
-235.584 758.788 1756
-231.385 758.788 1756
-227.445 759.652 1758
-223.241 759.652 1758
-219.66 761.813 1763
-215.933 763.541 1767
-211.947 764.405 1769
-207.717 764.405 1769
-203.717 765.27 1771
-199.482 765.27 1771
-195.688 766.998 1775
-191.443 766.998 1775
-187.199 766.998 1775
-183.366 768.727 1779
-179.414 770.023 1782
-175.153 770.023 1782
-171.275 771.751 1786
-167.004 771.751 1786
-162.916 772.616 1788
-158.64 772.616 1788
-154.882 775.208 1794
-151.432 779.529 1804
-147.199 779.961 1805
-142.883 779.961 1805
-138.874 781.69 1809
-134.548 781.69 1809
-130.222 781.69 1809
-180.501 1203.43 2785
-173.841 1203.43 2785
-167.181 1203.43 2785
-160.522 1203.43 2785
-153.862 1203.43 2785
-147.202 1203.43 2785
-140.29 1201.27 2780
-133.45 1199.54 2776
-126.812 1199.54 2776
-119.957 1197.38 2771
-113.535 1199.54 2776
-106.897 1199.54 2776
-100.259 1199.54 2776
-93.6203 1199.54 2776
-86.9821 1199.54 2776
-80.3438 1199.54 2776
-73.5728 1197.38 2771
-66.8499 1195.65 2767
-60.2331 1195.65 2767
-53.6164 1195.65 2767
-47.2205 1201.27 2780
-40.6456 1203.43 2785
-33.9858 1203.43 2785
-27.3261 1203.43 2785
-20.6663 1203.43 2785
-14.0065 1203.43 2785
-7.34673 1203.43 2785
-0.686952 1203.43 2785
5.97283 1203.43 2785
12.6326 1203.43 2785
19.2924 1203.43 2785
25.9522 1203.43 2785
32.6119 1203.43 2785
39.2012 1201.27 2780
45.849 1201.27 2780
52.3269 1197.38 2771
58.6554 1191.33 2757
65.1535 1189.6 2753
71.7368 1189.6 2753
78.4338 1191.33 2757
85.0266 1191.33 2757
91.6195 1191.33 2757
98.2123 1191.33 2757
104.805 1191.33 2757
111.398 1191.33 2757
117.991 1191.33 2757
125.442 1199.54 2776
132.08 1199.54 2776
138.719 1199.54 2776
145.357 1199.54 2776
151.995 1199.54 2776
159.662 1207.32 2794
166.343 1207.32 2794
173.025 1207.32 2794
179.706 1207.32 2794
186.387 1207.32 2794
192.792 1205.59 2790
199.106 1203.43 2785
205.766 1203.43 2785
212.807 1205.59 2790
219.479 1205.59 2790
226.151 1205.59 2790
232.823 1205.59 2790
239.838 1207.32 2794
246.519 1207.32 2794
253.2 1207.32 2794
259.882 1207.32 2794
266.181 1205.59 2790
272.853 1205.59 2790
277.621 1197.38 2771
284.247 1197.38 2771
290.874 1197.38 2771
298.466 1201.27 2780
305.114 1201.27 2780
311.762 1201.27 2780
317.379 1197.38 2771
324.005 1197.38 2771
330.154 1195.65 2767
338.353 1201.27 2780
346.738 1207.32 2794
353.42 1207.32 2794
360.101 1207.32 2794
366.782 1207.32 2794
372.929 1205.59 2790
379.601 1205.59 2790
385.58 1203.43 2785
390.268 1197.38 2771
395.605 1193.49 2762
401.482 1191.33 2757
408.815 1193.49 2762
415.42 1193.49 2762
424.164 1199.54 2776
430.802 1199.54 2776
437.44 1199.54 2776
441.839 1193.49 2762
443.248 1179.66 2730
446.976 1172.32 2713
453.463 1172.32 2713
459.951 1172.32 2713
464.891 1168.43 2704
474.321 1175.78 2721
480.827 1175.78 2721
487.334 1175.78 2721
493.841 1175.78 2721
499.612 1174.05 2717
506.109 1174.05 2717
512.606 1174.05 2717
515.664 1166.27 2699
522.119 1166.27 2699
530.335 1170.16 2708
536.811 1170.16 2708
543.287 1170.16 2708
555.244 1181.83 2735
564.454 1187.44 2748
571.025 1187.44 2748
577.597 1187.44 2748
583.318 1185.71 2744
588.805 1183.55 2739
595.354 1183.55 2739
599.047 1177.94 2726
604.455 1175.78 2721
610.064 1174.05 2717
616.561 1174.05 2717
623.058 1174.05 2717
628.629 1172.32 2713
636.989 1175.78 2721
645.624 1179.66 2730
652.152 1179.66 2730
662.058 1185.71 2744
671.788 1191.33 2757
678.381 1191.33 2757
684.974 1191.33 2757
691.566 1191.33 2757
698.159 1191.33 2757
704.752 1191.33 2757
709.023 1187.44 2748
707.521 1174.05 2717
707.186 1162.81 2691
704.339 1147.69 2656
715.239 1155.03 2673
721.631 1155.03 2673
732.926 1162.81 2691
746.504 1174.05 2717
753.002 1174.05 2717
759.499 1174.05 2717
763.459 1170.16 2708
769.934 1170.16 2708
781.571 1177.94 2726
788.089 1177.94 2726
794.608 1177.94 2726
799.657 1175.78 2721
806.164 1175.78 2721
812.671 1175.78 2721
827.306 1187.44 2748
833.877 1187.44 2748
840.449 1187.44 2748
844.246 1183.55 2739
850.796 1183.55 2739
858.911 1185.71 2744
871.15 1193.49 2762
879.343 1195.65 2767
885.96 1195.65 2767
892.577 1195.65 2767
894.644 1189.6 2753
901.227 1189.6 2753
903.194 1183.55 2739
915.722 1191.33 2757
936.366 1209.48 2799
949.461 1217.69 2818
956.199 1217.69 2818
962.938 1217.69 2818
969.677 1217.69 2818
989.928 1234.54 2857
996.76 1234.54 2857
1003.59 1234.54 2857
1053.9 1213.8 2809
1060.62 1213.8 2809
1067.34 1213.8 2809
1074.05 1213.8 2809
1076.92 1209.48 2799
1083.62 1209.48 2799
1082.91 1201.27 2780
1077.02 1187.44 2748
1069.79 1172.32 2713
1076.27 1172.32 2713
1075.58 1164.54 2695
1071.58 1153.31 2669
1069.48 1144.23 2648
1070.53 1138.61 2635
1087.46 1149.85 2661
1093.82 1149.85 2661
1100.19 1149.85 2661
1106.55 1149.85 2661
1112.91 1149.85 2661
1119.28 1149.85 2661
1143.83 1168.43 2704
1155.83 1174.05 2717
1185.42 1197.38 2771
1192.05 1197.38 2771
1208.63 1207.32 2794
1215.31 1207.32 2794
1221.99 1207.32 2794
1227.39 1199.54 2776
1235.81 1201.27 2780
1265.7 1223.74 2832
1272.47 1223.74 2832
1288.28 1232.38 2852
1301.45 1238.43 2866
1312.87 1242.75 2876
1319.75 1242.75 2876
1326.63 1242.75 2876
1328.87 1238.43 2866
1342.71 1244.91 2881
1349.6 1244.91 2881
1358.84 1247.07 2886
1365.75 1247.07 2886
1372.65 1247.07 2886
1379.55 1247.07 2886
1386.45 1247.07 2886
1400.59 1253.56 2901
1412.38 1257.88 2911
1419.34 1257.88 2911
1426.3 1257.88 2911
1428.34 1253.56 2901
1430.33 1249.23 2891
1437.24 1249.23 2891
1444.16 1249.23 2891
1448.56 1247.07 2886
1447.9 1240.59 2871
1454.76 1240.59 2871
1444.32 1225.9 2837
1448.55 1223.74 2832
1453.26 1222.01 2828
1460.03 1222.01 2828
1464.19 1219.85 2823
1463.65 1213.8 2809
1465.13 1209.48 2799
1467.09 1205.59 2790
1475.88 1207.32 2794
1482.56 1207.32 2794
1489.24 1207.32 2794
1495.92 1207.32 2794
1502.6 1207.32 2794
1504.42 1203.43 2785
1501.32 1195.65 2767
1505.21 1193.49 2762
1511.81 1193.49 2762
1513.47 1189.6 2753
1512.32 1183.55 2739
1518.87 1183.55 2739
1525.42 1183.55 2739
1531.97 1183.55 2739
1536.28 1181.83 2735
1522.51 1166.27 2699
1511.97 1153.31 2669
1518.35 1153.31 2669
1522.45 1151.58 2665
1528.82 1151.58 2665
1537.5 1153.31 2669
1543.88 1153.31 2669
1550.26 1153.31 2669
1549.06 1147.69 2656
1555.41 1147.69 2656
1567.06 1151.58 2665
1573.43 1151.58 2665
1579.8 1151.58 2665
1601.65 1162.81 2691
1618.24 1170.16 2708
1637.92 1179.66 2730
1644.45 1179.66 2730
1670.33 1193.49 2762
1687.86 1201.27 2780
1709.14 1211.64 2804
1715.84 1211.64 2804
1728.08 1215.53 2813
1746.52 1223.74 2832
1753.29 1223.74 2832
1760.07 1223.74 2832
1766.84 1223.74 2832
1773.61 1223.74 2832
1780.38 1223.74 2832
1787.15 1223.74 2832
1793.93 1223.74 2832
1803.88 1225.9 2837
1813.85 1228.06 2842
1820.65 1228.06 2842
1827.45 1228.06 2842
1834.24 1228.06 2842
1841.04 1228.06 2842
1847.83 1228.06 2842
1848.1 1223.74 2832
1854.88 1223.74 2832
1855.73 1219.85 2823
1862.48 1219.85 2823
1856.65 1211.64 2804
1856.71 1207.32 2794
1863.39 1207.32 2794
1870.08 1207.32 2794
1864.67 1199.54 2776
1871.3 1199.54 2776
1890.12 1207.32 2794
1906.98 1213.8 2809
1913.7 1213.8 2809
1920.42 1213.8 2809
1927.14 1213.8 2809
1933.85 1213.8 2809
1940.57 1213.8 2809
1936.89 1207.32 2794
1937.31 1203.43 2785
1943.97 1203.43 2785
1950.63 1203.43 2785
1882.86 1112.26 2574
1889.02 1112.26 2574
1895.17 1112.26 2574
1901.33 1112.26 2574
1907.48 1112.26 2574
1922.56 1117.44 2586
1928.74 1117.44 2586
1937.92 1119.17 2590
1944.11 1119.17 2590
1950.31 1119.17 2590
-2093.3 1230.52 2832
-2086.53 1230.52 2832
-2079.75 1230.52 2832
-2072.98 1230.52 2832
-2063.29 1228.79 2828
-2056.53 1228.79 2828
-2012.08 1206.19 2776
-2005.44 1206.19 2776
-1998.8 1206.19 2776
-1940.49 1174.91 2704
-1934.03 1174.91 2704
-1899.76 1157.96 2665
-1899.07 1161.44 2673
-1892.68 1161.44 2673
-1886.29 1161.44 2673
-1879.89 1161.44 2673
-1850.37 1147.1 2640
-1803.55 1121.9 2582
-1797.37 1121.9 2582
-1778.02 1113.64 2563
-1769.12 1111.9 2559
-1754.74 1106.69 2547
-1748.64 1106.69 2547
-1729.55 1098.43 2528
-1718.06 1094.96 2520
-1712.03 1094.96 2520
-1238.02 1171 2695
-1243.46 1182.29 2721
-1236.95 1182.29 2721
-1230.44 1182.29 2721
-1223.94 1182.29 2721
-1219.67 1184.47 2726
-1213.15 1184.47 2726
-1206.63 1184.47 2726
-1200.11 1184.47 2726
-1191.4 1182.29 2721
-1177.49 1174.91 2704
-1171.03 1174.91 2704
-1160.69 1171 2695
-1137.54 1154.05 2656
-1129.48 1152.31 2652
-1123.14 1152.31 2652
-1115.12 1150.57 2648
-1108.78 1150.57 2648
-1097.04 1144.93 2635
-1124.68 1180.56 2717
-1118.18 1180.56 2717
-1120.69 1190.11 2739
-1114.14 1190.11 2739
-1107.59 1190.11 2739
-1093.8 1182.29 2721
-1087.3 1182.29 2721
-1084.36 1186.2 2730
-1083.36 1192.29 2744
-1076.8 1192.29 2744
-1075.31 1197.94 2757
-1070.66 1200.11 2762
-1069.44 1206.19 2776
-1062.81 1206.19 2776
-1056.17 1206.19 2776
-1052.93 1210.1 2785
-1046.27 1210.1 2785
-1039.61 1210.1 2785
-1029.61 1206.19 2776
-1022.98 1206.19 2776
-1017.8 1207.93 2780
-1011.15 1207.93 2780
-1004.51 1207.93 2780
-997.859 1207.93 2780
-991.211 1207.93 2780
-983.147 1206.19 2776
-971.584 1200.11 2762
-960.088 1194.03 2748
-953.516 1194.03 2748
-943.844 1190.11 2739
-932.845 1184.47 2726
-924.628 1182.29 2721
-918.121 1182.29 2721
-911.614 1182.29 2721
-905.107 1182.29 2721
-891.335 1172.73 2699
-869.472 1152.31 2652
-863.13 1152.31 2652
-856.788 1152.31 2652
-850.447 1152.31 2652
-562.901 804.707 1852
-560.281 807.314 1858
-555.838 807.314 1858
-551.395 807.314 1858
-547.541 808.183 1860
-543.093 808.183 1860
-538.645 808.183 1860
-533.049 806.445 1856
-526.047 802.535 1847
-521.631 802.535 1847
-518.054 803.838 1850
-514.185 804.707 1852
-509.757 804.707 1852
-505.328 804.707 1852
-500.358 803.838 1850
-495.934 803.838 1850
-490.713 802.535 1847
-484.717 799.928 1841
-478.227 796.452 1833
-473.844 796.452 1833
-467.924 793.845 1827
-461.525 790.368 1819
-454.662 786.023 1809
-450.336 786.023 1809
-444.778 783.851 1804
-437.046 777.768 1790
-430.348 773.423 1780
-426.091 773.423 1780
-416.621 763.864 1758
-409.836 759.084 1747
-402.64 753.435 1734
-398.494 753.435 1734
-394.347 753.435 1734
-388.625 750.394 1727
-383.605 748.656 1723
-379.265 748.221 1722
-375.147 748.221 1722
-371.029 748.221 1722
-366.485 747.352 1720
-362.793 748.221 1722
-358.884 748.656 1723
-354.764 748.656 1723
-351.05 749.525 1725
-346.925 749.525 1725
-343.198 750.394 1727
-339.068 750.394 1727
-334.938 750.394 1727
-331.575 752.132 1731
-327.435 752.132 1731
-323.296 752.132 1731
-319.341 752.566 1732
-315.199 752.566 1732
-311.057 752.566 1732
-306.916 752.566 1732
-303.124 753.435 1734
-299.322 754.304 1736
-295.511 755.173 1738
-291.355 755.173 1738
-287.529 756.042 1740
-283.368 756.042 1740
-279.368 756.477 1741
-275.521 757.346 1743
-271.353 757.346 1743
-267.491 758.215 1745
-263.318 758.215 1745
-259.443 759.084 1747
-255.265 759.084 1747
-251.375 759.953 1749
-247.192 759.953 1749
-243.288 760.822 1751
-239.101 760.822 1751
-235.316 762.125 1754
-231.385 762.995 1756
-227.704 764.733 1760
-223.495 764.733 1760
-219.909 766.905 1765
-216.177 768.643 1769
-212.187 769.512 1771
-207.952 769.512 1771
-203.717 769.512 1771
-199.707 770.381 1773
-195.688 771.25 1775
-191.443 771.25 1775
-187.62 772.988 1779
-183.676 774.292 1782
-179.817 776.03 1786
-175.546 776.03 1786
-171.275 776.03 1786
-167.191 776.899 1788
-163.098 777.768 1790
-158.818 777.768 1790
-155.055 780.375 1796
-151.516 784.285 1805
-147.199 784.285 1805
-142.883 784.285 1805
-138.874 786.023 1809
-134.548 786.023 1809
-130.222 786.023 1809
-180.501 1210.1 2785
-173.841 1210.1 2785
-167.181 1210.1 2785
-160.522 1210.1 2785
-153.862 1210.1 2785
-147.202 1210.1 2785
-140.29 1207.93 2780
-133.45 1206.19 2776
-126.812 1206.19 2776
-119.957 1204.02 2771
-113.535 1206.19 2776
-106.897 1206.19 2776
-100.259 1206.19 2776
-93.6203 1206.19 2776
-86.9821 1206.19 2776
-80.3438 1206.19 2776
-73.5728 1204.02 2771
-66.8499 1202.28 2767
-60.2331 1202.28 2767
-53.6164 1202.28 2767
-47.2205 1207.93 2780
-40.6456 1210.1 2785
-33.9858 1210.1 2785
-27.3261 1210.1 2785
-20.6663 1210.1 2785
-14.0065 1210.1 2785
-7.34673 1210.1 2785
-0.686952 1210.1 2785
5.97283 1210.1 2785
12.6326 1210.1 2785
19.2924 1210.1 2785
25.9522 1210.1 2785
32.6119 1210.1 2785
39.2012 1207.93 2780
45.849 1207.93 2780
52.3269 1204.02 2771
58.6554 1197.94 2757
65.1535 1196.2 2753
71.7368 1196.2 2753
78.4338 1197.94 2757
85.0266 1197.94 2757
91.6195 1197.94 2757
98.2123 1197.94 2757
104.805 1197.94 2757
111.398 1197.94 2757
117.991 1197.94 2757
125.442 1206.19 2776
132.08 1206.19 2776
138.719 1206.19 2776
145.357 1206.19 2776
151.995 1206.19 2776
159.662 1214.01 2794
166.343 1214.01 2794
173.025 1214.01 2794
179.706 1214.01 2794
186.387 1214.01 2794
192.792 1212.27 2790
199.106 1210.1 2785
205.766 1210.1 2785
212.807 1212.27 2790
219.479 1212.27 2790
226.151 1212.27 2790
232.823 1212.27 2790
239.838 1214.01 2794
246.519 1214.01 2794
253.2 1214.01 2794
259.882 1214.01 2794
266.181 1212.27 2790
272.853 1212.27 2790
277.621 1204.02 2771
284.247 1204.02 2771
290.874 1204.02 2771
298.466 1207.93 2780
305.114 1207.93 2780
311.762 1207.93 2780
317.379 1204.02 2771
324.005 1204.02 2771
330.154 1202.28 2767
338.353 1207.93 2780
345.001 1207.93 2780
351.649 1207.93 2780
357.137 1204.02 2771
363.763 1204.02 2771
370.389 1204.02 2771
377.016 1204.02 2771
382.396 1200.11 2762
386.466 1192.29 2744
392.311 1190.11 2739
397.55 1186.2 2730
406.151 1192.29 2744
412.713 1192.29 2744
419.274 1192.29 2744
425.836 1192.29 2744
432.398 1192.29 2744
435.28 1182.29 2721
441.787 1182.29 2721
446.976 1178.82 2713
453.463 1178.82 2713
459.951 1178.82 2713
464.891 1174.91 2704
474.321 1182.29 2721
480.827 1182.29 2721
487.334 1182.29 2721
493.841 1182.29 2721
495.566 1171 2695
502.011 1171 2695
508.456 1171 2695
514.136 1169.26 2691
518.83 1165.35 2682
528.573 1172.73 2699
535.027 1172.73 2699
541.481 1172.73 2699
550.777 1178.82 2713
560.757 1186.2 2730
568.324 1188.38 2735
574.864 1188.38 2735
581.404 1188.38 2735
587.945 1188.38 2735
594.485 1188.38 2735
597.949 1182.29 2721
603.567 1180.56 2717
610.064 1180.56 2717
616.561 1180.56 2717
620.994 1176.65 2708
625.385 1172.73 2699
633.009 1174.91 2704
641.604 1178.82 2713
648.091 1178.82 2713
658.681 1186.2 2730
665.209 1186.2 2730
672.967 1188.38 2735
679.508 1188.38 2735
686.048 1188.38 2735
692.588 1188.38 2735
699.128 1188.38 2735
702.056 1182.29 2721
704.136 1174.91 2704
701.404 1159.7 2669
701.157 1148.84 2644
708.55 1150.57 2648
714.882 1150.57 2648
729.385 1163.61 2678
735.789 1163.61 2678
742.193 1163.61 2678
748.597 1163.61 2678
755.001 1163.61 2678
759.983 1161.44 2673
766.375 1161.44 2673
772.767 1161.44 2673
779.159 1161.44 2673
789.371 1167.09 2686
799.646 1172.73 2699
806.1 1172.73 2699
814.06 1174.91 2704
821.739 1176.65 2708
830.968 1180.56 2717
838.698 1182.29 2721
845.204 1182.29 2721
858.911 1192.29 2744
869.573 1197.94 2757
876.165 1197.94 2757
882.758 1197.94 2757
889.351 1197.94 2757
893.019 1194.03 2748
899.59 1194.03 2748
900.226 1186.2 2730
912.733 1194.03 2748
936.366 1216.19 2799
947.776 1222.27 2813
954.503 1222.27 2813
962.938 1224.44 2818
969.677 1224.44 2818
989.928 1241.39 2857
996.76 1241.39 2857
1003.59 1241.39 2857
1015.04 1222.27 2813
1021.77 1222.27 2813
1028.5 1222.27 2813
1035.22 1222.27 2813
1050.15 1216.19 2799
1056.84 1216.19 2799
1063.54 1216.19 2799
1070.23 1216.19 2799
1073.46 1212.27 2790
1080.13 1212.27 2790
1081.35 1206.19 2776
1078.98 1196.2 2753
1072.94 1182.29 2721
1079.45 1182.29 2721
1075.58 1171 2695
1069.98 1157.96 2665
1071.1 1152.31 2652
1072.57 1147.1 2640
1087.46 1156.22 2661
1093.82 1156.22 2661
1100.19 1156.22 2661
1106.55 1156.22 2661
1112.91 1156.22 2661
1113.81 1150.57 2648
1125.64 1156.22 2661
1150.3 1174.91 2704
1173.87 1192.29 2744
1180.44 1192.29 2744
1188.73 1194.03 2748
1199.21 1197.94 2757
1214.12 1206.19 2776
1220.75 1206.19 2776
1227.39 1206.19 2776
1235.81 1207.93 2780
1263.91 1228.79 2828
1270.67 1228.79 2828
1279.24 1230.52 2832
1288.28 1232.7 2837
1304.2 1241.39 2857
1311.03 1241.39 2857
1317.86 1241.39 2857
1324.69 1241.39 2857
1333.86 1243.56 2862
1340.7 1243.56 2862
1351.78 1247.47 2871
1363.38 1251.82 2881
1370.27 1251.82 2881
1377.16 1251.82 2881
1379.24 1247.47 2871
1383.69 1245.3 2866
1395.4 1249.64 2876
1402.28 1249.64 2876
1409.16 1249.64 2876
1416.03 1249.64 2876
1422.91 1249.64 2876
1429.79 1249.64 2876
1434.17 1247.47 2871
1434.01 1241.39 2857
1430.75 1232.7 2837
1437.54 1232.7 2837
1439.74 1228.79 2828
1446.5 1228.79 2828
1448.12 1224.44 2818
1454.86 1224.44 2818
1456.93 1220.53 2809
1458.44 1216.19 2799
1457.8 1210.1 2785
1459.73 1206.19 2776
1466.37 1206.19 2776
1473.01 1206.19 2776
1484.44 1210.1 2785
1491.1 1210.1 2785
1497.76 1210.1 2785
1494.7 1202.28 2767
1486.12 1190.11 2739
1490.49 1188.38 2735
1497.03 1188.38 2735
1503.57 1188.38 2735
1505.15 1184.47 2726
1508.89 1182.29 2721
1515.4 1182.29 2721
1521.91 1182.29 2721
1521.11 1176.65 2708
1505.59 1159.7 2669
1483.64 1137.97 2619
1492.18 1139.71 2623
1498.45 1139.71 2623
1507.02 1141.45 2627
1517.91 1144.93 2635
1524.21 1144.93 2635
1530.51 1144.93 2635
1544.4 1150.57 2648
1550.73 1150.57 2648
1561.76 1154.05 2656
1571.07 1156.22 2661
1577.43 1156.22 2661
1601.65 1169.26 2691
1608.09 1169.26 2691
1632.52 1182.29 2721
1639.03 1182.29 2721
1659.44 1192.29 2744
1679.97 1202.28 2767
1694.51 1207.93 2780
1701.16 1207.93 2780
1722.55 1218.36 2804
1732.34 1220.53 2809
1739.05 1220.53 2809
1745.77 1220.53 2809
1754.98 1222.27 2813
1761.71 1222.27 2813
1768.44 1222.27 2813
1772.64 1220.53 2809
1781.89 1222.27 2813
1791.8 1224.44 2818
1798.54 1224.44 2818
1805.27 1224.44 2818
1812.01 1224.44 2818
1818.75 1224.44 2818
1825.49 1224.44 2818
1832.23 1224.44 2818
1826.57 1216.19 2799
1833.26 1216.19 2799
1827.47 1207.93 2780
1834.11 1207.93 2780
1838.11 1206.19 2776
1841.43 1204.02 2771
1845.39 1202.28 2767
1852 1202.28 2767
1839.81 1190.11 2739
1840.3 1186.2 2730
1859 1194.03 2748
1865.57 1194.03 2748
1872.14 1194.03 2748
1901.5 1200.11 2762
1908.1 1200.11 2762
1914.7 1200.11 2762
1921.31 1200.11 2762
1882.86 1118.42 2574
1889.02 1118.42 2574
1895.17 1118.42 2574
1901.33 1118.42 2574
1907.48 1118.42 2574
1922.56 1123.64 2586
1928.74 1123.64 2586
1937.92 1125.37 2590
1944.11 1125.37 2590
1950.31 1125.37 2590
-2085.98 1229.01 2813
-2093.3 1237.31 2832
-2086.53 1237.31 2832
-2079.75 1237.31 2832
-2072.98 1237.31 2832
-2063.29 1235.56 2828
-2056.53 1235.56 2828
-2012.08 1212.84 2776
-2005.44 1212.84 2776
-1998.8 1212.84 2776
-1943.36 1183.13 2708
-1936.89 1183.13 2708
-1924 1179.2 2699
-1917.54 1179.2 2699
-1911.09 1179.2 2699
-1904.63 1179.2 2699
-1879.89 1167.84 2673
-1873.5 1167.84 2673
-1823.8 1140.75 2611
-1817.56 1140.75 2611
-1791.2 1128.08 2582
-1777.42 1123.28 2571
-1760.25 1116.29 2555
-1754.14 1116.29 2555
-1729.55 1104.49 2528
-1718.06 1100.99 2520
-1712.03 1100.99 2520
-1232.46 1166.09 2669
-1238.02 1177.45 2695
-1243.46 1188.81 2721
-1236.95 1188.81 2721
-1230.44 1188.81 2721
-1223.94 1188.81 2721
-1219.67 1191 2726
-1213.15 1191 2726
-1206.63 1191 2726
-1200.11 1191 2726
-1191.4 1188.81 2721
-1177.49 1181.38 2704
-1171.03 1181.38 2704
-1153.36 1170.03 2678
-1137.54 1160.41 2656
-1126.08 1155.17 2644
-1119.75 1155.17 2644
-1104.59 1146 2623
-1098.31 1146 2623
-1087.05 1140.75 2611
-1096.12 1156.92 2648
-1089.79 1156.92 2648
-1110.05 1185.32 2713
-1103.56 1185.32 2713
-1097.07 1185.32 2713
-1090.59 1185.32 2713
-1082.1 1183.13 2708
-1077.61 1185.32 2713
-1084.94 1200.61 2748
-1078.37 1200.61 2748
-1073.75 1202.79 2753
-1072.59 1208.91 2767
-1069.44 1212.84 2776
-1062.81 1212.84 2776
-1056.17 1212.84 2776
-1051.04 1214.59 2780
-1044.39 1214.59 2780
-1037.75 1214.59 2780
-1029.61 1212.84 2776
-1022.98 1212.84 2776
-1017.8 1214.59 2780
-1011.15 1214.59 2780
-1004.51 1214.59 2780
-997.859 1214.59 2780
-991.211 1214.59 2780
-981.376 1210.66 2771
-969.825 1204.54 2757
-956.943 1196.68 2739
-950.394 1196.68 2739
-939.364 1191 2726
-928.397 1185.32 2713
-920.21 1183.13 2708
-913.734 1183.13 2708
-907.259 1183.13 2708
-897.789 1179.2 2699
-875.814 1158.67 2652
-861.276 1147.74 2627
-854.994 1147.74 2627
-846.127 1144.25 2619
-837.299 1140.75 2611
-565.94 813.513 1862
-561.488 813.513 1862
-557.035 813.513 1862
-551.989 812.639 1860
-547.541 812.639 1860
-543.093 812.639 1860
-538.645 812.639 1860
-533.049 810.891 1856
-526.902 808.27 1850
-522.478 808.27 1850
-519.174 810.017 1854
-514.741 810.017 1854
-510.307 810.017 1854
-505.874 810.017 1854
-501.44 810.017 1854
-497.007 810.017 1854
-491.51 808.27 1850
-485.243 805.212 1843
-479.793 803.464 1839
-475.395 803.464 1839
-468.949 799.969 1831
-462.54 796.474 1823
-456.673 793.852 1817
-452.328 793.852 1817
-445.517 789.483 1807
-438.022 783.803 1794
-431.798 780.308 1786
-427.527 780.308 1786
-417.806 770.259 1763
-411.948 767.201 1756
-404.266 760.647 1741
-398.494 757.589 1734
-394.347 757.589 1734
-389.75 756.715 1732
-384.496 754.531 1727
-379.925 753.657 1725
-375.8 753.657 1725
-371.029 752.346 1722
-366.911 752.346 1722
-362.793 752.346 1722
-358.884 752.783 1723
-354.764 752.783 1723
-351.05 753.657 1725
-346.925 753.657 1725
-342.8 753.657 1725
-338.675 753.657 1725
-334.938 754.531 1727
-331.192 755.405 1729
-327.435 756.278 1731
-323.296 756.278 1731
-319.341 756.715 1732
-315.199 756.715 1732
-311.057 756.715 1732
-306.916 756.715 1732
-303.124 757.589 1734
-299.322 758.463 1736
-295.511 759.337 1738
-291.355 759.337 1738
-287.529 760.211 1740
-283.368 760.211 1740
-279.368 760.647 1741
-275.204 760.647 1741
-271.041 760.647 1741
-267.491 762.395 1745
-263.318 762.395 1745
-259.443 763.269 1747
-255.265 763.269 1747
-251.375 764.143 1749
-247.192 764.143 1749
-243.288 765.017 1751
-239.101 765.017 1751
-235.316 766.327 1754
-231.385 767.201 1756
-227.704 768.949 1760
-223.495 768.949 1760
-219.909 771.133 1765
-216.177 772.881 1769
-212.187 773.755 1771
-207.952 773.755 1771
-203.717 773.755 1771
-199.707 774.628 1773
-195.688 775.502 1775
-191.443 775.502 1775
-187.62 777.25 1779
-183.676 778.56 1782
-179.817 780.308 1786
-175.546 780.308 1786
-171.275 780.308 1786
-167.191 781.182 1788
-163.098 782.056 1790
-158.818 782.056 1790
-155.055 784.677 1796
-151.516 788.609 1805
-147.199 788.609 1805
-142.883 788.609 1805
-138.874 790.357 1809
-134.548 790.357 1809
-130.222 790.357 1809
-179.918 1212.84 2776
-173.279 1212.84 2776
-166.641 1212.84 2776
-160.003 1212.84 2776
-153.365 1212.84 2776
-146.251 1208.91 2767
-139.634 1208.91 2767
-133.017 1208.91 2767
-126.4 1208.91 2767
-119.784 1208.91 2767
-113.331 1210.66 2771
-106.704 1210.66 2771
-100.078 1210.66 2771
-93.4517 1210.66 2771
-86.8254 1210.66 2771
-80.0833 1208.91 2767
-73.4666 1208.91 2767
-66.7291 1206.73 2762
-60.1243 1206.73 2762
-53.5195 1206.73 2762
-47.0676 1210.66 2771
-40.5727 1214.59 2780
-33.9248 1214.59 2780
-27.277 1214.59 2780
-20.6292 1214.59 2780
-13.9814 1214.59 2780
-7.33354 1214.59 2780
-0.685719 1214.59 2780
5.95353 1212.84 2776
12.5918 1212.84 2776
19.2577 1214.59 2780
25.9056 1214.59 2780
32.5534 1214.59 2780
39.0743 1210.66 2771
45.7006 1210.66 2771
51.987 1202.79 2753
58.2724 1196.68 2739
64.8222 1196.68 2739
71.2677 1194.93 2735
77.8079 1194.93 2735
84.3482 1194.93 2735
91.0213 1196.68 2739
97.5711 1196.68 2739
104.121 1196.68 2739
110.671 1196.68 2739
117.434 1198.86 2744
124.177 1200.61 2748
130.748 1200.61 2748
137.319 1200.61 2748
143.891 1200.61 2748
151.721 1210.66 2771
158.633 1212.84 2776
165.272 1212.84 2776
171.91 1212.84 2776
178.548 1212.84 2776
185.186 1212.84 2776
191.825 1212.84 2776
198.106 1210.66 2771
204.436 1208.91 2767
211.74 1212.84 2776
218.378 1212.84 2776
225.016 1212.84 2776
231.654 1212.84 2776
239.065 1216.77 2785
245.725 1216.77 2785
252.385 1216.77 2785
259.044 1216.77 2785
264.369 1210.66 2771
270.995 1210.66 2771
276.219 1204.54 2757
281.888 1200.61 2748
288.459 1200.61 2748
295.568 1202.79 2753
302.151 1202.79 2753
308.734 1202.79 2753
314.745 1200.61 2748
321.316 1200.61 2748
326.813 1196.68 2739
333.972 1198.86 2744
343.388 1208.91 2767
350.51 1210.66 2771
357.137 1210.66 2771
363.763 1210.66 2771
370.389 1210.66 2771
377.016 1210.66 2771
382.396 1206.73 2762
386.466 1198.86 2744
392.311 1196.68 2739
397.55 1192.74 2730
406.151 1198.86 2744
412.713 1198.86 2744
419.274 1198.86 2744
425.836 1198.86 2744
432.398 1198.86 2744
435.28 1188.81 2721
441.787 1188.81 2721
446.976 1185.32 2713
453.463 1185.32 2713
459.951 1185.32 2713
464.891 1181.38 2704
474.321 1188.81 2721
480.827 1188.81 2721
487.334 1188.81 2721
493.841 1188.81 2721
495.566 1177.45 2695
502.011 1177.45 2695
508.456 1177.45 2695
514.136 1175.7 2691
518.83 1171.77 2682
528.573 1179.2 2699
535.027 1179.2 2699
541.481 1179.2 2699
550.777 1185.32 2713
560.757 1192.74 2730
568.324 1194.93 2735
574.864 1194.93 2735
581.404 1194.93 2735
587.945 1194.93 2735
594.485 1194.93 2735
597.949 1188.81 2721
603.567 1187.06 2717
610.064 1187.06 2717
616.561 1187.06 2717
620.994 1183.13 2708
625.385 1179.2 2699
633.009 1181.38 2704
641.604 1185.32 2713
648.091 1185.32 2713
658.681 1192.74 2730
665.209 1192.74 2730
672.967 1194.93 2735
679.508 1194.93 2735
686.048 1194.93 2735
692.588 1194.93 2735
699.128 1194.93 2735
702.056 1188.81 2721
704.136 1181.38 2704
701.404 1166.09 2669
701.157 1155.17 2644
708.55 1156.92 2648
714.882 1156.92 2648
729.385 1170.03 2678
735.789 1170.03 2678
742.193 1170.03 2678
748.597 1170.03 2678
755.001 1170.03 2678
759.983 1167.84 2673
766.375 1167.84 2673
772.767 1167.84 2673
779.159 1167.84 2673
789.371 1173.52 2686
799.646 1179.2 2699
806.1 1179.2 2699
814.06 1181.38 2704
821.739 1183.13 2708
830.968 1187.06 2717
838.698 1188.81 2721
845.204 1188.81 2721
858.911 1198.86 2744
869.573 1204.54 2757
876.165 1204.54 2757
882.758 1204.54 2757
889.351 1204.54 2757
893.019 1200.61 2748
899.59 1200.61 2748
900.226 1192.74 2730
912.733 1200.61 2748
936.366 1222.89 2799
947.776 1229.01 2813
954.503 1229.01 2813
962.938 1231.19 2818
969.677 1231.19 2818
989.928 1248.23 2857
996.76 1248.23 2857
1003.59 1248.23 2857
988.143 1220.71 2794
994.825 1220.71 2794
1001.51 1220.71 2794
1015.04 1229.01 2813
1021.77 1229.01 2813
1028.5 1229.01 2813
1035.22 1229.01 2813
1029.73 1214.59 2780
1034.88 1212.84 2776
1050.15 1222.89 2799
1056.84 1222.89 2799
1063.54 1222.89 2799
1070.23 1222.89 2799
1073.46 1218.96 2790
1080.13 1218.96 2790
1081.35 1212.84 2776
1078.98 1202.79 2753
1072.94 1188.81 2721
1079.45 1188.81 2721
1075.58 1177.45 2695
1071.58 1166.09 2669
1071.1 1158.67 2652
1072.57 1153.42 2640
1087.46 1162.6 2661
1093.82 1162.6 2661
1100.19 1162.6 2661
1106.55 1162.6 2661
1112.91 1162.6 2661
1115.49 1158.67 2652
1129.02 1166.09 2669
1146.47 1177.45 2695
1167.88 1192.74 2730
1174.41 1192.74 2730
1187 1198.86 2744
1199.21 1204.54 2757
1214.12 1212.84 2776
1220.75 1212.84 2776
1227.39 1212.84 2776
1235.81 1214.59 2780
1253.18 1225.07 2804
1259.89 1225.07 2804
1277.43 1235.56 2828
1284.2 1235.56 2828
1292.79 1237.31 2832
1299.56 1237.31 2832
1308.64 1239.49 2837
1315.42 1239.49 2837
1322.2 1239.49 2837
1328.99 1239.49 2837
1345.19 1248.23 2857
1356.28 1252.16 2866
1363.13 1252.16 2866
1369.99 1252.16 2866
1372.52 1248.23 2857
1379.35 1248.23 2857
1390.55 1252.16 2866
1399.84 1254.35 2871
1406.71 1254.35 2871
1413.57 1254.35 2871
1417.96 1252.16 2866
1424.82 1252.16 2866
1427.17 1248.23 2857
1423.97 1239.49 2837
1426.21 1235.56 2828
1432.97 1235.56 2828
1434.65 1231.19 2818
1441.39 1231.19 2818
1443.5 1227.26 2809
1450.22 1227.26 2809
1451.75 1222.89 2799
1451.14 1216.77 2785
1455.19 1214.59 2780
1457.1 1210.66 2771
1463.73 1210.66 2771
1470.36 1210.66 2771
1474.85 1208.91 2767
1481.47 1208.91 2767
1488.08 1208.91 2767
1479.57 1196.68 2739
1483.95 1194.93 2735
1487.77 1192.74 2730
1494.3 1192.74 2730
1500.83 1192.74 2730
1505.15 1191 2726
1508.89 1188.81 2721
1508.16 1183.13 2708
1514.63 1183.13 2708
1468.87 1142.5 2615
1475.12 1142.5 2615
1481.38 1142.5 2615
1489.91 1144.25 2619
1496.17 1144.25 2619
1504.73 1146 2623
1513.3 1147.74 2627
1519.58 1147.74 2627
1530.51 1151.24 2635
1536.81 1151.24 2635
1546.04 1153.42 2640
1557.06 1156.92 2648
1563.39 1156.92 2648
1569.73 1156.92 2648
1583.79 1162.6 2661
1590.16 1162.6 2661
1614.52 1175.7 2691
1620.96 1175.7 2691
1637.67 1183.13 2708
1668.43 1200.61 2748
1686.59 1208.91 2767
1693.2 1208.91 2767
1710.88 1216.77 2785
1729.25 1225.07 2804
1735.96 1225.07 2804
1742.66 1225.07 2804
1749.37 1225.07 2804
1752.94 1222.89 2799
1759.64 1222.89 2799
1763.17 1220.71 2794
1769.86 1220.71 2794
1782.9 1225.07 2804
1789.6 1225.07 2804
1796.31 1225.07 2804
1803.01 1225.07 2804
1806.49 1222.89 2799
1813.18 1222.89 2799
1819.88 1222.89 2799
1823.31 1220.71 2794
1820.82 1214.59 2780
1824.84 1212.84 2776
1831.47 1212.84 2776
1834.8 1210.66 2771
1838.77 1208.91 2767
1836.05 1202.79 2753
1842.63 1202.79 2753
1837.13 1194.93 2735
1834.23 1188.81 2721
1840.73 1188.81 2721
1847.24 1188.81 2721
1851.02 1187.06 2717
1885.66 1196.68 2739
1892.21 1196.68 2739
1898.76 1196.68 2739
1905.31 1196.68 2739
1825.33 1123.28 2571
1836.47 1126.33 2578
1842.63 1126.33 2578
1848.8 1126.33 2578
1875.83 1139.01 2607
1882.06 1139.01 2607
1888.3 1139.01 2607
1891.62 1137.26 2603
1894.93 1135.51 2599
1901.15 1135.51 2599
1907.36 1135.51 2599
1913.58 1135.51 2599
1913.14 1131.58 2590
1919.34 1131.58 2590
1925.53 1131.58 2590
1931.73 1131.58 2590
1956.62 1142.5 2615
1962.88 1142.5 2615
1969.13 1142.5 2615
1975.38 1142.5 2615
-2085.98 1235.75 2813
-2100.69 1248.49 2842
-2097.58 1250.68 2847
-2090.77 1250.68 2847
-2083.96 1250.68 2847
-2077.15 1250.68 2847
-2070.35 1250.68 2847
-2012.08 1219.49 2776
-2005.44 1219.49 2776
-1995.2 1217.3 2771
-1943.36 1189.62 2708
-1936.89 1189.62 2708
-1924 1185.67 2699
-1917.54 1185.67 2699
-1911.09 1185.67 2699
-1904.63 1185.67 2699
-1886.22 1178.2 2682
-1873.5 1174.24 2673
-1823.8 1147.01 2611
-1817.56 1147.01 2611
-1799.52 1139.54 2594
-1785.02 1134.27 2582
-1760.25 1122.41 2555
-1754.14 1122.41 2555
-1729.55 1110.55 2528
-1718.06 1107.03 2520
-1712.03 1107.03 2520
-1232.46 1172.49 2669
-1238.02 1183.91 2695
-1243.46 1195.33 2721
-1236.95 1195.33 2721
-1230.44 1195.33 2721
-1223.94 1195.33 2721
-1219.67 1197.53 2726
-1213.15 1197.53 2726
-1206.63 1197.53 2726
-1186.46 1183.91 2695
-1180.02 1183.91 2695
-1162.25 1172.49 2669
-1155.87 1172.49 2669
-1146.04 1168.97 2661
-1130.69 1159.75 2640
-1118.84 1154.04 2627
-1112.55 1154.04 2627
-1101.22 1148.76 2615
-1094.97 1148.76 2615
-1087.05 1147.01 2611
-1096.12 1163.26 2648
-1089.79 1163.26 2648
-1101.05 1182.15 2691
-1097.87 1185.67 2699
-1095.05 1189.62 2708
-1088.58 1189.62 2708
-1082.1 1189.62 2708
-1075.63 1189.62 2708
-1084.94 1207.19 2748
-1078.37 1207.19 2748
-1071.8 1207.19 2748
-1072.59 1215.54 2767
-1069.44 1219.49 2776
-1062.81 1219.49 2776
-1056.17 1219.49 2776
-1051.04 1221.25 2780
-1044.39 1221.25 2780
-1037.75 1221.25 2780
-1027.76 1217.3 2771
-1021.13 1217.3 2771
-1014.51 1217.3 2771
-1006.43 1215.54 2767
-999.81 1215.54 2767
-988.168 1209.39 2753
-981.584 1209.39 2753
-975.001 1209.39 2753
-965.252 1205.43 2744
-942.968 1185.67 2699
-936.514 1185.67 2699
-924.202 1178.2 2682
-911.971 1170.73 2665
-904.239 1168.97 2661
-896.189 1166.78 2656
-889.837 1166.78 2656
-882.155 1165.02 2652
-867.557 1154.04 2627
-852.096 1141.74 2599
-845.881 1141.74 2599
-834.173 1134.27 2582
-826.716 1132.51 2578
-811.958 1120.65 2551
-805.857 1120.65 2551
-565.94 817.973 1862
-561.488 817.973 1862
-557.035 817.973 1862
-552.582 817.973 1862
-547.541 817.095 1860
-543.093 817.095 1860
-538.645 817.095 1860
-533.049 815.337 1856
-528.041 814.459 1854
-523.607 814.459 1854
-519.734 815.337 1856
-515.296 815.337 1856
-511.408 816.216 1858
-506.965 816.216 1858
-502.522 816.216 1858
-497.543 815.337 1856
-492.573 814.459 1854
-487.087 812.702 1850
-480.315 808.748 1841
-475.912 808.748 1841
-470.485 806.991 1837
-464.57 804.355 1831
-457.678 799.962 1821
-453.324 799.962 1821
-446.504 795.569 1811
-441.196 793.812 1807
-433.732 788.101 1794
-429.442 788.101 1794
-422.782 783.708 1784
-413.355 774.043 1762
-407.284 770.529 1754
-401.022 766.575 1745
-396.849 766.575 1745
-390.651 762.622 1736
-385.609 760.864 1732
-380.366 758.668 1727
-376.236 758.668 1727
-371.675 757.789 1725
-366.911 756.471 1722
-362.793 756.471 1722
-358.884 756.911 1723
-354.764 756.911 1723
-351.05 757.789 1725
-346.925 757.789 1725
-342.8 757.789 1725
-338.675 757.789 1725
-334.938 758.668 1727
-331.192 759.547 1729
-327.435 760.425 1731
-323.296 760.425 1731
-319.341 760.864 1732
-315.199 760.864 1732
-311.057 760.864 1732
-306.916 760.864 1732
-302.774 760.864 1732
-299.322 762.622 1736
-295.511 763.5 1738
-291.355 763.5 1738
-287.199 763.5 1738
-283.368 764.379 1740
-279.368 764.818 1741
-275.204 764.818 1741
-271.041 764.818 1741
-267.185 765.697 1743
-263.318 766.575 1745
-259.146 766.575 1745
-254.973 766.575 1745
-251.087 767.454 1747
-247.192 768.332 1749
-243.288 769.211 1751
-239.101 769.211 1751
-235.316 770.529 1754
-231.385 771.408 1756
-227.704 773.165 1760
-223.495 773.165 1760
-220.158 776.24 1767
-216.177 777.118 1769
-212.187 777.997 1771
-207.952 777.997 1771
-203.717 777.997 1771
-199.707 778.876 1773
-196.129 781.511 1779
-191.875 781.511 1779
-187.726 781.951 1780
-183.676 782.829 1782
-179.817 784.586 1786
-175.546 784.586 1786
-171.467 785.465 1788
-167.378 786.344 1790
-163.28 787.222 1792
-158.995 787.222 1792
-155.055 788.979 1796
-151.516 792.933 1805
-147.852 796.448 1813
-143.516 796.448 1813
-139.181 796.448 1813
-179.918 1219.49 2776
-173.279 1219.49 2776
-166.641 1219.49 2776
-160.003 1219.49 2776
-152.867 1215.54 2767
-145.986 1213.34 2762
-139.382 1213.34 2762
-132.777 1213.34 2762
-126.172 1213.34 2762
-119.351 1211.15 2757
-112.758 1211.15 2757
-106.165 1211.15 2757
-99.5724 1211.15 2757
-92.9796 1211.15 2757
-86.3867 1211.15 2757
-79.7939 1211.15 2757
-73.0949 1209.39 2753
-66.5116 1209.39 2753
-59.9284 1209.39 2753
-53.2482 1207.19 2748
-46.9147 1213.34 2762
-40.4413 1217.3 2771
-33.815 1217.3 2771
-27.1887 1217.3 2771
-20.5624 1217.3 2771
-13.916 1215.54 2767
-7.29925 1215.54 2767
-0.682512 1215.54 2767
5.9235 1213.34 2762
12.5283 1213.34 2762
19.1331 1213.34 2762
25.7378 1213.34 2762
32.3426 1213.34 2762
38.6936 1205.43 2744
45.1728 1203.24 2739
51.7226 1203.24 2739
58.1873 1201.48 2735
64.0885 1189.62 2708
70.5642 1189.62 2708
77.0398 1189.62 2708
83.2379 1185.67 2699
89.692 1185.67 2699
96.1462 1185.67 2699
102.6 1185.67 2699
109.054 1185.67 2699
115.894 1189.62 2708
122.595 1191.82 2713
129.273 1193.57 2717
135.77 1193.57 2717
142.268 1193.57 2717
150.462 1207.19 2748
157.548 1211.15 2757
164.141 1211.15 2757
171.043 1213.34 2762
177.648 1213.34 2762
184.253 1213.34 2762
190.857 1213.34 2762
196.819 1209.39 2753
203.402 1209.39 2753
209.985 1209.39 2753
216.568 1209.39 2753
223.152 1209.39 2753
229.318 1207.19 2748
237.091 1213.34 2762
243.696 1213.34 2762
250.3 1213.34 2762
256.905 1213.34 2762
262.651 1209.39 2753
269.234 1209.39 2753
274.415 1203.24 2739
278.298 1191.82 2713
285.205 1193.57 2717
291.702 1193.57 2717
298.2 1193.57 2717
304.697 1193.57 2717
308.674 1183.91 2695
315.119 1183.91 2695
320.489 1179.95 2686
329.103 1187.86 2704
338.796 1199.28 2730
347.601 1207.19 2748
354.172 1207.19 2748
360.744 1207.19 2748
367.315 1207.19 2748
373.886 1207.19 2748
379.212 1203.24 2739
381.395 1189.62 2708
385.436 1182.15 2691
393.036 1185.67 2699
402.154 1193.57 2717
408.652 1193.57 2717
415.76 1195.33 2721
422.267 1195.33 2721
428.773 1195.33 2721
434.64 1193.57 2717
440.488 1191.82 2713
446.152 1189.62 2708
452.627 1189.62 2708
458.425 1187.86 2704
464.891 1187.86 2704
471.357 1187.86 2704
477.823 1187.86 2704
484.289 1187.86 2704
490.755 1187.86 2704
495.566 1183.91 2695
502.011 1183.91 2695
506.003 1178.2 2682
511.652 1176.44 2678
516.315 1172.49 2669
524.46 1176.44 2678
532.45 1179.95 2686
538.873 1179.95 2686
547.935 1185.67 2699
557.265 1191.82 2713
564.584 1193.57 2717
571.081 1193.57 2717
577.578 1193.57 2717
584.075 1193.57 2717
590.572 1193.57 2717
594.213 1187.86 2704
598.68 1183.91 2695
605.124 1183.91 2695
611.569 1183.91 2695
618.013 1183.91 2695
621.445 1178.2 2682
628.795 1179.95 2686
639.475 1187.86 2704
645.941 1187.86 2704
654.579 1191.82 2713
663.016 1195.33 2721
669.523 1195.33 2721
676.029 1195.33 2721
682.536 1195.33 2721
689.043 1195.33 2721
692.226 1189.62 2708
698.702 1189.62 2708
695.022 1172.49 2669
694.834 1161.5 2644
696.649 1154.04 2627
704.001 1155.79 2631
710.293 1155.79 2631
721.214 1163.26 2648
732.217 1170.73 2665
738.59 1170.73 2665
744.963 1170.73 2665
747.671 1165.02 2652
754.012 1165.02 2652
760.354 1165.02 2652
766.696 1165.02 2652
773.038 1165.02 2652
783.2 1170.73 2665
789.573 1170.73 2665
801.023 1178.2 2682
807.436 1178.2 2682
813.85 1178.2 2682
823.016 1182.15 2691
834.691 1189.62 2708
841.166 1189.62 2708
853.276 1197.53 2726
865.472 1205.43 2744
874.894 1209.39 2753
881.477 1209.39 2753
888.061 1209.39 2753
890.094 1203.24 2739
896.644 1203.24 2739
894.62 1191.82 2713
908.415 1201.48 2735
933.355 1225.64 2790
947.776 1235.75 2813
954.503 1235.75 2813
962.938 1237.94 2818
969.677 1237.94 2818
976.415 1237.94 2818
965.361 1215.54 2767
975.139 1219.49 2776
988.143 1227.4 2794
994.825 1227.4 2794
1001.51 1227.4 2794
1015.04 1235.75 2813
1021.77 1235.75 2813
1028.5 1235.75 2813
1035.22 1235.75 2813
1029.73 1221.25 2780
1034.88 1219.49 2776
1050.15 1229.6 2799
1056.84 1229.6 2799
1063.54 1229.6 2799
1070.23 1229.6 2799
1073.46 1225.64 2790
1080.13 1225.64 2790
1081.35 1219.49 2776
1078.98 1209.39 2753
1072.94 1195.33 2721
1079.45 1195.33 2721
1075.58 1183.91 2695
1071.58 1172.49 2669
1071.1 1165.02 2652
1072.57 1159.75 2640
1087.46 1168.97 2661
1093.82 1168.97 2661
1100.19 1168.97 2661
1106.55 1168.97 2661
1112.91 1168.97 2661
1115.49 1165.02 2652
1129.02 1172.49 2669
1146.47 1183.91 2695
1167.88 1199.28 2730
1174.41 1199.28 2730
1187 1205.43 2744
1199.21 1211.15 2757
1214.12 1219.49 2776
1220.75 1219.49 2776
1227.39 1219.49 2776
1235.81 1221.25 2780
1253.18 1231.79 2804
1259.89 1231.79 2804
1277.43 1242.34 2828
1284.2 1242.34 2828
1292.79 1244.09 2832
1299.56 1244.09 2832
1308.64 1246.29 2837
1315.42 1246.29 2837
1322.2 1246.29 2837
1328.99 1246.29 2837
1345.19 1255.07 2857
1356.28 1259.03 2866
1363.13 1259.03 2866
1369.99 1259.03 2866
1372.52 1255.07 2857
1379.35 1255.07 2857
1390.55 1259.03 2866
1399.84 1261.22 2871
1406.71 1261.22 2871
1413.57 1261.22 2871
1417.96 1259.03 2866
1424.82 1259.03 2866
1427.17 1255.07 2857
1423.97 1246.29 2837
1426.21 1242.34 2828
1432.97 1242.34 2828
1434.65 1237.94 2818
1441.39 1237.94 2818
1443.5 1233.99 2809
1450.22 1233.99 2809
1451.75 1229.6 2799
1451.14 1223.45 2785
1455.19 1221.25 2780
1457.1 1217.3 2771
1463.73 1217.3 2771
1470.36 1217.3 2771
1474.85 1215.54 2767
1481.47 1215.54 2767
1488.08 1215.54 2767
1479.57 1203.24 2739
1483.95 1201.48 2735
1487.77 1199.28 2730
1494.3 1199.28 2730
1500.83 1199.28 2730
1505.15 1197.53 2726
1508.89 1195.33 2721
1508.16 1189.62 2708
1514.63 1189.62 2708
1468.87 1148.76 2615
1475.12 1148.76 2615
1481.38 1148.76 2615
1489.91 1150.52 2619
1496.17 1150.52 2619
1504.73 1152.28 2623
1513.3 1154.04 2627
1519.58 1154.04 2627
1530.51 1157.55 2635
1536.81 1157.55 2635
1546.04 1159.75 2640
1557.06 1163.26 2648
1563.39 1163.26 2648
1569.73 1163.26 2648
1583.79 1168.97 2661
1590.16 1168.97 2661
1614.52 1182.15 2691
1620.96 1182.15 2691
1637.67 1189.62 2708
1668.43 1207.19 2748
1686.59 1215.54 2767
1693.2 1215.54 2767
1710.88 1223.45 2785
1729.25 1231.79 2804
1735.96 1231.79 2804
1742.66 1231.79 2804
1749.37 1231.79 2804
1752.94 1229.6 2799
1759.64 1229.6 2799
1763.17 1227.4 2794
1769.86 1227.4 2794
1782.9 1231.79 2804
1789.6 1231.79 2804
1796.31 1231.79 2804
1803.01 1231.79 2804
1806.49 1229.6 2799
1813.18 1229.6 2799
1819.88 1229.6 2799
1811.56 1219.49 2776
1818.2 1219.49 2776
1821.55 1217.3 2771
1828.18 1217.3 2771
1834.8 1217.3 2771
1838.77 1215.54 2767
1836.05 1209.39 2753
1842.63 1209.39 2753
1837.13 1201.48 2735
1837.6 1197.53 2726
1844.12 1197.53 2726
1850.64 1197.53 2726
1857.15 1197.53 2726
1870.51 1193.57 2717
1877.01 1193.57 2717
1883.51 1193.57 2717
1890.01 1193.57 2717
1845.55 1161.5 2644
1851.87 1161.5 2644
1833.14 1134.27 2582
1839.32 1134.27 2582
1845.49 1134.27 2582
1857.4 1137.78 2590
1875.83 1145.25 2607
1882.06 1145.25 2607
1888.3 1145.25 2607
1891.62 1143.49 2603
1894.93 1141.74 2599
1901.15 1141.74 2599
1907.36 1141.74 2599
1913.58 1141.74 2599
1913.14 1137.78 2590
1919.34 1137.78 2590
1925.53 1137.78 2590
1931.73 1137.78 2590
1956.62 1148.76 2615
1965.88 1150.52 2619
1972.14 1150.52 2619
1978.41 1150.52 2619
-2106.9 1246.9 2823
-2100.15 1246.9 2823
-2100.07 1250.88 2832
-2100.69 1255.29 2842
-2097.58 1257.5 2847
-2090.77 1257.5 2847
-2083.96 1257.5 2847
-2077.15 1257.5 2847
-2070.35 1257.5 2847
-2012.08 1226.14 2776
-2001.83 1223.93 2771
-1949.84 1196.11 2708
-1943.36 1196.11 2708
-1936.89 1196.11 2708
-1924 1192.13 2699
-1917.54 1192.13 2699
-1911.09 1192.13 2699
-1904.63 1192.13 2699
-1886.22 1184.62 2682
-1873.5 1180.65 2673
