ply
format ascii 1.0
comment File generated
element vertex 2261
property float x
property float y
property float z
end_header
-207.909 66.9214 1607
-204.066 66.9214 1607
-200.223 66.9214 1607
-196.38 66.9214 1607
-192.538 66.9214 1607
-188.93 67.0047 1609
-185.082 67.0047 1609
-181.347 67.0463 1610
-177.718 67.1296 1612
-173.971 67.1712 1613
-170.113 67.1712 1613
-166.462 67.2545 1615
-162.802 67.3378 1617
-159.033 67.3795 1618
-155.164 67.3795 1618
-151.482 67.4628 1620
-147.882 67.5877 1623
-144 67.5877 1623
-140.119 67.5877 1623
-136.238 67.5877 1623
-132.357 67.5877 1623
-128.555 67.6293 1624
-124.672 67.6293 1624
-120.788 67.6293 1624
-116.905 67.6293 1624
-113.021 67.6293 1624
-109.138 67.6293 1624
-190.822 143.837 3454
-182.562 143.837 3454
-174.303 143.837 3454
-166.043 143.837 3454
-157.784 143.837 3454
-148.615 142.963 3433
-140.119 142.671 3426
-132.196 142.963 3433
-123.987 142.963 3433
-116.014 143.254 3440
-107.788 143.254 3440
-99.7641 143.546 3447
-91.7071 143.837 3454
-83.7858 144.42 3468
-75.4928 144.42 3468
-67.1997 144.42 3468
-58.6689 143.837 3454
-50.4093 143.837 3454
-42.0644 143.546 3447
-33.7528 143.254 3440
-25.5268 143.254 3440
-17.3007 143.254 3440
-9.05613 142.963 3433
-0.846789 142.963 3433
7.37757 143.254 3440
15.6354 143.546 3447
23.8782 143.546 3447
32.121 143.546 3447
40.3639 143.546 3447
48.6067 143.546 3447
56.7341 143.254 3440
64.6958 142.671 3426
72.5905 142.088 3412
80.7496 142.088 3412
88.9088 142.088 3412
97.0679 142.088 3412
104.579 141.214 3391
112.688 141.214 3391
120.797 141.214 3391
128.906 141.214 3391
137.298 141.505 3398
145.424 141.505 3398
154.182 142.088 3412
162.341 142.088 3412
170.5 142.088 3412
178.293 141.797 3405
186.435 141.797 3405
194.577 141.797 3405
203.97 142.671 3426
212.596 142.963 3433
220.805 142.963 3433
229.015 142.963 3433
237.708 143.254 3440
246.935 143.837 3454
256.82 144.753 3476
265.132 144.753 3476
273.444 144.753 3476
281.756 144.753 3476
290.069 144.753 3476
297.093 144.129 3461
305.369 144.129 3461
313.646 144.129 3461
322.573 144.42 3468
330.866 144.42 3468
339.159 144.42 3468
346.751 144.129 3461
355.027 144.129 3461
362.569 143.837 3454
370.077 143.546 3447
376.783 142.963 3433
384.207 142.671 3426
392.4 142.671 3426
398.956 142.088 3412
405.444 141.505 3398
413.57 141.505 3398
421.696 141.505 3398
429.821 141.505 3398
436.142 140.922 3384
441.478 140.048 3363
449.52 140.048 3363
457.562 140.048 3363
468.511 140.922 3384
476.603 140.922 3384
484.695 140.922 3384
491.768 140.631 3377
496.883 139.798 3357
501.903 138.965 3337
509.883 138.965 3337
514.759 138.132 3317
522.691 138.132 3317
531.582 138.382 3323
542.776 139.215 3343
559.832 141.505 3398
567.957 141.505 3398
578.456 142.088 3412
587.819 142.38 3419
595.995 142.38 3419
604.171 142.38 3419
613.6 142.671 3426
621.793 142.671 3426
629.985 142.671 3426
638.178 142.671 3426
646.371 142.671 3426
654.563 142.671 3426
664.11 142.963 3433
672.319 142.963 3433
683.304 143.546 3447
691.547 143.546 3447
701.211 143.837 3454
709.47 143.837 3454
717.73 143.837 3454
727.461 144.129 3461
735.737 144.129 3461
744.013 144.129 3461
750.768 143.837 3454
757.489 143.546 3447
765.732 143.546 3447
770.831 142.963 3433
775.864 142.38 3419
782.435 142.088 3412
795.46 142.963 3433
811.862 144.42 3468
820.155 144.42 3468
830.36 144.753 3476
838.672 144.753 3476
846.984 144.753 3476
855.296 144.753 3476
861.621 144.42 3468
871.92 144.753 3476
887.576 145.961 3505
895.958 145.961 3505
904.339 145.961 3505
914.544 146.253 3512
925.044 146.586 3520
933.462 146.586 3520
945.625 147.169 3534
954.076 147.169 3534
964.706 147.502 3542
973.176 147.502 3542
983.586 147.793 3549
996.545 148.46 3565
1005.07 148.46 3565
1013.6 148.46 3565
1022.12 148.46 3565
1030.65 148.46 3565
1036.84 148.127 3557
1045.34 148.127 3557
1051.48 147.793 3549
1073.71 149.709 3595
1087.12 150.375 3611
1095.75 150.375 3611
1104.39 150.375 3611
1113.02 150.375 3611
1119.17 150.042 3603
1127.79 150.042 3603
1136.41 150.042 3603
1142.48 149.709 3595
1151.08 149.709 3595
1159.67 149.709 3595
1168.27 149.709 3595
1182.1 150.375 3611
1190.74 150.375 3611
1199.37 150.375 3611
1208.01 150.375 3611
1213.95 150.042 3603
1227.99 150.708 3619
1239.38 151.042 3627
1250.81 151.375 3635
1259.5 151.375 3635
1268.19 151.375 3635
1276.88 151.375 3635
1285.58 151.375 3635
1291.42 151.042 3627
1297.23 150.708 3619
1302.99 150.375 3611
1311.63 150.375 3611
1320.26 150.375 3611
1328.9 150.375 3611
1337.53 150.375 3611
1346.17 150.375 3611
1354.8 150.375 3611
1363.44 150.375 3611
1369.03 150.042 3603
1377.65 150.042 3603
1386.27 150.042 3603
1394.88 150.042 3603
1403.5 150.042 3603
1412.11 150.042 3603
1420.73 150.042 3603
1429.34 150.042 3603
1437.96 150.042 3603
1437.34 149.084 3580
1445.9 149.084 3580
1451.21 148.751 3572
1450.36 147.793 3549
1455.97 147.502 3542
1464.44 147.502 3542
1472.91 147.502 3542
1478.03 147.169 3534
1486.48 147.169 3534
1494.93 147.169 3534
1503.38 147.169 3534
1515.26 147.502 3542
1526.74 147.793 3549
1535.22 147.793 3549
1543.71 147.793 3549
1552.2 147.793 3549
1557.61 147.502 3542
1566.08 147.502 3542
1574.55 147.502 3542
1583.02 147.502 3542
1598.23 148.127 3557
1606.73 148.127 3557
1615.24 148.127 3557
1623.74 148.127 3557
1632.25 148.127 3557
1637.06 147.793 3549
1645.55 147.793 3549
1647.05 147.169 3534
1662.52 147.793 3549
1671.01 147.793 3549
1679.5 147.793 3549
1687.98 147.793 3549
1689.3 147.169 3534
1694.39 146.877 3527
1702.82 146.877 3527
1711.26 146.877 3527
1719.69 146.877 3527
1731.56 147.169 3534
1740.01 147.169 3534
1748.46 147.169 3534
1756.91 147.169 3534
1765.36 147.169 3534
1759.25 145.961 3505
1767.64 145.961 3505
1768.42 145.336 3490
1773.2 145.045 3483
1788.69 145.628 3497
1801.16 145.961 3505
1809.54 145.961 3505
1821.56 146.253 3512
1834.12 146.586 3520
1857.72 147.793 3549
1866.21 147.793 3549
1878.92 148.127 3557
1899.63 149.084 3580
1912.45 149.418 3588
1921.03 149.418 3588
1929.61 149.418 3588
1938.19 149.418 3588
1946.77 149.418 3588
1959.17 149.709 3595
1967.77 149.709 3595
1993.95 151.042 3627
2019.74 152.333 3658
2028.49 152.333 3658
2037.24 152.333 3658
2051.02 152.707 3667
2064.28 153.041 3675
2091.12 154.373 3707
2099.99 154.373 3707
2123.07 155.414 3732
2132 155.414 3732
2140.92 155.414 3732
2145.24 155.081 3724
2144.31 154.373 3707
2139.23 153.374 3683
2148.04 153.374 3683
2147.48 152.707 3667
2146.25 151.999 3650
2141.4 151.042 3627
2150.07 151.042 3627
2158.75 151.042 3627
2167.42 151.042 3627
2176.09 151.042 3627
2175.13 150.375 3611
2183.76 150.375 3611
2187.54 150.042 3603
2196.16 150.042 3603
2204.77 150.042 3603
2213.39 150.042 3603
2222 150.042 3603
2230.62 150.042 3603
2229.91 149.418 3588
2238.49 149.418 3588
2251.46 149.709 3595
2260.05 149.709 3595
2268.65 149.709 3595
2282.32 150.042 3603
2301.1 150.708 3619
2309.76 150.708 3619
2328.66 151.375 3635
2337.36 151.375 3635
2350.57 151.666 3642
2359.27 151.666 3642
2367.98 151.666 3642
2376.69 151.666 3642
2385.4 151.666 3642
2394.11 151.666 3642
2398.2 151.375 3635
2406.89 151.375 3635
2420.24 151.666 3642
2428.95 151.666 3642
2437.66 151.666 3642
2446.37 151.666 3642
2450.36 151.375 3635
2459.05 151.375 3635
2462.31 151.042 3627
2470.98 151.042 3627
2474.19 150.708 3619
2482.84 150.708 3619
2480.48 150.042 3603
2467.68 148.751 3572
2449.88 147.169 3534
2458.33 147.169 3534
1990.74 118.768 2852
1997.56 118.768 2852
1987.51 117.768 2828
1987.22 117.352 2818
1984.05 116.769 2804
1990.76 116.769 2804
1983.93 115.978 2785
1987.01 115.769 2780
1984.34 115.228 2767
1990.95 115.228 2767
1993.96 115.02 2762
2000.57 115.02 2762
2010.81 115.228 2767
2026.9 115.769 2780
2037.21 115.978 2785
2043.87 115.978 2785
2057.15 116.352 2794
2067.53 116.561 2799
2074.22 116.561 2799
2080.91 116.561 2799
2087.61 116.561 2799
2101.78 116.977 2809
2108.5 116.977 2809
2115.22 116.977 2809
2121.93 116.977 2809
2131.68 117.144 2813
2142.21 117.352 2818
2148.95 117.352 2818
2155.69 117.352 2818
-2370.46 139.428 3166
-2362.89 139.428 3166
-2355.32 139.428 3166
-2343.3 139.164 3160
-2326.87 138.635 3148
-2319.35 138.635 3148
-2311.82 138.635 3148
-2313.07 139.164 3160
-2309.9 139.428 3166
-2306.69 139.692 3172
-2299.1 139.692 3172
-2291.52 139.692 3172
-2283.93 139.692 3172
-2284.96 140.221 3184
-2277.34 140.221 3184
-2269.73 140.221 3184
-2262.12 140.221 3184
-2254.5 140.221 3184
-2246.89 140.221 3184
-2243.49 140.485 3190
-2235.87 140.485 3190
-2232.43 140.749 3196
-2224.79 140.749 3196
-2217.14 140.749 3196
-2221.95 141.542 3214
-2219.08 141.85 3221
-2211.38 141.85 3221
-2207.78 142.114 3227
-2200.07 142.114 3227
-2192.35 142.114 3227
-2175.83 141.542 3214
-2168.15 141.542 3214
-2173.23 142.379 3233
-2165.5 142.379 3233
-2157.77 142.379 3233
-2150.04 142.379 3233
-2138.33 142.114 3227
-2130.61 142.114 3227
-2118.95 141.85 3221
-2098.79 141.013 3202
-2087.22 140.749 3196
-2079.58 140.749 3196
-2071.93 140.749 3196
-2068.17 141.013 3202
-2060.51 141.013 3202
-2052.85 141.013 3202
-2045.2 141.013 3202
-2033.72 140.749 3196
-2026.08 140.749 3196
-2018.44 140.749 3196
-2007.02 140.485 3190
-2003.15 140.749 3196
-1999.25 141.013 3202
-1991.6 141.013 3202
-1983.94 141.013 3202
-1976.28 141.013 3202
-1964.94 140.749 3196
-1964.64 141.278 3208
-1956.97 141.278 3208
-1968.14 142.643 3239
-1968.26 143.215 3252
-1964.1 143.48 3258
-1956.31 143.48 3258
-1948.52 143.48 3258
-1944.9 143.788 3265
-1937.09 143.788 3265
-1929.28 143.788 3265
-1925.01 144.052 3271
-1921.29 144.36 3278
-1920.45 144.889 3290
-1912.59 144.889 3290
-1904.72 144.889 3290
-1896.85 144.889 3290
-1888.98 144.889 3290
-1881.12 144.889 3290
-1869.83 144.625 3284
-1851.21 143.788 3265
-1836.06 143.215 3252
-1828.28 143.215 3252
-1820.51 143.215 3252
-1809.39 142.951 3246
-1797.74 142.643 3239
-1789.99 142.643 3239
-1782.25 142.643 3239
-1774.5 142.643 3239
-1766.76 142.643 3239
-1759.01 142.643 3239
-1751.27 142.643 3239
-1747.29 142.951 3246
-1739.53 142.951 3246
-1731.76 142.951 3246
-1717.1 142.379 3233
-1709.37 142.379 3233
-1708.48 142.951 3246
-1700.72 142.951 3246
-1692.95 142.951 3246
-1685.19 142.951 3246
-1677.43 142.951 3246
-1675.84 143.48 3258
-1668.05 143.48 3258
-1663.83 143.788 3265
-1668.7 144.889 3290
-1660.83 144.889 3290
-1652.96 144.889 3290
-1645.1 144.889 3290
-1637.23 144.889 3290
-1629.36 144.889 3290
-1615.58 144.36 3278
-1607.74 144.36 3278
-1599.9 144.36 3278
-1592.06 144.36 3278
-1584.22 144.36 3278
-1566.77 143.48 3258
-1558.98 143.48 3258
-1551.19 143.48 3258
-1543.4 143.48 3258
-1535.6 143.48 3258
-1531.1 143.788 3265
-1523.29 143.788 3265
-1515.48 143.788 3265
-1522.45 145.197 3297
-1514.57 145.197 3297
-1506.68 145.197 3297
-1498.8 145.197 3297
-1493.63 145.461 3303
-1488.88 145.77 3310
-1489.91 146.65 3330
-1481.95 146.65 3330
-1477.08 146.959 3337
-1469.1 146.959 3337
-1469.88 147.84 3357
-1461.85 147.84 3357
-1453.82 147.84 3357
-1445.8 147.84 3357
-1437.77 147.84 3357
-1429.74 147.84 3357
-1413.24 146.959 3337
-1399.37 146.342 3323
-1391.42 146.342 3323
-1383.48 146.342 3323
-1375.53 146.342 3323
-1367.58 146.342 3323
-1359.64 146.342 3323
-1351.69 146.342 3323
-1343.74 146.342 3323
-1333.39 146.078 3317
-1325.45 146.078 3317
-1317.52 146.078 3317
-1301.69 145.197 3297
-1293.81 145.197 3297
-1285.93 145.197 3297
-1278.04 145.197 3297
-1270.16 145.197 3297
-1262.27 145.197 3297
-1254.39 145.197 3297
-1246.51 145.197 3297
-1238.62 145.197 3297
-1230.74 145.197 3297
-1222.85 145.197 3297
-1214.97 145.197 3297
-1207.08 145.197 3297
-1196.65 144.889 3290
-1188.79 144.889 3290
-1180.92 144.889 3290
-1166.28 144.052 3271
-1156.33 143.788 3265
-1146.06 143.48 3258
-1138.27 143.48 3258
-1126.32 142.951 3246
-1120.62 143.215 3252
-1112.84 143.215 3252
-1105.07 143.215 3252
-1097.29 143.215 3252
-1089.51 143.215 3252
-1075.42 142.379 3233
-1067.69 142.379 3233
-550.034 74.4262 1690
-545.993 74.4262 1690
-541.951 74.4262 1690
-538.547 74.5143 1692
-535.132 74.6024 1694
-531.081 74.6024 1694
-527.031 74.6024 1694
-522.362 74.5143 1692
-518.316 74.5143 1692
-514.27 74.5143 1692
-509.621 74.4262 1690
-505.28 74.3822 1689
-501.242 74.3822 1689
-496.025 74.206 1685
-491.996 74.206 1685
-487.387 74.118 1683
-481.927 73.8978 1678
-477.914 73.8978 1678
-473.619 73.8537 1677
-468.209 73.6335 1672
-463.655 73.5454 1670
-459.662 73.5454 1670
-455.668 73.5454 1670
-450.863 73.4133 1667
-446.877 73.4133 1667
-442.891 73.4133 1667
-438.378 73.3252 1665
-434.396 73.3252 1665
-429.122 73.105 1660
-425.153 73.105 1660
-421.183 73.105 1660
-417.214 73.105 1660
-412.497 72.9729 1657
-408.535 72.9729 1657
-404.572 72.9729 1657
-399.643 72.7968 1653
-395.451 72.7527 1652
-391.5 72.7527 1652
-386.377 72.5325 1647
-381.974 72.4445 1645
-377.811 72.4004 1644
-373.424 72.3123 1642
-369.498 72.3123 1642
-364.458 72.0921 1637
-359.883 71.96 1634
-355.975 71.96 1634
-352.068 71.96 1634
-347.735 71.872 1632
-343.621 71.8279 1631
-339.721 71.8279 1631
-335.821 71.8279 1631
-331.921 71.8279 1631
-328.02 71.8279 1631
-323.723 71.7398 1629
-319.827 71.7398 1629
-315.738 71.6958 1628
-311.845 71.6958 1628
-307.952 71.6958 1628
-304.059 71.6958 1628
-299.428 71.5196 1624
-295.363 71.4756 1623
-291.482 71.4756 1623
-287.601 71.4756 1623
-283.37 71.3875 1621
-279.494 71.3875 1621
-275.617 71.3875 1621
-271.741 71.3875 1621
-267.699 71.3435 1620
-263.5 71.2554 1618
-259.47 71.2114 1617
-254.971 71.0352 1613
-251.114 71.0352 1613
-247.257 71.0352 1613
-242.947 70.9031 1610
-239.097 70.9031 1610
-235.247 70.9031 1610
-231.253 70.8591 1609
-227.406 70.8591 1609
-223.28 70.771 1607
-219.437 70.771 1607
-215.595 70.771 1607
-211.752 70.771 1607
-207.909 70.771 1607
-204.066 70.771 1607
-200.223 70.771 1607
-196.38 70.771 1607
-192.538 70.771 1607
-189.047 70.9031 1610
-185.197 70.9031 1610
-181.572 70.9912 1612
-177.718 70.9912 1612
-174.186 71.1233 1615
-170.324 71.1233 1615
-166.772 71.2554 1618
-162.902 71.2554 1618
-159.328 71.3875 1621
-155.452 71.3875 1621
-151.763 71.4756 1623
-148.337 71.6958 1628
-144.444 71.6958 1628
-140.551 71.6958 1628
-136.91 71.8279 1631
-133.254 71.96 1634
-129.347 71.96 1634
-125.439 71.96 1634
-121.532 71.96 1634
-117.625 71.96 1634
-113.717 71.96 1634
-109.81 71.96 1634
-191.595 152.728 3468
-183.302 152.728 3468
-175.009 152.728 3468
-166.716 152.728 3468
-158.423 152.728 3468
-150.13 152.728 3468
-141.265 152.111 3454
-133.005 152.111 3454
-124.745 152.111 3454
-116.486 152.111 3454
-108.226 152.111 3454
-100.372 152.728 3468
-92.4771 153.388 3483
-84.1482 153.388 3483
-75.8193 153.388 3483
-67.4904 153.388 3483
-58.9067 152.728 3468
-50.6137 152.728 3468
-42.3206 152.728 3468
-33.8902 152.111 3454
-25.6307 152.111 3454
-17.3711 152.111 3454
-9.09306 151.803 3447
-0.850242 151.803 3447
7.43762 152.728 3468
15.7307 152.728 3468
24.0237 152.728 3468
32.2515 152.42 3461
40.4458 152.111 3454
48.7054 152.111 3454
56.8495 151.803 3447
64.9601 151.495 3440
72.5905 150.262 3412
80.7496 150.262 3412
88.9088 150.262 3412
97.0679 150.262 3412
104.579 149.337 3391
112.688 149.337 3391
121.047 149.645 3398
129.172 149.645 3398
137.864 150.262 3412
146.023 150.262 3412
154.182 150.262 3412
162.341 150.262 3412
170.5 150.262 3412
178.659 150.262 3412
186.818 150.262 3412
194.977 150.262 3412
203.137 150.262 3412
212.596 151.187 3433
220.805 151.187 3433
229.015 151.187 3433
237.224 151.187 3433
246.935 152.111 3454
256.82 153.08 3476
265.132 153.08 3476
273.444 153.08 3476
281.756 153.08 3476
290.069 153.08 3476
297.093 152.42 3461
305.369 152.42 3461
313.646 152.42 3461
321.922 152.42 3461
329.53 152.111 3454
337.79 152.111 3454
346.05 152.111 3454
354.309 152.111 3454
361.834 151.803 3447
368.574 151.187 3433
375.246 150.57 3419
382.637 150.262 3412
390.796 150.262 3412
396.5 149.337 3391
402.939 148.72 3377
409.31 148.104 3363
417.352 148.104 3363
425.394 148.104 3363
432.663 147.84 3357
438.065 146.959 3337
446.044 146.959 3337
454.024 146.959 3337
465.604 148.104 3363
473.646 148.104 3363
481.688 148.104 3363
488.856 147.84 3357
494.811 147.223 3343
499.797 146.342 3323
506.827 146.078 3317
514.759 146.078 3317
522.691 146.078 3317
531.582 146.342 3323
542.776 147.223 3343
559.832 149.645 3398
567.957 149.645 3398
580.83 150.878 3426
589.022 150.878 3426
597.215 150.878 3426
605.408 150.878 3426
614.854 151.187 3433
623.063 151.187 3433
632.56 151.495 3440
640.786 151.495 3440
649.012 151.495 3440
657.238 151.495 3440
666.818 151.803 3447
675.061 151.803 3447
686.079 152.42 3461
694.356 152.42 3461
704.053 152.728 3468
712.346 152.728 3468
720.639 152.728 3468
728.932 152.728 3468
737.225 152.728 3468
745.518 152.728 3468
752.29 152.42 3461
760.566 152.42 3461
768.842 152.42 3461
775.547 152.111 3454
783.806 152.111 3454
792.066 152.111 3454
805.423 153.08 3476
818.651 154.005 3497
827.014 154.005 3497
838.959 154.666 3512
847.358 154.666 3512
855.756 154.666 3512
864.154 154.666 3512
870.813 154.357 3505
879.195 154.357 3505
889.349 154.666 3512
897.747 154.666 3512
911.822 155.634 3534
922.356 155.987 3542
932.665 156.295 3549
941.152 156.295 3549
949.639 156.295 3549
958.126 156.295 3549
968.791 156.647 3557
977.297 156.647 3557
988.02 157 3565
998.502 157.308 3572
1007.04 157.308 3572
1015.59 157.308 3572
1024.13 157.308 3572
1032.67 157.308 3572
1036.84 156.647 3557
1047.7 157 3565
1056.22 157 3565
1073.71 158.321 3595
1087.12 159.025 3611
1095.75 159.025 3611
1104.39 159.025 3611
1113.02 159.025 3611
1119.17 158.673 3603
1127.79 158.673 3603
1136.41 158.673 3603
1142.48 158.321 3595
1151.08 158.321 3595
1164.83 159.025 3611
1173.47 159.025 3611
1182.1 159.025 3611
1193.38 159.378 3619
1202.03 159.378 3619
1210.68 159.378 3619
1219.34 159.378 3619
1230.71 159.73 3627
1244.51 160.391 3642
1253.22 160.391 3642
1261.92 160.391 3642
1270.63 160.391 3642
1279.34 160.391 3642
1288.05 160.391 3642
1294.27 160.082 3635
1300.09 159.73 3627
1305.88 159.378 3619
1314.53 159.378 3619
1320.26 159.025 3611
1328.9 159.025 3611
1337.53 159.025 3611
1346.17 159.025 3611
1354.8 159.025 3611
1360.42 158.673 3603
1363.33 158.013 3588
1371.91 158.013 3588
1380.49 158.013 3588
1389.07 158.013 3588
1397.65 158.013 3588
1406.23 158.013 3588
1411.66 157.66 3580
1417.05 157.308 3572
1425.59 157.308 3572
1434.13 157.308 3572
1442.67 157.308 3572
1441.87 156.295 3549
1444.23 155.634 3534
1452.68 155.634 3534
1461.13 155.634 3534
1469.58 155.634 3534
1478.03 155.634 3534
1486.48 155.634 3534
1494.93 155.634 3534
1503.38 155.634 3534
1518.25 156.295 3549
1530.18 156.647 3557
1538.68 156.647 3557
1547.19 156.647 3557
1555.7 156.647 3557
1564.2 156.647 3557
1572.71 156.647 3557
1581.21 156.647 3557
1589.72 156.647 3557
1598.23 156.647 3557
1606.73 156.647 3557
1618.87 157 3565
1627.39 157 3565
1635.92 157 3565
1640.75 156.647 3557
1649.26 156.647 3557
1650.78 155.987 3542
1662.52 156.295 3549
1671.01 156.295 3549
1679.5 156.295 3549
1687.98 156.295 3549
1693.13 155.987 3542
1694.39 155.326 3527
1706.2 155.634 3534
1714.65 155.634 3534
1723.1 155.634 3534
1731.56 155.634 3534
1740.01 155.634 3534
1748.46 155.634 3534
1756.91 155.634 3534
1765.36 155.634 3534
1759.25 154.357 3505
1767.64 154.357 3505
1768.42 153.697 3490
1769.63 153.08 3476
1785.11 153.697 3490
1797.05 154.005 3497
1805.41 154.005 3497
1817.92 154.357 3505
1826.31 154.357 3505
1849.87 155.634 3534
1858.32 155.634 3534
1878.92 156.647 3557
1895.38 157.308 3572
1912.45 158.013 3588
1921.03 158.013 3588
1929.61 158.013 3588
1938.19 158.013 3588
1946.77 158.013 3588
1959.17 158.321 3595
1967.77 158.321 3595
1993.95 159.73 3627
2019.74 161.095 3658
2028.49 161.095 3658
2037.24 161.095 3658
2051.02 161.492 3667
2064.28 161.844 3675
2100.71 164.002 3724
2109.62 164.002 3724
2123.07 164.354 3732
2132 164.354 3732
2140.92 164.354 3732
2145.24 164.002 3724
2144.31 163.253 3707
2143.88 162.549 3691
2152.71 162.549 3691
2152.16 161.844 3675
2150.95 161.095 3658
2154.98 160.743 3650
2154.82 160.082 3635
2163.51 160.082 3635
2172.2 160.082 3635
2180.89 160.082 3635
2184.77 159.73 3627
2193.44 159.73 3627
2192.4 159.025 3611
2201.03 159.025 3611
2209.67 159.025 3611
2218.3 159.025 3611
2226.94 159.025 3611
2230.62 158.673 3603
2239.24 158.673 3603
2247.85 158.673 3603
2256.47 158.673 3603
2265.08 158.673 3603
2273.7 158.673 3603
2302.59 160.082 3635
2315.73 160.391 3642
2324.44 160.391 3642
2333.15 160.391 3642
2341.86 160.391 3642
2350.57 160.391 3642
2359.27 160.391 3642
2378.39 161.095 3658
2387.13 161.095 3658
2395.88 161.095 3658
2404.63 161.095 3658
2402.82 160.391 3642
2411.53 160.391 3642
2425.55 160.743 3650
2434.28 160.743 3650
2443.01 160.743 3650
2451.74 160.743 3650
2460.47 160.743 3650
2469.2 160.743 3650
2472.49 160.391 3642
2481.2 160.391 3642
2485.13 160.082 3635
2493.82 160.082 3635
2497 159.73 3627
2483.57 158.321 3595
2471.37 157 3565
2479.89 157 3565
1970.49 124.323 2823
1977.24 124.323 2823
1983.99 124.323 2823
1987.22 124.102 2818
1984.05 123.486 2804
1990.76 123.486 2804
1980.37 122.429 2780
1977.72 121.856 2767
1980.75 121.636 2762
1987.36 121.636 2762
1993.96 121.636 2762
1996.95 121.416 2757
2007.17 121.636 2762
2017.42 121.856 2767
2037.21 122.649 2785
2043.87 122.649 2785
2050.52 122.649 2785
2063.83 123.045 2794
2074.22 123.266 2799
2080.91 123.266 2799
2087.61 123.266 2799
2098.04 123.486 2804
2104.75 123.486 2804
2111.45 123.486 2804
2121.93 123.706 2809
2131.68 123.882 2813
2142.21 124.102 2818
2148.95 124.102 2818
2155.69 124.102 2818
-2370.46 147.012 3166
-2362.89 147.012 3166
-2355.32 147.012 3166
-2343.3 146.734 3160
-2326.87 146.176 3148
-2319.35 146.176 3148
-2311.82 146.176 3148
-2313.07 146.734 3160
-2309.9 147.012 3166
-2306.69 147.291 3172
-2299.1 147.291 3172
-2291.52 147.291 3172
-2283.93 147.291 3172
-2284.96 147.848 3184
-2277.34 147.848 3184
-2269.73 147.848 3184
-2262.12 147.848 3184
-2254.5 147.848 3184
-2246.89 147.848 3184
-2243.49 148.127 3190
-2235.87 148.127 3190
-2232.43 148.405 3196
-2224.79 148.405 3196
-2217.14 148.405 3196
-2221.95 149.241 3214
-2219.08 149.566 3221
-2211.38 149.566 3221
-2207.78 149.845 3227
-2200.07 149.845 3227
-2192.35 149.845 3227
-2175.83 149.241 3214
-2168.15 149.241 3214
-2173.23 150.123 3233
-2165.5 150.123 3233
-2157.77 150.123 3233
-2150.04 150.123 3233
-2138.33 149.845 3227
-2130.61 149.845 3227
-2118.95 149.566 3221
-2098.79 148.684 3202
-2087.22 148.405 3196
-2083.48 148.684 3202
-2075.82 148.684 3202
-2068.17 148.684 3202
-2060.51 148.684 3202
-2052.85 148.684 3202
-2045.2 148.684 3202
-2037.54 148.684 3202
-2029.88 148.684 3202
-2022.23 148.684 3202
-2014.57 148.684 3202
-2010.67 148.963 3208
-2006.75 149.241 3214
-1999.06 149.241 3214
-1991.38 149.241 3214
-1983.69 149.241 3214
-1968.63 148.684 3202
-1964.64 148.963 3208
-1956.97 148.963 3208
-1972.39 150.727 3246
-1971.89 151.284 3258
-1971.94 151.888 3271
-1964.12 151.888 3271
-1956.29 151.888 3271
-1948.47 151.888 3271
-1940.65 151.888 3271
-1932.83 151.888 3271
-1932.66 152.492 3284
-1928.32 152.77 3290
-1920.45 152.77 3290
-1912.59 152.77 3290
-1904.72 152.77 3290
-1896.85 152.77 3290
-1888.98 152.77 3290
-1881.12 152.77 3290
-1873.25 152.77 3290
-1851.21 151.609 3265
-1843.4 151.609 3265
-1835.59 151.609 3265
-1823.87 151.284 3258
-1816.08 151.284 3258
-1804.95 151.006 3252
-1797.18 151.006 3252
-1789.4 151.006 3252
-1781.62 151.006 3252
-1773.85 151.006 3252
-1766.07 151.006 3252
-1758.3 151.006 3252
-1750.52 151.006 3252
-1742.74 151.006 3252
-1734.97 151.006 3252
-1724 150.727 3246
-1716.24 150.727 3246
-1711.64 151.006 3252
-1703.86 151.006 3252
-1696.08 151.006 3252
-1691.42 151.284 3258
-1690.35 151.888 3271
-1686.13 152.213 3278
-1678.29 152.213 3278
-1676.56 152.77 3290
-1678.84 153.699 3310
-1681.02 154.628 3330
-1673.06 154.628 3330
-1665.1 154.628 3330
-1657.13 154.628 3330
-1649.17 154.628 3330
-1634.8 154.024 3317
-1626.87 154.024 3317
-1618.94 154.024 3317
-1611 154.024 3317
-1596.31 153.374 3303
-1591.77 153.699 3310
-1583.86 153.699 3310
-1575.94 153.699 3310
-1568.03 153.699 3310
-1563.41 154.024 3317
-1558.29 154.302 3323
-1550.35 154.302 3323
-1542.4 154.302 3323
-1537.69 154.628 3330
-1532.94 154.953 3337
-1524.96 154.953 3337
-1516.98 154.953 3337
-1509 154.953 3337
-1510.02 155.881 3357
-1504.67 156.16 3363
-1496.63 156.16 3363
-1488.59 156.16 3363
-1480.55 156.16 3363
-1472.51 156.16 3363
-1464.46 156.16 3363
-1465.52 157.135 3384
-1457.43 157.135 3384
-1449.33 157.135 3384
-1435.28 156.485 3370
-1427.22 156.485 3370
-1413.69 155.881 3357
-1405.66 155.881 3357
-1394.72 155.556 3350
-1386.71 155.556 3350
-1381.58 155.881 3357
-1376 156.16 3363
-1367.96 156.16 3363
-1359.92 156.16 3363
-1349.47 155.881 3357
-1338.64 155.556 3350
-1330.63 155.556 3350
-1317.49 154.953 3337
-1314.61 155.556 3350
-1306.6 155.556 3350
-1298.59 155.556 3350
-1290.58 155.556 3350
-1285.24 155.881 3357
-1277.22 155.881 3357
-1269.19 155.881 3357
-1258.53 155.556 3350
-1250.52 155.556 3350
-1239.91 155.231 3343
-1231.92 155.231 3343
-1221.73 154.953 3337
-1213.75 154.953 3337
-1196.01 153.699 3310
-1188.1 153.699 3310
-1177.69 153.374 3303
-1165.18 152.77 3290
-1153.1 152.213 3278
-1147.35 152.492 3284
-1139.5 152.492 3284
-1131.65 152.492 3284
-1123.79 152.492 3284
-1115.94 152.492 3284
-1103.7 151.888 3271
-1089.51 151.006 3252
-1081.74 151.006 3252
-1073.96 151.006 3252
-550.034 78.4746 1690
-545.993 78.4746 1690
-541.951 78.4746 1690
-538.547 78.5675 1692
-535.132 78.6604 1694
-531.081 78.6604 1694
-527.031 78.6604 1694
-522.362 78.5675 1692
-518.316 78.5675 1692
-514.27 78.5675 1692
-509.621 78.4746 1690
-505.28 78.4282 1689
-501.242 78.4282 1689
-496.025 78.2425 1685
-491.996 78.2425 1685
-487.387 78.1496 1683
-481.927 77.9174 1678
-477.914 77.9174 1678
-473.619 77.871 1677
-468.209 77.6388 1672
-463.655 77.5459 1670
-459.662 77.5459 1670
-455.668 77.5459 1670
-450.863 77.4066 1667
-446.877 77.4066 1667
-442.891 77.4066 1667
-438.378 77.3138 1665
-434.396 77.3138 1665
-429.122 77.0816 1660
-425.153 77.0816 1660
-421.183 77.0816 1660
-417.214 77.0816 1660
-412.497 76.9423 1657
-408.535 76.9423 1657
-404.572 76.9423 1657
-399.643 76.7566 1653
-395.451 76.7101 1652
-391.5 76.7101 1652
-386.377 76.4779 1647
-382.438 76.4779 1647
-377.811 76.3386 1644
-373.424 76.2458 1642
-369.498 76.2458 1642
-364.458 76.0136 1637
-359.883 75.8743 1634
-355.975 75.8743 1634
-352.068 75.8743 1634
-347.735 75.7814 1632
-343.621 75.735 1631
-339.721 75.735 1631
-335.821 75.735 1631
-331.921 75.735 1631
-328.02 75.735 1631
-323.723 75.6421 1629
-319.827 75.6421 1629
-315.738 75.5957 1628
-311.845 75.5957 1628
-307.952 75.5957 1628
-304.059 75.5957 1628
-299.428 75.4099 1624
-295.363 75.3635 1623
-291.482 75.3635 1623
-287.601 75.3635 1623
-283.37 75.2706 1621
-279.494 75.2706 1621
-275.617 75.2706 1621
-271.741 75.2706 1621
-267.699 75.2242 1620
-263.5 75.1313 1618
-259.47 75.0849 1617
-254.971 74.8992 1613
-251.114 74.8992 1613
-247.257 74.8992 1613
-243.249 74.8527 1612
-239.097 74.7599 1610
-235.247 74.7599 1610
-231.397 74.7599 1610
-227.406 74.7134 1609
-223.28 74.6206 1607
-219.437 74.6206 1607
-215.595 74.6206 1607
-212.015 74.7134 1609
-208.168 74.7134 1609
-204.32 74.7134 1609
-200.472 74.7134 1609
-196.38 74.6206 1607
-192.897 74.7599 1610
-189.282 74.8527 1612
-185.427 74.8527 1612
-181.685 74.8992 1613
-178.048 74.992 1615
-174.51 75.1313 1618
-170.641 75.1313 1618
-167.081 75.2706 1621
-163.406 75.3635 1623
-159.82 75.5028 1626
-155.931 75.5028 1626
-152.324 75.6421 1629
-148.702 75.7814 1632
-145.686 76.2458 1642
-141.76 76.2458 1642
-138.253 76.4779 1647
-134.559 76.6172 1650
-130.613 76.6172 1650
-126.668 76.6172 1650
-122.722 76.6172 1650
-118.057 76.1529 1640
-114.135 76.1529 1640
-109.81 75.8743 1634
-200.349 161.407 3476
-192.811 162.057 3490
-184.465 162.057 3490
-176.119 162.057 3490
-167.437 161.732 3483
-159.108 161.732 3483
-150.779 161.732 3483
-142.164 161.407 3476
-133.852 161.407 3476
-125.54 161.407 3476
-117.228 161.407 3476
-108.665 161.036 3468
-100.806 161.732 3483
-92.8488 162.382 3497
-84.4864 162.382 3497
-76.1241 162.382 3497
-67.7617 162.382 3497
-59.1615 161.732 3483
-50.8326 161.732 3483
-42.4182 161.407 3476
-34.1061 161.407 3476
-25.7939 161.407 3476
-17.4817 161.407 3476
-9.16957 161.407 3476
-0.857395 161.407 3476
7.45477 161.407 3476
15.7669 161.407 3476
24.0791 161.407 3476
32.3913 161.407 3476
40.7035 161.407 3476
49.0156 161.407 3476
56.965 160.385 3454
65.0923 160.06 3447
73.1862 159.735 3440
81.4123 159.735 3440
89.0912 158.76 3419
97.267 158.76 3419
105.227 158.435 3412
113.386 158.435 3412
122.044 159.085 3426
130.237 159.085 3426
138.712 159.41 3433
146.921 159.41 3433
155.131 159.41 3433
162.674 158.76 3419
170.85 158.76 3419
179.026 158.76 3419
187.202 158.76 3419
194.977 158.435 3412
203.137 158.435 3412
212.596 159.41 3433
220.805 159.41 3433
229.015 159.41 3433
237.224 159.41 3433
246.935 160.385 3454
256.82 161.407 3476
265.132 161.407 3476
273.444 161.407 3476
281.756 161.407 3476
290.069 161.407 3476
297.093 160.71 3461
305.369 160.71 3461
313.646 160.71 3461
321.922 160.71 3461
329.53 160.385 3454
337.79 160.385 3454
345.348 160.06 3447
353.591 160.06 3447
360.364 159.41 3433
367.071 158.76 3419
374.478 158.435 3412
382.637 158.435 3412
390.796 158.435 3412
394.863 156.81 3377
399.717 155.556 3350
407.728 155.556 3350
415.739 155.556 3350
423.75 155.556 3350
430.858 155.231 3343
437.146 154.628 3330
445.109 154.628 3330
453.072 154.628 3330
462.835 155.231 3343
470.829 155.231 3343
478.823 155.231 3343
486.817 155.231 3343
492.887 154.628 3330
497.842 153.699 3310
504.688 153.374 3303
514.759 154.024 3317
522.691 154.024 3317
531.582 154.302 3323
542.776 155.231 3343
559.832 157.785 3398
567.957 157.785 3398
580.83 159.085 3426
589.022 159.085 3426
597.215 159.085 3426
605.408 159.085 3426
614.854 159.41 3433
623.063 159.41 3433
632.56 159.735 3440
640.786 159.735 3440
649.012 159.735 3440
657.238 159.735 3440
666.818 160.06 3447
675.061 160.06 3447
687.467 161.036 3468
698.769 161.732 3483
707.098 161.732 3483
715.427 161.732 3483
723.756 161.732 3483
733.556 162.057 3490
741.902 162.057 3490
750.247 162.057 3490
758.593 162.057 3490
766.939 162.057 3490
775.284 162.057 3490
782.058 161.732 3483
790.387 161.732 3483
801.927 162.382 3497
813.765 163.079 3512
824.036 163.45 3520
832.453 163.45 3520
844.215 164.1 3534
854.596 164.472 3542
863.066 164.472 3542
871.536 164.472 3542
878.018 164.1 3534
884.713 163.775 3527
894.92 164.1 3534
903.371 164.1 3534
913.886 164.472 3542
930.168 165.865 3572
938.71 165.865 3572
947.251 165.865 3572
955.793 165.865 3572
964.335 165.865 3572
972.877 165.865 3572
981.418 165.865 3572
989.96 165.865 3572
1002.97 166.608 3588
1011.55 166.608 3588
1020.13 166.608 3588
1026.42 166.236 3580
1032.67 165.865 3572
1041.21 165.865 3572
1049.75 165.865 3572
1058.29 165.865 3572
1073.71 166.933 3595
1087.12 167.676 3611
1095.75 167.676 3611
1104.39 167.676 3611
1113.02 167.676 3611
1119.17 167.304 3603
1127.79 167.304 3603
1136.41 167.304 3603
1142.48 166.933 3595
1151.08 166.933 3595
1164.83 167.676 3611
1173.47 167.676 3611
1182.1 167.676 3611
1193.38 168.047 3619
1202.03 168.047 3619
1210.68 168.047 3619
1222.03 168.419 3627
1235.8 169.115 3642
1244.51 169.115 3642
1253.22 169.115 3642
1261.92 169.115 3642
1273.43 169.487 3650
1282.15 169.487 3650
1290.88 169.487 3650
1296.76 169.115 3642
1305.47 169.115 3642
1311.65 168.79 3635
1320.35 168.79 3635
1329.04 168.79 3635
1337.73 168.79 3635
1346.42 168.79 3635
1355.12 168.79 3635
1357.81 168.047 3619
1363.44 167.676 3611
1365.99 166.933 3595
1377.65 167.304 3603
1386.27 167.304 3603
1394.88 167.304 3603
1403.5 167.304 3603
1412.11 167.304 3603
1414.81 166.608 3588
1414.27 165.54 3565
1422.79 165.54 3565
1424.9 164.797 3549
1433.38 164.797 3549
1441.87 164.797 3549
1435.24 163.079 3512
1452.68 164.1 3534
1461.13 164.1 3534
1469.58 164.1 3534
1478.03 164.1 3534
1486.48 164.1 3534
1494.93 164.1 3534
1503.38 164.1 3534
1518.25 164.797 3549
1530.18 165.168 3557
1538.68 165.168 3557
1547.19 165.168 3557
1555.7 165.168 3557
1564.2 165.168 3557
1572.71 165.168 3557
1581.21 165.168 3557
1589.72 165.168 3557
1601.82 165.54 3565
1610.34 165.54 3565
1622.05 165.865 3572
1630.59 165.865 3572
1639.13 165.865 3572
1647.67 165.865 3572
1656.22 165.865 3572
1664.76 165.865 3572
1673.3 165.865 3572
1681.84 165.865 3572
1690.38 165.865 3572
1698.92 165.865 3572
1700.3 165.168 3557
1708.8 165.168 3557
1717.31 165.168 3557
1725.81 165.168 3557
1734.32 165.168 3557
1742.82 165.168 3557
1751.33 165.168 3557
1759.84 165.168 3557
1768.34 165.168 3557
1776.85 165.168 3557
1770.3 163.775 3527
1778.73 163.775 3527
1776.02 162.754 3505
1776.76 162.057 3490
1785.11 162.057 3490
1793.45 162.057 3490
1801.8 162.057 3490
1817.92 162.754 3505
1826.31 162.754 3505
1849.87 164.1 3534
1858.32 164.1 3534
1878.92 165.168 3557
1891.67 165.54 3565
1903.93 165.865 3572
1921.03 166.608 3588
1929.61 166.608 3588
1938.19 166.608 3588
1946.77 166.608 3588
1959.17 166.933 3595
1967.77 166.933 3595
1993.95 168.419 3627
2007.04 168.79 3635
2028.49 169.858 3658
2037.24 169.858 3658
2045.99 169.858 3658
2059.79 170.276 3667
2100.71 172.923 3724
2109.62 172.923 3724
2123.07 173.294 3732
2132 173.294 3732
2140.92 173.294 3732
2145.24 172.923 3724
2144.31 172.133 3707
2143.88 171.39 3691
2152.71 171.39 3691
2152.16 170.648 3675
2156.25 170.276 3667
2154.98 169.487 3650
2163.71 169.487 3650
2172.44 169.487 3650
2181.16 169.487 3650
2185.09 169.115 3642
2189.58 168.79 3635
2198.28 168.79 3635
2202.11 168.419 3627
2210.79 168.419 3627
2224.35 168.79 3635
2233.05 168.79 3635
2241.74 168.79 3635
2245.48 168.419 3627
2254.15 168.419 3627
2267.82 168.79 3635
2280.89 169.115 3642
2289.6 169.115 3642
2298.31 169.115 3642
2312.09 169.487 3650
2320.82 169.487 3650
2329.54 169.487 3650
2338.27 169.487 3650
2363.08 170.648 3675
2371.86 170.648 3675
2380.65 170.648 3675
2399.84 171.39 3691
2408.67 171.39 3691
2417.5 171.39 3691
2415.8 170.648 3675
2419.31 170.276 3667
2428.08 170.276 3667
2436.85 170.276 3667
2445.62 170.276 3667
2454.39 170.276 3667
2463.16 170.276 3667
2471.93 170.276 3667
2474.61 169.858 3658
2477.92 169.487 3650
2486.65 169.487 3650
2489.91 169.115 3642
2498.62 169.115 3642
2507.33 169.115 3642
2500.15 168.047 3619
2487.31 166.608 3588
2495.89 166.608 3588
1963.94 130.203 2804
1970.64 130.203 2804
1977.35 130.203 2804
1984.05 130.203 2804
1990.76 130.203 2804
1977.52 128.903 2776
1977.72 128.485 2767
1977.17 128.02 2757
1983.76 128.02 2757
1990.35 128.02 2757
1996.95 128.02 2757
2003.54 128.02 2757
2017.42 128.485 2767
2033.55 129.088 2780
2040.2 129.088 2780
2050.52 129.321 2785
2060.88 129.553 2790
2074.22 129.971 2799
2080.91 129.971 2799
2091.34 130.203 2804
2098.04 130.203 2804
2108.5 130.435 2809
2115.22 130.435 2809
2121.93 130.435 2809
2131.68 130.621 2813
2142.21 130.853 2818
2148.95 130.853 2818
2155.69 130.853 2818
-2361.48 154.01 3154
-2353.94 154.01 3154
-2341.93 153.717 3148
-2334.4 153.717 3148
-2322.44 153.424 3142
-2314.93 153.424 3142
-2303.01 153.132 3136
-2304.29 153.717 3148
-2305.52 154.303 3160
-2297.96 154.303 3160
-2290.4 154.303 3160
-2287.18 154.596 3166
-2283.93 154.889 3172
-2276.35 154.889 3172
-2268.76 154.889 3172
-2269.73 155.475 3184
-2262.12 155.475 3184
-2254.5 155.475 3184
-2246.89 155.475 3184
-2235.05 155.182 3178
-2235.87 155.768 3190
-2228.24 155.768 3190
-2220.61 155.768 3190
-2217.14 156.061 3196
-2221.95 156.94 3214
-2214.26 156.94 3214
-2206.57 156.94 3214
-2203.68 157.282 3221
-2195.97 157.282 3221
-2188.27 157.282 3221
-2171.77 156.647 3208
-2168.15 156.94 3214
-2169.2 157.575 3227
-2161.48 157.575 3227
-2153.77 157.575 3227
-2146.05 157.575 3227
-2138.33 157.575 3227
-2130.61 157.575 3227
-2114.35 156.94 3214
-2098.79 156.354 3202
-2087.22 156.061 3196
-2083.48 156.354 3202
-2075.82 156.354 3202
-2068.17 156.354 3202
-2060.51 156.354 3202
-2052.85 156.354 3202
-2045.2 156.354 3202
-2037.54 156.354 3202
-2029.88 156.354 3202
-2022.23 156.354 3202
-2014.57 156.354 3202
-2010.67 156.647 3208
-2006.75 156.94 3214
-1999.06 156.94 3214
-1991.38 156.94 3214
-1983.69 156.94 3214
-1968.63 156.354 3202
-1964.64 156.647 3208
-1956.97 156.647 3208
-1972.39 158.503 3246
-1971.89 159.089 3258
-1971.94 159.724 3271
-1964.12 159.724 3271
-1956.29 159.724 3271
-1948.47 159.724 3271
-1940.65 159.724 3271
-1932.83 159.724 3271
-1932.66 160.358 3284
-1928.32 160.651 3290
-1920.45 160.651 3290
-1912.59 160.651 3290
-1904.72 160.651 3290
-1896.85 160.651 3290
-1888.98 160.651 3290
-1881.12 160.651 3290
-1873.25 160.651 3290
-1851.21 159.431 3265
-1843.4 159.431 3265
-1835.59 159.431 3265
-1823.87 159.089 3258
-1816.08 159.089 3258
-1804.95 158.796 3252
-1797.18 158.796 3252
-1789.4 158.796 3252
-1781.62 158.796 3252
-1773.85 158.796 3252
-1766.07 158.796 3252
-1758.3 158.796 3252
-1750.52 158.796 3252
-1742.74 158.796 3252
-1734.97 158.796 3252
-1724 158.503 3246
-1716.24 158.503 3246
-1711.64 158.796 3252
-1703.86 158.796 3252
-1696.08 158.796 3252
-1691.42 159.089 3258
-1690.35 159.724 3271
-1686.13 160.065 3278
-1678.29 160.065 3278
-1676.56 160.651 3290
-1678.84 161.628 3310
-1681.02 162.605 3330
-1673.06 162.605 3330
-1665.1 162.605 3330
-1657.13 162.605 3330
-1649.17 162.605 3330
-1634.8 161.97 3317
-1626.87 161.97 3317
-1618.94 161.97 3317
-1611 161.97 3317
-1596.31 161.286 3303
-1591.77 161.628 3310
-1583.86 161.628 3310
-1575.94 161.628 3310
-1568.03 161.628 3310
-1563.41 161.97 3317
-1558.29 162.263 3323
-1550.35 162.263 3323
-1542.4 162.263 3323
-1537.69 162.605 3330
-1532.94 162.946 3337
-1524.96 162.946 3337
-1516.98 162.946 3337
-1509 162.946 3337
-1510.02 163.923 3357
-1504.67 164.216 3363
-1496.63 164.216 3363
-1488.59 164.216 3363
-1480.55 164.216 3363
-1472.51 164.216 3363
-1464.46 164.216 3363
-1465.52 165.241 3384
-1457.43 165.241 3384
-1449.33 165.241 3384
-1435.28 164.558 3370
-1427.22 164.558 3370
-1413.69 163.923 3357
-1405.66 163.923 3357
-1394.72 163.581 3350
-1386.71 163.581 3350
-1381.58 163.923 3357
-1376 164.216 3363
-1367.96 164.216 3363
-1359.92 164.216 3363
-1349.47 163.923 3357
-1338.64 163.581 3350
-1330.63 163.581 3350
-1317.49 162.946 3337
-1314.61 163.581 3350
-1306.6 163.581 3350
-1298.59 163.581 3350
-1290.58 163.581 3350
-1285.24 163.923 3357
-1277.22 163.923 3357
-1269.19 163.923 3357
-1258.53 163.581 3350
-1250.52 163.581 3350
-1239.91 163.239 3343
-1231.92 163.239 3343
-1221.73 162.946 3337
-1213.75 162.946 3337
-1196.01 161.628 3310
-1188.1 161.628 3310
-1177.69 161.286 3303
-1165.18 160.651 3290
-1153.1 160.065 3278
-1147.35 160.358 3284
-1139.5 160.358 3284
-1131.65 160.358 3284
-1123.79 160.358 3284
-1115.94 160.358 3284
-1103.7 159.724 3271
-1089.51 158.796 3252
-1081.74 158.796 3252
-1073.96 158.796 3252
-549.708 82.4742 1689
-545.67 82.4742 1689
-541.951 82.523 1690
-538.547 82.6207 1692
-534.501 82.6207 1692
-530.454 82.6207 1692
-526.408 82.6207 1692
-522.362 82.6207 1692
-518.316 82.6207 1692
-513.662 82.523 1690
-509.319 82.4742 1689
-504.084 82.2789 1685
-500.055 82.2789 1685
-496.025 82.2789 1685
-491.412 82.1812 1683
-487.098 82.1324 1682
-481.639 81.8883 1677
-477.629 81.8883 1677
-473.054 81.7906 1675
-468.209 81.6441 1672
-463.655 81.5464 1670
-459.662 81.5464 1670
-455.668 81.5464 1670
-450.863 81.3999 1667
-446.877 81.3999 1667
-442.891 81.3999 1667
-438.378 81.3023 1665
-434.396 81.3023 1665
-429.122 81.0581 1660
-425.153 81.0581 1660
-421.183 81.0581 1660
-417.214 81.0581 1660
-412.497 80.9117 1657
-408.535 80.9117 1657
-404.572 80.9117 1657
-399.643 80.7163 1653
-395.451 80.6675 1652
-391.5 80.6675 1652
-386.377 80.4233 1647
-382.438 80.4233 1647
-377.811 80.2769 1644
-373.424 80.1792 1642
-369.498 80.1792 1642
-364.458 79.935 1637
-359.883 79.7886 1634
-355.975 79.7886 1634
-352.068 79.7886 1634
-347.735 79.6909 1632
-343.621 79.6421 1631
-339.721 79.6421 1631
-335.821 79.6421 1631
-331.514 79.5444 1629
-327.618 79.5444 1629
-323.524 79.4956 1628
-319.631 79.4956 1628
-315.738 79.4956 1628
-311.845 79.4956 1628
-307.952 79.4956 1628
-304.059 79.4956 1628
-299.428 79.3003 1624
-295.363 79.2514 1623
-291.482 79.2514 1623
-287.601 79.2514 1623
-283.37 79.1538 1621
-279.494 79.1538 1621
-275.617 79.1538 1621
-271.741 79.1538 1621
-267.369 79.0073 1618
-263.5 79.0073 1618
-259.47 78.9584 1617
-254.971 78.7631 1613
-251.114 78.7631 1613
-247.257 78.7631 1613
-243.249 78.7143 1612
-239.394 78.7143 1612
-235.539 78.7143 1612
-231.397 78.6166 1610
-227.547 78.6166 1610
-223.558 78.5678 1609
-219.71 78.5678 1609
-215.863 78.5678 1609
-212.015 78.5678 1609
-208.297 78.6166 1610
-204.447 78.6166 1610
-200.597 78.6166 1610
-196.747 78.6166 1610
-193.137 78.7143 1612
-189.282 78.7143 1612
-185.427 78.7143 1612
-181.91 78.8608 1615
-178.379 79.0073 1618
-174.833 79.1538 1621
-170.957 79.1538 1621
-167.287 79.2514 1623
-163.708 79.3979 1626
-160.115 79.5444 1629
-156.219 79.5444 1629
-152.604 79.6909 1632
-149.613 80.1792 1642
-146.13 80.4233 1647
-142.191 80.4233 1647
-138.757 80.7163 1653
-135.538 81.1558 1662
-131.959 81.3999 1667
-127.973 81.3999 1667
-123.987 81.3999 1667
-120 81.3999 1667
-116.014 81.3999 1667
-109.81 79.7886 1634
-201.156 170.417 3490
-193.197 170.759 3497
-184.835 170.759 3497
-176.473 170.759 3497
-167.774 170.417 3490
-159.428 170.417 3490
-151.083 170.417 3490
-142.451 170.076 3483
-134.122 170.076 3483
-125.793 170.076 3483
-117.464 170.076 3483
-109.135 170.076 3483
-101.211 170.759 3497
-92.8488 170.759 3497
-84.4864 170.759 3497
-76.1241 170.759 3497
-67.7617 170.759 3497
-59.2804 170.417 3490
-50.9347 170.417 3490
-42.5891 170.417 3490
-34.1061 169.734 3476
-25.7939 169.734 3476
-17.5521 170.417 3490
-9.2065 170.417 3490
-0.860849 170.417 3490
7.49981 170.759 3497
15.8622 170.759 3497
24.2246 170.759 3497
32.5217 170.417 3490
40.7854 170.076 3483
49.1143 170.076 3483
57.3278 169.734 3476
65.2245 168.66 3454
73.4841 168.66 3454
81.7436 168.66 3454
89.456 167.634 3433
97.4662 167.292 3426
105.443 166.95 3419
113.619 166.95 3419
122.293 167.634 3433
130.503 167.634 3433
139.278 168.318 3447
147.521 168.318 3447
155.763 168.318 3447
163.673 167.976 3440
171.549 167.634 3433
179.026 166.95 3419
187.202 166.95 3419
194.977 166.609 3412
203.137 166.609 3412
212.596 167.634 3433
220.805 167.634 3433
229.015 167.634 3433
237.708 167.976 3440
247.435 169.001 3461
256.82 169.734 3476
265.132 169.734 3476
273.444 169.734 3476
281.756 169.734 3476
290.069 169.734 3476
297.093 169.001 3461
305.369 169.001 3461
313.646 169.001 3461
321.922 169.001 3461
329.53 168.66 3454
337.79 168.66 3454
345.348 168.318 3447
353.591 168.318 3447
360.364 167.634 3433
367.071 166.95 3419
374.478 166.609 3412
382.637 166.609 3412
390.796 166.609 3412
394.863 164.9 3377
399.717 163.581 3350
407.728 163.581 3350
415.739 163.581 3350
423.75 163.581 3350
430.858 163.239 3343
437.146 162.605 3330
445.109 162.605 3330
453.072 162.605 3330
462.835 163.239 3343
470.829 163.239 3343
478.823 163.239 3343
486.817 163.239 3343
492.887 162.605 3330
497.842 161.628 3310
504.688 161.286 3303
514.759 161.97 3317
522.691 161.97 3317
531.582 162.263 3323
542.776 163.239 3343
560.985 166.267 3405
569.127 166.267 3405
583.203 167.976 3440
592.633 168.318 3447
600.876 168.318 3447
609.119 168.318 3447
617.361 168.318 3447
625.604 168.318 3447
633.847 168.318 3447
642.09 168.318 3447
650.333 168.318 3447
658.576 168.318 3447
669.527 169.001 3461
677.803 169.001 3461
691.828 170.417 3490
700.174 170.417 3490
709.94 170.759 3497
718.303 170.759 3497
726.665 170.759 3497
735.027 170.759 3497
743.39 170.759 3497
751.752 170.759 3497
758.593 170.417 3490
766.939 170.417 3490
775.284 170.417 3490
785.202 170.759 3497
793.564 170.759 3497
805.366 171.492 3512
815.618 171.882 3520
827.313 172.566 3534
835.764 172.566 3534
847.798 173.298 3549
856.285 173.298 3549
864.772 173.298 3549
873.258 173.298 3549
880.006 172.957 3542
886.469 172.566 3534
894.92 172.566 3534
903.371 172.566 3534
919.82 174.08 3565
930.168 174.421 3572
938.71 174.421 3572
947.251 174.421 3572
955.793 174.421 3572
964.335 174.421 3572
975.056 174.812 3580
983.616 174.812 3580
992.177 174.812 3580
1002.97 175.203 3588
1011.55 175.203 3588
1020.13 175.203 3588
1028.71 175.203 3588
1032.67 174.421 3572
1041.21 174.421 3572
1049.75 174.421 3572
1058.29 174.421 3572
1073.71 175.545 3595
1087.12 176.326 3611
1095.75 176.326 3611
1104.39 176.326 3611
1113.02 176.326 3611
1119.17 175.935 3603
1127.79 175.935 3603
1136.41 175.935 3603
1142.48 175.545 3595
1151.08 175.545 3595
1164.83 176.326 3611
1173.47 176.326 3611
1182.1 176.326 3611
1193.38 176.717 3619
1202.03 176.717 3619
1210.68 176.717 3619
1222.03 177.107 3627
1235.8 177.84 3642
1244.51 177.84 3642
1253.22 177.84 3642
1261.92 177.84 3642
1273.43 178.23 3650
1282.15 178.23 3650
1290.88 178.23 3650
1296.76 177.84 3642
1305.47 177.84 3642
1311.65 177.498 3635
1320.35 177.498 3635
1329.04 177.498 3635
1337.73 177.498 3635
1346.42 177.498 3635
1355.12 177.498 3635
1363.81 177.498 3635
1366.46 176.717 3619
1372.07 176.326 3611
1380.71 176.326 3611
1389.34 176.326 3611
1401.08 176.717 3619
1409.73 176.717 3619
1418.38 176.717 3619
1420.73 175.935 3603
1420.22 174.812 3580
1422.79 174.08 3565
1431.32 174.08 3565
1439.84 174.08 3565
1445.12 173.689 3557
1450.36 173.298 3549
1455.97 172.957 3542
1464.44 172.957 3542
1472.91 172.957 3542
1481.38 172.957 3542
1486.48 172.566 3534
1501.28 173.298 3549
1509.76 173.298 3549
1518.25 173.298 3549
1530.18 173.689 3557
1538.68 173.689 3557
1547.19 173.689 3557
1555.7 173.689 3557
1564.2 173.689 3557
1572.71 173.689 3557
1581.21 173.689 3557
1589.72 173.689 3557
1608.56 174.812 3580
1620.73 175.203 3588
1632.49 175.545 3595
1641.09 175.545 3595
1653.36 175.935 3603
1661.97 175.935 3603
1670.59 175.935 3603
1672.21 175.203 3588
1687.82 175.935 3603
1696.44 175.935 3603
1705.05 175.935 3603
1709.86 175.545 3595
1715.11 175.203 3588
1727.06 175.545 3595
1735.65 175.545 3595
1744.25 175.545 3595
1752.85 175.545 3595
1758.01 175.203 3588
1766.59 175.203 3588
1775.17 175.203 3588
1783.75 175.203 3588
1788.34 174.812 3580
1785.35 173.689 3557
1793.86 173.689 3557
1787.16 172.224 3527
1784.4 171.15 3505
1785.11 170.417 3490
1793.45 170.417 3490
1801.8 170.417 3490
1817.92 171.15 3505
1826.31 171.15 3505
1849.87 172.566 3534
1858.32 172.566 3534
1878.92 173.689 3557
1891.67 174.08 3565
1903.93 174.421 3572
1921.03 175.203 3588
1929.61 175.203 3588
1938.19 175.203 3588
1946.77 175.203 3588
1959.17 175.545 3595
1967.77 175.545 3595
1993.95 177.107 3627
2007.04 177.498 3635
2028.49 178.621 3658
2037.24 178.621 3658
2045.99 178.621 3658
2059.79 179.06 3667
2100.71 181.844 3724
2109.62 181.844 3724
2123.07 182.234 3732
2132 182.234 3732
2140.92 182.234 3732
2145.24 181.844 3724
2144.31 181.014 3707
2143.88 180.232 3691
2152.71 180.232 3691
2152.16 179.451 3675
2156.25 179.06 3667
2154.98 178.23 3650
2163.71 178.23 3650
2172.44 178.23 3650
2181.16 178.23 3650
2189.89 178.23 3650
2193.8 177.84 3642
2202.51 177.84 3642
2211.22 177.84 3642
2215.66 177.498 3635
2228.64 177.84 3642
2237.35 177.84 3642
2246.06 177.84 3642
2254.77 177.84 3642
2263.47 177.84 3642
2272.18 177.84 3642
2285.9 178.23 3650
2294.63 178.23 3650
2303.36 178.23 3650
2312.09 178.23 3650
2331.63 179.06 3667
2340.39 179.06 3667
2354.29 179.451 3675
2363.08 179.451 3675
2382.19 180.232 3691
2391.02 180.232 3691
2405.04 180.623 3699
2413.89 180.623 3699
2422.74 180.623 3699
2426.32 180.232 3691
2424.59 179.451 3675
2428.08 179.06 3667
2442.17 179.451 3675
2450.96 179.451 3675
2459.74 179.451 3675
2468.53 179.451 3675
2477.32 179.451 3675
2480.7 179.06 3667
2483.36 178.621 3658
2492.1 178.621 3658
2500.85 178.621 3658
2509.6 178.621 3658
2518.34 178.621 3658
2511.2 177.498 3635
2514.35 177.107 3627
2523.02 177.107 3627
1963.94 136.92 2804
1970.64 136.92 2804
1977.35 136.92 2804
1984.05 136.92 2804
1990.76 136.92 2804
1977.52 135.553 2776
1977.72 135.113 2767
1977.17 134.625 2757
1983.76 134.625 2757
1990.35 134.625 2757
1996.95 134.625 2757
2003.54 134.625 2757
2017.42 135.113 2767
2033.55 135.748 2780
2040.2 135.748 2780
2050.52 135.992 2785
2060.88 136.236 2790
2074.22 136.676 2799
2080.91 136.676 2799
2091.34 136.92 2804
2098.04 136.92 2804
2108.5 137.164 2809
2115.22 137.164 2809
2121.93 137.164 2809
2131.68 137.359 2813
2142.21 137.604 2818
2148.95 137.604 2818
2155.69 137.604 2818
-2356.98 161.259 3148
-2349.46 161.259 3148
-2337.47 160.951 3142
