ply
format ascii 1.0
comment File generated
element vertex 2251
property float x
property float y
property float z
end_header
793.51 214.895 3534
800.372 214.469 3527
808.806 214.469 3527
818.862 214.895 3534
827.313 214.895 3534
835.764 214.895 3534
847.798 215.807 3549
858.215 216.293 3557
868.67 216.78 3565
877.195 216.78 3565
885.72 216.78 3565
894.245 216.78 3565
902.77 216.78 3565
911.295 216.78 3565
927.561 218.604 3595
938.241 219.09 3603
946.856 219.09 3603
955.472 219.09 3603
961.948 218.604 3595
968.654 218.178 3588
977.234 218.178 3588
983.616 217.692 3580
994.394 218.178 3588
1004.93 218.604 3595
1013.53 218.604 3595
1022.12 218.604 3595
1030.72 218.604 3595
1039.32 218.604 3595
1047.91 218.604 3595
1054.45 218.178 3588
1063.03 218.178 3588
1071.61 218.178 3588
1082.3 218.604 3595
1090.9 218.604 3595
1099.5 218.604 3595
1108.09 218.604 3595
1116.69 218.604 3595
1125.29 218.604 3595
1131.67 218.178 3588
1142.48 218.604 3595
1156.2 219.577 3611
1172.58 221.036 3635
1181.27 221.036 3635
1194.87 221.948 3650
1206.24 222.435 3658
1214.98 222.435 3658
1223.73 222.435 3658
1238.21 223.468 3675
1249.71 223.955 3683
1266.72 225.414 3707
1275.58 225.414 3707
1284.45 225.414 3707
1296.45 225.962 3716
1310.96 226.935 3732
1319.88 226.935 3732
1328.81 226.935 3732
1328.77 225.414 3707
1337.63 225.414 3707
1352.67 226.448 3724
1361.58 226.448 3724
1370.48 226.448 3724
1379.39 226.448 3724
1388.29 226.448 3724
1397.2 226.448 3724
1399.69 225.414 3707
1405.51 224.928 3699
1414.36 224.928 3699
1420.12 224.441 3691
1428.95 224.441 3691
1437.78 224.441 3691
1446.6 224.441 3691
1449.12 223.468 3675
1442.04 221.036 3635
1450.73 221.036 3635
1459.42 221.036 3635
1468.12 221.036 3635
1470.31 220.063 3619
1475.69 219.577 3611
1484.33 219.577 3611
1492.96 219.577 3611
1492.03 218.178 3588
1497.27 217.692 3580
1502.46 217.205 3572
1511.01 217.205 3572
1516.57 216.78 3565
1525.09 216.78 3565
1536.63 217.205 3572
1552.09 218.178 3588
1560.67 218.178 3588
1572.32 218.604 3595
1584.43 219.09 3603
1596.58 219.577 3611
1615.89 221.036 3635
1624.58 221.036 3635
1643.61 222.435 3658
1652.35 222.435 3658
1665.19 222.982 3667
1673.96 222.982 3667
1682.73 222.982 3667
1691.49 222.982 3667
1703.97 223.468 3675
1712.76 223.468 3675
1725.3 223.955 3683
1734.1 223.955 3683
1742.91 223.955 3683
1751.72 223.955 3683
1740.93 221.462 3642
1753.48 221.948 3650
1762.21 221.948 3650
1770.94 221.948 3650
1779.66 221.948 3650
1777.12 220.55 3627
1785.8 220.55 3627
1790.51 220.063 3619
1791.21 219.09 3603
1799.83 219.09 3603
1785.35 216.293 3557
1793.86 216.293 3557
1794.77 215.381 3542
1795.6 214.469 3527
1781.53 211.793 3483
1789.86 211.793 3483
1794.57 211.368 3476
1802.88 211.368 3476
1811.2 211.368 3476
1830.5 212.645 3497
1838.86 212.645 3497
1859.37 214.043 3520
1875.22 214.895 3534
1883.67 214.895 3534
1896.41 215.381 3542
1904.88 215.381 3542
1917.13 215.807 3549
1929.95 216.293 3557
1942.82 216.78 3565
1951.34 216.78 3565
1963.72 217.205 3572
1981.09 218.178 3588
1997.99 219.09 3603
2006.61 219.09 3603
2019.7 219.577 3611
2037.32 220.55 3627
2068.56 222.982 3667
2077.33 222.982 3667
2104.3 224.928 3699
2113.15 224.928 3699
2121.99 224.928 3699
2130.84 224.928 3699
2135.05 224.441 3691
2139.23 223.955 3683
2148.04 223.955 3683
2166.22 224.928 3699
2175.06 224.928 3699
2183.91 224.928 3699
2197.5 225.414 3707
2206.36 225.414 3707
2215.23 225.414 3707
2224.09 225.414 3707
2228.14 224.928 3699
2236.98 224.928 3699
2245.83 224.928 3699
2265.03 225.962 3716
2299.01 228.455 3757
2307.99 228.455 3757
2316.98 228.455 3757
2325.96 228.455 3757
2334.95 228.455 3757
2343.93 228.455 3757
2347.9 227.968 3749
2356.87 227.968 3749
2365.83 227.968 3749
2374.8 227.968 3749
2394.57 229.002 3766
2403.58 229.002 3766
2412.58 229.002 3766
2421.59 229.002 3766
2430.6 229.002 3766
2439.6 229.002 3766
2448.61 229.002 3766
2457.61 229.002 3766
2466.62 229.002 3766
2475.62 229.002 3766
2478.69 228.455 3757
2471.12 226.935 3732
2480.05 226.935 3732
2488.97 226.935 3732
2470.45 224.441 3691
2463.16 222.982 3667
2471.93 222.982 3667
2480.7 222.982 3667
2489.47 222.982 3667
2498.23 222.982 3667
2495.38 221.948 3650
2504.11 221.948 3650
2502.51 221.036 3635
2505.68 220.55 3627
2492.17 218.604 3595
2500.76 218.604 3595
2007.67 173.12 2847
2014.48 173.12 2847
2021.29 173.12 2847
2011 171.66 2823
2014.17 171.356 2818
2003.7 169.897 2794
2010.38 169.897 2794
2010.57 169.35 2785
2017.23 169.35 2785
2023.89 169.35 2785
2044.4 170.505 2804
2051.1 170.505 2804
2057.81 170.505 2804
2068.2 170.809 2809
2081.56 171.356 2818
2092 171.66 2823
2098.76 171.66 2823
2105.51 171.66 2823
2116 171.964 2828
2122.76 171.964 2828
2129.52 171.964 2828
2136.29 171.964 2828
2143.05 171.964 2828
2152.85 172.208 2832
2159.62 172.208 2832
2166.4 172.208 2832
-2348 198.205 3136
-2340.5 198.205 3136
-2324.07 197.447 3124
-2312.15 197.068 3118
-2300.26 196.689 3112
-2292.82 196.689 3112
-2285.38 196.689 3112
-2277.94 196.689 3112
-2274.87 197.068 3118
-2284.87 198.585 3142
-2277.36 198.585 3142
-2274.18 198.964 3148
-2266.65 198.964 3148
-2259.12 198.964 3148
-2251.6 198.964 3148
-2239.79 198.585 3142
-2228.01 198.205 3136
-2220.51 198.205 3136
-2213.02 198.205 3136
-2197.08 197.447 3124
-2193.81 197.826 3130
-2186.33 197.826 3130
-2178.84 197.826 3130
-2171.36 197.826 3130
-2168.02 198.205 3136
-2172.92 199.343 3154
-2165.38 199.343 3154
-2166.05 200.102 3166
-2158.48 200.102 3166
-2154.98 200.481 3172
-2147.4 200.481 3172
-2147.91 201.239 3184
-2144.33 201.618 3190
-2144.74 202.377 3202
-2137.08 202.377 3202
-2137.4 203.135 3214
-2134.36 203.578 3221
-2130.61 203.957 3227
-2122.9 203.957 3227
-2115.18 203.957 3227
-2111.38 204.336 3233
-2112.11 205.158 3246
-2104.35 205.158 3246
-2096.59 205.158 3246
-2096.55 205.916 3258
-2097.09 206.738 3271
-2089.27 206.738 3271
-2089.72 207.559 3284
-2081.87 207.559 3284
-2086.01 208.76 3303
-2078.11 208.76 3303
-2070.21 208.76 3303
-2066.69 209.203 3310
-2058.77 209.203 3310
-2050.86 209.203 3310
-2042.94 209.203 3310
-2043.02 210.024 3323
-2051.61 211.731 3350
-2043.6 211.731 3350
-2043.49 212.553 3363
-2048.15 213.88 3384
-2040.06 213.88 3384
-2031.97 213.88 3384
-2044.81 216.092 3419
-2036.63 216.092 3419
-2028.46 216.092 3419
-2020.28 216.092 3419
-2007.99 215.65 3412
-1995.72 215.207 3405
-1987.58 215.207 3405
-1971.3 214.322 3391
-1963.19 214.322 3391
-1959.12 214.765 3398
-1950.99 214.765 3398
-1942.87 214.765 3398
-1934.74 214.765 3398
-1899.4 211.731 3350
-1891.39 211.731 3350
-1879.44 211.288 3343
-1864.17 210.467 3330
-1856.21 210.467 3330
-1852.13 210.909 3337
-1844.15 210.909 3337
-1836.17 210.909 3337
-1828.19 210.909 3337
-1816.39 210.467 3330
-1808.43 210.467 3330
-1796.68 210.024 3323
-1792.51 210.467 3330
-1784.54 210.467 3330
-1776.58 210.467 3330
-1768.62 210.467 3330
-1760.65 210.467 3330
-1752.69 210.467 3330
-1744.73 210.467 3330
-1736.76 210.467 3330
-1722.05 209.645 3317
-1714.12 209.645 3317
-1716.48 210.909 3337
-1708.5 210.909 3337
-1703.57 211.288 3343
-1719.93 214.322 3391
-1711.82 214.322 3391
-1703.71 214.322 3391
-1695.6 214.322 3391
-1687.49 214.322 3391
-1679.38 214.322 3391
-1671.27 214.322 3391
-1666.6 214.765 3398
-1658.47 214.765 3398
-1650.34 214.765 3398
-1642.22 214.765 3398
-1634.09 214.765 3398
-1629.32 215.207 3405
-1621.17 215.207 3405
-1613.03 215.207 3405
-1611.49 216.092 3419
-1606.6 216.534 3426
-1598.4 216.534 3426
-1590.21 216.534 3426
-1578.79 216.092 3419
-1573.83 216.534 3426
-1572.03 217.419 3440
-1563.8 217.419 3440
-1555.58 217.419 3440
-1547.35 217.419 3440
-1542.26 217.862 3447
-1534.02 217.862 3447
-1525.77 217.862 3447
-1511.37 216.977 3433
-1506.22 217.419 3440
-1498 217.419 3440
-1492.8 217.862 3447
-1487.57 218.304 3454
-1479.31 218.304 3454
-1471.05 218.304 3454
-1459.83 217.862 3447
-1442.74 216.534 3426
-1437.48 216.977 3433
-1429.27 216.977 3433
-1429.76 218.304 3454
-1427.26 219.189 3468
-1418.97 219.189 3468
-1410.67 219.189 3468
-1402.38 219.189 3468
-1391.27 218.746 3461
-1383 218.746 3461
-1374.72 218.746 3461
-1366.44 218.746 3461
-1358.17 218.746 3461
-1349.89 218.746 3461
-1341.61 218.746 3461
-1333.34 218.746 3461
-1327.74 219.189 3468
-1319.45 219.189 3468
-1311.16 219.189 3468
-1302.86 219.189 3468
-1294.57 219.189 3468
-1283.68 218.746 3461
-1275.4 218.746 3461
-1267.13 218.746 3461
-1266.85 220.137 3483
-1263.58 221.022 3497
-1255.22 221.022 3497
-1246.86 221.022 3497
-1238.5 221.022 3497
-605.82 109.594 1734
-601.673 109.594 1734
-597.527 109.594 1734
-592.696 109.468 1732
-588.214 109.405 1731
-583.4 109.278 1729
-579.265 109.278 1729
-572.137 108.71 1720
-565.712 108.267 1713
-559.321 107.825 1706
-555.241 107.825 1706
-550.516 107.698 1704
-544.837 107.382 1699
-540.138 107.256 1697
-536.08 107.256 1697
-530.454 106.94 1692
-523.608 106.371 1683
-517.114 105.865 1675
-513.109 105.865 1675
-506.064 105.233 1665
-498.464 104.475 1653
-492.716 104.096 1647
-485.81 103.464 1637
-481.895 103.464 1637
-474.185 102.642 1624
-469.143 102.389 1620
-463.833 102.073 1615
-459.971 102.073 1615
-455.544 101.947 1613
-450.007 101.568 1607
-444.498 101.188 1601
-440.67 101.188 1601
-436.023 100.999 1598
-431.39 100.809 1595
-426.235 100.493 1590
-421.636 100.304 1587
-417.841 100.304 1587
-413.264 100.114 1584
-409.217 100.051 1583
-405.432 100.051 1583
-401.646 100.051 1583
-397.358 99.9243 1581
-393.578 99.9243 1581
-389.797 99.9243 1581
-386.016 99.9243 1581
-382.236 99.9243 1581
-379.173 100.114 1584
-375.385 100.114 1584
-371.597 100.114 1584
-367.81 100.114 1584
-364.022 100.114 1584
-360.916 100.304 1587
-357.796 100.493 1590
-353.994 100.493 1590
-350.633 100.62 1592
-347.043 100.683 1593
-344.311 100.999 1598
-340.49 100.999 1598
-337.301 101.188 1601
-334.514 101.504 1606
-330.879 101.568 1607
-327.036 101.568 1607
-324.199 101.884 1612
-320.543 101.947 1613
-317.079 102.073 1615
-313.217 102.073 1615
-309.738 102.2 1617
-306.06 102.263 1618
-303.125 102.579 1623
-299.244 102.579 1623
-295.545 102.642 1624
-292.02 102.768 1626
-288.664 102.958 1629
-284.768 102.958 1629
-281.39 103.148 1632
-278.168 103.401 1636
-274.423 103.464 1637
-270.509 103.464 1637
-267.408 103.78 1642
-263.482 103.78 1642
-259.555 103.78 1642
-255.629 103.78 1642
-252.469 104.096 1647
-248.681 104.159 1648
-245.483 104.475 1653
-241.53 104.475 1653
-237.865 104.601 1655
-234.331 104.791 1658
-230.644 104.917 1660
-226.675 104.917 1660
-223.644 105.36 1667
-219.79 105.423 1668
-216.448 105.739 1673
-213.082 106.055 1678
-209.069 106.055 1678
-205.546 106.308 1682
-202.123 106.624 1687
-198.441 106.814 1690
-194.399 106.814 1690
-191.147 107.256 1697
-187.529 107.509 1701
-184.001 107.825 1706
-179.922 107.825 1706
-176.048 107.951 1708
-172.266 108.141 1711
-168.666 108.457 1716
-164.562 108.457 1716
-161.02 108.836 1722
-157.54 109.278 1729
-154.026 109.721 1736
-149.875 109.721 1736
-146.143 110.037 1741
-142.796 110.669 1751
-139.479 111.364 1762
-135.266 111.364 1762
-131.424 111.68 1767
-127.199 111.68 1767
-122.973 111.68 1767
-118.748 111.68 1767
-212.143 223.36 3534
-204.154 223.866 3542
-196.512 224.814 3557
-188.006 224.814 3557
-179.501 224.814 3557
-170.61 224.308 3549
-162.123 224.308 3549
-153.637 224.308 3549
-144.864 223.866 3542
-136.086 223.36 3534
-127.635 223.36 3534
-119.184 223.36 3534
-110.733 223.36 3534
-102.948 224.814 3557
-94.4419 224.814 3557
-85.936 224.814 3557
-77.4302 224.814 3557
-68.9243 224.814 3557
-60.4184 224.814 3557
-51.9126 224.814 3557
-43.3091 224.308 3549
-34.8223 224.308 3549
-26.3356 224.308 3549
-17.8891 224.814 3557
-9.38324 224.814 3557
-0.877375 224.814 3557
7.62849 224.814 3557
16.1344 224.814 3557
24.6402 224.814 3557
33.2859 225.762 3572
41.8276 225.762 3572
50.3693 225.762 3572
58.7956 225.32 3565
67.3206 225.32 3565
75.8456 225.32 3565
84.3706 225.32 3565
92.8956 225.32 3565
101.421 225.32 3565
109.699 224.814 3557
118.205 224.814 3557
125.642 222.918 3527
133.81 222.475 3520
141.015 220.579 3490
147.82 218.304 3454
156.08 218.304 3454
164.339 218.304 3454
246.829 225.762 3572
255.371 225.762 3572
263.913 225.762 3572
272.454 225.762 3572
280.996 225.762 3572
293.996 229.238 3627
302.669 229.238 3627
311.343 229.238 3627
320.016 229.238 3627
328.689 229.238 3627
337.362 229.238 3627
342.315 226.773 3588
349.33 225.762 3572
353.363 222.918 3527
361.797 222.918 3527
369.497 222.475 3520
376.304 221.527 3505
379.856 218.746 3461
385.777 217.419 3440
394.003 217.419 3440
398.137 215.207 3405
402.103 212.995 3370
406.146 210.909 3337
414.125 210.909 3337
419.575 209.645 3317
425.703 208.76 3303
432.814 208.381 3297
442.435 209.203 3310
450.351 209.203 3310
458.266 209.203 3310
466.181 209.203 3310
474.096 209.203 3310
480.992 208.76 3303
484.154 206.738 3271
493.029 207.18 3278
501.784 207.559 3284
515.69 210.024 3323
523.636 210.024 3323
537.021 212.173 3357
552.842 215.207 3405
573.836 220.137 3483
582.164 220.137 3483
600.496 223.866 3542
612.92 225.32 3565
621.445 225.32 3565
629.97 225.32 3565
641.182 226.268 3580
649.743 226.268 3580
658.304 226.268 3580
666.864 226.268 3580
675.425 226.268 3580
681.12 225.32 3565
692.547 226.268 3580
701.108 226.268 3580
709.669 226.268 3580
718.23 226.268 3580
726.79 226.268 3580
735.351 226.268 3580
743.912 226.268 3580
750.792 225.762 3572
759.333 225.762 3572
767.875 225.762 3572
774.895 225.32 3565
781.662 224.814 3557
790.168 224.814 3557
796.878 224.308 3549
803.776 223.866 3542
812.246 223.866 3542
820.716 223.866 3542
830.825 224.308 3549
839.311 224.308 3549
851.62 225.32 3565
863.764 226.268 3580
875.98 227.216 3595
884.577 227.216 3595
893.174 227.216 3595
901.77 227.216 3595
912.393 227.721 3603
921.009 227.721 3603
937.881 229.744 3635
950.48 230.692 3650
959.208 230.692 3650
967.936 230.692 3650
972.651 229.744 3635
981.343 229.744 3635
991.942 230.186 3642
1000.65 230.186 3642
1011.58 230.692 3650
1022.54 231.198 3658
1031.29 231.198 3658
1040.04 231.198 3658
1048.78 231.198 3658
1057.53 231.198 3658
1066.28 231.198 3658
1075.03 231.198 3658
1079.03 230.186 3642
1085.65 229.744 3635
1094.34 229.744 3635
1103.04 229.744 3635
1111.73 229.744 3635
1117.96 229.238 3627
1124.14 228.733 3619
1132.8 228.733 3619
1141.45 228.733 3619
1152.65 229.238 3627
1166.12 230.186 3642
1179.99 231.198 3658
1188.74 231.198 3658
1200.44 231.766 3667
1209.2 231.766 3667
1220.63 232.272 3675
1229.42 232.272 3675
1240.9 232.778 3683
1257.85 234.294 3707
1269.79 234.863 3716
1278.68 234.863 3716
1287.57 234.863 3716
1302.03 235.875 3732
1310.96 235.875 3732
1319.88 235.875 3732
1328.81 235.875 3732
1337.73 235.875 3732
1340.88 234.863 3716
1352.67 235.369 3724
1361.58 235.369 3724
1373.43 235.875 3732
1382.35 235.875 3732
1391.28 235.875 3732
1400.2 235.875 3732
1403.08 234.863 3716
1408.55 234.294 3707
1417.42 234.294 3707
1426.28 234.294 3707
1435.14 234.294 3707
1444.01 234.294 3707
1452.87 234.294 3707
1452.27 232.778 3683
1451.16 231.198 3658
1453.53 230.186 3642
1462.23 230.186 3642
1470.94 230.186 3642
1479.65 230.186 3642
1482.23 229.238 3627
1490.91 229.238 3627
1499.58 229.238 3627
1508.25 229.238 3627
1513.58 228.733 3619
1505.83 226.268 3580
1514.39 226.268 3580
1519.55 225.762 3572
1528.09 225.762 3572
1546.53 227.216 3595
1558.58 227.721 3603
1567.2 227.721 3603
1579.31 228.227 3611
1587.95 228.227 3611
1603.66 229.238 3627
1626.11 231.198 3658
1634.86 231.198 3658
1647.65 231.766 3667
1663.65 232.778 3683
1672.45 232.778 3683
1681.26 232.778 3683
1690.07 232.778 3683
1698.88 232.778 3683
1711.39 233.283 3691
1720.22 233.283 3691
1729.04 233.283 3691
1737.87 233.283 3691
1746.7 233.283 3691
1751.72 232.778 3683
1744.75 230.692 3650
1753.48 230.692 3650
1762.21 230.692 3650
1770.94 230.692 3650
1779.66 230.692 3650
1777.12 229.238 3627
1785.8 229.238 3627
1794.47 229.238 3627
1791.21 227.721 3603
1799.83 227.721 3603
1789.37 225.32 3565
1797.89 225.32 3565
1794.77 223.866 3542
1795.6 222.918 3527
1785.11 220.579 3490
1793.45 220.579 3490
1794.57 219.695 3476
1802.88 219.695 3476
1814.84 220.137 3483
1830.5 221.022 3497
1838.86 221.022 3497
1855.15 221.97 3512
1871.51 222.918 3527
1883.67 223.36 3534
1892.12 223.36 3534
1900.57 223.36 3534
1909.02 223.36 3534
1917.47 223.36 3534
1938.46 224.814 3557
1946.97 224.814 3557
1959.87 225.32 3565
1976.68 226.268 3580
1989.67 226.773 3588
1998.25 226.773 3588
2015.22 227.721 3603
2037.32 229.238 3627
2068.56 231.766 3667
2077.33 231.766 3667
2104.3 233.789 3699
2113.15 233.789 3699
2121.99 233.789 3699
2130.84 233.789 3699
2135.05 233.283 3691
2139.23 232.778 3683
2148.04 232.778 3683
2166.22 233.789 3699
2175.06 233.789 3699
2183.91 233.789 3699
2197.5 234.294 3707
2206.36 234.294 3707
2215.23 234.294 3707
2224.09 234.294 3707
2228.14 233.789 3699
2236.98 233.789 3699
2245.83 233.789 3699
2265.03 234.863 3716
2299.01 237.455 3757
2307.99 237.455 3757
2316.98 237.455 3757
2325.96 237.455 3757
2334.95 237.455 3757
2343.93 237.455 3757
2347.9 236.949 3749
2356.87 236.949 3749
2365.83 236.949 3749
2374.8 236.949 3749
2394.57 238.023 3766
2403.58 238.023 3766
2412.58 238.023 3766
2421.59 238.023 3766
2430.6 238.023 3766
2439.6 238.023 3766
2448.61 238.023 3766
2457.61 238.023 3766
2466.62 238.023 3766
2475.62 238.023 3766
2478.69 237.455 3757
2471.12 235.875 3732
2480.05 235.875 3732
2488.97 235.875 3732
2470.45 233.283 3691
2463.16 231.766 3667
2471.93 231.766 3667
2480.7 231.766 3667
2489.47 231.766 3667
2498.23 231.766 3667
2495.38 230.692 3650
2504.11 230.692 3650
2502.51 229.744 3635
2505.68 229.238 3627
1997.5 178.423 2823
2004.25 178.423 2823
2011 178.423 2823
2000.59 176.906 2799
2003.7 176.59 2794
2010.38 176.59 2794
2004.07 175.452 2776
2010.71 175.452 2776
2023.89 176.021 2785
2040.75 176.906 2799
2047.45 176.906 2799
2054.14 176.906 2799
2068.2 177.538 2809
2081.56 178.107 2818
2092 178.423 2823
2098.76 178.423 2823
2105.51 178.423 2823
2116 178.739 2828
2122.76 178.739 2828
2129.52 178.739 2828
2136.29 178.739 2828
2143.05 178.739 2828
2152.85 178.992 2832
2159.62 178.992 2832
2166.4 178.992 2832
-2348 205.718 3136
-2340.5 205.718 3136
-2324.07 204.931 3124
-2312.15 204.537 3118
-2300.26 204.143 3112
-2292.82 204.143 3112
-2285.38 204.143 3112
-2277.94 204.143 3112
-2274.87 204.537 3118
-2284.87 206.111 3142
-2277.36 206.111 3142
-2274.18 206.505 3148
-2266.65 206.505 3148
-2259.12 206.505 3148
-2251.6 206.505 3148
-2239.79 206.111 3142
-2228.01 205.718 3136
-2220.51 205.718 3136
-2213.02 205.718 3136
-2197.08 204.931 3124
-2193.81 205.324 3130
-2186.33 205.324 3130
-2178.84 205.324 3130
-2171.36 205.324 3130
-2168.02 205.718 3136
-2172.92 206.899 3154
-2165.38 206.899 3154
-2166.05 207.686 3166
-2162.57 208.079 3172
-2159.06 208.473 3178
-2151.46 208.473 3178
-2147.91 208.866 3184
-2152.39 210.047 3202
-2152.77 210.834 3214
-2145.09 210.834 3214
-2150.04 212.081 3233
-2154.9 213.327 3252
-2159.67 214.574 3271
-2151.84 214.574 3271
-2148.61 215.033 3278
-2140.77 215.033 3278
-2140.74 215.82 3290
-2132.87 215.82 3290
-2137.92 217.132 3310
-2142.88 218.444 3330
-2143.25 219.297 3343
-2135.26 219.297 3343
-2127.26 219.297 3343
-2123.71 219.756 3350
-2128.33 221.068 3370
-2120.27 221.068 3370
-2112.21 221.068 3370
-2104.15 221.068 3370
-2096.09 221.068 3370
-2088.03 221.068 3370
-2079.97 221.068 3370
-2059.62 219.756 3350
-2068.14 221.527 3377
-2060.07 221.527 3377
-2056.25 221.986 3384
-2048.15 221.986 3384
-2073.82 225.66 3440
-2065.6 225.66 3440
-2061.56 226.119 3447
-2057.48 226.578 3454
-2049.22 226.578 3454
-2040.96 226.578 3454
-2012.11 224.282 3419
-2003.93 224.282 3419
-1995.75 224.282 3419
-1987.58 224.282 3419
-1971.3 223.364 3405
-1971.23 224.282 3419
-1963.05 224.282 3419
-1954.88 224.282 3419
-1946.7 224.282 3419
-1926.62 222.905 3398
-1918.49 222.905 3398
-1883.38 219.756 3350
-1875.37 219.756 3350
-1867.36 219.756 3350
-1863.23 220.215 3357
-1855.2 220.215 3357
-1847.18 220.215 3357
-1839.15 220.215 3357
-1831.12 220.215 3357
-1812.23 218.903 3337
-1804.25 218.903 3337
-1792.51 218.444 3330
-1784.54 218.444 3330
-1780.31 218.903 3337
-1772.33 218.903 3337
-1767.53 219.297 3343
-1759.53 219.297 3343
-1751.54 219.297 3343
-1743.54 219.297 3343
-1732.44 218.903 3337
-1727.56 219.297 3343
-1726.76 220.215 3357
-1718.74 220.215 3357
-1728.03 222.445 3391
-1727.03 223.364 3405
-1718.88 223.364 3405
-1710.74 223.364 3405
-1702.6 223.364 3405
-1690.97 222.905 3398
-1696.71 224.741 3426
-1688.52 224.741 3426
-1680.33 224.741 3426
-1672.14 224.741 3426
-1663.94 224.741 3426
-1655.75 224.741 3426
-1637.46 223.364 3405
-1632.67 223.823 3412
-1631.17 224.741 3426
-1622.98 224.741 3426
-1614.79 224.741 3426
-1609.88 225.201 3433
-1601.67 225.201 3433
-1593.46 225.201 3433
-1582.02 224.741 3426
-1583.47 226.119 3447
-1575.23 226.119 3447
-1566.99 226.119 3447
-1558.74 226.119 3447
-1550.5 226.119 3447
-1542.26 226.119 3447
-1534.02 226.119 3447
-1525.77 226.119 3447
-1517.53 226.119 3447
-1509.29 226.119 3447
-1498 225.66 3440
-1495.83 226.578 3454
-1487.57 226.578 3454
-1479.31 226.578 3454
-1471.05 226.578 3454
-1462.79 226.578 3454
-1451.59 226.119 3447
-1443.34 226.119 3447
-1435.1 226.119 3447
-1435.55 227.497 3468
-1433.43 228.48 3483
-1425.1 228.48 3483
-1416.77 228.48 3483
-1408.44 228.48 3483
-1397.3 228.021 3476
-1388.99 228.021 3476
-1380.68 228.021 3476
-1369.21 227.497 3468
-1360.91 227.497 3468
-1355.74 228.021 3476
-1347.43 228.021 3476
-1339.12 228.021 3476
-1330.8 228.021 3476
-1322.49 228.021 3476
-1314.18 228.021 3476
-1305.87 228.021 3476
-1297.56 228.021 3476
-1286.28 227.497 3468
-1277.98 227.497 3468
-1267.13 227.037 3461
-1266.85 228.48 3483
-1263.58 229.399 3497
-1255.22 229.399 3497
-1246.86 229.399 3497
-604.771 113.551 1731
-600.632 113.551 1731
-596.493 113.551 1731
-592.353 113.551 1731
-587.534 113.42 1729
-582.725 113.289 1727
-578.595 113.289 1727
-572.137 112.83 1720
-565.712 112.371 1713
-559.321 111.911 1706
-555.241 111.911 1706
-550.516 111.78 1704
-545.479 111.584 1701
-540.138 111.321 1697
-536.08 111.321 1697
-530.454 110.993 1692
-523.608 110.403 1683
-517.114 109.878 1675
-513.109 109.878 1675
-506.064 109.222 1665
-499.067 108.566 1655
-493.015 108.107 1648
-486.403 107.516 1639
-482.484 107.516 1639
-474.185 106.532 1624
-469.432 106.336 1621
-464.407 106.073 1617
-460.541 106.073 1617
-455.544 105.811 1613
-450.007 105.417 1607
-445.053 105.155 1603
-441.22 105.155 1603
-436.841 105.024 1601
-431.66 104.696 1596
-426.772 104.433 1592
-422.168 104.236 1589
-418.368 104.236 1589
-413.264 103.908 1584
-409.217 103.843 1583
-405.432 103.843 1583
-401.646 103.843 1583
-397.861 103.843 1583
-394.075 103.843 1583
-390.29 103.843 1583
-386.749 103.908 1584
-382.961 103.908 1584
-379.173 103.908 1584
-376.096 104.105 1587
-372.301 104.105 1587
-368.506 104.105 1587
-364.711 104.105 1587
-361.599 104.302 1590
-358.246 104.433 1592
-354.439 104.433 1592
-350.853 104.499 1593
-347.697 104.696 1596
-344.311 104.827 1598
-340.49 104.827 1598
-338.354 105.352 1606
-335.139 105.548 1609
-331.909 105.745 1612
-328.054 105.745 1612
-324.803 105.942 1615
-320.941 105.942 1615
-317.668 106.139 1618
-313.798 106.139 1618
-309.929 106.139 1618
-306.439 106.27 1620
-303.125 106.467 1623
-299.244 106.467 1623
-295.909 106.664 1626
-292.02 106.664 1626
-288.664 106.86 1629
-284.768 106.86 1629
-281.39 107.057 1632
-278.168 107.32 1636
-274.758 107.516 1639
-270.839 107.516 1639
-267.408 107.713 1642
-263.482 107.713 1642
-259.871 107.844 1644
-255.94 107.844 1644
-252.469 108.041 1647
-248.681 108.107 1648
-245.483 108.435 1653
-241.53 108.435 1653
-238.152 108.697 1657
-234.614 108.894 1660
-231.061 109.091 1663
-227.084 109.091 1663
-223.644 109.353 1667
-220.053 109.55 1670
-216.448 109.747 1673
-213.082 110.075 1678
-209.069 110.075 1678
-205.546 110.337 1682
-202.123 110.665 1687
-198.441 110.862 1690
-194.399 110.862 1690
-191.147 111.321 1697
-187.529 111.584 1701
-184.001 111.911 1706
-179.922 111.911 1706
-176.048 112.043 1708
-172.467 112.371 1713
-168.862 112.699 1718
-164.754 112.699 1718
-161.02 112.961 1722
-157.54 113.42 1729
-154.204 114.011 1738
-150.048 114.011 1738
-146.311 114.339 1743
-142.796 114.863 1751
-139.558 115.651 1763
-135.343 115.651 1763
-131.573 116.044 1769
-127.343 116.044 1769
-123.113 116.044 1769
-118.882 116.044 1769
-205.479 233.86 3565
-197.783 234.844 3580
-189.222 234.844 3580
-180.661 234.844 3580
-172.821 235.828 3595
-164.225 235.828 3595
-155.628 235.828 3595
-146.418 234.844 3580
-137.549 234.319 3572
-129.007 234.319 3572
-120.465 234.319 3572
-111.924 234.319 3572
-104.048 235.828 3595
-95.4508 235.828 3595
-86.8541 235.828 3595
-78.2574 235.828 3595
-69.525 235.368 3588
-60.945 235.368 3588
-52.365 235.368 3588
-43.6874 234.844 3580
-35.1265 234.844 3580
-26.625 235.368 3588
-18.045 235.368 3588
-9.46502 235.368 3588
-0.885022 235.368 3588
7.69497 235.368 3588
16.275 235.368 3588
24.855 235.368 3588
33.5747 236.352 3603
42.1906 236.352 3603
50.8065 236.352 3603
59.2904 235.828 3595
67.8871 235.828 3595
76.8243 236.877 3611
85.8379 237.927 3627
94.5112 237.927 3627
103.184 237.927 3627
111.364 236.877 3611
119.999 236.877 3611
128.634 236.877 3611
136.395 235.368 3588
141.015 228.94 3490
246.829 234.319 3572
255.371 234.319 3572
263.913 234.319 3572
272.454 234.319 3572
289.099 241.075 3675
297.887 241.075 3675
306.675 241.075 3675
315.463 241.075 3675
324.251 241.075 3675
333.039 241.075 3675
341.827 241.075 3675
346.799 238.452 3635
350.895 235.368 3588
357.872 234.319 3572
366.414 234.319 3572
373.381 233.335 3557
378.666 231.367 3527
385.454 230.383 3512
390.6 228.48 3483
398.928 228.48 3483
402.23 225.66 3440
404.609 222.445 3391
408.58 220.215 3357
416.607 220.215 3357
421.22 218.444 3330
426.605 217.132 3310
432.814 216.279 3297
441.5 216.673 3303
449.398 216.673 3303
457.297 216.673 3303
465.195 216.673 3303
473.094 216.673 3303
480.118 216.279 3297
484.154 214.574 3271
493.029 215.033 3278
501.784 215.426 3284
516.776 218.444 3330
524.739 218.444 3330
541.341 221.986 3384
553.979 223.823 3412
576.142 229.399 3497
584.505 229.399 3497
605.582 234.319 3572
615.499 234.844 3580
626.675 235.828 3595
635.272 235.828 3595
645.301 236.352 3603
653.917 236.352 3603
662.533 236.352 3603
671.149 236.352 3603
676.935 235.368 3588
685.515 235.368 3588
695.449 235.828 3595
704.045 235.828 3595
714.228 236.352 3603
722.844 236.352 3603
731.46 236.352 3603
740.076 236.352 3603
747.029 235.828 3595
754.155 235.368 3588
762.735 235.368 3588
771.315 235.368 3588
778.156 234.844 3580
784.958 234.319 3572
793.5 234.319 3572
800.47 233.86 3565
808.995 233.86 3565
817.52 233.86 3565
827.667 234.319 3572
839.955 235.368 3588
848.535 235.368 3588
857.115 235.368 3588
871.244 236.877 3611
883.778 237.927 3627
892.451 237.927 3627
901.124 237.927 3627
911.804 238.452 3635
926.321 239.96 3658
935.068 239.96 3658
948.202 241.075 3675
956.99 241.075 3675
965.778 241.075 3675
974.566 241.075 3675
981.213 240.551 3667
987.552 239.96 3658
998.751 240.551 3667
1007.52 240.551 3667
1016.29 240.551 3667
1025.06 240.551 3667
1033.83 240.551 3667
1042.6 240.551 3667
1051.36 240.551 3667
1060.13 240.551 3667
1068.9 240.551 3667
1077.67 240.551 3667
1086.44 240.551 3667
1092.52 239.96 3658
1096.45 238.911 3642
1105.16 238.911 3642
1111.73 238.452 3635
1120.42 238.452 3635
1129.11 238.452 3635
1137.81 238.452 3635
1146.5 238.452 3635
1157.42 238.911 3642
1174.13 240.551 3667
1185.48 241.075 3675
1194.27 241.075 3675
1203.05 241.075 3675
1211.84 241.075 3675
1223.29 241.6 3683
1232.1 241.6 3683
1252.02 243.765 3716
1260.91 243.765 3716
1272.53 244.29 3724
1281.43 244.29 3724
1293.11 244.815 3732
1302.03 244.815 3732
1310.96 244.815 3732
1319.88 244.815 3732
1328.81 244.815 3732
1337.73 244.815 3732
1343.77 244.29 3724
1355.58 244.815 3732
1364.5 244.815 3732
1376.37 245.339 3740
1385.32 245.339 3740
1394.26 245.339 3740
1403.2 245.339 3740
1403.08 243.765 3716
1411.97 243.765 3716
1420.86 243.765 3716
1426.28 243.175 3707
1435.14 243.175 3707
1444.01 243.175 3707
1452.87 243.175 3707
1455.43 242.125 3691
1451.16 239.96 3658
1456.72 239.436 3650
1465.45 239.436 3650
1470.94 238.911 3642
1479.65 238.911 3642
1482.23 237.927 3627
1490.91 237.927 3627
1505.78 238.911 3642
1514.49 238.911 3642
1523.2 238.911 3642
1522.23 237.402 3619
1530.89 237.402 3619
1532.74 236.352 3603
1541.35 236.352 3603
1556.85 237.402 3619
1565.5 237.402 3619
1574.16 237.402 3619
1586.31 237.927 3627
1594.98 237.927 3627
1617.36 239.96 3658
1626.11 239.96 3658
1646.03 241.6 3683
1658.43 242.125 3691
1670.87 242.65 3699
1679.72 242.65 3699
1688.56 242.65 3699
1697.41 242.65 3699
1706.26 242.65 3699
1718.81 243.175 3707
1727.67 243.175 3707
1736.54 243.175 3707
1745.4 243.175 3707
1754.27 243.175 3707
1755.52 242.125 3691
1748.58 239.96 3658
1757.32 239.96 3658
1766.07 239.96 3658
1774.82 239.96 3658
1779.66 239.436 3650
1781.04 238.452 3635
1789.74 238.452 3635
1794.47 237.927 3627
1795.19 236.877 3611
1799.83 236.352 3603
1789.37 233.86 3565
1797.89 233.86 3565
1794.77 232.351 3542
1799.16 231.826 3534
1788.69 229.399 3497
1797.05 229.399 3497
1801.8 228.94 3490
1806.51 228.48 3483
1818.49 228.94 3490
1830.5 229.399 3497
1838.86 229.399 3497
1859.37 230.908 3520
1875.22 231.826 3534
1883.67 231.826 3534
1896.41 232.351 3542
1904.88 232.351 3542
1913.35 232.351 3542
1921.82 232.351 3542
1930.29 232.351 3542
1938.76 232.351 3542
1963.72 234.319 3572
1981.09 235.368 3588
1993.56 235.828 3595
2002.15 235.828 3595
2019.7 236.877 3611
2050.24 239.436 3650
2086.61 242.65 3699
2095.45 242.65 3699
2118.52 244.29 3724
2127.43 244.29 3724
2136.33 244.29 3724
2145.24 244.29 3724
2144.31 243.175 3707
2167.69 244.815 3732
2176.62 244.815 3732
2185.54 244.815 3732
2189.76 244.29 3724
2198.67 244.29 3724
2222.39 245.93 3749
2231.36 245.93 3749
2240.32 245.93 3749
2249.29 245.93 3749
2252.83 245.339 3740
2267.22 245.93 3749
2276.18 245.93 3749
2290.03 246.455 3757
2309.41 247.57 3774
2339.94 249.866 3809
2349.05 249.866 3809
2368.68 250.981 3826
2383.42 251.571 3835
2392.59 251.571 3835
2401.76 251.571 3835
2410.93 251.571 3835
2420.1 251.571 3835
2429.28 251.571 3835
2421.91 249.866 3809
2414.43 248.16 3783
2445.9 250.456 3818
2465.96 251.571 3835
2486.75 252.752 3853
2495.96 252.752 3853
2511.03 253.342 3862
2520.26 253.342 3862
2529.5 253.342 3862
2526.9 252.162 3844
2536.09 252.162 3844
2539.32 251.571 3835
2548.49 251.571 3835
2534.32 249.275 3800
2514.63 246.455 3757
2512.19 245.339 3740
2521.14 245.339 3740
2524.67 244.815 3732
2522.73 243.765 3716
2520.04 242.65 3699
2507 240.551 3667
2515.77 240.551 3667
2512.84 239.436 3650
2521.57 239.436 3650
1980.51 183.611 2799
1987.21 183.611 2799
1993.9 183.611 2799
1987.01 182.365 2780
1990.79 182.102 2776
1997.43 182.102 2776
1997.57 181.512 2767
2004.19 181.512 2767
2017.35 182.102 2776
2040.75 183.611 2799
2047.45 183.611 2799
2054.14 183.611 2799
2068.2 184.267 2809
2085.25 185.185 2823
2095.71 185.513 2828
2102.47 185.513 2828
2109.24 185.513 2828
2116 185.513 2828
2122.76 185.513 2828
2129.52 185.513 2828
2136.29 185.513 2828
2143.05 185.513 2828
2156.65 186.104 2837
2163.44 186.104 2837
2170.22 186.104 2837
-2339.02 212.414 3124
-2331.54 212.414 3124
-2319.61 212.006 3118
-2307.71 211.598 3112
-2287.7 210.442 3095
-2289.14 211.258 3107
-2281.71 211.258 3107
-2274.28 211.258 3107
-2270.5 211.598 3112
-2267.42 212.006 3118
-2259.96 212.006 3118
-2261.18 212.822 3130
-2258.01 213.23 3136
-2250.51 213.23 3136
-2243.01 213.23 3136
-2235.51 213.23 3136
-2223.75 212.822 3130
-2216.27 212.822 3130
-2204.55 212.414 3124
-2197.08 212.414 3124
-2189.61 212.414 3124
-2182.14 212.414 3124
-2174.67 212.414 3124
-2171.36 212.822 3130
-2163.87 212.822 3130
-2172.92 214.454 3154
-2165.38 214.454 3154
-2166.05 215.27 3166
-2162.57 215.678 3172
-2159.06 216.086 3178
-2151.46 216.086 3178
-2147.91 216.494 3184
-2152.39 217.718 3202
-2152.77 218.534 3214
-2145.09 218.534 3214
-2150.04 219.825 3233
-2154.9 221.117 3252
-2159.67 222.409 3271
-2151.84 222.409 3271
-2148.61 222.885 3278
-2140.77 222.885 3278
-2140.74 223.701 3290
-2132.87 223.701 3290
-2137.92 225.061 3310
-2142.88 226.421 3330
-2143.25 227.305 3343
-2135.26 227.305 3343
-2127.26 227.305 3343
-2123.71 227.781 3350
-2128.33 229.141 3370
-2120.27 229.141 3370
-2112.21 229.141 3370
-2104.15 229.141 3370
-2096.09 229.141 3370
-2088.03 229.141 3370
-2079.97 229.141 3370
-2059.62 227.781 3350
-2068.14 229.617 3377
-2060.07 229.617 3377
-2056.25 230.093 3384
-2048.15 230.093 3384
-2073.82 233.9 3440
-2065.6 233.9 3440
-2061.56 234.376 3447
-2057.48 234.852 3454
-2049.22 234.852 3454
-2040.96 234.852 3454
-2012.11 232.472 3419
-2003.93 232.472 3419
-1995.75 232.472 3419
-1987.58 232.472 3419
-1971.3 231.521 3405
-1971.23 232.472 3419
-1963.05 232.472 3419
-1954.88 232.472 3419
-1946.7 232.472 3419
-1926.62 231.045 3398
-1918.49 231.045 3398
-1883.38 227.781 3350
-1875.37 227.781 3350
-1867.36 227.781 3350
-1863.23 228.257 3357
-1855.2 228.257 3357
-1847.18 228.257 3357
-1839.15 228.257 3357
-1831.12 228.257 3357
-1812.23 226.897 3337
-1804.25 226.897 3337
-1840.41 232.472 3419
-1835.99 232.948 3426
-1827.8 232.948 3426
-1823.32 233.424 3433
-1815.11 233.424 3433
-1806.9 233.424 3433
-1795.03 232.948 3426
-1779.53 231.996 3412
-1756.84 230.093 3384
-1759.6 231.521 3405
-1758.65 232.472 3419
-1750.48 232.472 3419
-1742.3 232.472 3419
-1737.68 232.948 3426
-1747.15 235.328 3461
-1738.88 235.328 3461
-1730.6 235.328 3461
-1715.36 234.376 3447
-1707.11 234.376 3447
-1698.87 234.376 3447
-1690.63 234.376 3447
-1678.97 233.9 3440
-1670.74 233.9 3440
-1655.75 232.948 3426
-1647.56 232.948 3426
-1639.37 232.948 3426
-1631.17 232.948 3426
-1622.98 232.948 3426
-1618.09 233.424 3433
-1609.88 233.424 3433
-1601.67 233.424 3433
-1593.46 233.424 3433
-1591.71 234.376 3447
-1583.47 234.376 3447
-1575.23 234.376 3447
-1566.99 234.376 3447
-1558.74 234.376 3447
-1553.65 234.852 3454
-1545.39 234.852 3454
-1537.13 234.852 3454
-1528.87 234.852 3454
-1520.61 234.852 3454
-1512.35 234.852 3454
-1504.09 234.852 3454
-1495.83 234.852 3454
-1493.6 235.804 3468
-1485.31 235.804 3468
-1477.02 235.804 3468
-1468.72 235.804 3468
-1460.43 235.804 3468
-1452.14 235.804 3468
-1443.84 235.804 3468
-1444.66 237.3 3490
-1442.49 238.32 3505
-1434.1 238.32 3505
-1425.72 238.32 3505
-1417.34 238.32 3505
-1411.77 238.796 3512
-1403.38 238.796 3512
-1394.98 238.796 3512
-1386.58 238.796 3512
-1378.18 238.796 3512
-1369.78 238.796 3512
-1361.38 238.796 3512
-1352.99 238.796 3512
-1350.33 239.816 3527
-1341.9 239.816 3527
-1333.46 239.816 3527
-1325.03 239.816 3527
-1313.98 239.34 3520
-1289.24 236.348 3476
-1280.93 236.348 3476
-1267.13 235.328 3461
-1266.85 236.824 3483
-1263.58 237.776 3497
-1255.22 237.776 3497
-1246.86 237.776 3497
-604.771 117.698 1731
-600.632 117.698 1731
-596.493 117.698 1731
-592.353 117.698 1731
-587.534 117.562 1729
-582.725 117.426 1727
-578.595 117.426 1727
-572.137 116.95 1720
-565.712 116.474 1713
-559.977 116.134 1708
-555.892 116.134 1708
-551.162 115.998 1706
-546.441 115.862 1704
-540.775 115.522 1699
-536.712 115.522 1699
-531.081 115.182 1694
-524.853 114.706 1687
-517.731 114.026 1677
-513.721 114.026 1677
-506.672 113.346 1667
-499.67 112.667 1657
-493.015 112.055 1648
-486.403 111.443 1639
-482.484 111.443 1639
-474.769 110.559 1626
-469.432 110.219 1621
-464.407 109.947 1617
-460.541 109.947 1617
-455.544 109.675 1613
-450.007 109.267 1607
-445.053 108.995 1603
-441.22 108.995 1603
-436.841 108.859 1601
-431.66 108.519 1596
-426.772 108.247 1592
-422.168 108.043 1589
-418.368 108.043 1589
-413.264 107.703 1584
-409.476 107.703 1584
-405.688 107.703 1584
-401.9 107.703 1584
-397.861 107.635 1583
-394.075 107.635 1583
-390.537 107.703 1584
-387.237 107.839 1586
-383.444 107.839 1586
-379.891 107.907 1587
-376.096 107.907 1587
-372.301 107.907 1587
-368.506 107.907 1587
-365.171 108.043 1589
-362.053 108.247 1592
-358.471 108.315 1593
-354.662 108.315 1593
-351.513 108.519 1596
-348.133 108.655 1598
-344.958 108.859 1601
-341.129 108.859 1601
-338.565 109.267 1607
-335.764 109.607 1612
-332.115 109.675 1613
-328.257 109.675 1613
-324.803 109.811 1615
-321.338 109.947 1617
-317.668 110.015 1618
-313.798 110.015 1618
-310.312 110.151 1620
-306.628 110.219 1621
-303.312 110.423 1624
-299.428 110.423 1624
-295.909 110.559 1626
-292.38 110.695 1628
-288.664 110.763 1629
-284.768 110.763 1629
-281.39 110.967 1632
-278.168 111.239 1636
-274.758 111.443 1639
-270.839 111.443 1639
-267.408 111.647 1642
-263.482 111.647 1642
-260.03 111.851 1645
-256.096 111.851 1645
-252.469 111.987 1647
-248.983 112.191 1650
-245.483 112.395 1653
-241.53 112.395 1653
-238.296 112.735 1658
-234.614 112.87 1660
-231.061 113.074 1663
-227.084 113.074 1663
-223.644 113.346 1667
-220.053 113.55 1670
-216.707 113.89 1675
-213.082 114.094 1678
-209.069 114.094 1678
-205.668 114.434 1683
-202.123 114.706 1687
-198.441 114.91 1690
-194.399 114.91 1690
-191.147 115.386 1697
-187.529 115.658 1701
-184.001 115.998 1706
-179.922 115.998 1706
-176.048 116.134 1708
-172.467 116.474 1713
-168.862 116.814 1718
-164.754 116.814 1718
-161.02 117.086 1722
-157.54 117.562 1729
-154.381 118.31 1740
-150.22 118.31 1740
-146.647 118.786 1747
-142.877 119.126 1752
-139.558 119.874 1763
-135.343 119.874 1763
-131.573 120.282 1769
-127.343 120.282 1769
-123.113 120.282 1769
-118.882 120.282 1769
-206.344 243.42 3580
-198.612 244.439 3595
-190.015 244.439 3595
-182.226 245.527 3611
-173.591 245.527 3611
-164.956 245.527 3611
-156.321 245.527 3611
-147.686 245.527 3611
-138.743 244.983 3603
-130.127 244.983 3603
-121.241 244.439 3595
-112.644 244.439 3595
-104.742 246.071 3619
-96.0881 246.071 3619
-87.4339 246.071 3619
-78.7798 246.071 3619
-70.1257 246.071 3619
-61.4715 246.071 3619
-52.8174 246.071 3619
-44.1633 246.071 3619
-35.5092 246.071 3619
-26.9738 247.159 3635
-18.2814 247.159 3635
-9.589 247.159 3635
-0.896615 247.159 3635
7.77861 246.615 3627
16.4519 246.615 3627
25.1251 246.615 3627
33.8729 247.159 3635
42.5653 247.159 3635
51.2577 247.159 3635
59.8182 246.615 3627
68.4914 246.615 3627
78.0157 249.335 3667
87.5419 251.511 3699
96.3873 251.511 3699
105.233 251.511 3699
115.343 254.299 3740
124.286 254.299 3740
133.23 254.299 3740
142.173 254.299 3740
141.015 237.3 3490
246.829 242.876 3572
255.371 242.876 3572
263.913 242.876 3572
272.454 242.876 3572
289.099 249.879 3675
297.887 249.879 3675
306.675 249.879 3675
315.463 249.879 3675
324.251 249.879 3675
333.039 249.879 3675
341.827 249.879 3675
350.615 249.879 3675
355.491 247.159 3635
361.779 245.527 3611
370.414 245.527 3611
374.955 242.876 3572
381.887 241.856 3557
387.1 239.816 3527
393.852 238.796 3512
402.25 238.796 3512
407.257 236.824 3483
407.95 232.472 3419
412.718 230.569 3391
420.827 230.569 3391
424.635 228.257 3357
428.281 225.945 3323
434.52 225.061 3310
442.435 225.061 3310
450.351 225.061 3310
457.297 224.585 3303
465.195 224.585 3303
473.094 224.585 3303
480.118 224.177 3297
484.154 222.409 3271
493.931 223.293 3284
504.688 224.585 3303
518.794 227.305 3343
526.788 227.305 3343
542.46 230.569 3391
556.252 232.948 3426
576.142 237.776 3497
584.505 237.776 3497
606.938 243.42 3580
618.078 244.439 3595
626.675 244.439 3595
640.926 246.615 3627
649.6 246.615 3627
658.273 246.615 3627
666.946 246.615 3627
675.619 246.615 3627
681.274 245.527 3611
689.909 245.527 3611
701.639 246.615 3627
710.312 246.615 3627
721.959 247.635 3642
730.668 247.635 3642
741.001 248.179 3650
749.73 248.179 3650
758.458 248.179 3650
767.186 248.179 3650
775.914 248.179 3650
784.643 248.179 3650
790.111 247.159 3635
795.287 246.071 3619
803.941 246.071 3619
812.595 246.071 3619
823.065 246.615 3627
831.738 246.615 3627
840.411 246.615 3627
849.084 246.615 3627
859.65 247.159 3635
873.836 248.723 3658
886.685 249.879 3675
897.423 250.423 3683
906.23 250.423 3683
915.037 250.423 3683
927.858 251.511 3699
938.729 252.055 3707
947.594 252.055 3707
958.78 252.667 3716
967.666 252.667 3716
976.552 252.667 3716
985.439 252.667 3716
989.776 251.511 3699
998.621 251.511 3699
1007.47 251.511 3699
1016.31 251.511 3699
1025.16 251.511 3699
1034 251.511 3699
1042.85 251.511 3699
1051.69 251.511 3699
1058.25 250.967 3691
1064.76 250.423 3683
1073.57 250.423 3683
1082.37 250.423 3683
1088.81 249.879 3675
1095.21 249.335 3667
1101.27 248.723 3658
1110.02 248.723 3658
1118.76 248.723 3658
1125.04 248.179 3650
1131.29 247.635 3642
1140 247.635 3642
1148.71 247.635 3642
1165.36 249.335 3667
1179.25 250.423 3683
1193.22 251.511 3699
1202.07 251.511 3699
1210.91 251.511 3699
1219.76 251.511 3699
1234.25 252.667 3716
1243.13 252.667 3716
1257.41 253.755 3732
1269.05 254.299 3740
1277.99 254.299 3740
1286.94 254.299 3740
1295.88 254.299 3740
1307.96 254.911 3749
1319.74 255.454 3757
1328.72 255.454 3757
1337.71 255.454 3757
1346.69 255.454 3757
1346.66 253.755 3732
1361.75 254.911 3749
1370.72 254.911 3749
1379.68 254.911 3749
1388.65 254.911 3749
1397.61 254.911 3749
1406.58 254.911 3749
1412.15 254.299 3740
1415.01 253.211 3724
1423.92 253.211 3724
1432.82 253.211 3724
1441.73 253.211 3724
1450.63 253.211 3724
1459.54 253.211 3724
1461.74 252.055 3707
1454.73 249.335 3667
1459.91 248.723 3658
1468.66 248.723 3658
1477.41 248.723 3658
1482.9 248.179 3650
1498.58 249.335 3667
1510.64 249.879 3675
1522.73 250.423 3683
1531.54 250.423 3683
1540.35 250.423 3683
1538.64 248.723 3658
1547.39 248.723 3658
1546.35 247.159 3635
1558.04 247.635 3642
1573.63 248.723 3658
1586.27 249.335 3667
1595.04 249.335 3667
1603.81 249.335 3667
1612.57 249.335 3667
1631.96 250.967 3691
1640.78 250.967 3691
1667.93 253.755 3732
1680.45 254.299 3740
1689.39 254.299 3740
1698.34 254.299 3740
1707.28 254.299 3740
1712.55 253.755 3732
1721.48 253.755 3732
1730.4 253.755 3732
1739.33 253.755 3732
1748.25 253.755 3732
1749.64 252.667 3716
1758.53 252.667 3716
1767.41 252.667 3716
1764.35 250.967 3691
1761.65 249.335 3667
1770.42 249.335 3667
1779.18 249.335 3667
1787.95 249.335 3667
1796.72 249.335 3667
1805.49 249.335 3667
1798.43 247.159 3635
1803.14 246.615 3627
1803.82 245.527 3611
1796.9 243.42 3580
1805.46 243.42 3580
1802.37 241.856 3557
1803.24 240.836 3542
1796.36 238.796 3512
1804.76 238.796 3512
1805.41 237.776 3497
1813.78 237.776 3497
1822.14 237.776 3497
1838.35 238.796 3512
1846.75 238.796 3512
1863.07 239.816 3527
1875.22 240.292 3534
1887.94 240.836 3542
1900.15 241.312 3549
1908.64 241.312 3549
1917.13 241.312 3549
1921.82 240.836 3542
1934.1 241.312 3549
1942.59 241.312 3549
1972.51 243.963 3588
1984.96 244.439 3595
2002.43 245.527 3611
2011.06 245.527 3611
2037.04 247.635 3642
2073.27 250.967 3691
2114.81 254.911 3749
2123.78 254.911 3749
2146.97 256.61 3774
2155.99 256.61 3774
2165.02 256.61 3774
2174.04 256.61 3774
2173.23 255.454 3757
2212.42 258.99 3809
2221.53 258.99 3809
2230.64 258.99 3809
2224.46 257.222 3783
2233.5 257.222 3783
2242.55 257.222 3783
2251.6 257.222 3783
2260.64 257.222 3783
2264.29 256.61 3774
2263.07 255.454 3757
2282.34 256.61 3774
2291.36 256.61 3774
2311.36 257.834 3792
2341.23 260.146 3826
2361.44 261.37 3844
2370.63 261.37 3844
2385.4 261.982 3853
2394.61 261.982 3853
2415.05 263.206 3871
2424.31 263.206 3871
2450.54 265.042 3898
2459.86 265.042 3898
2469.18 265.042 3898
2472.78 264.43 3889
2447.62 260.758 3835
2468.32 261.982 3853
2506.47 265.042 3898
2521.6 265.654 3907
2530.94 265.654 3907
2540.28 265.654 3907
2549.63 265.654 3907
2558.97 265.654 3907
2568.31 265.654 3907
2547.97 262.594 3862
2551.24 261.982 3853
2560.46 261.982 3853
2569.67 261.982 3853
2543.41 258.378 3800
2529.66 256.066 3766
2538.66 256.066 3766
2541.58 255.454 3757
2545.13 254.911 3749
2531.62 252.667 3716
2528.88 251.511 3699
2537.73 251.511 3699
2535.56 250.423 3683
2533.31 249.335 3667
1957.39 187.46 2757
1963.98 187.46 2757
1974.15 187.8 2762
1980.75 187.8 2762
1990.95 188.14 2767
1997.57 188.14 2767
2004.19 188.14 2767
2007.17 187.8 2762
2040.75 190.316 2799
2047.45 190.316 2799
2054.14 190.316 2799
2068.2 190.996 2809
2085.25 191.948 2823
2095.71 192.288 2828
2102.47 192.288 2828
2109.24 192.288 2828
2116 192.288 2828
2122.76 192.288 2828
2129.52 192.288 2828
2136.29 192.288 2828
2143.05 192.288 2828
2156.65 192.9 2837
2163.44 192.9 2837
2170.22 192.9 2837
-2334.52 219.475 3118
-2327.07 219.475 3118
-2315.15 219.053 3112
-2299.55 218.279 3101
-2287.7 217.856 3095
-2280.3 217.856 3095
-2272.9 217.856 3095
-2274.28 218.701 3107
-2266.85 218.701 3107
-2263.06 219.053 3112
-2255.61 219.053 3112
-2261.18 220.32 3130
-2253.69 220.32 3130
-2246.21 220.32 3130
-2238.72 220.32 3130
-2231.24 220.32 3130
-2219.49 219.898 3124
-2212.02 219.898 3124
-2200.31 219.475 3118
-2197.08 219.898 3124
-2193.81 220.32 3130
-2190.52 220.742 3136
-2183.02 220.742 3136
-2175.52 220.742 3136
-2168.02 220.742 3136
-2181.19 222.854 3166
-2173.62 222.854 3166
-2174.26 223.699 3178
-2170.75 224.121 3184
-2167.21 224.543 3190
-2159.58 224.543 3190
-2160.05 225.388 3202
-2160.46 226.233 3214
-2165.5 227.57 3233
-2157.77 227.57 3233
-2171.32 229.823 3265
-2176.1 231.16 3284
-2185.42 232.99 3310
-2177.5 232.99 3310
-2169.58 232.99 3310
-2166.24 233.483 3317
-2166.77 234.398 3330
-2158.8 234.398 3330
-2159.24 235.313 3343
-2168.62 237.214 3370
-2169.54 238.199 3384
-2161.44 238.199 3384
-2162.26 239.184 3398
-2154.13 239.184 3398
-2163.69 241.155 3426
-2155.5 241.155 3426
-2147.31 241.155 3426
-2139.11 241.155 3426
-2130.92 241.155 3426
-2122.73 241.155 3426
-2114.54 241.155 3426
-2089.13 239.184 3398
-2085.29 239.677 3405
-2077.15 239.677 3405
-2090.27 242.141 3440
-2086.28 242.634 3447
-2086.48 243.619 3461
-2078.21 243.619 3461
-2078.9 244.675 3476
-2070.59 244.675 3476
-2062.28 244.675 3476
-2053.96 244.675 3476
-2045.65 244.675 3476
-2037.34 244.675 3476
-2029.03 244.675 3476
-2020.71 244.675 3476
-2003.72 243.619 3461
-2004.09 244.675 3476
-1995.78 244.675 3476
-1987.47 244.675 3476
-1979.15 244.675 3476
-1954.4 242.634 3447
-1946.16 242.634 3447
-1937.91 242.634 3447
-1925.75 242.141 3440
-1909.72 241.155 3426
-1901.53 241.155 3426
-1885.6 240.17 3412
-1877.44 240.17 3412
-1861.61 239.184 3398
-1853.49 239.184 3398
-1833.96 237.706 3377
-1825.88 237.706 3377
-1840.41 240.663 3419
-1835.99 241.155 3426
-1827.8 241.155 3426
-1823.32 241.648 3433
-1815.11 241.648 3433
-1806.9 241.648 3433
-1795.03 241.155 3426
-1779.53 240.17 3412
-1756.84 238.199 3384
-1759.6 239.677 3405
-1758.65 240.663 3419
-1750.48 240.663 3419
-1742.3 240.663 3419
-1737.68 241.155 3426
-1747.15 243.619 3461
-1738.88 243.619 3461
-1730.6 243.619 3461
-1715.36 242.634 3447
-1707.11 242.634 3447
-1698.87 242.634 3447
-1690.63 242.634 3447
-1678.97 242.141 3440
-1670.74 242.141 3440
-1655.75 241.155 3426
-1647.56 241.155 3426
-1639.37 241.155 3426
-1631.17 241.155 3426
-1622.98 241.155 3426
-1618.09 241.648 3433
-1609.88 241.648 3433
-1601.67 241.648 3433
-1593.46 241.648 3433
-1591.71 242.634 3447
-1583.47 242.634 3447
-1575.23 242.634 3447
-1566.99 242.634 3447
-1558.74 242.634 3447
-1553.65 243.126 3454
-1545.39 243.126 3454
-1537.13 243.126 3454
-1528.87 243.126 3454
-1520.61 243.126 3454
-1512.35 243.126 3454
-1504.09 243.126 3454
-1495.83 243.126 3454
-1493.6 244.112 3468
-1485.31 244.112 3468
-1477.02 244.112 3468
-1468.72 244.112 3468
-1460.43 244.112 3468
-1452.14 244.112 3468
-1443.84 244.112 3468
-1444.66 245.66 3490
-1442.49 246.716 3505
-1434.1 246.716 3505
-1425.72 246.716 3505
-1417.34 246.716 3505
-1411.77 247.209 3512
-1403.38 247.209 3512
-1394.98 247.209 3512
-1386.58 247.209 3512
-1378.18 247.209 3512
-1369.78 247.209 3512
-1361.38 247.209 3512
-1352.99 247.209 3512
-1350.33 248.265 3527
-1341.9 248.265 3527
-1333.46 248.265 3527
-1325.03 248.265 3527
-1313.98 247.772 3520
-1289.24 244.675 3476
-1280.93 244.675 3476
-1267.13 243.619 3461
-1258.85 243.619 3461
-604.073 121.704 1729
-600.632 121.845 1731
-596.493 121.845 1731
-592.353 121.845 1731
-586.855 121.563 1727
-582.05 121.422 1725
-577.925 121.422 1725
-572.137 121.07 1720
-565.712 120.578 1713
-559.977 120.226 1708
-555.892 120.226 1708
-551.162 120.085 1706
-546.441 119.944 1704
-540.775 119.592 1699
-536.712 119.592 1699
-531.081 119.24 1694
-524.853 118.748 1687
-517.731 118.044 1677
-513.721 118.044 1677
-506.672 117.34 1667
-499.67 116.636 1657
-493.015 116.002 1648
-486.403 115.369 1639
-482.484 115.369 1639
-474.769 114.454 1626
