ply
format ascii 1.0
comment File generated
element vertex 2252
property float x
property float y
property float z
end_header
1188.06 455.171 4010
1194.96 454.149 4001
1204.53 454.149 4001
1208.33 451.993 3982
1214.8 450.858 3972
1221.52 449.836 3963
1231 449.836 3963
1237.34 448.701 3953
1246.8 448.701 3953
1259.43 449.836 3963
1281.07 454.149 4001
1293.54 455.171 4010
1303.13 455.171 4010
1312.72 455.171 4010
1322.31 455.171 4010
1331.9 455.171 4010
1335.13 453.014 3991
1335.24 449.836 3963
1341.33 448.701 3953
1350.78 448.701 3953
1357.13 447.679 3944
1369.68 448.701 3953
1389.25 451.993 3982
1412.13 456.306 4020
1421.74 456.306 4020
1445.24 460.733 4059
1458.53 461.868 4069
1468.26 461.868 4069
1477.99 461.868 4069
1476.75 458.463 4039
1486.41 458.463 4039
1496.07 458.463 4039
1505.73 458.463 4039
1512.01 457.441 4030
1521.64 457.441 4030
1538.5 459.598 4049
1555.83 461.868 4069
1565.56 461.868 4069
1575.29 461.868 4069
1661.26 464.138 4089
1671.04 464.138 4089
1680.81 464.138 4089
1690.59 464.138 4089
1700.37 464.138 4089
1710.15 464.138 4089
1719.93 464.138 4089
1729.7 464.138 4089
1739.48 464.138 4089
1759.04 464.138 4089
1768.82 464.138 4089
1778.59 464.138 4089
1784 463.003 4079
1784.96 460.733 4059
1794.66 460.733 4059
1799.93 459.598 4049
1801.12 457.441 4030
1814.8 458.463 4039
1824.46 458.463 4039
1834.11 458.463 4039
1843.77 458.463 4039
1853.43 458.463 4039
1863.09 458.463 4039
1868.57 457.441 4030
1860.04 453.014 3991
1860.68 450.858 3972
1870.18 450.858 3972
1875.42 449.836 3963
1884.89 449.836 3963
1876.2 445.523 3925
1762.66 406.362 3580
1771.22 406.362 3580
1779.78 406.362 3580
1772.85 402.843 3549
1773.81 401.141 3534
1782.26 401.141 3534
1783.62 399.551 3520
1787.96 398.643 3512
1788.69 396.941 3497
1797.05 396.941 3497
1786.83 392.854 3461
1787.84 391.265 3447
1803.38 392.854 3461
1811.66 392.854 3461
1819.93 392.854 3461
1828.21 392.854 3461
1836.48 392.854 3461
1844.76 392.854 3461
1853.04 392.854 3461
1861.31 392.854 3461
1869.59 392.854 3461
1866.47 390.471 3440
1874.7 390.471 3440
1871.43 388.087 3419
527.508 84.3371 743
529.285 84.3371 743
531.061 84.3371 743
532.838 84.3371 743
534.615 84.3371 743
536.392 84.3371 743
537.444 84.2236 742
539.218 84.2236 742
541.722 84.3371 743
543.499 84.3371 743
545.275 84.3371 743
547.052 84.3371 743
548.829 84.3371 743
550.606 84.3371 743
551.639 84.2236 742
554.159 84.3371 743
555.936 84.3371 743
557.713 84.3371 743
559.489 84.3371 743
562.021 84.4507 744
563.801 84.4507 744
566.34 84.5642 745
568.121 84.5642 745
569.903 84.5642 745
-2304.57 356.754 3078
-2301.69 357.449 3084
-2294.32 357.449 3084
-2295.1 358.724 3095
-2292.13 359.42 3101
-2284.72 359.42 3101
-2277.3 359.42 3101
-2274.28 360.115 3107
-2266.85 360.115 3107
-2263.06 360.695 3112
-2255.61 360.695 3112
-2252.51 361.39 3118
-2253.69 362.781 3130
-2254.82 364.172 3142
-2247.3 364.172 3142
-2248.34 365.563 3154
-2270.64 370.431 3196
-2321.06 379.935 3278
-2313.22 379.935 3278
-2309.6 380.63 3284
-2301.75 380.63 3284
-2293.9 380.63 3284
-2195.55 365.563 3154
-2521.86 428.731 3699
-2513.01 428.731 3699
-2504.17 428.731 3699
-2479.13 425.949 3675
-2470.35 425.949 3675
-2461.56 425.949 3675
-2430.74 422.124 3642
-2406.74 419.458 3619
-2398.09 419.458 3619
-2368.96 415.865 3588
-2349.86 414.011 3572
-2336.73 413.199 3565
-2328.2 413.199 3565
-2324.23 414.011 3572
-2315.69 414.011 3572
-2307.15 414.011 3572
-2298.61 414.011 3572
-2290.07 414.011 3572
-2281.52 414.011 3572
-2287.62 416.677 3595
-2284.09 417.604 3603
-2290.63 420.385 3627
-2281.96 420.385 3627
-2287.7 423.051 3650
-2314.56 429.658 3707
-2305.7 429.658 3707
-2296.84 429.658 3707
-1888.48 415.865 3588
-1879.9 415.865 3588
-1891.66 420.385 3627
-1887.14 421.313 3635
-1878.45 421.313 3635
-1869.76 421.313 3635
-1872.84 423.978 3658
-1864.1 423.978 3658
-1859.91 425.022 3667
-1851.14 425.022 3667
-1842.38 425.022 3667
-1849.61 428.731 3699
-1840.76 428.731 3699
-1831.92 428.731 3699
-1823.07 428.731 3699
-1802.45 425.949 3675
-1793.67 425.949 3675
-1784.88 425.949 3675
-1787.69 428.731 3699
-1811.06 436.496 3766
-1814.5 439.51 3792
-1805.43 439.51 3792
-1804.42 441.48 3809
-1799.55 442.523 3818
-1790.42 442.523 3818
-1781.29 442.523 3818
-1767.98 441.48 3809
-1751.02 439.51 3792
-1741.96 439.51 3792
-1732.89 439.51 3792
-1712 436.496 3766
-1710.68 438.467 3783
-1720.98 443.45 3826
-1711.83 443.45 3826
-1702.68 443.45 3826
-1693.53 443.45 3826
-1684.38 443.45 3826
-1687.06 446.58 3853
-1677.84 446.58 3853
-1668.63 446.58 3853
-1636.59 440.437 3800
-1627.5 440.437 3800
-1607.34 437.423 3774
-1598.32 437.423 3774
-1596.87 439.51 3792
-1591.15 440.437 3800
-1582.07 440.437 3800
-1606.1 449.709 3880
-1604.22 451.796 3898
-1594.9 451.796 3898
-1585.58 451.796 3898
-686.101 217.205 1874
-681.62 217.205 1874
-677.139 217.205 1874
-671.222 216.741 1870
-666.75 216.741 1870
-660.862 216.278 1866
-653.585 215.35 1858
-644.6 213.844 1845
-640.188 213.844 1845
-633.02 212.916 1837
-627.943 212.685 1835
-623.554 212.685 1835
-619.166 212.685 1835
-614.778 212.685 1835
-608.395 211.989 1829
-601.379 211.062 1821
-597.024 211.062 1821
-590.717 210.367 1815
-583.146 209.208 1805
-576.585 208.396 1798
-567.193 206.542 1782
-562.931 206.542 1782
-555.222 205.267 1771
-548.187 204.224 1762
-541.503 203.296 1754
-537.309 203.296 1754
-532.507 203.065 1752
-527.412 202.717 1749
-522.033 202.253 1745
-517.861 202.253 1745
-513.099 202.021 1743
-507.471 201.442 1738
-502.157 200.978 1734
-498.01 200.978 1734
-493.294 200.747 1732
-487.74 200.167 1727
-482.21 199.587 1722
-478.092 199.587 1722
-472.874 199.124 1718
-467.401 198.544 1713
-462.764 198.313 1711
-456.796 197.501 1704
-452.721 197.501 1704
-447.856 197.153 1701
-442.745 196.69 1697
-437.395 196.11 1692
-433.348 196.11 1692
-427.526 195.299 1685
-422.994 195.067 1683
-417.725 194.488 1678
-413.712 194.488 1678
-408.967 194.14 1675
-403.269 193.329 1668
-398.563 192.981 1665
-394.581 192.981 1665
-389.896 192.633 1662
-385.457 192.401 1660
-381.028 192.17 1658
-377.518 192.401 1660
-373.548 192.401 1660
-369.579 192.401 1660
-365.609 192.401 1660
-361.64 192.401 1660
-357.67 192.401 1660
-353.701 192.401 1660
-350.363 192.749 1663
-346.803 192.981 1665
-342.821 192.981 1665
-338.84 192.981 1665
-335.261 193.213 1667
-331.274 193.213 1667
-327.288 193.213 1667
-323.302 193.213 1667
-319.315 193.213 1667
-315.518 193.329 1668
-311.53 193.329 1668
-307.541 193.329 1668
-303.552 193.329 1668
-300.282 193.792 1672
-296.284 193.792 1672
-292.285 193.792 1672
-288.287 193.792 1672
-284.289 193.792 1672
-280.291 193.792 1672
-276.292 193.792 1672
-272.294 193.792 1672
-268.296 193.792 1672
-264.297 193.792 1672
-260.299 193.792 1672
-256.761 194.14 1675
-252.755 194.14 1675
-248.75 194.14 1675
-244.745 194.14 1675
-240.739 194.14 1675
-236.734 194.14 1675
-232.728 194.14 1675
-228.723 194.14 1675
-224.717 194.14 1675
-220.712 194.14 1675
-216.707 194.14 1675
-212.701 194.14 1675
-208.696 194.14 1675
-204.69 194.14 1675
-200.445 193.908 1673
-196.445 193.908 1673
-192.329 193.792 1672
-188.105 193.56 1670
-184.112 193.56 1670
-180.118 193.56 1670
-176.125 193.56 1670
-171.822 193.213 1667
-167.433 192.749 1663
-163.456 192.749 1663
-159.48 192.749 1663
-155.69 192.981 1665
-151.891 193.213 1667
-147.904 193.213 1667
-143.918 193.213 1667
-139.932 193.213 1667
-135.945 193.213 1667
-131.959 193.213 1667
-127.819 192.981 1665
-123.838 192.981 1665
-119.856 192.981 1665
-116.084 193.329 1668
-112.095 193.329 1668
-108.56 194.14 1675
-104.554 194.14 1675
-100.549 194.14 1675
-96.5435 194.14 1675
-92.5381 194.14 1675
-179.756 456.084 3935
-170.347 456.084 3935
-160.937 456.084 3935
-151.527 456.084 3935
-143.454 460.372 3972
-133.955 460.372 3972
-124.77 461.532 3982
-115.509 462.575 3991
-106.231 463.734 4001
-96.6629 463.734 4001
-87.2912 464.777 4010
-78.0897 467.095 4030
-68.9453 470.456 4059
-59.239 470.456 4059
-49.5327 470.456 4059
291.618 472.774 4079
301.372 472.774 4079
311.126 472.774 4079
317.733 468.138 4039
327.392 468.138 4039
333.879 463.734 4001
343.447 463.734 4001
347.191 456.084 3935
359.138 459.329 3963
368.615 459.329 3963
378.092 459.329 3963
387.569 459.329 3963
395.142 457.127 3944
404.573 457.127 3944
408.231 450.752 3889
410.767 443.45 3826
410.477 433.483 3740
419.421 433.483 3740
423.668 428.731 3699
428.772 425.022 3667
428.95 416.677 3595
434.747 414.011 3572
443.289 414.011 3572
445.253 407.984 3520
449.804 404.507 3490
457.231 403.695 3483
465.56 403.695 3483
473.889 403.695 3483
477.233 399.523 3447
494.631 407.056 3512
507.326 410.534 3542
515.796 410.534 3542
524.266 410.534 3542
533.789 411.345 3549
543.498 412.272 3557
552.004 412.272 3557
571.54 420.385 3627
597.01 432.555 3732
605.935 432.555 3732
614.859 432.555 3732
679.839 464.777 4010
696.133 469.297 4049
705.815 469.297 4049
715.498 469.297 4049
725.18 469.297 4049
734.863 469.297 4049
742.706 468.138 4039
752.365 468.138 4039
762.023 468.138 4039
773.592 469.297 4049
783.275 469.297 4049
794.915 470.456 4059
806.604 471.615 4069
816.334 471.615 4069
826.064 471.615 4069
835.795 471.615 4069
845.525 471.615 4069
855.255 471.615 4069
864.985 471.615 4069
872.566 470.456 4059
882.272 470.456 4059
898.571 473.933 4089
908.349 473.933 4089
918.127 473.933 4089
927.905 473.933 4089
935.39 472.774 4079
945.144 472.774 4079
943.427 467.095 4030
946.206 463.734 4001
953.385 462.575 3991
972.338 467.095 4030
981.975 467.095 4030
991.612 467.095 4030
1001.25 467.095 4030
1010.89 467.095 4030
1013.18 463.734 4001
1045.24 473.933 4089
1055.02 473.933 4089
1064.8 473.933 4089
1074.58 473.933 4089
1081.7 472.774 4079
1086.1 470.456 4059
1095.81 470.456 4059
1092.17 464.777 4010
1096.54 462.575 3991
1100.82 460.372 3972
1110.32 460.372 3972
1130.53 464.777 4010
1140.12 464.777 4010
1149.71 464.777 4010
1159.3 464.777 4010
1168.88 464.777 4010
1175.83 463.734 4001
1179.77 461.532 3982
1186.3 460.372 3972
1195.8 460.372 3972
1199.53 458.17 3953
1203.48 456.084 3935
1212.89 456.084 3935
1222.3 456.084 3935
1231.71 456.084 3935
1241.12 456.084 3935
1259.43 459.329 3963
1274.99 461.532 3982
1287.41 462.575 3991
1296.96 462.575 3991
1306.5 462.575 3991
1316.04 462.575 3991
1325.59 462.575 3991
1332.12 461.532 3982
1335.24 459.329 3963
1341.33 458.17 3953
1350.78 458.17 3953
1357.13 457.127 3944
1379.73 461.532 3982
1402.51 465.936 4020
1415.64 467.095 4030
1425.27 467.095 4030
1445.24 470.456 4059
1458.53 471.615 4069
1468.26 471.615 4069
1477.99 471.615 4069
1487.72 471.615 4069
1497.45 471.615 4069
1507.18 471.615 4069
1509.45 469.297 4049
1519.14 469.297 4049
1525.04 468.138 4039
1538.5 469.297 4049
1555.83 471.615 4069
1565.56 471.615 4069
1575.29 471.615 4069
1671.04 473.933 4089
1680.81 473.933 4089
1690.59 473.933 4089
1700.37 473.933 4089
1768.82 473.933 4089
1778.59 473.933 4089
1788.37 473.933 4089
1793.75 472.774 4079
1803.51 472.774 4079
1804.37 470.456 4059
1805.14 468.138 4039
1814.8 468.138 4039
1824.46 468.138 4039
1834.11 468.138 4039
1843.77 468.138 4039
1853.43 468.138 4039
1863.09 468.138 4039
1872.75 468.138 4039
1860.04 462.575 3991
1860.68 460.372 3972
1870.18 460.372 3972
1879.67 460.372 3972
1889.17 460.372 3972
1880.98 456.084 3935
1813.05 437.423 3774
1822.07 437.423 3774
1831.1 437.423 3774
1819.65 432.555 3732
1816.32 429.658 3707
1825.19 429.658 3707
1822.18 426.876 3683
1814.58 423.051 3650
1776.85 412.272 3557
1777.83 410.534 3542
1786.3 410.534 3542
1787.16 408.795 3527
1787.96 407.056 3512
1792.78 406.245 3505
1801.16 406.245 3505
1794.57 402.884 3476
1795.1 401.145 3461
1807.03 401.957 3468
1815.32 401.957 3468
1823.61 401.957 3468
1831.91 401.957 3468
1840.2 401.957 3468
1852.76 402.884 3476
1861.07 402.884 3476
1869.38 402.884 3476
1877.69 402.884 3476
1877.87 401.145 3461
1886.14 401.145 3461
1879.09 397.9 3433
527.508 86.117 743
529.285 86.117 743
531.061 86.117 743
532.838 86.117 743
534.615 86.117 743
535.67 86.0011 742
537.444 86.0011 742
539.218 86.0011 742
540.993 86.0011 742
543.499 86.117 743
545.275 86.117 743
547.052 86.117 743
548.09 86.0011 742
549.865 86.0011 742
551.639 86.0011 742
553.413 86.0011 742
555.936 86.117 743
557.713 86.117 743
559.489 86.117 743
561.266 86.117 743
563.801 86.2329 744
565.58 86.2329 744
567.359 86.2329 744
569.138 86.2329 744
-2291.85 362.116 3061
-2297.21 364.127 3078
-2289.85 364.127 3078
-2295.1 366.138 3095
-2287.7 366.138 3095
-2280.3 366.138 3095
-2272.9 366.138 3095
-2261.1 365.429 3089
-2266.85 367.558 3107
-2259.42 367.558 3107
-2251.99 367.558 3107
-2252.51 368.859 3118
-2253.69 370.279 3130
-2254.82 371.698 3142
-2247.3 371.698 3142
-2248.34 373.118 3154
-2270.64 378.087 3196
-2321.06 387.787 3278
-2313.22 387.787 3278
-2309.6 388.497 3284
-2301.75 388.497 3284
-2293.9 388.497 3284
-2521.86 437.592 3699
-2513.01 437.592 3699
-2504.17 437.592 3699
-2479.13 434.752 3675
-2470.35 434.752 3675
-2461.56 434.752 3675
-2430.74 430.848 3642
-2406.74 428.128 3619
-2398.09 428.128 3619
-2368.96 424.46 3588
-2349.86 422.567 3572
-2336.73 421.739 3565
-2328.2 421.739 3565
-2324.23 422.567 3572
-2315.69 422.567 3572
-2307.15 422.567 3572
-2298.61 422.567 3572
-2290.07 422.567 3572
-2281.52 422.567 3572
-2287.62 425.288 3595
-2284.09 426.235 3603
-2290.63 429.074 3627
-2281.96 429.074 3627
-2287.7 431.795 3650
-2314.56 438.538 3707
-2305.7 438.538 3707
-2296.84 438.538 3707
-1888.48 424.46 3588
-1879.9 424.46 3588
-1891.66 429.074 3627
-1887.14 430.02 3635
-1878.45 430.02 3635
-1869.76 430.02 3635
-1872.84 432.741 3658
-1864.1 432.741 3658
-1859.91 433.806 3667
-1851.14 433.806 3667
-1842.38 433.806 3667
-1849.61 437.592 3699
-1840.76 437.592 3699
-1831.92 437.592 3699
-1823.07 437.592 3699
-1802.45 434.752 3675
-1793.67 434.752 3675
-1772.74 431.795 3650
-1776.09 434.752 3675
-1778.84 437.592 3699
-1814.5 448.593 3792
-1805.43 448.593 3792
-1804.42 450.605 3809
-1799.55 451.669 3818
-1790.42 451.669 3818
-1781.29 451.669 3818
-1767.98 450.605 3809
-1751.02 448.593 3792
-1741.96 448.593 3792
-1732.89 448.593 3792
-1712 445.518 3766
-1710.68 447.529 3783
-1717.38 451.669 3818
-1708.25 451.669 3818
-1699.12 451.669 3818
-1693.53 452.616 3826
-1684.38 452.616 3826
-1687.06 455.81 3853
-1677.84 455.81 3853
-1668.63 455.81 3853
-1636.59 449.54 3800
-1627.5 449.54 3800
-1607.34 446.464 3774
-1598.32 446.464 3774
-1596.87 448.593 3792
-1591.15 449.54 3800
-1582.07 449.54 3800
-1606.1 459.004 3880
-1604.22 461.133 3898
-1594.9 461.133 3898
-1585.58 461.133 3898
-686.101 221.694 1874
-681.62 221.694 1874
-677.139 221.694 1874
-671.222 221.221 1870
-666.75 221.221 1870
-660.862 220.748 1866
-653.585 219.801 1858
-644.6 218.263 1845
-640.188 218.263 1845
-633.02 217.317 1837
-627.943 217.08 1835
-623.554 217.08 1835
-619.166 217.08 1835
-614.778 217.08 1835
-608.395 216.371 1829
-601.379 215.424 1821
-597.024 215.424 1821
-590.717 214.714 1815
-583.146 213.531 1805
-576.585 212.703 1798
-566.556 210.574 1780
-562.3 210.574 1780
-555.222 209.509 1771
-548.187 208.445 1762
-541.503 207.498 1754
-537.309 207.498 1754
-532.507 207.262 1752
-527.412 206.907 1749
-522.033 206.433 1745
-517.861 206.433 1745
-513.099 206.197 1743
-507.471 205.605 1738
-502.157 205.132 1734
-498.01 205.132 1734
-493.294 204.896 1732
-487.74 204.304 1727
-482.21 203.713 1722
-478.092 203.713 1722
-472.874 203.239 1718
-467.401 202.648 1713
-462.764 202.411 1711
-456.796 201.583 1704
-452.721 201.583 1704
-447.856 201.228 1701
-442.745 200.755 1697
-437.395 200.164 1692
-433.348 200.164 1692
-427.526 199.335 1685
-422.994 199.099 1683
-417.725 198.507 1678
-413.712 198.507 1678
-408.967 198.152 1675
-403.269 197.324 1668
-398.563 196.969 1665
-394.581 196.969 1665
-389.896 196.615 1662
-385.457 196.378 1660
-381.028 196.141 1658
-377.518 196.378 1660
-373.548 196.378 1660
-369.579 196.378 1660
-365.609 196.378 1660
-361.64 196.378 1660
-357.67 196.378 1660
-353.701 196.378 1660
-350.363 196.733 1663
-346.803 196.969 1665
-342.821 196.969 1665
-338.84 196.969 1665
-335.261 197.206 1667
-331.274 197.206 1667
-327.288 197.206 1667
-323.302 197.206 1667
-319.315 197.206 1667
-315.518 197.324 1668
-311.53 197.324 1668
-307.541 197.324 1668
-303.552 197.324 1668
-300.282 197.798 1672
-296.284 197.798 1672
-292.285 197.798 1672
-288.287 197.798 1672
-284.289 197.798 1672
-280.291 197.798 1672
-276.292 197.798 1672
-272.294 197.798 1672
-268.296 197.798 1672
-264.297 197.798 1672
-260.299 197.798 1672
-256.761 198.152 1675
-252.755 198.152 1675
-248.75 198.152 1675
-244.745 198.152 1675
-240.739 198.152 1675
-236.734 198.152 1675
-232.728 198.152 1675
-228.723 198.152 1675
-224.717 198.152 1675
-220.712 198.152 1675
-216.707 198.152 1675
-212.701 198.152 1675
-208.696 198.152 1675
-204.69 198.152 1675
-200.445 197.916 1673
-196.445 197.916 1673
-192.099 197.561 1670
-188.105 197.561 1670
-184.112 197.561 1670
-180.118 197.561 1670
-176.125 197.561 1670
-171.822 197.206 1667
-167.332 196.615 1662
-163.456 196.733 1663
-159.48 196.733 1663
-155.503 196.733 1663
-151.891 197.206 1667
-147.904 197.206 1667
-143.918 197.206 1667
-139.932 197.206 1667
-135.945 197.206 1667
-131.959 197.206 1667
-127.819 196.969 1665
-123.838 196.969 1665
-119.856 196.969 1665
-116.084 197.324 1668
-112.095 197.324 1668
-108.56 198.152 1675
-104.554 198.152 1675
-100.549 198.152 1675
-96.5435 198.152 1675
-92.5381 198.152 1675
-179.756 465.51 3935
-170.347 465.51 3935
-160.937 465.51 3935
-151.527 465.51 3935
-143.454 469.887 3972
-133.955 469.887 3972
-125.052 472.135 3991
-115.509 472.135 3991
-106.231 473.318 4001
-96.6629 473.318 4001
-87.2912 474.383 4010
-78.0897 476.749 4030
-68.9453 480.18 4059
-59.239 480.18 4059
-49.5327 480.18 4059
291.618 482.546 4079
301.372 482.546 4079
311.126 482.546 4079
317.733 477.814 4039
327.392 477.814 4039
333.879 473.318 4001
343.447 473.318 4001
347.191 465.51 3935
359.138 468.823 3963
368.615 468.823 3963
378.092 468.823 3963
387.569 468.823 3963
395.142 466.575 3944
404.573 466.575 3944
408.231 460.069 3889
410.767 452.616 3826
410.477 442.442 3740
419.421 442.442 3740
423.668 437.592 3699
428.772 433.806 3667
428.95 425.288 3595
434.747 422.567 3572
443.289 422.567 3572
445.253 416.416 3520
449.804 412.867 3490
457.231 412.039 3483
465.56 412.039 3483
473.889 412.039 3483
478.203 408.608 3454
494.631 415.469 3512
507.326 419.018 3542
515.796 419.018 3542
524.266 419.018 3542
533.789 419.847 3549
543.498 420.793 3557
552.004 420.793 3557
571.54 429.074 3627
598.29 442.442 3740
607.234 442.442 3740
616.177 442.442 3740
679.839 474.383 4010
696.133 478.997 4049
705.815 478.997 4049
717.265 480.18 4059
726.971 480.18 4059
736.678 480.18 4059
746.384 480.18 4059
752.365 477.814 4039
763.91 478.997 4049
775.503 480.18 4059
785.209 480.18 4059
794.915 480.18 4059
806.604 481.363 4069
816.334 481.363 4069
826.064 481.363 4069
839.903 483.729 4089
849.681 483.729 4089
859.459 483.729 4089
869.237 483.729 4089
879.015 483.729 4089
886.619 482.546 4079
898.571 483.729 4089
908.349 483.729 4089
918.127 483.729 4089
927.905 483.729 4089
935.39 482.546 4079
945.144 482.546 4079
943.427 476.749 4030
946.206 473.318 4001
953.385 472.135 3991
972.338 476.749 4030
981.975 476.749 4030
991.612 476.749 4030
1001.25 476.749 4030
1010.89 476.749 4030
1013.18 473.318 4001
1045.24 483.729 4089
1055.02 483.729 4089
1064.8 483.729 4089
1074.58 483.729 4089
1081.7 482.546 4079
1086.1 480.18 4059
1095.81 480.18 4059
1092.17 474.383 4010
1096.54 472.135 3991
1100.82 469.887 3972
1110.32 469.887 3972
1130.53 474.383 4010
1140.12 474.383 4010
1149.71 474.383 4010
1159.3 474.383 4010
1168.88 474.383 4010
1175.83 473.318 4001
1179.77 471.07 3982
1186.3 469.887 3972
1195.8 469.887 3972
1199.53 467.64 3953
1203.48 465.51 3935
1212.89 465.51 3935
1222.3 465.51 3935
1231.71 465.51 3935
1241.12 465.51 3935
1259.43 468.823 3963
1274.99 471.07 3982
1287.41 472.135 3991
1296.96 472.135 3991
1306.5 472.135 3991
1316.04 472.135 3991
1325.59 472.135 3991
1332.12 471.07 3982
1335.24 468.823 3963
1341.33 467.64 3953
1350.78 467.64 3953
1357.13 466.575 3944
1386.32 473.318 4001
1402.51 475.566 4020
1415.64 476.749 4030
1425.27 476.749 4030
1445.24 480.18 4059
1462.11 482.546 4079
1471.87 482.546 4079
1481.62 482.546 4079
1495.03 483.729 4089
1504.81 483.729 4089
1514.59 483.729 4089
1513.18 480.18 4059
1519.14 478.997 4049
1525.04 477.814 4039
1538.5 478.997 4049
1559.65 482.546 4079
1569.41 482.546 4079
1579.16 482.546 4079
1671.04 483.729 4089
1680.81 483.729 4089
1690.59 483.729 4089
1700.37 483.729 4089
1768.82 483.729 4089
1778.59 483.729 4089
1788.37 483.729 4089
1798.15 483.729 4089
1807.93 483.729 4089
1813.26 482.546 4079
1814.08 480.18 4059
1828.28 481.363 4069
1842.52 482.546 4079
1852.28 482.546 4079
1862.03 482.546 4079
1871.79 482.546 4079
1881.54 482.546 4079
1886.66 481.363 4069
1878.21 476.749 4030
1883.16 475.566 4020
1892.78 475.566 4020
1902.39 475.566 4020
1912 475.566 4020
1912.53 473.318 4001
1876.94 462.198 3907
1886.29 462.198 3907
1843.71 449.54 3800
1831.83 444.453 3757
1824.65 440.549 3724
1833.56 440.549 3724
1826.13 436.645 3691
1814.58 431.795 3650
1788.34 423.514 3580
1777.83 419.018 3542
1786.3 419.018 3542
1787.16 417.244 3527
1787.96 415.469 3512
1792.78 414.641 3505
1801.16 414.641 3505
1794.57 411.211 3476
1795.1 409.436 3461
1807.03 410.264 3468
1815.32 410.264 3468
1823.61 410.264 3468
1831.91 410.264 3468
1840.2 410.264 3468
1852.76 411.211 3476
1861.07 411.211 3476
1869.38 411.211 3476
1877.69 411.211 3476
1877.87 409.436 3461
1886.14 409.436 3461
1879.09 406.124 3433
527.508 87.8969 743
529.285 87.8969 743
531.061 87.8969 743
532.838 87.8969 743
534.615 87.8969 743
535.67 87.7786 742
537.444 87.7786 742
539.218 87.7786 742
540.993 87.7786 742
543.499 87.8969 743
545.275 87.8969 743
547.052 87.8969 743
548.09 87.7786 742
549.865 87.7786 742
551.639 87.7786 742
553.413 87.7786 742
555.936 87.8969 743
557.713 87.8969 743
559.489 87.8969 743
561.266 87.8969 743
563.801 88.0152 744
565.58 88.0152 744
567.359 88.0152 744
569.138 88.0152 744
-2291.85 369.449 3061
-2292.74 370.776 3072
-2285.39 370.776 3072
-2290.65 372.828 3089
-2283.26 372.828 3089
-2275.88 372.828 3089
-2268.49 372.828 3089
-2261.1 372.828 3089
-2258.09 373.552 3095
-2255.06 374.277 3101
-2247.64 374.277 3101
-2244.56 375.001 3107
-2253.69 377.777 3130
-2259.12 379.949 3148
-2251.6 379.949 3148
-2278.28 385.743 3196
-2270.64 385.743 3196
-2321.06 395.64 3278
-2313.22 395.64 3278
-2309.6 396.364 3284
-2301.75 396.364 3284
-2293.9 396.364 3284
-2669.6 462.867 3835
-2660.43 462.867 3835
-2651.26 462.867 3835
-2642.09 462.867 3835
-2626.74 461.781 3826
-2582.02 455.505 3774
-2572.99 455.505 3774
-2546.98 452.487 3749
-2521.09 449.47 3724
-2489.93 445.487 3691
-2481.1 445.487 3691
-2472.27 445.487 3691
-2447.43 442.59 3667
-2406.74 436.797 3619
-2398.09 436.797 3619
-2373.59 433.9 3595
-2349.86 431.124 3572
-2336.73 430.279 3565
-2332.77 431.124 3572
-2329.44 432.09 3580
-2320.88 432.09 3580
-2312.32 432.09 3580
-2298.61 431.124 3572
-2290.07 431.124 3572
-2281.52 431.124 3572
-2287.62 433.9 3595
-2284.09 434.866 3603
-2295.69 438.728 3635
-2286.99 438.728 3635
-2303.37 443.556 3675
-2314.56 447.418 3707
-2305.7 447.418 3707
-2296.84 447.418 3707
-1888.48 433.055 3588
-1879.9 433.055 3588
-1895.84 438.728 3635
-1887.14 438.728 3635
-1878.45 438.728 3635
-1869.76 438.728 3635
-1877.45 442.59 3667
-1868.68 442.59 3667
-1884.77 448.504 3716
-1875.88 448.504 3716
-1875.03 450.435 3732
-1866.11 450.435 3732
-1857.18 450.435 3732
-1848.26 450.435 3732
-1835.39 449.47 3724
-1818.15 447.418 3707
-1809.28 447.418 3707
-1792.65 445.487 3691
-1783.82 445.487 3691
-1775 445.487 3691
-1822.63 459.729 3809
-1813.53 459.729 3809
-1829.52 466.126 3862
-1820.29 466.126 3862
-1811.05 466.126 3862
-1797.62 465.04 3853
-1775.87 461.781 3826
-1763.03 460.815 3818
-1753.9 460.815 3818
-1736.55 458.643 3800
-1715.64 455.505 3774
-1703 454.539 3766
-1701.64 456.591 3783
-1696.62 457.677 3792
-1687.55 457.677 3792
-1678.48 457.677 3792
-1669.41 457.677 3792
-1675.23 461.781 3826
-1666.08 461.781 3826
-1656.94 461.781 3826
-1633.14 457.677 3792
-1624.08 457.677 3792
-1615.01 457.677 3792
-1598.32 455.505 3774
-1600.24 458.643 3800
-1591.15 458.643 3800
-1582.07 458.643 3800
-1613.55 470.471 3898
-1607.93 471.557 3907
-1598.59 471.557 3907
-1589.24 471.557 3907
-686.101 226.183 1874
-681.62 226.183 1874
-677.139 226.183 1874
-671.222 225.701 1870
-666.75 225.701 1870
-661.57 225.459 1868
-655.696 224.976 1864
-644.6 222.683 1845
-640.188 222.683 1845
-633.02 221.718 1837
-627.943 221.476 1835
-623.554 221.476 1835
-619.166 221.476 1835
-614.778 221.476 1835
-608.395 220.752 1829
-601.379 219.786 1821
-597.024 219.786 1821
-590.717 219.062 1815
-583.146 217.855 1805
-576.585 217.01 1798
-566.556 214.838 1780
-562.3 214.838 1780
-555.849 213.993 1773
-548.498 212.786 1763
-541.503 211.7 1754
-537.309 211.7 1754
-532.507 211.458 1752
-527.412 211.096 1749
-522.033 210.614 1745
-517.861 210.614 1745
-513.099 210.372 1743
-508.055 210.01 1740
-502.736 209.527 1736
-498.584 209.527 1736
-493.294 209.045 1732
-487.74 208.441 1727
-482.49 207.958 1723
-478.37 207.958 1723
-473.424 207.596 1720
-468.765 207.355 1718
-463.305 206.751 1713
-458.136 206.269 1709
-454.049 206.269 1709
-448.646 205.665 1704
-443.789 205.303 1701
-438.687 204.82 1697
-434.629 204.82 1697
-429.302 204.217 1692
-424.754 203.975 1690
-419.965 203.613 1687
-415.931 203.613 1687
-410.676 203.01 1682
-405.687 202.527 1678
-400.238 201.803 1672
-396.24 201.803 1672
-391.773 201.561 1670
-387.315 201.32 1668
-383.326 201.32 1668
-379.337 201.32 1668
-375.349 201.32 1668
-371.36 201.32 1668
-366.711 200.958 1665
-362.729 200.958 1665
-359.178 201.199 1667
-355.192 201.199 1667
-351.206 201.199 1667
-347.428 201.32 1668
-343.439 201.32 1668
-339.45 201.32 1668
-335.462 201.32 1668
-331.473 201.32 1668
-327.484 201.32 1668
-323.496 201.32 1668
-319.315 201.199 1667
-315.518 201.32 1668
-311.903 201.561 1670
-307.91 201.561 1670
-303.916 201.561 1670
-300.282 201.803 1672
-296.284 201.803 1672
-292.285 201.803 1672
-288.287 201.803 1672
-284.289 201.803 1672
-280.291 201.803 1672
-276.292 201.803 1672
-272.294 201.803 1672
-268.296 201.803 1672
-264.297 201.803 1672
-260.299 201.803 1672
-256.761 202.165 1675
-252.755 202.165 1675
-248.75 202.165 1675
-244.745 202.165 1675
-240.739 202.165 1675
-236.734 202.165 1675
-232.728 202.165 1675
-228.723 202.165 1675
-224.717 202.165 1675
-220.712 202.165 1675
-216.707 202.165 1675
-212.701 202.165 1675
-208.696 202.165 1675
-204.69 202.165 1675
-200.445 201.924 1673
-196.445 201.924 1673
-192.099 201.561 1670
-188.105 201.561 1670
-184.112 201.561 1670
-180.118 201.561 1670
-175.914 201.32 1668
-171.822 201.199 1667
-167.332 200.596 1662
-163.358 200.596 1662
-159.384 200.596 1662
-155.503 200.717 1663
-151.891 201.199 1667
-147.904 201.199 1667
-143.918 201.199 1667
-139.932 201.199 1667
-135.945 201.199 1667
-131.959 201.199 1667
-127.819 200.958 1665
-123.838 200.958 1665
-119.856 200.958 1665
-116.084 201.32 1668
-112.095 201.32 1668
-108.56 202.165 1675
-104.554 202.165 1675
-100.549 202.165 1675
-96.5435 202.165 1675
-92.5381 202.165 1675
-179.756 474.937 3935
-170.347 474.937 3935
-160.937 474.937 3935
-151.527 474.937 3935
-143.454 479.402 3972
-133.955 479.402 3972
-125.052 481.696 3991
-115.509 481.696 3991
-105.965 481.696 3991
-96.4213 481.696 3991
-87.0953 482.903 4001
-77.7021 483.989 4010
-68.6056 487.489 4039
-58.9471 487.489 4039
-49.2886 487.489 4039
291.618 492.317 4079
301.372 492.317 4079
311.126 492.317 4079
317.733 487.489 4039
327.392 487.489 4039
333.879 482.903 4001
342.588 481.696 3991
347.191 474.937 3935
359.138 478.316 3963
368.615 478.316 3963
378.092 478.316 3963
387.569 478.316 3963
395.142 476.023 3944
404.573 476.023 3944
408.231 469.385 3889
410.767 461.781 3826
410.477 451.401 3740
419.421 451.401 3740
423.668 446.453 3699
428.772 442.59 3667
428.95 433.9 3595
434.747 431.124 3572
443.289 431.124 3572
445.253 424.848 3520
449.804 421.227 3490
457.231 420.382 3483
465.56 420.382 3483
473.889 420.382 3483
478.203 416.882 3454
494.631 423.882 3512
507.326 427.503 3542
515.796 427.503 3542
524.266 427.503 3542
533.789 428.348 3549
543.498 429.314 3557
552.004 429.314 3557
571.54 437.762 3627
598.29 451.401 3740
607.234 451.401 3740
616.177 451.401 3740
679.839 483.989 4010
696.133 488.696 4049
705.815 488.696 4049
717.265 489.903 4059
726.971 489.903 4059
736.678 489.903 4059
746.384 489.903 4059
752.365 487.489 4039
763.91 488.696 4049
775.503 489.903 4059
785.209 489.903 4059
794.915 489.903 4059
806.604 491.11 4069
816.334 491.11 4069
826.064 491.11 4069
839.903 493.524 4089
849.681 493.524 4089
859.459 493.524 4089
869.237 493.524 4089
879.015 493.524 4089
886.619 492.317 4079
898.571 493.524 4089
908.349 493.524 4089
918.127 493.524 4089
927.905 493.524 4089
935.39 492.317 4079
945.144 492.317 4079
938.745 483.989 4010
946.206 482.903 4001
953.385 481.696 3991
972.338 486.403 4030
981.975 486.403 4030
991.612 486.403 4030
1001.25 486.403 4030
1010.89 486.403 4030
1013.18 482.903 4001
1022.75 482.903 4001
1029.73 481.696 3991
1039.28 481.696 3991
1048.82 481.696 3991
1055.98 480.609 3982
1060.42 478.316 3963
1064.76 476.023 3944
1074.2 476.023 3944
1078.41 473.73 3925
1077.81 469.385 3889
1094.66 472.643 3916
1111.92 476.023 3944
1121.35 476.023 3944
1136.23 478.316 3963
1145.71 478.316 3963
1155.18 478.316 3963
1164.66 478.316 3963
1165.84 474.937 3935
1175.25 474.937 3935
1184.66 474.937 3935
1191.04 473.73 3925
1197.67 472.643 3916
1204.26 471.557 3907
1213.6 471.557 3907
1225.76 472.643 3916
1235.13 472.643 3916
1253.39 476.023 3944
1268.9 478.316 3963
1281.28 479.402 3972
1290.78 479.402 3972
1303.55 480.609 3982
1313.08 480.609 3982
1322.6 480.609 3982
1325.77 478.316 3963
1335.24 478.316 3963
1341.33 477.109 3953
1350.78 477.109 3953
1357.13 476.023 3944
1386.32 482.903 4001
1402.51 485.196 4020
1415.64 486.403 4030
1425.27 486.403 4030
1445.24 489.903 4059
1462.11 492.317 4079
1471.87 492.317 4079
1481.62 492.317 4079
1495.03 493.524 4089
1504.81 493.524 4089
1514.59 493.524 4089
1513.18 489.903 4059
1519.14 488.696 4049
1525.04 487.489 4039
1538.5 488.696 4049
1559.65 492.317 4079
1569.41 492.317 4079
1579.16 492.317 4079
1768.82 493.524 4089
1778.59 493.524 4089
1788.37 493.524 4089
1798.15 493.524 4089
1807.93 493.524 4089
1813.26 492.317 4079
1814.08 489.903 4059
1828.28 491.11 4069
1842.52 492.317 4079
1852.28 492.317 4079
1862.03 492.317 4079
1871.79 492.317 4079
1881.54 492.317 4079
1886.66 491.11 4069
1878.21 486.403 4030
1883.16 485.196 4020
1892.78 485.196 4020
1902.39 485.196 4020
1912 485.196 4020
1912.53 482.903 4001
1876.94 471.557 3907
1886.29 471.557 3907
1843.71 458.643 3800
1831.83 453.453 3757
1824.65 449.47 3724
1833.56 449.47 3724
1826.13 445.487 3691
1814.58 440.538 3650
1788.34 432.09 3580
1785.35 429.314 3557
1793.86 429.314 3557
1787.16 425.693 3527
1787.96 423.882 3512
1792.78 423.038 3505
1801.16 423.038 3505
1794.57 419.537 3476
1795.1 417.727 3461
1807.03 418.572 3468
1815.32 418.572 3468
1823.61 418.572 3468
1831.91 418.572 3468
1840.2 418.572 3468
1852.76 419.537 3476
1861.07 419.537 3476
1869.38 419.537 3476
1877.69 419.537 3476
1877.87 417.727 3461
1886.14 417.727 3461
1879.09 414.348 3433
2492.39 493.524 4089
2502.17 493.524 4089
2511.95 493.524 4089
527.508 89.6767 743
529.285 89.6767 743
531.061 89.6767 743
532.838 89.6767 743
534.615 89.6767 743
535.67 89.556 742
537.444 89.556 742
538.492 89.4353 741
540.993 89.556 742
542.767 89.556 742
544.542 89.556 742
546.316 89.556 742
548.09 89.556 742
549.865 89.556 742
551.639 89.556 742
553.413 89.556 742
555.188 89.556 742
556.962 89.556 742
558.736 89.556 742
561.266 89.6767 743
563.043 89.6767 743
565.58 89.7974 744
567.359 89.7974 744
569.138 89.7974 744
-2296.34 377.52 3067
-2289 377.52 3067
-2281.67 377.52 3067
-2290.65 380.228 3089
-2287.7 380.967 3095
-2280.3 380.967 3095
-2272.9 380.967 3095
-2261.1 380.228 3089
-2258.09 380.967 3095
-2259.42 382.444 3107
-2251.99 382.444 3107
-2252.51 383.798 3118
-2266.65 387.49 3148
-2267.73 388.967 3160
-2260.18 388.967 3160
-2336.74 403.492 3278
-2328.9 403.492 3278
-2321.06 403.492 3278
-2552.67 448.297 3642
-2543.96 448.297 3642
-2669.6 472.054 3835
-2660.43 472.054 3835
-2651.26 472.054 3835
-2642.09 472.054 3835
-2626.74 470.946 3826
-2588.17 465.653 3783
-2579.13 465.653 3783
-2546.98 461.468 3749
-2521.09 458.391 3724
-2489.93 454.329 3691
-2481.1 454.329 3691
-2472.27 454.329 3691
-2447.43 451.375 3667
-2406.74 445.466 3619
-2398.09 445.466 3619
-2373.59 442.512 3595
-2349.86 439.681 3572
-2336.73 438.819 3565
-2332.77 439.681 3572
-2329.44 440.666 3580
-2320.88 440.666 3580
-2312.32 440.666 3580
-2298.61 439.681 3572
-2290.07 439.681 3572
-2281.52 439.681 3572
-2283.16 441.65 3588
-2284.09 443.497 3603
-2295.69 447.436 3635
-2286.99 447.436 3635
-2303.37 452.359 3675
-2345.78 462.453 3757
-2336.8 462.453 3757
-2343.92 465.653 3783
-2334.88 465.653 3783
-2325.83 465.653 3783
-1913.22 447.436 3635
-1904.53 447.436 3635
-1895.84 447.436 3635
-1887.14 447.436 3635
-1882.07 448.297 3642
-1873.36 448.297 3642
-1877.45 451.375 3667
-1893.65 457.406 3716
-1901.5 461.468 3749
-1892.54 461.468 3749
-1887.59 462.453 3757
-1878.61 462.453 3757
-1869.62 462.453 3757
-1860.64 462.453 3757
-1847.71 461.468 3749
-1830.41 459.376 3732
-1821.49 459.376 3732
-1808.68 458.391 3724
-1807.5 460.36 3740
-1798.56 460.36 3740
-1878.14 483.132 3925
-1868.76 483.132 3925
-1859.37 483.132 3925
-1849.98 483.132 3925
-1840.6 483.132 3925
-1831.21 483.132 3925
-1813.47 480.916 3907
-1804.13 480.916 3907
-1794.79 480.916 3907
-1764.88 475.377 3862
-1743.37 472.054 3835
-1718.37 467.746 3800
-1709.28 467.746 3800
-1696.62 466.761 3792
-1687.55 466.761 3792
-1670.51 464.545 3774
-1672.94 467.746 3800
-1679.17 472.054 3835
-1670 472.054 3835
-1660.83 472.054 3835
-1644.34 469.961 3818
-1635.21 469.961 3818
-1615.01 466.761 3792
-1602.13 465.653 3783
-1600.24 467.746 3800
-1594.92 468.854 3809
-1585.81 468.854 3809
-1613.55 479.809 3898
-1646.61 492.487 4001
-1640.73 493.595 4010
-1631.14 493.595 4010
-1621.55 493.595 4010
-686.101 230.673 1874
-681.62 230.673 1874
-677.139 230.673 1874
-671.222 230.18 1870
-666.75 230.18 1870
-661.57 229.934 1868
-655.696 229.442 1864
-645.299 227.349 1847
-640.882 227.349 1847
-633.02 226.118 1837
-627.943 225.872 1835
-623.554 225.872 1835
-619.166 225.872 1835
-614.108 225.626 1833
-608.395 225.133 1829
-601.379 224.149 1821
-597.024 224.149 1821
-590.717 223.41 1815
-583.146 222.179 1805
-576.585 221.318 1798
-566.556 219.102 1780
-562.3 219.102 1780
-555.849 218.24 1773
-549.12 217.256 1765
-543.356 216.64 1760
-539.147 216.64 1760
-533.115 215.902 1754
-528.016 215.532 1751
-523.23 215.286 1749
-519.048 215.286 1749
-513.688 214.794 1745
-508.931 214.548 1743
-503.894 214.178 1740
-499.733 214.178 1740
-494.433 213.686 1736
-488.87 213.07 1731
-483.05 212.332 1725
-478.925 212.332 1725
-474.25 212.086 1723
-469.311 211.716 1720
-463.846 211.101 1715
-459.208 210.855 1713
-455.112 210.855 1713
-449.963 210.362 1709
-444.571 209.747 1704
-439.721 209.378 1701
-435.653 209.378 1701
-431.078 209.132 1699
-426.01 208.639 1695
-421.21 208.27 1692
-417.164 208.27 1692
-411.897 207.654 1687
-406.654 207.039 1682
-401.675 206.547 1678
-397.662 206.547 1678
-392.946 206.177 1675
-387.779 205.562 1670
-383.786 205.562 1670
-380.247 205.808 1672
-376.249 205.808 1672
-372.25 205.808 1672
-368.252 205.808 1672
-364.254 205.808 1672
-360.256 205.808 1672
-355.405 205.316 1668
-351.416 205.316 1668
-347.844 205.562 1670
-343.851 205.562 1670
-339.857 205.562 1670
-335.864 205.562 1670
-331.87 205.562 1670
-327.877 205.562 1670
-323.883 205.562 1670
-319.89 205.562 1670
-315.897 205.562 1670
-311.903 205.562 1670
-307.91 205.562 1670
-303.916 205.562 1670
-300.282 205.808 1672
-296.284 205.808 1672
-292.285 205.808 1672
-288.287 205.808 1672
-284.289 205.808 1672
-280.291 205.808 1672
-276.292 205.808 1672
-272.294 205.808 1672
-268.296 205.808 1672
-264.297 205.808 1672
-260.299 205.808 1672
-256.761 206.177 1675
-252.755 206.177 1675
-248.75 206.177 1675
-244.745 206.177 1675
-240.739 206.177 1675
-236.734 206.177 1675
-232.728 206.177 1675
-228.723 206.177 1675
-224.717 206.177 1675
-220.712 206.177 1675
-216.707 206.177 1675
-212.701 206.177 1675
-208.696 206.177 1675
-204.69 206.177 1675
-200.445 205.931 1673
-196.445 205.931 1673
-192.099 205.562 1670
-188.105 205.562 1670
-183.891 205.316 1668
-179.903 205.316 1668
-175.914 205.316 1668
-171.822 205.193 1667
-167.131 204.331 1660
-163.358 204.577 1662
-159.384 204.577 1662
-155.409 204.577 1662
-151.891 205.193 1667
-147.904 205.193 1667
-143.918 205.193 1667
-139.932 205.193 1667
-135.945 205.193 1667
-131.959 205.193 1667
-127.819 204.946 1665
-123.838 204.946 1665
-119.856 204.946 1665
-116.084 205.316 1668
-112.095 205.316 1668
-108.43 205.931 1673
-104.554 206.177 1675
-100.549 206.177 1675
-96.5435 206.177 1675
-92.4276 205.931 1673
-179.3 483.132 3925
-169.914 483.132 3925
-160.528 483.132 3925
-151.527 484.363 3935
-143.454 488.917 3972
-133.955 488.917 3972
-125.052 491.256 3991
-115.798 492.487 4001
-106.231 492.487 4001
-96.6629 492.487 4001
-87.0953 492.487 4001
-77.8959 494.826 4020
-69.4549 503.319 4089
-59.6768 503.319 4089
-49.8988 503.319 4089
290.188 499.626 4059
299.894 499.626 4059
309.6 499.626 4059
317.733 497.164 4039
327.392 497.164 4039
333.879 492.487 4001
341.816 490.148 3982
347.191 484.363 3935
359.138 487.81 3963
368.615 487.81 3963
378.092 487.81 3963
387.569 487.81 3963
395.142 485.471 3944
404.573 485.471 3944
408.231 478.701 3889
410.767 470.946 3826
409.599 459.376 3732
418.524 459.376 3732
421.836 453.344 3683
426.784 449.282 3650
428.115 441.65 3588
433.895 438.819 3565
442.42 438.819 3565
445.253 433.28 3520
451.737 431.434 3505
457.231 428.726 3483
465.56 428.726 3483
472.936 427.864 3476
481.248 427.864 3476
493.645 431.434 3505
505.178 434.142 3527
513.612 434.142 3527
523.082 435.004 3534
532.736 435.988 3542
542.276 436.85 3549
550.762 436.85 3549
567.758 443.497 3603
598.29 460.36 3740
607.234 460.36 3740
616.177 460.36 3740
683.229 496.057 4030
699.572 500.857 4069
709.302 500.857 4069
719.032 500.857 4069
728.762 500.857 4069
738.492 500.857 4069
748.223 500.857 4069
757.953 500.857 4069
767.683 500.857 4069
777.413 500.857 4069
787.144 500.857 4069
794.915 499.626 4059
839.903 503.319 4089
849.681 503.319 4089
859.459 503.319 4089
869.237 503.319 4089
879.015 503.319 4089
888.793 503.319 4089
898.571 503.319 4089
908.349 503.319 4089
918.127 503.319 4089
925.636 502.088 4079
935.39 502.088 4079
945.144 502.088 4079
950.216 499.626 4059
955.193 497.164 4039
960.312 494.826 4020
969.925 494.826 4020
977.102 493.595 4010
986.691 493.595 4010
994.044 492.487 4001
1003.61 492.487 4001
1005.84 488.917 3972
1010.48 486.579 3953
1022.51 487.81 3963
1031.99 487.81 3963
1041.46 487.81 3963
1048.29 486.579 3953
1055.33 485.471 3944
1054.78 480.916 3907
1064.12 480.916 3907
1068.52 478.701 3889
1075.32 477.593 3880
1084.6 477.593 3880
1098.95 479.809 3898
1108.27 479.809 3898
1122.76 482.024 3916
1134.72 483.132 3925
1144.11 483.132 3925
1153.49 483.132 3925
1160.21 482.024 3916
1164.2 479.809 3898
1173.52 479.809 3898
1182.84 479.809 3898
1189.41 478.701 3889
1198.71 478.701 3889
1208.01 478.701 3889
1222.95 480.916 3907
1232.29 480.916 3907
1253.39 485.471 3944
1265.7 486.579 3953
1278.38 487.81 3963
1287.86 487.81 3963
1297.34 487.81 3963
1306.81 487.81 3963
1316.29 487.81 3963
1325.77 487.81 3963
1335.24 487.81 3963
1338.27 485.471 3944
1347.7 485.471 3944
1357.13 485.471 3944
1386.32 492.487 4001
1402.51 494.826 4020
1415.64 496.057 4030
1425.27 496.057 4030
1445.24 499.626 4059
1462.11 502.088 4079
1471.87 502.088 4079
1481.62 502.088 4079
1495.03 503.319 4089
1504.81 503.319 4089
1514.59 503.319 4089
1513.18 499.626 4059
1519.14 498.395 4049
1521.64 496.057 4030
1538.5 498.395 4049
1559.65 502.088 4079
1569.41 502.088 4079
1579.16 502.088 4079
1588.92 502.088 4079
1598.67 502.088 4079
1641.7 503.319 4089
1651.48 503.319 4089
1661.26 503.319 4089
1666.95 502.088 4079
1676.7 502.088 4079
1686.46 502.088 4079
1696.21 502.088 4079
1705.97 502.088 4079
1715.72 502.088 4079
1725.47 502.088 4079
1735.23 502.088 4079
1788.37 503.319 4089
1798.15 503.319 4089
1807.93 503.319 4089
1817.71 503.319 4089
1818.55 500.857 4069
1832.77 502.088 4079
1847.04 503.319 4089
1856.82 503.319 4089
1866.6 503.319 4089
1871.79 502.088 4079
1881.54 502.088 4079
1891.29 502.088 4079
1882.41 497.164 4039
1892.06 497.164 4039
1901.72 497.164 4039
1911.38 497.164 4039
1921.04 497.164 4039
1912.53 492.487 4001
1890.39 484.363 3935
1899.8 484.363 3935
1882.53 477.593 3880
1840.12 464.545 3774
1832.49 460.36 3740
1841.43 460.36 3740
1834.05 456.298 3707
1823.03 451.375 3667
1792.33 441.65 3588
1785.35 437.835 3557
1793.86 437.835 3557
1787.16 434.142 3527
1787.96 432.296 3512
1788.69 430.449 3497
1797.05 430.449 3497
1794.57 427.864 3476
1795.1 426.018 3461
1807.03 426.88 3468
1815.32 426.88 3468
1823.61 426.88 3468
1831.91 426.88 3468
1836.48 426.018 3461
1852.76 427.864 3476
1861.07 427.864 3476
1869.38 427.864 3476
1877.69 427.864 3476
1874.07 425.156 3454
1882.33 425.156 3454
1879.09 422.571 3433
2492.39 503.319 4089
2502.17 503.319 4089
2511.95 503.319 4089
527.508 91.4566 743
529.285 91.4566 743
531.061 91.4566 743
532.121 91.3335 742
533.895 91.3335 742
535.67 91.3335 742
536.72 91.2104 741
538.492 91.2104 741
540.993 91.3335 742
542.767 91.3335 742
544.542 91.3335 742
546.316 91.3335 742
548.09 91.3335 742
549.865 91.3335 742
550.895 91.2104 741
552.667 91.2104 741
555.188 91.3335 742
556.962 91.3335 742
558.736 91.3335 742
560.511 91.3335 742
563.043 91.4566 743
564.819 91.4566 743
566.596 91.4566 743
568.373 91.4566 743
-2304.57 386.247 3078
-2301.69 387 3084
-2294.32 387 3084
-2295.1 388.381 3095
-2296.57 389.887 3107
-2289.14 389.887 3107
-2281.71 389.887 3107
-2269.89 389.134 3101
-2270.5 390.514 3112
-2267.42 391.267 3118
-2259.96 391.267 3118
-2252.51 391.267 3118
-2266.65 395.031 3148
-2293.57 401.055 3196
-2285.93 401.055 3196
-2354.56 414.482 3303
-2346.66 414.482 3303
-2338.76 414.482 3303
-2485.43 443.469 3534
-2558.28 458.026 3650
-2549.55 458.026 3650
-2669.6 481.241 3835
-2672.92 483.499 3853
-2663.71 483.499 3853
-2654.49 483.499 3853
-2645.28 483.499 3853
-2605.96 477.978 3809
-2596.85 477.978 3809
-2546.98 470.449 3749
-2521.09 467.312 3724
-2489.93 463.171 3691
-2481.1 463.171 3691
-2472.27 463.171 3691
-2447.43 460.159 3667
-2406.74 454.136 3619
-2398.09 454.136 3619
-2373.59 451.124 3595
-2349.86 448.238 3572
-2336.73 447.359 3565
-2332.77 448.238 3572
-2329.44 449.242 3580
-2320.88 449.242 3580
-2312.32 449.242 3580
-2298.61 448.238 3572
-2290.07 448.238 3572
-2281.52 448.238 3572
-2283.16 450.246 3588
-2284.09 452.128 3603
-2295.69 456.143 3635
-2286.99 456.143 3635
-2303.37 461.163 3675
-2345.78 471.453 3757
-2336.8 471.453 3757
-2343.92 474.715 3783
-2334.88 474.715 3783
-2325.83 474.715 3783
-1916.91 457.022 3642
-1908.2 457.022 3642
-1899.49 457.022 3642
-1899.09 459.03 3658
-1890.34 459.03 3658
-1881.59 459.03 3658
-1902.54 466.308 3716
-1910.47 470.449 3749
-1905.56 471.453 3757
-1896.58 471.453 3757
-1896.13 473.586 3774
-1887.11 473.586 3774
-1878.08 473.586 3774
-1869.06 473.586 3774
-1860.04 473.586 3774
-1838.75 470.449 3749
-1829.78 470.449 3749
-1820.82 470.449 3749
-1820.07 472.582 3766
-1874.54 489.146 3898
-1887.23 494.919 3944
-1877.8 494.919 3944
-1881.63 498.432 3972
-1872.14 498.432 3972
-1862.64 498.432 3972
-1844.28 496.048 3953
-1830.64 494.919 3944
-1808.28 491.405 3916
-1798.92 491.405 3916
-1785.44 490.276 3907
-1755.64 484.629 3862
-1738.27 482.37 3844
-1729.08 482.37 3844
-1708.25 479.107 3818
-1691.11 476.849 3800
-1689.99 479.107 3818
-1684.38 480.111 3826
-1679.17 481.241 3835
-1681.76 484.629 3862
-1672.53 484.629 3862
-1663.29 484.629 3862
-1650.2 483.499 3853
-1626.08 479.107 3818
-1605.94 475.845 3792
-1600.24 476.849 3800
-1594.92 477.978 3809
-1585.81 477.978 3809
-1617.27 490.276 3907
-1650.32 503.201 4010
-1644.82 504.456 4020
-1635.21 504.456 4020
-1629.64 505.711 4030
-1620 505.711 4030
-1610.36 505.711 4030
-686.101 235.162 1874
-681.62 235.162 1874
-677.139 235.162 1874
-671.222 234.66 1870
-666.75 234.66 1870
-661.57 234.409 1868
-655.696 233.907 1864
-645.299 231.774 1847
-640.882 231.774 1847
-633.02 230.519 1837
-627.943 230.268 1835
-623.554 230.268 1835
-619.166 230.268 1835
-614.108 230.017 1833
-608.395 229.515 1829
-601.379 228.511 1821
-597.024 228.511 1821
-590.717 227.758 1815
-583.146 226.503 1805
-576.585 225.625 1798
-566.556 223.366 1780
-562.3 223.366 1780
-557.103 222.989 1777
-550.987 222.237 1771
-543.356 220.856 1760
-539.147 220.856 1760
-533.722 220.354 1756
-528.317 219.852 1752
-523.828 219.727 1751
-519.641 219.727 1751
-514.865 219.476 1749
-509.515 218.974 1745
-504.763 218.723 1743
-500.595 218.723 1743
-495.572 218.346 1740
-490.282 217.845 1736
-484.17 216.966 1729
-480.036 216.966 1729
-474.8 216.464 1725
-470.13 216.213 1723
-465.198 215.837 1720
-460.549 215.586 1718
-456.44 215.586 1718
-451.016 214.958 1713
-445.876 214.456 1709
-441.014 214.08 1706
-436.934 214.08 1706
-431.84 213.578 1702
-427.518 213.453 1701
-421.957 212.7 1695
-417.904 212.7 1695
-413.118 212.323 1692
-407.863 211.696 1687
-402.632 211.068 1682
-398.61 211.068 1682
-393.649 210.566 1678
-389.405 210.441 1677
-384.935 210.19 1675
-380.929 210.19 1675
-376.474 209.939 1673
-372.473 209.939 1673
-368.252 209.813 1672
-364.254 209.813 1672
-360.256 209.813 1672
-356.257 209.813 1672
-352.259 209.813 1672
-348.261 209.813 1672
-344.263 209.813 1672
-340.264 209.813 1672
-336.266 209.813 1672
-332.268 209.813 1672
-328.27 209.813 1672
-323.883 209.562 1670
-319.89 209.562 1670
-315.897 209.562 1670
-311.903 209.562 1670
-307.91 209.562 1670
-303.916 209.562 1670
-300.282 209.813 1672
-296.284 209.813 1672
-292.285 209.813 1672
-288.287 209.813 1672
-284.289 209.813 1672
-280.291 209.813 1672
-276.292 209.813 1672
-272.294 209.813 1672
-268.296 209.813 1672
-264.297 209.813 1672
-260.299 209.813 1672
-256.761 210.19 1675
-252.755 210.19 1675
-248.75 210.19 1675
-244.745 210.19 1675
-240.739 210.19 1675
-236.451 209.939 1673
-232.728 210.19 1675
-228.723 210.19 1675
-224.717 210.19 1675
-220.712 210.19 1675
-216.707 210.19 1675
-212.701 210.19 1675
-208.696 210.19 1675
-204.69 210.19 1675
-200.685 210.19 1675
-196.679 210.19 1675
-192.099 209.562 1670
-188.105 209.562 1670
-184.112 209.562 1670
-180.118 209.562 1670
-175.914 209.311 1668
-171.822 209.186 1667
-167.131 208.308 1660
-163.358 208.559 1662
-159.384 208.559 1662
-155.409 208.559 1662
-151.891 209.186 1667
-147.904 209.186 1667
-143.918 209.186 1667
-139.932 209.186 1667
-135.945 209.186 1667
-131.959 209.186 1667
-127.819 208.935 1665
-123.838 208.935 1665
-119.856 208.935 1665
-116.084 209.311 1668
-112.095 209.311 1668
-108.365 209.813 1672
-104.554 210.19 1675
-100.549 210.19 1675
-96.5435 210.19 1675
-92.4276 209.939 1673
-179.3 492.534 3925
-169.914 492.534 3925
-160.937 493.789 3935
-152.22 496.048 3953
-144.14 500.817 3991
-134.596 500.817 3991
-125.648 503.201 4010
-116.348 504.456 4020
-107.239 506.84 4039
-97.581 506.84 4039
-88.1402 508.095 4049
-79.2329 513.114 4089
-69.4549 513.114 4089
-59.6768 513.114 4089
-49.8988 513.114 4089
281.172 510.605 4069
290.903 510.605 4069
300.633 510.605 4069
308.075 506.84 4039
314.744 502.071 4001
324.312 502.071 4001
332.294 499.687 3982
339.327 496.048 3953
344.721 490.276 3907
356.601 493.789 3935
368.615 497.303 3963
378.092 497.303 3963
387.569 497.303 3963
391.435 490.276 3907
400.778 490.276 3907
406.341 485.758 3871
407.976 476.849 3800
407.843 466.308 3716
416.729 466.308 3716
421.836 462.167 3683
425.849 457.022 3642
428.95 451.124 3595
434.747 448.238 3572
443.289 448.238 3572
448.036 444.473 3542
452.64 440.709 3512
460.119 439.83 3505
468.5 439.83 3505
472.936 436.191 3476
482.218 437.069 3483
494.631 440.709 3512
505.178 442.591 3527
513.612 442.591 3527
522.046 442.591 3527
532.736 444.473 3542
542.276 445.352 3549
550.762 445.352 3549
567.758 452.128 3603
598.29 469.319 3740
