ply
format ascii 1.0
comment File generated
element vertex 2261
property float x
property float y
property float z
end_header
1928.04 580.436 3650
1936.77 580.436 3650
1949.76 581.708 3658
1958.51 581.708 3658
1976.4 584.412 3675
1998.15 588.228 3699
2016.22 590.932 3716
2047.45 597.452 3757
2061.36 598.883 3766
2133.04 617.012 3880
2182.63 628.62 3953
2192.08 628.62 3953
2212.11 631.642 3972
2227.21 633.232 3982
2252.46 637.685 4010
2267.69 639.275 4020
2277.3 639.275 4020
2292.6 640.865 4030
2302.24 640.865 4030
2311.87 640.865 4030
2309.99 637.685 4010
2319.58 637.685 4010
2329.17 637.685 4010
2338.76 637.685 4010
2348.35 637.685 4010
2374.99 642.296 4039
2396.45 645.477 4059
2412.09 647.067 4069
2421.82 647.067 4069
2431.55 647.067 4069
2435.28 645.477 4059
2444.99 645.477 4059
2448.65 643.887 4049
2452.26 642.296 4039
2468.01 643.887 4049
2477.69 643.887 4049
2487.37 643.887 4049
2497.06 643.887 4049
2500.55 642.296 4039
2504.61 640.865 4030
2514.25 640.865 4030
2523.89 640.865 4030
2527.24 639.275 4020
2536.85 639.275 4020
2546.46 639.275 4020
2556.08 639.275 4020
2565.69 639.275 4020
2575.3 639.275 4020
2584.92 639.275 4020
2545.48 627.189 3944
2536.77 622.736 3916
2546.14 622.736 3916
2555.5 622.736 3916
2564.86 622.736 3916
523.249 117.996 742
525.024 117.996 742
526.798 117.996 742
528.572 117.996 742
528.917 117.677 740
529.97 117.518 739
531.737 117.518 739
533.504 117.518 739
533.823 117.2 737
535.585 117.2 737
538.076 117.359 738
539.841 117.359 738
541.606 117.359 738
543.371 117.359 738
544.397 117.2 737
546.159 117.2 737
547.922 117.2 737
549.684 117.2 737
551.446 117.2 737
553.209 117.2 737
554.971 117.2 737
556.734 117.2 737
558.496 117.2 737
560.258 117.2 737
562.021 117.2 737
563.783 117.2 737
-2352.49 507.179 3142
-2344.98 507.179 3142
-2328.54 505.242 3130
-2312.15 503.305 3118
-2296.57 501.529 3107
-2289.14 501.529 3107
-2281.71 501.529 3107
-2274.28 501.529 3107
-2279.25 504.273 3124
-2271.78 504.273 3124
-2264.31 504.273 3124
-2265.51 506.21 3136
-2266.65 508.147 3148
-2293.57 515.896 3196
-2285.93 515.896 3196
-2286.84 517.833 3208
-2385.03 541.884 3357
-2406.03 548.502 3398
-2397.9 548.502 3398
-2480.5 569.325 3527
-2493.1 574.168 3557
-2484.59 574.168 3557
-2502.54 580.302 3595
-2499.49 581.593 3603
-2496.4 582.884 3611
-2487.77 582.884 3611
-2479.13 582.884 3611
-2470.5 582.884 3611
-2461.86 582.884 3611
-2453.23 582.884 3611
-2439.18 581.593 3603
-2430.56 581.593 3603
-2432.7 584.176 3619
-2424.05 584.176 3619
-2420.73 585.467 3627
-2417.38 586.758 3635
-2408.69 586.758 3635
-2400 586.758 3635
-2386.04 585.467 3627
-2377.37 585.467 3627
-2368.69 585.467 3627
-2354.81 584.176 3619
-2335.79 581.593 3603
-2317.48 579.172 3588
-2308.9 579.172 3588
-2300.32 579.172 3588
-2286.63 577.88 3580
-2272.98 576.589 3572
-2264.44 576.589 3572
-2266 579.172 3588
-2257.42 579.172 3588
-2248.84 579.172 3588
-1966.39 660.043 4089
-1956.62 660.043 4089
-1946.84 660.043 4089
-1937.06 660.043 4089
-1913.14 655.2 4059
-1903.44 655.2 4059
-1893.73 655.2 4059
-1870.56 650.519 4030
-1851.69 647.291 4010
-1846.69 648.905 4020
-1837.08 648.905 4020
-1827.47 648.905 4020
-1809.26 645.838 4001
-1799.7 645.838 4001
-1777.15 641.157 3972
-1759.2 638.09 3953
-1745.76 636.637 3944
-1736.33 636.637 3944
-1710.7 630.664 3907
-1693.52 627.759 3889
-1664.73 620.495 3844
-1647.79 617.59 3826
-1638.64 617.59 3826
-1629.49 617.59 3826
-1631.77 621.948 3853
-1633.93 626.306 3880
-1639.73 632.117 3916
-1630.36 632.117 3916
-1636.31 638.09 3953
-1630.98 639.704 3963
-1621.5 639.704 3963
-1612.02 639.704 3963
-1602.55 639.704 3963
-1604.32 644.224 3991
-1610.36 650.519 4030
-1600.73 650.519 4030
-1594.64 651.972 4039
-1588.91 653.586 4049
-1579.23 653.586 4049
-1569.55 653.586 4049
-1559.86 653.586 4049
-1554.01 655.2 4059
-1544.3 655.2 4059
-1534.6 655.2 4059
-1524.89 655.2 4059
-1511.45 653.586 4049
-1501.77 653.586 4049
-1488.4 651.972 4039
-1471.79 648.905 4020
-1458.54 647.291 4010
-1448.95 647.291 4010
-1439.36 647.291 4010
-1419.79 642.771 3982
-1410.26 642.771 3982
-1414.11 648.905 4020
-1404.5 648.905 4020
-1415.35 658.429 4079
-1405.6 658.429 4079
-1395.85 658.429 4079
-604.657 289.263 1792
-600.372 289.263 1792
-596.087 289.263 1792
-591.802 289.263 1792
-587.516 289.263 1792
-581.929 288.617 1788
-576.362 287.972 1784
-571.454 287.649 1782
-566.556 287.326 1780
-562.3 287.326 1780
-555.849 286.196 1773
-550.987 285.873 1771
-546.134 285.55 1769
-541.904 285.55 1769
-536.458 284.905 1765
-530.729 284.098 1760
-525.324 283.452 1756
-521.125 283.452 1756
-515.454 282.645 1751
-511.267 282.645 1751
-505.342 281.676 1745
-501.169 281.676 1745
-496.996 281.676 1745
-492.259 281.354 1743
-488.091 281.354 1743
-483.923 281.354 1743
-479.755 281.354 1743
-475.587 281.354 1743
-471.419 281.354 1743
-467.251 281.354 1743
-463.083 281.354 1743
-459.441 281.676 1745
-455.268 281.676 1745
-451.095 281.676 1745
-446.923 281.676 1745
-442.75 281.676 1745
-438.074 281.354 1743
-433.906 281.354 1743
-429.738 281.354 1743
-424.838 280.869 1740
-418.743 279.578 1732
-413.404 278.771 1727
-409.274 278.771 1727
-404.206 278.125 1723
-400.086 278.125 1723
-395.276 277.641 1720
-391.163 277.641 1720
-386.15 276.995 1716
-381.379 276.511 1713
-376.401 275.865 1709
-372.315 275.865 1709
-367.151 275.058 1704
-362.01 274.251 1699
-357.526 273.928 1697
-353.468 273.928 1697
-348.792 273.444 1694
-344.335 273.121 1692
-339.283 272.314 1687
-335.249 272.314 1687
-330.429 271.668 1683
-326.405 271.668 1683
-322.38 271.668 1683
-318.166 271.507 1682
-314.144 271.507 1682
-310.122 271.507 1682
-306.1 271.507 1682
-301.719 271.184 1680
-297.701 271.184 1680
-293.684 271.184 1680
-289.322 270.861 1678
-285.309 270.861 1678
-281.296 270.861 1678
-277.284 270.861 1678
-273.597 271.184 1680
-269.579 271.184 1680
-265.562 271.184 1680
-261.545 271.184 1680
-257.221 270.861 1678
-253.208 270.861 1678
-249.196 270.861 1678
-245.183 270.861 1678
-241.17 270.861 1678
-237.44 271.184 1680
-233.701 271.507 1682
-229.679 271.507 1682
-225.791 271.668 1683
-221.766 271.668 1683
-217.742 271.668 1683
-213.717 271.668 1683
-209.692 271.668 1683
-205.668 271.668 1683
-201.643 271.668 1683
-197.619 271.668 1683
-193.594 271.668 1683
-189.57 271.668 1683
-185.766 271.991 1685
-181.952 272.314 1687
-177.918 272.314 1687
-174.193 272.798 1690
-170.856 273.928 1697
-166.995 274.251 1699
-162.932 274.251 1699
-159.15 274.735 1702
-155.08 274.735 1702
-151.01 274.735 1702
-146.681 274.251 1699
-142.618 274.251 1699
-138.555 274.251 1699
-134.492 274.251 1699
-130.276 273.928 1697
-126.367 274.251 1699
-122.808 275.381 1706
-119.424 276.995 1716
-115.321 276.995 1716
-111.8 278.448 1725
-107.8 278.771 1727
-103.67 278.771 1727
-99.5407 278.771 1727
-177.244 626.306 3880
-167.966 626.306 3880
-159.792 630.664 3907
-153.683 644.224 3991
-144.501 645.838 4001
-134.933 645.838 4001
-127.183 655.2 4059
-117.477 655.2 4059
-108.036 656.814 4069
-98.3058 656.814 4069
-88.5756 656.814 4069
135.884 660.043 4089
145.662 660.043 4089
155.44 660.043 4089
165.218 660.043 4089
174.996 660.043 4089
183.87 656.814 4069
192.649 653.586 4049
201.382 650.519 4030
211.019 650.519 4030
219.561 647.291 4010
226.978 641.157 3972
232.607 630.664 3907
241.95 630.664 3907
248.977 624.853 3871
258.234 624.853 3871
266.247 621.948 3853
275.46 621.948 3853
282.679 617.59 3826
291.828 617.59 3826
304.517 624.853 3871
313.774 624.853 3871
323.031 624.853 3871
332.288 624.853 3871
339.162 620.495 3844
348.354 620.495 3844
357.546 620.495 3844
366.739 620.495 3844
375.931 620.495 3844
382.518 616.298 3818
391.648 616.298 3818
398.049 612.101 3792
399.816 601.125 3724
402.465 591.924 3667
411.234 591.924 3667
415.422 585.467 3627
423.16 584.176 3619
428.95 580.302 3595
433.895 575.459 3565
442.42 575.459 3565
446.139 569.325 3527
451.737 565.774 3505
456.312 561.093 3476
464.624 561.093 3476
469.943 557.542 3454
476.264 555.282 3440
482.519 553.022 3426
490.711 553.022 3426
497.884 551.892 3419
506.06 551.892 3419
516.342 554.152 3433
526.69 556.412 3447
534.933 556.412 3447
545.382 558.672 3461
558.298 563.353 3490
571.514 568.195 3520
579.931 568.195 3520
590.689 570.455 3534
601.683 572.876 3549
614.124 576.589 3572
626.675 580.302 3595
635.272 580.302 3595
651.032 586.758 3635
660.995 587.888 3642
671.175 589.18 3650
679.904 589.18 3650
688.632 589.18 3650
697.36 589.18 3650
707.636 590.471 3658
716.383 590.471 3658
725.131 590.471 3658
733.878 590.471 3658
742.626 590.471 3658
748.086 587.888 3642
756.796 587.888 3642
765.505 587.888 3642
774.214 587.888 3642
782.923 587.888 3642
790.111 586.758 3635
798.803 586.758 3635
812.605 590.471 3658
821.352 590.471 3658
830.099 590.471 3658
838.847 590.471 3658
853.387 594.507 3683
862.194 594.507 3683
871.001 594.507 3683
879.808 594.507 3683
888.616 594.507 3683
897.423 594.507 3683
906.23 594.507 3683
915.037 594.507 3683
923.844 594.507 3683
934.677 595.798 3691
943.504 595.798 3691
952.33 595.798 3691
965.323 598.381 3707
976.552 599.833 3716
985.439 599.833 3716
996.465 601.125 3724
1005.37 601.125 3724
1016.45 602.416 3732
1025.38 602.416 3732
1034.3 602.416 3732
1043.23 602.416 3732
1054.41 603.708 3740
1063.35 603.708 3740
1072.29 603.708 3740
1078.92 602.416 3732
1087.85 602.416 3732
1096.77 602.416 3732
1105.7 602.416 3732
1114.62 602.416 3732
1125.96 603.708 3740
1137.63 605.16 3749
1146.59 605.16 3749
1158.03 606.452 3757
1167.01 606.452 3757
1178.81 607.904 3766
1187.82 607.904 3766
1199.36 609.196 3774
1214.15 612.101 3792
1225.8 613.393 3800
1234.89 613.393 3800
1246.92 614.845 3809
1256.03 614.845 3809
1265.14 614.845 3809
1268.56 612.101 3792
1277.63 612.101 3792
1283.64 610.649 3783
1292.69 610.649 3783
1295.88 607.904 3766
1295.88 603.708 3740
1304.82 603.708 3740
1313.77 603.708 3740
1322.71 603.708 3740
1325.96 601.125 3724
1332 599.833 3716
1340.88 599.833 3716
1349.77 599.833 3716
1358.65 599.833 3716
1367.54 599.833 3716
1376.43 599.833 3716
1385.31 599.833 3716
1384.82 595.798 3691
1393.64 595.798 3691
1408.55 598.381 3707
1423.92 601.125 3724
1432.82 601.125 3724
1444.82 602.416 3732
1460.37 605.16 3749
1479.13 609.196 3774
1488.16 609.196 3774
1504.32 612.101 3792
1530.55 619.042 3835
1554.18 624.853 3871
1563.43 624.853 3871
1580 627.759 3889
1589.3 627.759 3889
1598.6 627.759 3889
1607.9 627.759 3889
1617.2 627.759 3889
1615.21 623.401 3862
1613.09 619.042 3835
1622.26 619.042 3835
1631.43 619.042 3835
1636.75 617.59 3826
1638.59 614.845 3809
1647.69 614.845 3809
1645.49 610.649 3783
1647.1 607.904 3766
1652.15 606.452 3757
1661.14 606.452 3757
1670.12 606.452 3757
1675.53 605.16 3749
1684.49 605.16 3749
1693.46 605.16 3749
1702.42 605.16 3749
1711.39 605.16 3749
1716.22 603.708 3740
1717.79 601.125 3724
1726.69 601.125 3724
1731.87 599.833 3716
1744.5 601.125 3724
1785.43 612.101 3792
1819.1 620.495 3844
1828.29 620.495 3844
1854.69 626.306 3880
1863.97 626.306 3880
1873.25 626.306 3880
1878.16 624.853 3871
1883.03 623.401 3862
1866.3 614.845 3809
1875.41 614.845 3809
1867.2 609.196 3774
1847.39 599.833 3716
1847.78 597.089 3699
1856.63 597.089 3699
1844.8 590.471 3658
1841.89 586.758 3635
1846.51 585.467 3627
1847 582.884 3611
1859.74 584.176 3619
1868.4 584.176 3619
1881.2 585.467 3627
1901.86 589.18 3650
1910.59 589.18 3650
1919.32 589.18 3650
1928.04 589.18 3650
1936.77 589.18 3650
1949.76 590.471 3658
1958.51 590.471 3658
1976.4 593.215 3675
1998.15 597.089 3699
2016.22 599.833 3716
2047.45 606.452 3757
2061.36 607.904 3766
2133.04 626.306 3880
2182.63 638.09 3953
2192.08 638.09 3953
2212.11 641.157 3972
2227.21 642.771 3982
2247.4 645.838 4001
2256.97 645.838 4001
2266.54 645.838 4001
2276.1 645.838 4001
2285.67 645.838 4001
2300.4 647.291 4010
2309.99 647.291 4010
2319.58 647.291 4010
2329.17 647.291 4010
2338.76 647.291 4010
2348.35 647.291 4010
2357.94 647.291 4010
2384.65 651.972 4039
2400.23 653.586 4049
2409.92 653.586 4049
2419.6 653.586 4049
2429.28 653.586 4049
2438.96 653.586 4049
2431.11 648.905 4020
2434.65 647.291 4010
2456.43 650.519 4030
2466.07 650.519 4030
2475.7 650.519 4030
2485.34 650.519 4030
2488.79 648.905 4020
2498.4 648.905 4020
2508.01 648.905 4020
2505.73 645.838 4001
2515.29 645.838 4001
2518.55 644.224 3991
2540.13 647.291 4010
2549.72 647.291 4010
2559.31 647.291 4010
2568.9 647.291 4010
2578.49 647.291 4010
2545.48 636.637 3944
2536.77 632.117 3916
2546.14 632.117 3916
2555.5 632.117 3916
2564.86 632.117 3916
523.609 119.45 740
525.378 119.45 740
527.148 119.45 740
528.917 119.45 740
529.97 119.289 739
531.737 119.289 739
533.504 119.289 739
533.823 118.966 737
535.585 118.966 737
537.347 118.966 737
539.11 118.966 737
540.872 118.966 737
541.898 118.804 736
543.658 118.804 736
545.418 118.804 736
546.435 118.643 735
548.192 118.643 735
550.698 118.804 736
552.458 118.804 736
554.218 118.804 736
555.978 118.804 736
557.738 118.804 736
559.498 118.804 736
561.258 118.804 736
563.018 118.804 736
-2365.97 517.654 3160
-2358.41 517.654 3160
-2337.47 514.706 3142
-2321.05 512.74 3130
-2304.7 510.774 3118
-2297.24 510.774 3118
-2289.79 510.774 3118
-2286.72 511.757 3124
-2283.63 512.74 3130
-2276.14 512.74 3130
-2268.66 512.74 3130
-2274.18 515.688 3148
-2270.97 516.671 3154
-2293.57 523.552 3196
-2285.93 523.552 3196
-2286.84 525.517 3208
-2385.03 549.926 3357
-2406.03 556.642 3398
-2397.9 556.642 3398
-2480.5 577.774 3527
-2493.1 582.689 3557
-2484.59 582.689 3557
-2502.54 588.914 3595
-2499.49 590.224 3603
-2496.4 591.535 3611
-2487.77 591.535 3611
-2479.13 591.535 3611
-2470.5 591.535 3611
-2461.86 591.535 3611
-2453.23 591.535 3611
-2439.18 590.224 3603
-2430.56 590.224 3603
-2432.7 592.845 3619
-2424.05 592.845 3619
-2420.73 594.156 3627
-2417.38 595.466 3635
-2408.69 595.466 3635
-2400 595.466 3635
-2391.3 595.466 3635
-2377.37 594.156 3627
-2368.69 594.156 3627
-2354.81 592.845 3619
-2340.97 591.535 3611
-2332.34 591.535 3611
-2323.7 591.535 3611
-2304.81 588.914 3595
-2296.21 588.914 3595
-2283.16 587.767 3588
-2274.58 587.767 3588
-2266 587.767 3588
-2257.42 587.767 3588
-2248.84 587.767 3588
-1966.39 669.838 4089
-1956.62 669.838 4089
-1946.84 669.838 4089
-1922.85 664.924 4059
-1899.47 660.173 4030
-1889.84 660.173 4030
-1875.53 658.535 4020
-1861.28 656.897 4010
-1847.53 655.422 4001
-1837.97 655.422 4001
-1828.4 655.422 4001
-1818.83 655.422 4001
-1804.74 653.784 3991
-1795.2 653.784 3991
-1777.15 650.672 3972
-1755.19 646.085 3944
-1729.39 640.024 3907
-1720.04 640.024 3907
-1706.76 638.549 3898
-1681.76 632.652 3862
-1664.73 629.703 3844
-1647.79 626.755 3826
-1642.49 628.229 3835
-1633.32 628.229 3835
-1631.77 631.178 3853
-1633.93 635.601 3880
-1639.73 641.498 3916
-1630.36 641.498 3916
-1636.31 647.559 3953
-1630.98 649.197 3963
-1621.5 649.197 3963
-1612.02 649.197 3963
-1602.55 649.197 3963
-1604.32 653.784 3991
-1613.96 661.647 4039
-1604.3 661.647 4039
-1602.54 664.924 4059
-1592.83 664.924 4059
-1583.13 664.924 4059
-1573.42 664.924 4059
-1563.72 664.924 4059
-1554.01 664.924 4059
-1548.11 666.562 4069
-1538.38 666.562 4069
-1528.65 666.562 4069
-1511.45 663.285 4049
-1501.77 663.285 4049
-1488.4 661.647 4039
-1478.74 661.647 4039
-1469.08 661.647 4039
-1459.43 661.647 4039
-1442.95 658.535 4020
-1422.99 653.784 3991
-1413.45 653.784 3991
-1410.59 656.897 4010
-1401 656.897 4010
-1391.41 656.897 4010
-1381.82 656.897 4010
-1372.23 656.897 4010
-604.657 293.556 1792
-600.372 293.556 1792
-596.087 293.556 1792
-591.802 293.556 1792
-587.516 293.556 1792
-581.929 292.901 1788
-575.715 291.918 1782
-571.454 291.918 1782
-564.328 290.443 1773
-560.088 290.443 1773
-555.222 290.116 1771
-550.364 289.788 1769
-544.899 289.133 1765
-540.679 289.133 1765
-535.85 288.805 1763
-530.126 287.986 1758
-524.726 287.331 1754
-520.531 287.331 1754
-515.748 287.003 1752
-511.267 286.839 1751
-505.921 286.184 1747
-501.744 286.184 1747
-496.996 285.857 1745
-492.259 285.529 1743
-488.091 285.529 1743
-483.923 285.529 1743
-479.755 285.529 1743
-475.587 285.529 1743
-471.419 285.529 1743
-467.251 285.529 1743
-463.083 285.529 1743
-459.441 285.857 1745
-455.268 285.857 1745
-451.095 285.857 1745
-446.923 285.857 1745
-442.75 285.857 1745
-438.577 285.857 1745
-434.404 285.857 1745
-430.231 285.857 1745
-425.082 285.201 1741
-419.226 284.055 1734
-413.404 282.908 1727
-409.274 282.908 1727
-404.675 282.58 1725
-400.086 282.253 1723
-395.736 282.089 1722
-391.618 282.089 1722
-386.6 281.434 1718
-382.047 281.106 1716
-376.842 280.287 1711
-372.75 280.287 1711
-368.012 279.795 1708
-362.65 278.812 1702
-357.948 278.321 1699
-353.885 278.321 1699
-348.998 277.666 1695
-344.742 277.502 1694
-339.685 276.683 1689
-335.646 276.683 1689
-331.215 276.355 1687
-326.793 276.028 1685
-322.38 275.7 1683
-318.356 275.7 1683
-314.331 275.7 1683
-310.122 275.536 1682
-306.1 275.536 1682
-302.078 275.536 1682
-298.056 275.536 1682
-293.684 275.209 1680
-289.666 275.209 1680
-285.309 274.881 1678
-281.632 275.209 1680
-277.614 275.209 1680
-273.923 275.536 1682
-269.9 275.536 1682
-265.878 275.536 1682
-261.856 275.536 1682
-257.527 275.209 1680
-253.51 275.209 1680
-249.493 275.209 1680
-245.475 275.209 1680
-241.458 275.209 1680
-237.44 275.209 1680
-233.701 275.536 1682
-229.679 275.536 1682
-226.059 276.028 1685
-222.03 276.028 1685
-218 276.028 1685
-213.971 276.028 1685
-209.942 276.028 1685
-205.912 276.028 1685
-201.883 276.028 1685
-197.854 276.028 1685
-193.824 276.028 1685
-189.795 276.028 1685
-185.986 276.355 1687
-182.168 276.683 1689
-178.129 276.683 1689
-174.399 277.174 1692
-171.058 278.321 1699
-167.29 278.812 1702
-163.22 278.812 1702
-159.337 279.14 1704
-155.262 279.14 1704
-151.187 279.14 1704
-147.112 279.14 1704
-143.038 279.14 1704
-138.718 278.649 1701
-134.651 278.649 1701
-130.583 278.649 1701
-126.887 279.468 1706
-123.456 280.942 1715
-119.911 282.253 1723
-115.791 282.253 1723
-112.513 284.382 1736
-108.924 285.857 1745
-104.751 285.857 1745
-100.578 285.857 1745
-159.792 640.024 3907
-154.069 655.422 4001
-144.826 656.897 4010
-135.237 656.897 4010
-127.183 664.924 4059
-117.477 664.924 4059
-108.036 666.562 4069
-98.3058 666.562 4069
-88.7933 668.2 4079
-79.0391 668.2 4079
-69.285 668.2 4079
135.884 669.838 4089
145.662 669.838 4089
155.44 669.838 4089
164.41 666.562 4069
174.14 666.562 4069
182.967 663.285 4049
191.745 660.173 4030
200.882 658.535 4020
210.495 658.535 4020
217.48 650.672 3972
224.293 642.972 3925
226.236 622.496 3800
235.323 622.496 3800
244.41 622.496 3800
252.964 621.185 3792
261.41 619.711 3783
270.456 619.711 3783
280.758 622.496 3800
289.845 622.496 3800
299.64 623.97 3809
308.749 623.97 3809
317.857 623.97 3809
326.966 623.97 3809
335.28 622.496 3800
345.182 623.97 3809
354.291 623.97 3809
363.399 623.97 3809
372.508 623.97 3809
379.913 621.185 3792
388.981 621.185 3792
395.32 616.926 3766
397.132 605.95 3699
401.478 599.234 3658
410.225 599.234 3658
414.505 592.845 3619
421.289 590.224 3603
427.16 586.456 3580
431.948 581.378 3549
440.435 581.378 3549
446.139 577.774 3527
450.706 572.86 3497
456.312 569.42 3476
464.624 569.42 3476
469.943 565.816 3454
474.326 561.229 3426
481.533 560.082 3419
489.709 560.082 3419
497.884 560.082 3419
505.024 558.935 3412
515.289 561.229 3426
525.621 563.522 3440
533.847 563.522 3440
544.279 565.816 3454
556.058 569.42 3476
569.079 574.17 3505
577.46 574.17 3505
588.349 576.628 3520
597.953 577.774 3527
610.169 581.378 3549
622.666 585.146 3572
631.207 585.146 3572
642.615 587.767 3588
652.465 588.914 3595
661.062 588.914 3595
669.659 588.914 3595
679.765 590.224 3603
688.38 590.224 3603
698.544 591.535 3611
707.179 591.535 3611
717.4 592.845 3619
726.054 592.845 3619
734.708 592.845 3619
743.362 592.845 3619
748.692 590.224 3603
757.307 590.224 3603
765.923 590.224 3603
774.539 590.224 3603
783.155 590.224 3603
790.013 588.914 3595
802.164 591.535 3611
810.799 591.535 3611
821.249 592.845 3619
829.903 592.845 3619
843.887 596.613 3642
852.596 596.613 3642
861.305 596.613 3642
870.014 596.613 3642
880.654 597.923 3650
891.331 599.234 3658
900.079 599.234 3658
908.826 599.234 3658
917.573 599.234 3658
928.6 600.708 3667
937.369 600.708 3667
952.33 604.64 3691
961.156 604.64 3691
972.085 605.95 3699
980.93 605.95 3699
991.916 607.261 3707
1000.78 607.261 3707
1012.1 608.735 3716
1020.98 608.735 3716
1029.87 608.735 3716
1040.99 610.046 3724
1049.9 610.046 3724
1058.8 610.046 3724
1067.71 610.046 3724
1078.92 611.356 3732
1087.85 611.356 3732
1096.77 611.356 3732
1105.7 611.356 3732
1112.23 610.046 3724
1123.55 611.356 3732
1134.9 612.667 3740
1143.84 612.667 3740
1155.56 614.141 3749
1164.52 614.141 3749
1175.99 615.452 3757
1184.98 615.452 3757
1193.96 615.452 3757
1211.27 619.711 3783
1220.32 619.711 3783
1229.36 619.711 3783
1238.41 619.711 3783
1247.46 619.711 3783
1256.5 619.711 3783
1262.54 618.236 3774
1268.87 616.926 3766
1274.82 615.452 3757
1283.8 615.452 3757
1284.18 611.356 3732
1290.34 610.046 3724
1296.45 608.735 3716
1305.34 608.735 3716
1314.22 608.735 3716
1319.91 607.261 3707
1328.77 607.261 3707
1334.75 605.95 3699
1343.59 605.95 3699
1352.44 605.95 3699
1361.28 605.95 3699
1367.17 604.64 3691
1375.99 604.64 3691
1381.82 603.329 3683
1390.62 603.329 3683
1402.47 604.64 3691
1414.36 605.95 3699
1423.2 605.95 3699
1441.73 610.046 3724
1453.75 611.356 3732
1469.33 614.141 3749
1478.3 614.141 3749
1497.18 618.236 3774
1520.18 623.97 3809
1539.72 628.229 3835
1548.89 628.229 3835
1558.06 628.229 3835
1567.23 628.229 3835
1576.41 628.229 3835
1585.58 628.229 3835
1594.75 628.229 3835
1596.81 625.444 3818
1598.37 622.496 3800
1607.45 622.496 3800
1616.54 622.496 3800
1618.35 619.711 3783
1627.4 619.711 3783
1636.45 619.711 3783
1626.79 612.667 3740
1635.73 612.667 3740
1641.16 611.356 3732
1650.08 611.356 3732
1659.01 611.356 3732
1667.93 611.356 3732
1676.86 611.356 3732
1685.78 611.356 3732
1694.7 611.356 3732
1703.63 611.356 3732
1712.55 611.356 3732
1721.48 611.356 3732
1730.4 611.356 3732
1731.87 608.735 3716
1748.25 611.356 3732
1785.43 621.185 3792
1819.1 629.703 3844
1828.29 629.703 3844
1854.69 635.601 3880
1863.97 635.601 3880
1873.25 635.601 3880
1882.53 635.601 3880
1891.81 635.601 3880
1879.04 628.229 3835
1888.21 628.229 3835
1876.1 621.185 3792
1859.32 612.667 3740
1847.78 605.95 3699
1856.63 605.95 3699
1844.8 599.234 3658
1845.44 596.613 3642
1846.51 594.156 3627
1851.09 592.845 3619
1863.86 594.156 3627
1872.53 594.156 3627
1888.98 596.613 3642
1901.86 597.923 3650
1910.59 597.923 3650
1919.32 597.923 3650
1928.04 597.923 3650
1941.02 599.234 3658
1954.56 600.708 3667
1963.33 600.708 3667
1976.4 602.019 3675
1993.83 604.64 3691
2011.34 607.261 3707
2047.45 615.452 3757
2056.44 615.452 3757
2123.15 632.652 3862
2167.17 642.972 3925
2176.55 642.972 3925
2201.53 647.559 3953
2227.21 652.31 3982
2247.4 655.422 4001
2256.97 655.422 4001
2266.54 655.422 4001
2276.1 655.422 4001
2285.67 655.422 4001
2300.4 656.897 4010
2309.99 656.897 4010
2319.58 656.897 4010
2318.13 653.784 3991
2327.68 653.784 3991
2331.95 652.31 3982
2352.64 655.422 4001
2367.52 656.897 4010
2377.11 656.897 4010
2386.7 656.897 4010
2396.29 656.897 4010
2405.88 656.897 4010
2415.47 656.897 4010
2425.06 656.897 4010
2434.65 656.897 4010
2450.33 658.535 4020
2459.95 658.535 4020
2469.56 658.535 4020
2479.17 658.535 4020
2488.79 658.535 4020
2492.18 656.897 4010
2501.77 656.897 4010
2499.46 653.784 3991
2509.01 653.784 3991
2518.55 653.784 3991
2534.43 655.422 4001
2544 655.422 4001
2553.56 655.422 4001
2563.13 655.422 4001
2572.7 655.422 4001
2551.29 647.559 3953
2542.6 642.972 3925
2551.99 642.972 3925
2561.37 642.972 3925
2570.76 642.972 3925
2580.14 642.972 3925
524.316 121.387 741
526.088 121.387 741
527.86 121.387 741
529.632 121.387 741
530.687 121.223 740
532.456 121.223 740
534.226 121.223 740
533.098 120.568 736
534.858 120.568 736
536.618 120.568 736
538.378 120.568 736
540.138 120.568 736
541.898 120.568 736
542.919 120.404 735
544.677 120.404 735
546.435 120.404 735
547.446 120.24 734
549.95 120.404 735
551.708 120.404 735
553.465 120.404 735
555.223 120.404 735
556.98 120.404 735
558.738 120.404 735
559.733 120.24 734
561.488 120.24 734
-2365.97 525.224 3160
-2358.41 525.224 3160
-2337.47 522.232 3142
-2321.05 520.238 3130
-2304.7 518.243 3118
-2297.24 518.243 3118
-2289.79 518.243 3118
-2286.72 519.24 3124
-2283.63 520.238 3130
-2276.14 520.238 3130
-2268.66 520.238 3130
-2274.18 523.229 3148
-2270.97 524.227 3154
-2293.57 531.208 3196
-2285.93 531.208 3196
-2286.84 533.202 3208
-2385.03 557.967 3357
-2406.03 564.782 3398
-2397.9 564.782 3398
-2469.95 583.73 3512
-2482.58 588.716 3542
-2474.11 588.716 3542
-2497.66 596.362 3588
-2493.94 597.525 3595
-2490.87 598.855 3603
-2482.26 598.855 3603
-2473.64 598.855 3603
-2465.03 598.855 3603
-2456.41 598.855 3603
-2447.79 598.855 3603
-2439.18 598.855 3603
-2430.56 598.855 3603
-2432.7 601.514 3619
-2424.05 601.514 3619
-2420.73 602.844 3627
-2417.38 604.174 3635
-2408.69 604.174 3635
-2400 604.174 3635
-2391.3 604.174 3635
-2377.37 602.844 3627
-2368.69 602.844 3627
-2354.81 601.514 3619
-2340.97 600.185 3611
-2332.34 600.185 3611
-2323.7 600.185 3611
-2304.81 597.525 3595
-2296.21 597.525 3595
-2283.16 596.362 3588
-2274.58 596.362 3588
-2266 596.362 3588
-2257.42 596.362 3588
-2248.84 596.362 3588
-1966.39 679.633 4089
-1956.62 679.633 4089
-1946.84 679.633 4089
-1922.85 674.647 4059
-1899.47 669.827 4030
-1889.84 669.827 4030
-1875.53 668.165 4020
-1861.28 666.503 4010
-1847.53 665.007 4001
-1837.97 665.007 4001
-1828.4 665.007 4001
-1818.83 665.007 4001
-1804.74 663.345 3991
-1795.2 663.345 3991
-1777.15 660.187 3972
-1755.19 655.533 3944
-1729.39 649.383 3907
-1720.04 649.383 3907
-1706.76 647.887 3898
-1681.76 641.904 3862
-1664.73 638.912 3844
-1647.79 635.92 3826
-1642.49 637.416 3835
-1633.32 637.416 3835
-1631.77 640.408 3853
-1633.93 644.895 3880
-1643.49 652.375 3925
-1634.11 652.375 3925
-1636.31 657.029 3953
-1630.98 658.691 3963
-1621.5 658.691 3963
-1612.02 658.691 3963
-1606.18 660.187 3972
-1608.34 665.007 4001
-1613.96 671.323 4039
-1604.3 671.323 4039
-1606.49 676.309 4069
-1596.76 676.309 4069
-1587.03 676.309 4069
-1577.3 676.309 4069
-1563.72 674.647 4059
-1561.67 677.971 4079
-1551.91 677.971 4079
-1542.16 677.971 4079
-1532.4 677.971 4079
-1518.92 676.309 4069
-1509.19 676.309 4069
-1492.09 672.985 4049
-1482.4 672.985 4049
-1469.08 671.323 4039
-1459.43 671.323 4039
-1449.77 671.323 4039
-1433.33 668.165 4020
-1420.18 666.503 4010
-1410.59 666.503 4010
-1401 666.503 4010
-1391.41 666.503 4010
-1381.82 666.503 4010
-1372.23 666.503 4010
-604.657 297.849 1792
-600.372 297.849 1792
-596.087 297.849 1792
-591.802 297.849 1792
-587.516 297.849 1792
-581.929 297.184 1788
-575.715 296.186 1782
-571.454 296.186 1782
-564.965 295.023 1775
-560.72 295.023 1775
-555.222 294.358 1771
-550.364 294.026 1769
-544.899 293.361 1765
-540.679 293.361 1765
-536.458 293.361 1765
-530.126 292.197 1758
-525.324 291.865 1756
-521.125 291.865 1756
-515.748 291.2 1752
-511.267 291.034 1751
-506.5 290.702 1749
-502.318 290.702 1749
-496.996 290.037 1745
-492.824 290.037 1745
-488.091 289.704 1743
-483.923 289.704 1743
-479.755 289.704 1743
-475.587 289.704 1743
-471.419 289.704 1743
-467.251 289.704 1743
-463.083 289.704 1743
-459.441 290.037 1745
-455.268 290.037 1745
-451.612 290.369 1747
-447.435 290.369 1747
-443.257 290.369 1747
-438.577 290.037 1745
-434.404 290.037 1745
-430.231 290.037 1745
-425.082 289.372 1741
-419.226 288.208 1734
-413.404 287.045 1727
-409.274 287.045 1727
-404.675 286.712 1725
-400.086 286.38 1723
-395.736 286.214 1722
-391.618 286.214 1722
-386.6 285.549 1718
-382.047 285.217 1716
-376.842 284.386 1711
-372.75 284.386 1711
-368.012 283.887 1708
-362.65 282.89 1702
-357.948 282.391 1699
-353.885 282.391 1699
-348.998 281.726 1695
-344.742 281.56 1694
-339.685 280.729 1689
-335.646 280.729 1689
-331.215 280.397 1687
-326.793 280.064 1685
-322.763 280.064 1685
-318.734 280.064 1685
-314.705 280.064 1685
-310.306 279.732 1683
-306.282 279.732 1683
-302.078 279.565 1682
-298.056 279.565 1682
-294.033 279.565 1682
-289.666 279.233 1680
-285.649 279.233 1680
-281.967 279.565 1682
-277.945 279.565 1682
-273.923 279.565 1682
-269.9 279.565 1682
-265.878 279.565 1682
-261.856 279.565 1682
-257.834 279.565 1682
-253.51 279.233 1680
-249.493 279.233 1680
-245.475 279.233 1680
-241.458 279.233 1680
-237.723 279.565 1682
-233.84 279.732 1683
-229.815 279.732 1683
-226.059 280.064 1685
-222.293 280.397 1687
-218.259 280.397 1687
-214.225 280.397 1687
-210.191 280.397 1687
-206.157 280.397 1687
-202.123 280.397 1687
-198.323 280.729 1689
-194.284 280.729 1689
-190.245 280.729 1689
-186.207 280.729 1689
-182.491 281.228 1692
-178.445 281.228 1692
-174.914 282.059 1697
-171.36 282.89 1702
-167.978 284.053 1709
-163.891 284.053 1709
-159.804 284.053 1709
-155.718 284.053 1709
-151.631 284.053 1709
-147.544 284.053 1709
-143.457 284.053 1709
-139.371 284.053 1709
-135.601 284.718 1713
-131.504 284.718 1713
-127.408 284.718 1713
-123.959 286.214 1722
-120.329 287.377 1729
-116.194 287.377 1729
-113.097 290.037 1745
-108.924 290.037 1745
-104.751 290.037 1745
-100.578 290.037 1745
-159.792 649.383 3907
-154.069 665.007 4001
-144.826 666.503 4010
-135.237 666.503 4010
-127.183 674.647 4059
-117.477 674.647 4059
-108.036 676.309 4069
-98.3058 676.309 4069
-88.7933 677.971 4079
-79.2329 679.633 4089
-69.4549 679.633 4089
-59.6768 679.633 4089
-49.8988 679.633 4089
106.289 677.971 4079
116.043 677.971 4079
125.798 677.971 4079
135.884 679.633 4089
145.662 679.633 4089
155.44 679.633 4089
164.41 676.309 4069
174.14 676.309 4069
182.967 672.985 4049
191.745 669.827 4030
200.882 668.165 4020
210.495 668.165 4020
217.48 660.187 3972
224.293 652.375 3925
226.236 631.599 3800
235.323 631.599 3800
244.41 631.599 3800
252.964 630.269 3792
261.41 628.773 3783
270.456 628.773 3783
280.758 631.599 3800
289.845 631.599 3800
299.64 633.094 3809
308.749 633.094 3809
317.857 633.094 3809
326.966 633.094 3809
335.28 631.599 3800
345.182 633.094 3809
354.291 633.094 3809
363.399 633.094 3809
372.508 633.094 3809
379.913 630.269 3792
388.981 630.269 3792
391.751 620.296 3732
395.414 612.152 3683
398.953 604.174 3635
407.646 604.174 3635
412.673 598.855 3603
420.353 597.525 3595
425.37 592.539 3565
431.948 589.88 3549
440.435 589.88 3549
444.241 583.73 3512
448.902 578.91 3483
453.424 574.09 3454
461.683 574.09 3454
467.086 570.599 3433
473.357 568.272 3419
481.533 568.272 3419
489.709 568.272 3419
495.846 565.945 3405
503.988 565.945 3405
513.183 567.109 3412
523.482 569.436 3426
531.674 569.436 3426
543.176 572.926 3447
556.058 577.746 3476
567.78 581.237 3497
576.142 581.237 3497
585.842 582.567 3505
596.766 585.06 3520
606.387 586.223 3527
618.656 589.88 3549
627.143 589.88 3549
638.495 592.539 3565
647.02 592.539 3565
656.833 593.703 3572
665.374 593.703 3572
673.916 593.703 3572
682.458 593.703 3572
690.999 593.703 3572
698.17 592.539 3565
708.083 593.703 3572
716.625 593.703 3572
725.166 593.703 3572
733.708 593.703 3572
742.25 593.703 3572
747.639 591.209 3557
756.145 591.209 3557
764.651 591.209 3557
773.156 591.209 3557
781.662 591.209 3557
797.055 596.362 3588
805.635 596.362 3588
814.215 596.362 3588
824.4 597.525 3595
836.704 600.185 3611
845.339 600.185 3611
855.866 601.514 3619
864.52 601.514 3619
875.104 602.844 3627
887.432 605.337 3642
896.142 605.337 3642
906.838 606.667 3650
915.567 606.667 3650
924.295 606.667 3650
933.023 606.667 3650
946.138 609.493 3667
956.99 610.822 3675
969.983 613.482 3691
978.809 613.482 3691
989.776 614.811 3699
998.621 614.811 3699
1009.65 616.141 3707
1018.51 616.141 3707
1029.87 617.637 3716
1038.76 617.637 3716
1047.64 617.637 3716
1056.53 617.637 3716
1065.41 617.637 3716
1076.61 618.967 3724
1085.52 618.967 3724
1094.42 618.967 3724
1103.33 618.967 3724
1109.84 617.637 3716
1121.14 618.967 3724
1132.47 620.296 3732
1141.4 620.296 3732
1152.79 621.626 3740
1161.73 621.626 3740
1173.49 623.122 3749
1182.45 623.122 3749
1191.42 623.122 3749
1205.83 625.947 3766
1217.41 627.277 3774
1226.44 627.277 3774
1235.46 627.277 3774
1244.49 627.277 3774
1253.51 627.277 3774
1259.86 625.947 3766
1263.14 623.122 3749
1269.05 621.626 3740
1277.99 621.626 3740
1281.43 618.967 3724
1284.45 616.141 3707
1293.31 616.141 3707
1302.18 616.141 3707
1311.04 616.141 3707
1317.06 614.811 3699
1323.03 613.482 3691
1328.97 612.152 3683
1337.78 612.152 3683
1346.59 612.152 3683
1355.4 612.152 3683
1361.24 610.822 3675
1370.03 610.822 3675
1375.81 609.493 3667
1384.58 609.493 3667
1402.47 613.482 3691
1411.3 613.482 3691
1420.12 613.482 3691
1432.05 614.811 3699
1450.63 618.967 3724
1465.81 621.626 3740
1474.75 621.626 3740
1487.26 623.122 3749
1503.01 625.947 3766
1512.02 625.947 3766
1521.03 625.947 3766
1533.28 627.277 3774
1549.66 630.269 3792
1558.73 630.269 3792
1567.8 630.269 3792
1576.87 630.269 3792
1582.17 628.773 3783
1591.22 628.773 3783
1600.26 628.773 3783
1609.31 628.773 3783
1607.23 624.451 3757
1616.22 624.451 3757
1625.2 624.451 3757
1623.31 620.296 3732
1628.74 618.967 3724
1637.64 618.967 3724
1646.55 618.967 3724
1651.89 617.637 3716
1656.76 616.141 3707
1669.67 617.637 3716
1685.78 620.296 3732
1694.7 620.296 3732
1703.63 620.296 3732
1712.55 620.296 3732
1721.48 620.296 3732
1730.4 620.296 3732
1739.33 620.296 3732
1752 621.626 3740
1797.67 634.59 3818
1831.88 643.399 3871
1841.14 643.399 3871
1859 646.391 3889
1868.3 646.391 3889
1877.6 646.391 3889
1886.9 646.391 3889
1896.2 646.391 3889
1892.27 641.904 3862
1901.5 641.904 3862
1884.51 633.094 3809
1867.77 624.451 3757
1860.27 618.967 3724
1869.18 618.967 3724
1857.4 612.152 3683
1849.49 606.667 3650
1846.51 602.844 3627
1855.18 602.844 3627
1867.97 604.174 3635
1876.66 604.174 3635
1888.98 605.337 3642
1906.03 607.997 3658
1914.78 607.997 3658
1923.52 607.997 3658
1932.27 607.997 3658
1941.02 607.997 3658
1954.56 609.493 3667
1963.33 609.493 3667
1976.4 610.822 3675
1993.83 613.482 3691
2011.34 616.141 3707
2047.45 624.451 3757
2056.44 624.451 3757
2118.2 640.408 3853
2167.17 652.375 3925
2176.55 652.375 3925
2201.53 657.029 3953
2221.61 660.187 3972
2241.78 663.345 3991
2256.97 665.007 4001
2266.54 665.007 4001
2276.1 665.007 4001
2285.67 665.007 4001
2300.4 666.503 4010
2309.99 666.503 4010
2319.58 666.503 4010
2318.13 663.345 3991
2327.68 663.345 3991
2326.09 660.187 3972
2346.76 663.345 3991
2362.21 665.007 4001
2377.11 666.503 4010
2386.7 666.503 4010
2396.29 666.503 4010
2405.88 666.503 4010
2415.47 666.503 4010
2431.11 668.165 4020
2440.72 668.165 4020
2450.33 668.165 4020
2459.95 668.165 4020
2469.56 668.165 4020
2479.17 668.165 4020
2482.59 666.503 4010
2492.18 666.503 4010
2501.77 666.503 4010
2505.73 665.007 4001
2515.29 665.007 4001
2524.86 665.007 4001
2534.43 665.007 4001
2544 665.007 4001
2553.56 665.007 4001
2563.13 665.007 4001
2572.7 665.007 4001
2551.29 657.029 3953
2549.08 654.037 3935
2558.49 654.037 3935
2561.37 652.375 3925
2570.76 652.375 3925
2580.14 652.375 3925
2553.9 643.399 3871
524.316 123.162 741
526.088 123.162 741
527.86 123.162 741
529.632 123.162 741
530.687 122.995 740
532.456 122.995 740
534.226 122.995 740
533.823 122.497 737
535.585 122.497 737
536.618 122.331 736
538.378 122.331 736
540.138 122.331 736
541.162 122.164 735
542.919 122.164 735
544.677 122.164 735
545.691 121.998 734
547.446 121.998 734
549.202 121.998 734
550.957 121.998 734
552.712 121.998 734
554.467 121.998 734
556.223 121.998 734
557.978 121.998 734
558.97 121.832 733
560.723 121.832 733
-2379.45 535.829 3178
-2371.85 535.829 3178
-2350.86 532.794 3160
-2334.4 530.771 3148
-2326.87 530.771 3148
-2319.35 530.771 3148
-2307.41 529.759 3142
-2299.9 529.759 3142
-2288.01 528.747 3136
-2280.51 528.747 3136
-2273.01 528.747 3136
-2278.51 531.782 3154
-2275.29 532.794 3160
-2293.57 538.864 3196
-2285.93 538.864 3196
-2291.12 541.899 3214
-2337.43 554.713 3290
-2386.2 568.201 3370
-2378.15 568.201 3370
-2439.01 584.724 3468
-2461.56 592.143 3512
-2453.16 592.143 3512
-2486.53 602.259 3572
-2489.08 604.957 3588
-2485.34 606.137 3595
-2476.75 606.137 3595
-2468.15 606.137 3595
-2465.03 607.486 3603
-2456.41 607.486 3603
-2447.79 607.486 3603
-2439.18 607.486 3603
-2430.56 607.486 3603
-2432.7 610.184 3619
-2424.05 610.184 3619
-2420.73 611.533 3627
-2417.38 612.882 3635
-2408.69 612.882 3635
-2400 612.882 3635
-2391.3 612.882 3635
-2382.61 612.882 3635
-2373.92 612.882 3635
-2354.81 610.184 3619
-2340.97 608.835 3611
-2332.34 608.835 3611
-2323.7 608.835 3611
-2309.94 607.486 3603
-2301.32 607.486 3603
-2287.62 606.137 3595
-2274.58 604.957 3588
-2266 604.957 3588
-2257.42 604.957 3588
-2248.84 604.957 3588
-1966.39 689.428 4089
-1956.62 689.428 4089
-1946.84 689.428 4089
-1913.37 680.998 4039
-1899.47 679.481 4030
-1889.84 679.481 4030
-1870.87 676.109 4010
-1861.28 676.109 4010
-1847.53 674.591 4001
-1837.97 674.591 4001
-1823.83 672.905 3991
-1814.29 672.905 3991
-1796.15 669.702 3972
-1786.65 669.702 3972
-1764.63 664.981 3944
-1742.73 660.26 3916
-1721.42 655.707 3889
-1712.12 655.707 3889
-1694.94 652.672 3871
-1677.84 649.638 3853
-1660.83 646.603 3835
-1647.79 645.085 3826
-1642.49 646.603 3835
-1633.32 646.603 3835
-1631.77 649.638 3853
-1633.93 654.19 3880
-1643.49 661.777 3925
-1634.11 661.777 3925
-1632.59 664.981 3944
-1630.98 668.184 3963
-1621.5 668.184 3963
-1612.02 668.184 3963
-1606.18 669.702 3972
-1608.34 674.591 4001
-1613.96 680.998 4039
-1604.3 680.998 4039
-1606.49 686.056 4069
-1596.76 686.056 4069
-1587.03 686.056 4069
-1577.3 686.056 4069
-1563.72 684.37 4059
-1561.67 687.742 4079
-1551.91 687.742 4079
-1542.16 687.742 4079
-1532.4 687.742 4079
-1518.92 686.056 4069
-1509.19 686.056 4069
-1492.09 682.684 4049
-1482.4 682.684 4049
-1469.08 680.998 4039
-1459.43 680.998 4039
-1449.77 680.998 4039
-1433.33 677.795 4020
-1420.18 676.109 4010
-1410.59 676.109 4010
-1401 676.109 4010
-1391.41 676.109 4010
-1381.82 676.109 4010
-1372.23 676.109 4010
-604.657 302.141 1792
-600.372 302.141 1792
-596.087 302.141 1792
-591.802 302.141 1792
-587.516 302.141 1792
-581.929 301.467 1788
-575.715 300.455 1782
-571.454 300.455 1782
-564.965 299.275 1775
-560.72 299.275 1775
-553.968 297.926 1767
-549.742 297.926 1767
-544.899 297.589 1765
-540.679 297.589 1765
-536.458 297.589 1765
-530.126 296.409 1758
-525.324 296.072 1756
-521.125 296.072 1756
-515.748 295.397 1752
-511.267 295.228 1751
-506.5 294.891 1749
-502.318 294.891 1749
-496.996 294.217 1745
-492.824 294.217 1745
-488.091 293.88 1743
-483.923 293.88 1743
-479.755 293.88 1743
-475.587 293.88 1743
-471.419 293.88 1743
-467.251 293.88 1743
-463.083 293.88 1743
-459.441 294.217 1745
-455.268 294.217 1745
-451.612 294.554 1747
-447.435 294.554 1747
-443.257 294.554 1747
-438.577 294.217 1745
-434.404 294.217 1745
-430.231 294.217 1745
-425.082 293.542 1741
-419.226 292.362 1734
-413.404 291.182 1727
-409.274 291.182 1727
-404.675 290.845 1725
-400.086 290.508 1723
-395.736 290.339 1722
-391.618 290.339 1722
-386.6 289.664 1718
-382.047 289.327 1716
-376.842 288.484 1711
-372.75 288.484 1711
-368.012 287.978 1708
-362.65 286.967 1702
-357.948 286.461 1699
-353.885 286.461 1699
-348.998 285.787 1695
-344.742 285.618 1694
-339.685 284.775 1689
-335.646 284.775 1689
-331.215 284.438 1687
-326.793 284.101 1685
-322.763 284.101 1685
-318.734 284.101 1685
-314.705 284.101 1685
-310.306 283.763 1683
-306.282 283.763 1683
-302.078 283.595 1682
-298.056 283.595 1682
-294.033 283.595 1682
-289.666 283.257 1680
-285.649 283.257 1680
-281.967 283.595 1682
-277.945 283.595 1682
-273.923 283.595 1682
-269.9 283.595 1682
-265.878 283.595 1682
-261.856 283.595 1682
-257.834 283.595 1682
-253.51 283.257 1680
-249.493 283.257 1680
-245.475 283.257 1680
-241.458 283.257 1680
-237.723 283.595 1682
-233.84 283.763 1683
-229.815 283.763 1683
-226.059 284.101 1685
-222.293 284.438 1687
-218.259 284.438 1687
-214.225 284.438 1687
-210.191 284.438 1687
-206.157 284.438 1687
-202.123 284.438 1687
-198.323 284.775 1689
-194.284 284.775 1689
-190.245 284.775 1689
-186.207 284.775 1689
-182.491 285.281 1692
-178.445 285.281 1692
-174.914 286.124 1697
-171.36 286.967 1702
-167.978 288.147 1709
-163.891 288.147 1709
-159.804 288.147 1709
-155.718 288.147 1709
-151.631 288.147 1709
-147.544 288.147 1709
-143.457 288.147 1709
-139.371 288.147 1709
-135.601 288.821 1713
-131.504 288.821 1713
-127.408 288.821 1713
-123.959 290.339 1722
-120.329 291.519 1729
-116.194 291.519 1729
-113.097 294.217 1745
-108.924 294.217 1745
-104.751 294.217 1745
-100.578 294.217 1745
-159.792 658.742 3907
-154.069 674.591 4001
-144.826 676.109 4010
-135.237 676.109 4010
-127.183 684.37 4059
-117.477 684.37 4059
-108.036 686.056 4069
-98.3058 686.056 4069
-88.7933 687.742 4079
-79.2329 689.428 4089
-69.4549 689.428 4089
-59.6768 689.428 4089
-49.8988 689.428 4089
86.781 687.742 4079
96.5351 687.742 4079
106.289 687.742 4079
116.043 687.742 4079
125.798 687.742 4079
135.219 686.056 4069
142.171 672.905 3991
151.715 672.905 3991
161.258 672.905 3991
170.802 672.905 3991
179.487 669.702 3972
188.081 666.498 3953
196.135 661.777 3925
205.521 661.777 3925
214.414 660.26 3916
220.178 649.638 3853
226.236 640.701 3800
235.323 640.701 3800
242.224 634.969 3766
250.095 632.103 3749
258.438 630.585 3740
267.382 630.585 3740
277.581 633.451 3757
286.565 633.451 3757
296.887 636.318 3774
305.912 636.318 3774
314.936 636.318 3774
323.961 636.318 3774
332.28 634.969 3766
342.011 636.318 3774
351.035 636.318 3774
360.06 636.318 3774
369.085 636.318 3774
377.308 634.969 3766
386.314 634.969 3766
391.751 629.236 3732
395.414 620.975 3683
398.953 612.882 3635
407.646 612.882 3635
412.673 607.486 3603
420.353 606.137 3595
425.37 601.079 3565
431.948 598.381 3549
440.435 598.381 3549
444.241 592.143 3512
448.902 587.253 3483
453.424 582.364 3454
461.683 582.364 3454
467.086 578.823 3433
473.357 576.463 3419
481.533 576.463 3419
489.709 576.463 3419
495.846 574.102 3405
503.988 574.102 3405
513.183 575.282 3412
523.482 577.643 3426
531.674 577.643 3426
543.176 581.184 3447
556.058 586.073 3476
567.78 589.614 3497
576.142 589.614 3497
585.842 590.963 3505
596.766 593.492 3520
606.387 594.672 3527
618.656 598.381 3549
627.143 598.381 3549
638.495 601.079 3565
647.02 601.079 3565
656.833 602.259 3572
665.374 602.259 3572
673.916 602.259 3572
682.458 602.259 3572
690.999 602.259 3572
698.17 601.079 3565
708.083 602.259 3572
716.625 602.259 3572
725.166 602.259 3572
733.708 602.259 3572
742.25 602.259 3572
747.639 599.73 3557
756.145 599.73 3557
764.651 599.73 3557
773.156 599.73 3557
781.662 599.73 3557
797.055 604.957 3588
805.635 604.957 3588
814.215 604.957 3588
824.4 606.137 3595
836.704 608.835 3611
845.339 608.835 3611
855.866 610.184 3619
864.52 610.184 3619
875.104 611.533 3627
887.432 614.062 3642
896.142 614.062 3642
906.838 615.411 3650
915.567 615.411 3650
924.295 615.411 3650
933.023 615.411 3650
946.138 618.277 3667
956.99 619.626 3675
969.983 622.323 3691
978.809 622.323 3691
989.776 623.672 3699
998.621 623.672 3699
1009.65 625.021 3707
1018.51 625.021 3707
1029.87 626.539 3716
1038.76 626.539 3716
1047.64 626.539 3716
1056.53 626.539 3716
1065.41 626.539 3716
1076.61 627.887 3724
1085.52 627.887 3724
1094.42 627.887 3724
1103.33 627.887 3724
1109.84 626.539 3716
1121.14 627.887 3724
1132.47 629.236 3732
1141.4 629.236 3732
1152.79 630.585 3740
1161.73 630.585 3740
1173.49 632.103 3749
1182.45 632.103 3749
1191.42 632.103 3749
1205.83 634.969 3766
1217.41 636.318 3774
1226.44 636.318 3774
1235.46 636.318 3774
1244.49 636.318 3774
1253.51 636.318 3774
1259.86 634.969 3766
1263.14 632.103 3749
1269.05 630.585 3740
1277.99 630.585 3740
1281.43 627.887 3724
1284.45 625.021 3707
1293.31 625.021 3707
1302.18 625.021 3707
1311.04 625.021 3707
1317.06 623.672 3699
1323.03 622.323 3691
1328.97 620.975 3683
1337.78 620.975 3683
1346.59 620.975 3683
1355.4 620.975 3683
1361.24 619.626 3675
1370.03 619.626 3675
1375.81 618.277 3667
1384.58 618.277 3667
1402.47 622.323 3691
1411.3 622.323 3691
1420.12 622.323 3691
1432.05 623.672 3699
1450.63 627.887 3724
1465.81 630.585 3740
1474.75 630.585 3740
1487.26 632.103 3749
1503.01 634.969 3766
1512.02 634.969 3766
1521.03 634.969 3766
1533.28 636.318 3774
1549.66 639.353 3792
1558.73 639.353 3792
1567.8 639.353 3792
1576.87 639.353 3792
1582.17 637.835 3783
1591.22 637.835 3783
1600.26 637.835 3783
1609.31 637.835 3783
1607.23 633.451 3757
1616.22 633.451 3757
1625.2 633.451 3757
1623.31 629.236 3732
1628.74 627.887 3724
1637.64 627.887 3724
1646.55 627.887 3724
1651.89 626.539 3716
1656.76 625.021 3707
1669.67 626.539 3716
1685.78 629.236 3732
1694.7 629.236 3732
1703.63 629.236 3732
1712.55 629.236 3732
1721.48 629.236 3732
1734.11 630.585 3740
1743.05 630.585 3740
1756.21 632.103 3749
1797.67 643.736 3818
1840.4 655.707 3889
1849.7 655.707 3889
1876.2 661.777 3925
1885.59 661.777 3925
1894.98 661.777 3925
1886.9 655.707 3889
1896.2 655.707 3889
1892.27 651.155 3862
1901.5 651.155 3862
1884.51 642.219 3809
1872.25 634.969 3766
1868.26 630.585 3740
1877.21 630.585 3740
1857.4 620.975 3683
1849.49 615.411 3650
1854.15 614.062 3642
1855.18 611.533 3627
1867.97 612.882 3635
1876.66 612.882 3635
1893.13 615.411 3650
1906.03 616.759 3658
1914.78 616.759 3658
1923.52 616.759 3658
1932.27 616.759 3658
1945.79 618.277 3667
1954.56 618.277 3667
1963.33 618.277 3667
1976.4 619.626 3675
1993.83 622.323 3691
2011.34 625.021 3707
2047.45 633.451 3757
2056.44 633.451 3757
2118.2 649.638 3853
2167.17 661.777 3925
2176.55 661.777 3925
2201.53 666.498 3953
2221.61 669.702 3972
2241.78 672.905 3991
2256.97 674.591 4001
2266.54 674.591 4001
2276.1 674.591 4001
2285.67 674.591 4001
2300.4 676.109 4010
2309.99 676.109 4010
2319.58 676.109 4010
2318.13 672.905 3991
2327.68 672.905 3991
2326.09 669.702 3972
2346.76 672.905 3991
2362.21 674.591 4001
2377.11 676.109 4010
2386.7 676.109 4010
2396.29 676.109 4010
2405.88 676.109 4010
2415.47 676.109 4010
2431.11 677.795 4020
2440.72 677.795 4020
2450.33 677.795 4020
2459.95 677.795 4020
2469.56 677.795 4020
2479.17 677.795 4020
2482.59 676.109 4010
2492.18 676.109 4010
2501.77 676.109 4010
2505.73 674.591 4001
2515.29 674.591 4001
2524.86 674.591 4001
2534.43 674.591 4001
2544 674.591 4001
2553.56 674.591 4001
2563.13 674.591 4001
2572.7 674.591 4001
2551.29 666.498 3953
2549.08 663.463 3935
2558.49 663.463 3935
2561.37 661.777 3925
2570.76 661.777 3925
2580.14 661.777 3925
2553.9 652.672 3871
2539.32 646.603 3835
2548.49 646.603 3835
524.316 124.937 741
526.088 124.937 741
527.86 124.937 741
529.632 124.937 741
531.404 124.937 741
533.176 124.937 741
534.226 124.768 740
533.823 124.262 737
535.585 124.262 737
536.618 124.094 736
538.378 124.094 736
540.138 124.094 736
541.162 123.925 735
542.919 123.925 735
544.677 123.925 735
545.691 123.757 734
547.446 123.757 734
549.202 123.757 734
550.957 123.757 734
552.712 123.757 734
554.467 123.757 734
556.223 123.757 734
557.978 123.757 734
558.97 123.588 733
560.723 123.588 733
-2379.45 543.442 3178
-2371.85 543.442 3178
-2350.86 540.364 3160
-2338.85 539.338 3154
-2326.87 538.312 3148
-2319.35 538.312 3148
-2311.82 538.312 3148
-2304.29 538.312 3148
-2296.76 538.312 3148
-2289.23 538.312 3148
-2281.71 538.312 3148
-2278.51 539.338 3154
-2275.29 540.364 3160
-2293.57 546.52 3196
-2285.93 546.52 3196
-2291.12 549.598 3214
-2337.43 562.594 3290
-2352.92 568.237 3323
-2344.98 568.237 3323
-2404.55 584.653 3419
-2461.56 600.556 3512
-2453.16 600.556 3512
-2481.65 609.619 3565
-2477.98 610.816 3572
-2474.97 612.184 3580
-2466.41 612.184 3580
-2457.85 612.184 3580
-2459.55 614.749 3595
-2450.96 614.749 3595
-2442.36 614.749 3595
-2439.18 616.117 3603
-2430.56 616.117 3603
-2432.7 618.853 3619
-2424.05 618.853 3619
-2415.39 618.853 3619
-2417.38 621.589 3635
-2408.69 621.589 3635
-2400 621.589 3635
-2391.3 621.589 3635
-2382.61 621.589 3635
-2373.92 621.589 3635
-2354.81 618.853 3619
-2340.97 617.485 3611
-2332.34 617.485 3611
-2323.7 617.485 3611
-2315.07 617.485 3611
-2306.43 617.485 3611
-2287.62 614.749 3595
-2284.09 616.117 3603
-2280.53 617.485 3611
-2271.89 617.485 3611
-2263.26 617.485 3611
-1966.39 699.224 4089
-1956.62 699.224 4089
-1946.84 699.224 4089
-1913.37 690.674 4039
-1890.05 685.715 4010
-1880.46 685.715 4010
