ply
format ascii 1.0
comment File generated
element vertex 2132
property float x
property float y
property float z
end_header
-317.88 -381.687 1702
-313.81 -381.687 1702
-309.74 -381.687 1702
-305.67 -381.687 1702
-301.6 -381.687 1702
-297.53 -381.687 1702
-293.287 -381.463 1701
-289.22 -381.463 1701
-285.152 -381.463 1701
-281.084 -381.463 1701
-277.017 -381.463 1701
-272.949 -381.463 1701
-269.04 -381.687 1702
-264.97 -381.687 1702
-260.9 -381.687 1702
-256.83 -381.687 1702
-253.057 -382.135 1704
-248.982 -382.135 1704
-245.195 -382.584 1706
-241.822 -383.705 1711
-238.008 -384.154 1713
-233.912 -384.154 1713
-230.218 -384.826 1716
-226.378 -385.275 1718
-222.528 -385.723 1720
-218.415 -385.723 1720
-214.676 -386.396 1723
-210.8 -386.845 1725
-206.915 -387.293 1727
-202.785 -387.293 1727
-199.116 -388.19 1731
-195.539 -389.312 1736
-191.829 -390.209 1740
-187.668 -390.209 1740
-183.613 -390.433 1741
-179.862 -391.33 1745
-176.293 -392.675 1751
-172.106 -392.675 1751
-168.206 -393.348 1754
-164.199 -393.797 1756
-160.547 -395.142 1762
-156.599 -395.815 1765
-152.379 -395.815 1765
-148.662 -397.161 1771
-144.59 -397.609 1773
-140.904 -399.179 1780
-136.648 -399.179 1780
-132.837 -400.524 1786
-128.711 -400.973 1788
-124.713 -401.87 1792
-120.428 -401.87 1792
-116.402 -402.767 1796
-112.232 -403.216 1798
-108.053 -403.664 1800
-103.748 -403.664 1800
-99.4439 -403.664 1800
-95.2453 -404.113 1802
-91.0371 -404.561 1804
-86.7232 -404.561 1804
-82.4093 -404.561 1804
-78.1387 -404.785 1805
-73.8224 -404.785 1805
-69.5061 -404.785 1805
-65.1898 -404.785 1805
-60.9409 -405.234 1807
-56.6825 -405.682 1809
-52.3566 -405.682 1809
-48.0839 -406.131 1811
-43.8015 -406.579 1813
-39.4661 -406.579 1813
-35.1307 -406.579 1813
-30.9651 -408.822 1823
-26.6057 -408.822 1823
-22.2464 -408.822 1823
-17.887 -408.822 1823
123.754 -835.136 3724
132.66 -835.136 3724
141.565 -835.136 3724
151.117 -838.724 3740
160.445 -840.742 3749
169.41 -840.742 3749
181.658 -856.216 3818
190.788 -856.216 3818
199.918 -856.216 3818
206.639 -846.349 3774
217.664 -854.198 3809
227.308 -856.216 3818
236.934 -858.01 3826
246.083 -858.01 3826
255.232 -858.01 3826
264.381 -858.01 3826
276.747 -868.102 3871
286.004 -868.102 3871
295.261 -868.102 3871
302.393 -862.047 3844
311.586 -862.047 3844
320.778 -862.047 3844
326.966 -854.198 3809
335.28 -852.18 3800
344.367 -852.18 3800
353.454 -852.18 3800
362.541 -852.18 3800
369.965 -848.367 3783
385.123 -862.047 3844
399.854 -874.157 3898
409.176 -874.157 3898
418.497 -874.157 3898
427.818 -874.157 3898
437.14 -874.157 3898
442.338 -866.084 3862
453.677 -870.12 3880
462.956 -870.12 3880
472.234 -870.12 3880
481.512 -870.12 3880
489.652 -868.102 3871
500.069 -870.12 3880
509.347 -870.12 3880
521.031 -874.157 3898
530.353 -874.157 3898
539.674 -874.157 3898
548.995 -874.157 3898
558.316 -874.157 3898
567.638 -874.157 3898
578.291 -876.175 3907
587.634 -876.175 3907
596.977 -876.175 3907
606.32 -876.175 3907
614.244 -874.157 3898
616.367 -864.065 3853
625.581 -864.065 3853
633.312 -862.047 3844
640.999 -860.029 3835
1759.04 -916.99 4089
1768.82 -916.99 4089
1778.59 -916.99 4089
1779.63 -912.505 4069
1784.96 -910.262 4059
1794.66 -910.262 4059
1787.03 -901.516 4020
1788.16 -897.255 4001
1789.19 -892.995 3982
1798.71 -892.995 3982
1795.06 -886.491 3953
1804.51 -886.491 3953
1813.97 -886.491 3953
1823.42 -886.491 3953
1832.87 -886.491 3953
1842.33 -886.491 3953
1838.66 -880.212 3925
1843.81 -878.194 3916
1853.17 -878.194 3916
1828.29 -862.047 3844
1825.06 -856.216 3818
3061.79 -914.748 4079
3071.54 -914.748 4079
3081.3 -914.748 4079
3091.05 -914.748 4079
3100.81 -914.748 4079
3110.56 -914.748 4079
3120.31 -914.748 4079
-2440.73 -794.267 3580
-2432.17 -794.267 3580
-2423.61 -794.267 3580
-2420.44 -796.042 3588
-2411.86 -796.042 3588
-2403.28 -796.042 3588
-2394.7 -796.042 3588
-2390.78 -797.595 3595
-2387.48 -799.37 3603
-2384.15 -801.145 3611
-2375.51 -801.145 3611
-2377.37 -804.695 3627
-2373.92 -806.469 3635
-2369.78 -808.022 3642
-2361.07 -808.022 3642
-2352.36 -808.022 3642
-2339.15 -806.469 3635
-2330.46 -806.469 3635
-2311.54 -802.92 3619
-2297.8 -801.145 3611
-2264.44 -792.492 3572
-2255.9 -792.492 3572
-2247.36 -792.492 3572
-681.11 -402.236 1813
-676.775 -402.236 1813
-674.665 -403.568 1819
-670.315 -403.568 1819
-665.965 -403.568 1819
-661.615 -403.568 1819
-657.266 -403.568 1819
-652.198 -403.124 1817
-647.853 -403.124 1817
-642.799 -402.68 1815
-638.459 -402.68 1815
-633.42 -402.236 1813
-629.085 -402.236 1813
-623.371 -401.349 1809
-617.676 -400.461 1805
-613.36 -400.461 1805
-609.044 -400.461 1805
-604.393 -400.24 1804
-600.079 -400.24 1804
-593.783 -398.908 1798
-589.484 -398.908 1798
-585.184 -398.908 1798
-577.008 -396.246 1786
-570.813 -394.915 1780
-562.418 -392.031 1767
-558.193 -392.031 1767
-551.773 -390.478 1760
-545.698 -389.146 1754
-539.96 -388.037 1749
-535.777 -388.037 1749
-529.163 -386.262 1741
-524.095 -385.597 1738
-519.341 -385.153 1736
-515.19 -385.153 1736
-509.566 -384.044 1731
-504.259 -383.156 1727
-498.681 -382.047 1722
-494.564 -382.047 1722
-489.307 -381.159 1718
-484.351 -380.494 1715
-478.57 -379.163 1709
-474.205 -378.941 1708
-470.121 -378.941 1708
-464.945 -378.053 1704
-460.871 -378.053 1704
-455.992 -377.388 1701
-451.924 -377.388 1701
-447.856 -377.388 1701
-443.789 -377.388 1701
-439.721 -377.388 1701
-435.653 -377.388 1701
-431.078 -376.944 1699
-427.016 -376.944 1699
-422.953 -376.944 1699
-418.89 -376.944 1699
-414.827 -376.944 1699
-410.764 -376.944 1699
-406.701 -376.944 1699
-402.639 -376.944 1699
-398.576 -376.944 1699
-394.513 -376.944 1699
-390.91 -377.388 1701
-387.07 -377.61 1702
-383 -377.61 1702
-378.93 -377.61 1702
-375.3 -378.053 1704
-371.225 -378.053 1704
-367.151 -378.053 1704
-363.076 -378.053 1704
-359.001 -378.053 1704
-355.343 -378.497 1706
-351.263 -378.497 1706
-347.184 -378.497 1706
-342.702 -378.053 1704
-338.627 -378.053 1704
-334.552 -378.053 1704
-330.478 -378.053 1704
-326.02 -377.61 1702
-321.95 -377.61 1702
-317.88 -377.61 1702
-313.81 -377.61 1702
-309.74 -377.61 1702
-305.67 -377.61 1702
-301.6 -377.61 1702
-297.355 -377.388 1701
-293.287 -377.388 1701
-289.22 -377.388 1701
-285.152 -377.388 1701
-280.754 -376.944 1699
-276.691 -376.944 1699
-272.949 -377.388 1701
-268.882 -377.388 1701
-264.814 -377.388 1701
-260.746 -377.388 1701
-256.83 -377.61 1702
-253.057 -378.053 1704
-248.982 -378.053 1704
-245.195 -378.497 1706
-241.539 -379.163 1709
-238.008 -380.05 1713
-233.912 -380.05 1713
-230.084 -380.494 1715
-226.114 -380.716 1716
-222.528 -381.603 1720
-218.415 -381.603 1720
-214.676 -382.269 1723
-210.556 -382.269 1723
-206.915 -383.156 1727
-202.785 -383.156 1727
-199.116 -384.044 1731
-195.314 -384.709 1734
-191.609 -385.597 1738
-187.453 -385.597 1738
-183.613 -386.262 1741
-179.656 -386.706 1743
-176.394 -388.703 1752
-172.204 -388.703 1752
-168.206 -389.146 1754
-164.386 -390.034 1758
-160.547 -390.921 1762
-156.777 -392.031 1767
-152.551 -392.031 1767
-148.83 -393.362 1773
-144.59 -393.362 1773
-141.063 -395.359 1782
-136.801 -395.359 1782
-132.986 -396.69 1788
-128.711 -396.69 1788
-124.713 -397.577 1792
-120.428 -397.577 1792
-116.402 -398.465 1796
-112.232 -398.908 1798
-108.053 -399.352 1800
-103.748 -399.352 1800
-99.5544 -399.796 1802
-95.351 -400.24 1804
-91.0371 -400.24 1804
-86.7232 -400.24 1804
-82.455 -400.461 1805
-78.1387 -400.461 1805
-73.8224 -400.461 1805
-69.5061 -400.461 1805
-65.1898 -400.461 1805
-61.0084 -401.349 1809
-56.7452 -401.793 1811
-52.4145 -401.793 1811
-48.137 -402.236 1813
-43.8015 -402.236 1813
-39.4661 -402.236 1813
-35.1307 -402.236 1813
-30.9651 -404.455 1823
-26.6057 -404.455 1823
-22.2464 -404.455 1823
-17.887 -404.455 1823
181.658 -847.07 3818
190.788 -847.07 3818
199.918 -847.07 3818
208.555 -845.073 3809
218.635 -848.845 3826
229.392 -854.835 3853
239.72 -858.829 3871
248.977 -858.829 3871
258.234 -858.829 3871
267.49 -858.829 3871
276.747 -858.829 3871
286.004 -858.829 3871
295.261 -858.829 3871
302.393 -852.839 3844
311.586 -852.839 3844
320.778 -852.839 3844
329.197 -850.842 3835
338.368 -850.842 3835
344.367 -843.077 3800
353.454 -843.077 3800
362.541 -843.077 3800
370.845 -841.302 3792
385.123 -852.839 3844
399.854 -864.819 3898
409.176 -864.819 3898
418.497 -864.819 3898
427.818 -864.819 3898
437.14 -864.819 3898
442.338 -856.832 3862
453.677 -860.826 3880
462.956 -860.826 3880
472.234 -860.826 3880
481.512 -860.826 3880
490.791 -860.826 3880
502.389 -864.819 3898
511.71 -864.819 3898
522.234 -866.816 3907
531.577 -866.816 3907
540.92 -866.816 3907
550.263 -866.816 3907
559.606 -866.816 3907
568.948 -866.816 3907
579.623 -868.813 3916
588.988 -868.813 3916
598.352 -868.813 3916
607.716 -868.813 3916
615.662 -866.816 3907
619.246 -858.829 3871
628.503 -858.829 3871
634.794 -854.835 3853
640.999 -850.842 3835
1764.49 -904.976 4079
1774.24 -904.976 4079
1784 -904.976 4079
1784.96 -900.539 4059
1794.66 -900.539 4059
1787.03 -891.886 4020
1792.18 -889.668 4010
1797.72 -887.671 4001
1807.29 -887.671 4001
1803.69 -881.237 3972
1813.19 -881.237 3972
1822.69 -881.237 3972
1832.18 -881.237 3972
1832.87 -877.022 3953
1842.33 -877.022 3953
1838.66 -870.81 3925
1843.81 -868.813 3916
1853.17 -868.813 3916
1832.57 -854.835 3853
1825.06 -847.07 3818
3027.36 -900.539 4059
3037.07 -900.539 4059
3061.79 -904.976 4079
3071.54 -904.976 4079
3081.3 -904.976 4079
3091.05 -904.976 4079
3100.81 -904.976 4079
3110.56 -904.976 4079
3120.31 -904.976 4079
-2449.29 -785.691 3580
-2446.18 -787.447 3588
-2437.6 -787.447 3588
-2429.02 -787.447 3588
-2425.17 -788.983 3595
-2416.57 -788.983 3595
-2413.33 -790.739 3603
-2404.72 -790.739 3603
-2396.1 -790.739 3603
-2392.78 -792.495 3611
-2389.43 -794.25 3619
-2380.78 -794.25 3619
-2377.37 -796.006 3627
-2378.49 -799.298 3642
-2369.78 -799.298 3642
-2361.07 -799.298 3642
-2352.36 -799.298 3642
-2339.15 -797.762 3635
-2330.46 -797.762 3635
-2311.54 -794.25 3619
-2278.07 -785.691 3580
-2264.44 -783.935 3572
-2255.9 -783.935 3572
-2228.48 -777.351 3542
-681.11 -397.893 1813
-676.775 -397.893 1813
-674.665 -399.21 1819
-670.315 -399.21 1819
-665.965 -399.21 1819
-661.615 -399.21 1819
-657.266 -399.21 1819
-652.198 -398.771 1817
-647.853 -398.771 1817
-642.799 -398.332 1815
-638.459 -398.332 1815
-633.42 -397.893 1813
-629.085 -397.893 1813
-623.371 -397.015 1809
-617.676 -396.138 1805
-613.36 -396.138 1805
-609.044 -396.138 1805
-604.393 -395.918 1804
-600.079 -395.918 1804
-593.783 -394.601 1798
-589.484 -394.601 1798
-585.184 -394.601 1798
-577.008 -391.968 1786
-570.813 -390.651 1780
-562.418 -387.798 1767
-558.193 -387.798 1767
-551.773 -386.262 1760
-545.698 -384.945 1754
-539.96 -383.847 1749
-535.777 -383.847 1749
-529.163 -382.092 1741
-524.095 -381.433 1738
-519.341 -380.994 1736
-515.19 -380.994 1736
-509.566 -379.897 1731
-504.259 -379.019 1727
-498.681 -377.922 1722
-494.564 -377.922 1722
-489.307 -377.044 1718
-484.351 -376.386 1715
-478.57 -375.069 1709
-474.205 -374.849 1708
-470.121 -374.849 1708
-464.945 -373.971 1704
-460.871 -373.971 1704
-455.992 -373.313 1701
-451.924 -373.313 1701
-447.856 -373.313 1701
-443.789 -373.313 1701
-439.721 -373.313 1701
-435.653 -373.313 1701
-431.078 -372.874 1699
-427.016 -372.874 1699
-422.953 -372.874 1699
-418.89 -372.874 1699
-414.827 -372.874 1699
-410.764 -372.874 1699
-406.701 -372.874 1699
-402.639 -372.874 1699
-398.576 -372.874 1699
-394.513 -372.874 1699
-390.91 -373.313 1701
-387.07 -373.532 1702
-383 -373.532 1702
-378.93 -373.532 1702
-375.3 -373.971 1704
-371.225 -373.971 1704
-367.151 -373.971 1704
-363.076 -373.971 1704
-359.001 -373.971 1704
-355.343 -374.41 1706
-351.263 -374.41 1706
-347.184 -374.41 1706
-342.702 -373.971 1704
-338.627 -373.971 1704
-334.552 -373.971 1704
-330.478 -373.971 1704
-326.02 -373.532 1702
-321.95 -373.532 1702
-317.88 -373.532 1702
-313.81 -373.532 1702
-309.74 -373.532 1702
-305.67 -373.532 1702
-301.6 -373.532 1702
-297.355 -373.313 1701
-293.287 -373.313 1701
-289.22 -373.313 1701
-285.152 -373.313 1701
-280.754 -372.874 1699
-276.691 -372.874 1699
-272.949 -373.313 1701
-268.882 -373.313 1701
-264.814 -373.313 1701
-260.746 -373.313 1701
-256.83 -373.532 1702
-253.057 -373.971 1704
-248.982 -373.971 1704
-245.195 -374.41 1706
-241.539 -375.069 1709
-238.008 -375.947 1713
-233.912 -375.947 1713
-230.084 -376.386 1715
-226.114 -376.605 1716
-222.528 -377.483 1720
-218.415 -377.483 1720
-214.676 -378.141 1723
-210.556 -378.141 1723
-206.915 -379.019 1727
-202.785 -379.019 1727
-199.116 -379.897 1731
-195.314 -380.555 1734
-191.609 -381.433 1738
-187.453 -381.433 1738
-183.613 -382.092 1741
-179.656 -382.531 1743
-176.394 -384.506 1752
-172.204 -384.506 1752
-168.206 -384.945 1754
-164.386 -385.823 1758
-160.638 -386.92 1763
-156.777 -387.798 1767
-152.551 -387.798 1767
-148.83 -389.115 1773
-144.753 -389.554 1775
-141.221 -391.529 1784
-136.955 -391.529 1784
-132.986 -392.407 1788
-128.855 -392.846 1790
-124.852 -393.723 1794
-120.562 -393.723 1794
-116.402 -394.162 1796
-112.232 -394.601 1798
-108.053 -395.04 1800
-103.748 -395.04 1800
-99.5544 -395.479 1802
-95.351 -395.918 1804
-91.0371 -395.918 1804
-86.7232 -395.918 1804
-82.455 -396.138 1805
-78.1387 -396.138 1805
-73.8224 -396.138 1805
-69.5061 -396.138 1805
-65.1898 -396.138 1805
-61.0084 -397.015 1809
-56.7452 -397.454 1811
-52.4145 -397.454 1811
-48.137 -397.893 1813
-43.8015 -397.893 1813
-39.4661 -397.893 1813
-35.1307 -397.893 1813
-30.9651 -400.088 1823
-26.6057 -400.088 1823
-22.2464 -400.088 1823
-17.887 -400.088 1823
-13.4683 -398.332 1815
160.491 -871.722 3972
169.989 -871.722 3972
179.487 -871.722 3972
188.985 -871.722 3972
197.084 -865.577 3944
206.516 -865.577 3944
214.907 -861.407 3925
224.293 -861.407 3925
233.678 -861.407 3925
243.064 -861.407 3925
251.871 -859.432 3916
261.236 -859.432 3916
271.222 -861.407 3925
280.608 -861.407 3925
289.994 -861.407 3925
299.38 -861.407 3925
305.225 -851.531 3880
312.315 -845.606 3853
321.529 -845.606 3853
329.97 -843.63 3844
339.162 -843.63 3844
346.723 -839.68 3826
355.872 -839.68 3826
365.021 -839.68 3826
371.628 -833.974 3800
386.025 -845.606 3853
399.854 -855.482 3898
409.176 -855.482 3898
418.497 -855.482 3898
427.818 -855.482 3898
437.14 -855.482 3898
444.399 -851.531 3880
454.73 -853.506 3889
465.103 -855.482 3898
474.425 -855.482 3898
483.746 -855.482 3898
493.067 -855.482 3898
503.549 -857.457 3907
512.891 -857.457 3907
522.234 -857.457 3907
539.196 -869.747 3963
548.673 -869.747 3963
558.15 -869.747 3963
566.194 -867.552 3953
575.647 -867.552 3953
583.768 -865.577 3944
593.199 -865.577 3944
602.63 -865.577 3944
612.062 -865.577 3944
618.499 -861.407 3925
627.885 -861.407 3925
637.271 -861.407 3925
642.208 -855.482 3898
640.999 -841.655 3835
1768.82 -897.4 4089
1778.59 -897.4 4089
1788.37 -897.4 4089
1789.36 -893.01 4069
1799.09 -893.01 4069
1795.48 -886.426 4039
1796.65 -882.256 4020
1806.26 -882.256 4020
1815.87 -882.256 4020
1816.86 -878.087 4001
1821.86 -875.892 3991
1831.4 -875.892 3991
1840.95 -875.892 3991
1846.32 -873.917 3982
1851.18 -871.722 3972
1856.46 -869.747 3963
1865.94 -869.747 3963
1875.42 -869.747 3963
1862.54 -859.432 3916
1854.69 -851.531 3880
3027.36 -890.816 4059
3037.07 -890.816 4059
3061.79 -895.205 4079
3071.54 -895.205 4079
3081.3 -895.205 4079
3091.05 -895.205 4079
3100.81 -895.205 4079
3095.31 -890.816 4059
3105.01 -890.816 4059
-2465.03 -782.108 3603
-2456.41 -782.108 3603
-2447.79 -782.108 3603
-2439.18 -782.108 3603
-2435.96 -783.844 3611
-2427.32 -783.844 3611
-2418.69 -783.844 3611
-2410.05 -783.844 3611
-2401.42 -783.844 3611
-2398.09 -785.581 3619
-2389.43 -785.581 3619
-2380.78 -785.581 3619
-2392.44 -792.31 3650
-2383.71 -792.31 3650
-2374.99 -792.31 3650
-2366.26 -792.31 3650
-2357.53 -792.31 3650
-2343.65 -790.574 3642
-2334.94 -790.574 3642
-2311.54 -785.581 3619
-2278.07 -777.115 3580
-2264.44 -775.379 3572
-2255.9 -775.379 3572
-2228.48 -768.866 3542
-680.359 -393.116 1811
-676.028 -393.116 1811
-672.439 -393.55 1813
-669.578 -394.419 1817
-665.233 -394.419 1817
-660.888 -394.419 1817
-656.543 -394.419 1817
-652.198 -394.419 1817
-647.853 -394.419 1817
-642.091 -393.55 1813
-637.756 -393.55 1813
-633.42 -393.55 1813
-629.085 -393.55 1813
-622.682 -392.248 1807
-617.676 -391.814 1805
-613.02 -391.597 1804
-608.706 -391.597 1804
-604.393 -391.597 1804
-600.079 -391.597 1804
-593.783 -390.294 1798
-589.484 -390.294 1798
-585.184 -390.294 1798
-577.008 -387.689 1786
-570.813 -386.387 1780
-562.418 -383.565 1767
-558.193 -383.565 1767
-551.146 -381.611 1758
-544.764 -380.092 1751
-539.342 -379.224 1747
-535.165 -379.224 1747
-528.859 -377.704 1740
-523.492 -376.836 1736
-518.743 -376.402 1734
-514.596 -376.402 1734
-508.389 -374.882 1727
-503.675 -374.448 1725
-498.681 -373.797 1722
-494.564 -373.797 1722
-488.737 -372.494 1716
-484.351 -372.277 1715
-478.29 -370.758 1708
-474.205 -370.758 1708
-470.121 -370.758 1708
-464.945 -369.889 1704
-460.33 -369.455 1702
-455.992 -369.238 1701
-451.924 -369.238 1701
-447.856 -369.238 1701
-443.789 -369.238 1701
-439.721 -369.238 1701
-435.653 -369.238 1701
-431.078 -368.804 1699
-427.016 -368.804 1699
-422.455 -368.37 1697
-418.397 -368.37 1697
-414.339 -368.37 1697
-410.764 -368.804 1699
-406.701 -368.804 1699
-402.639 -368.804 1699
-398.576 -368.804 1699
-394.513 -368.804 1699
-390.91 -369.238 1701
-387.07 -369.455 1702
-383 -369.455 1702
-378.93 -369.455 1702
-375.3 -369.889 1704
-371.225 -369.889 1704
-367.151 -369.889 1704
-363.076 -369.889 1704
-359.001 -369.889 1704
-354.926 -369.889 1704
-350.851 -369.889 1704
-346.777 -369.889 1704
-342.702 -369.889 1704
-338.627 -369.889 1704
-334.552 -369.889 1704
-330.478 -369.889 1704
-326.02 -369.455 1702
-321.95 -369.455 1702
-317.88 -369.455 1702
-313.81 -369.455 1702
-309.558 -369.238 1701
-305.49 -369.238 1701
-301.422 -369.238 1701
-297.355 -369.238 1701
-293.287 -369.238 1701
-288.88 -368.804 1699
-284.817 -368.804 1699
-280.754 -368.804 1699
-276.691 -368.804 1699
-272.628 -368.804 1699
-268.882 -369.238 1701
-264.814 -369.238 1701
-260.746 -369.238 1701
-256.679 -369.238 1701
-253.057 -369.889 1704
-248.982 -369.889 1704
-245.195 -370.324 1706
-241.539 -370.975 1709
-238.008 -371.843 1713
-233.912 -371.843 1713
-230.084 -372.277 1715
-226.114 -372.494 1716
-222.528 -373.363 1720
-218.415 -373.363 1720
-214.676 -374.014 1723
-210.556 -374.014 1723
-206.915 -374.882 1727
-202.785 -374.882 1727
-198.885 -375.316 1729
-195.314 -376.402 1734
-191.609 -377.27 1738
-187.453 -377.27 1738
-183.613 -377.921 1741
-179.656 -378.355 1743
-176.394 -380.309 1752
-172.204 -380.309 1752
-168.206 -380.743 1754
-164.386 -381.611 1758
-160.638 -382.697 1763
-156.777 -383.565 1767
-152.551 -383.565 1767
-148.83 -384.867 1773
-144.753 -385.302 1775
-141.221 -387.255 1784
-136.955 -387.255 1784
-132.986 -388.123 1788
-128.855 -388.558 1790
-124.852 -389.426 1794
-120.562 -389.426 1794
-116.402 -389.86 1796
-112.232 -390.294 1798
-108.053 -390.728 1800
-103.748 -390.728 1800
-99.5544 -391.162 1802
-95.351 -391.597 1804
-91.0371 -391.597 1804
-86.7232 -391.597 1804
-82.455 -391.814 1805
-78.1387 -391.814 1805
-73.8224 -391.814 1805
-69.5061 -391.814 1805
-65.1898 -391.814 1805
-61.0084 -392.682 1809
-56.7452 -393.116 1811
-52.4145 -393.116 1811
-48.137 -393.55 1813
-43.8015 -393.55 1813
-39.4661 -393.55 1813
-35.1307 -393.55 1813
-30.9311 -395.287 1821
-26.6057 -395.721 1823
-22.2464 -395.721 1823
-17.887 -395.721 1823
-13.4683 -393.984 1815
160.491 -862.207 3972
169.989 -862.207 3972
179.487 -862.207 3972
188.985 -862.207 3972
197.084 -856.129 3944
206.516 -856.129 3944
214.907 -852.005 3925
224.293 -852.005 3925
233.678 -852.005 3925
243.064 -852.005 3925
251.871 -850.051 3916
261.236 -850.051 3916
271.222 -852.005 3925
280.608 -852.005 3925
289.994 -852.005 3925
299.38 -852.005 3925
305.225 -842.237 3880
312.315 -836.376 3853
321.529 -836.376 3853
329.97 -834.422 3844
339.162 -834.422 3844
346.723 -830.515 3826
355.872 -830.515 3826
365.021 -830.515 3826
371.628 -824.871 3800
386.025 -836.376 3853
398.931 -844.19 3889
408.231 -844.19 3889
417.531 -844.19 3889
426.831 -844.19 3889
436.13 -844.19 3889
444.399 -842.237 3880
454.73 -844.19 3889
465.103 -846.144 3898
474.425 -846.144 3898
483.746 -846.144 3898
493.067 -846.144 3898
503.549 -848.097 3907
512.891 -848.097 3907
522.234 -848.097 3907
539.196 -860.253 3963
548.673 -860.253 3963
558.15 -860.253 3963
566.194 -858.083 3953
575.647 -858.083 3953
583.768 -856.129 3944
593.199 -856.129 3944
602.63 -856.129 3944
612.062 -856.129 3944
618.499 -852.005 3925
627.885 -852.005 3925
637.271 -852.005 3925
642.208 -846.144 3898
640.999 -832.468 3835
1768.82 -887.604 4089
1778.59 -887.604 4089
1788.37 -887.604 4089
1789.36 -883.263 4069
1799.09 -883.263 4069
1795.48 -876.751 4039
1796.65 -872.627 4020
1806.26 -872.627 4020
1815.87 -872.627 4020
1816.86 -868.502 4001
1821.86 -866.331 3991
1831.4 -866.331 3991
1840.95 -866.331 3991
1846.32 -864.378 3982
1851.18 -862.207 3972
1856.46 -860.253 3963
1865.94 -860.253 3963
1875.42 -860.253 3963
1862.54 -850.051 3916
1854.69 -842.237 3880
3027.36 -881.092 4059
3037.07 -881.092 4059
3061.79 -885.434 4079
3079.07 -887.604 4089
3088.85 -887.604 4089
3098.63 -887.604 4089
3100.81 -885.434 4079
3095.31 -881.092 4059
3105.01 -881.092 4059
-2465.03 -773.477 3603
-2456.41 -773.477 3603
-2447.79 -773.477 3603
-2439.18 -773.477 3603
-2435.96 -775.194 3611
-2427.32 -775.194 3611
-2418.69 -775.194 3611
-2410.05 -775.194 3611
-2401.42 -775.194 3611
-2398.09 -776.912 3619
-2389.43 -776.912 3619
-2380.78 -776.912 3619
-2392.44 -783.567 3650
-2383.71 -783.567 3650
-2374.99 -783.567 3650
-2366.26 -783.567 3650
-2357.53 -783.567 3650
-2343.65 -781.849 3642
-2334.94 -781.849 3642
-2311.54 -776.912 3619
-2278.07 -768.539 3580
-2260 -765.319 3565
-2251.48 -765.319 3565
-2228.48 -760.382 3542
-680.359 -388.778 1811
-676.028 -388.778 1811
-671.697 -388.778 1811
-669.578 -390.066 1817
-665.233 -390.066 1817
-660.888 -390.066 1817
-656.543 -390.066 1817
-651.48 -389.637 1815
-647.14 -389.637 1815
-642.091 -389.207 1813
-637.756 -389.207 1813
-632.722 -388.778 1811
-628.391 -388.778 1811
-622.682 -387.919 1807
-617.334 -387.275 1804
-613.02 -387.275 1804
-608.706 -387.275 1804
-603.722 -386.846 1802
-599.413 -386.846 1802
-593.783 -385.987 1798
-588.172 -385.128 1794
-583.882 -385.128 1794
-577.008 -383.411 1786
-570.492 -381.908 1779
-561.782 -378.903 1765
-557.561 -378.903 1765
-550.519 -376.971 1756
-544.764 -375.897 1751
-538.725 -374.609 1745
-534.552 -374.609 1745
-528.251 -373.106 1738
-523.492 -372.677 1736
-518.144 -371.818 1732
-514.003 -371.818 1732
-508.389 -370.745 1727
-503.675 -370.316 1725
-498.102 -369.242 1720
-493.989 -369.242 1720
-489.307 -368.813 1718
-484.351 -368.169 1715
-478.57 -366.881 1709
-474.205 -366.666 1708
-470.121 -366.666 1708
-464.945 -365.807 1704
-460.33 -365.378 1702
-456.26 -365.378 1702
-452.19 -365.378 1702
-447.856 -365.163 1701
-443.789 -365.163 1701
-439.721 -365.163 1701
-435.653 -365.163 1701
-431.586 -365.163 1701
-427.016 -364.734 1699
-422.953 -364.734 1699
-418.89 -364.734 1699
-414.827 -364.734 1699
-410.764 -364.734 1699
-406.701 -364.734 1699
-402.639 -364.734 1699
-398.576 -364.734 1699
-394.513 -364.734 1699
-390.91 -365.163 1701
-387.07 -365.378 1702
-383 -365.378 1702
-378.93 -365.378 1702
-375.3 -365.807 1704
-371.225 -365.807 1704
-367.151 -365.807 1704
-363.076 -365.807 1704
-359.001 -365.807 1704
-354.926 -365.807 1704
-350.44 -365.378 1702
-346.37 -365.378 1702
-342.702 -365.807 1704
-338.627 -365.807 1704
-334.552 -365.807 1704
-330.09 -365.378 1702
-326.02 -365.378 1702
-321.76 -365.163 1701
-317.693 -365.163 1701
-313.625 -365.163 1701
-309.558 -365.163 1701
-305.49 -365.163 1701
-301.422 -365.163 1701
-297.355 -365.163 1701
-292.942 -364.734 1699
-288.88 -364.734 1699
-284.817 -364.734 1699
-280.423 -364.305 1697
-276.365 -364.305 1697
-272.628 -364.734 1699
-268.565 -364.734 1699
-264.503 -364.734 1699
-260.44 -364.734 1699
-256.679 -365.163 1701
-252.76 -365.378 1702
-248.69 -365.378 1702
-245.195 -366.237 1706
-241.539 -366.881 1709
-238.008 -367.74 1713
-233.912 -367.74 1713
-230.084 -368.169 1715
-226.114 -368.384 1716
-222.27 -368.813 1718
-218.161 -368.813 1718
-214.676 -369.886 1723
-210.8 -370.316 1725
-206.915 -370.745 1727
-202.785 -370.745 1727
-198.885 -371.174 1729
-195.314 -372.248 1734
-191.609 -373.106 1738
-187.453 -373.106 1738
-183.824 -374.18 1743
-179.862 -374.609 1745
-176.595 -376.541 1754
-172.401 -376.541 1754
-168.206 -376.541 1754
-164.573 -377.829 1760
-160.82 -378.903 1765
-156.954 -379.761 1769
-152.724 -379.761 1769
-148.83 -380.62 1773
-145.079 -381.908 1779
-141.221 -382.982 1784
-136.955 -382.982 1784
-132.986 -383.84 1788
-128.855 -384.27 1790
-124.852 -385.128 1794
-120.562 -385.128 1794
-116.402 -385.558 1796
-112.232 -385.987 1798
-108.053 -386.416 1800
-103.748 -386.416 1800
-99.5544 -386.846 1802
-95.351 -387.275 1804
-91.0371 -387.275 1804
-86.7232 -387.275 1804
-82.455 -387.49 1805
-78.1387 -387.49 1805
-73.8224 -387.49 1805
-69.5061 -387.49 1805
-65.1898 -387.49 1805
-60.9409 -387.919 1807
-56.7452 -388.778 1811
-52.4145 -388.778 1811
-48.0839 -388.778 1811
-43.8015 -389.207 1813
-39.4661 -389.207 1813
-35.1307 -389.207 1813
-30.8971 -390.495 1819
-26.5474 -390.495 1819
-22.1976 -390.495 1819
-17.8478 -390.495 1819
-13.4683 -389.637 1815
160.491 -852.692 3972
169.989 -852.692 3972
179.487 -852.692 3972
188.985 -852.692 3972
197.084 -846.681 3944
206.516 -846.681 3944
215.947 -846.681 3944
226.978 -852.692 3972
236.477 -852.692 3972
245.975 -852.692 3972
253.093 -844.749 3935
261.836 -842.602 3925
271.222 -842.602 3925
281.323 -844.749 3935
290.732 -844.749 3935
300.142 -844.749 3935
306.641 -836.806 3898
314.504 -832.942 3880
323.782 -832.942 3880
330.742 -827.146 3853
339.956 -827.146 3853
347.539 -823.282 3835
356.709 -823.282 3835
365.021 -821.349 3826
372.508 -817.7 3809
386.025 -827.146 3853
398.931 -834.874 3889
408.231 -834.874 3889
417.531 -834.874 3889
426.831 -834.874 3889
436.13 -834.874 3889
445.43 -834.874 3889
456.835 -838.738 3907
468.325 -842.602 3925
477.711 -842.602 3925
487.097 -842.602 3925
500.024 -848.613 3953
509.477 -848.613 3953
522.737 -854.839 3982
532.259 -854.839 3982
543.006 -856.771 3991
552.55 -856.771 3991
562.093 -856.771 3991
571.637 -856.771 3991
581.181 -856.771 3991
590.724 -856.771 3991
600.268 -856.771 3991
609.812 -856.771 3991
619.355 -856.771 3991
628.899 -856.771 3991
638.443 -856.771 3991
647.987 -856.771 3991
642.208 -836.806 3898
1768.82 -877.809 4089
1778.59 -877.809 4089
1788.37 -877.809 4089
1789.36 -873.516 4069
1799.09 -873.516 4069
1799.93 -869.222 4049
1805.14 -867.075 4039
1814.8 -867.075 4039
1824.46 -867.075 4039
1834.11 -867.075 4039
1843.77 -867.075 4039
1853.43 -867.075 4039
1863.09 -867.075 4039
1863.94 -862.997 4020
1873.55 -862.997 4020
1874.26 -858.918 4001
1874.89 -854.839 3982
1884.41 -854.839 3982
1893.93 -854.839 3982
1859 -834.874 3889
1868.3 -834.874 3889
1877.6 -834.874 3889
3027.36 -871.369 4059
3037.07 -871.369 4059
3061.79 -875.662 4079
3079.07 -877.809 4089
3088.85 -877.809 4089
3098.63 -877.809 4089
3100.81 -875.662 4079
3095.31 -871.369 4059
3105.01 -871.369 4059
-2475.97 -768.242 3619
-2467.32 -768.242 3619
-2458.66 -768.242 3619
-2450.01 -768.242 3619
-2446.75 -769.94 3627
-2448.16 -773.125 3642
-2439.45 -773.125 3642
-2430.74 -773.125 3642
-2422.04 -773.125 3642
-2413.33 -773.125 3642
-2421.12 -778.432 3667
-2412.35 -778.432 3667
-2403.59 -778.432 3667
-2420.94 -786.923 3707
-2412.07 -786.923 3707
-2403.21 -786.923 3707
-2394.35 -786.923 3707
-2385.48 -786.923 3707
-2356.1 -780.13 3675
-2336.45 -776.521 3658
-2327.71 -776.521 3658
-2318.96 -776.521 3658
-2310.21 -776.521 3658
-678.105 -383.166 1805
-673.788 -383.166 1805
-671.697 -384.44 1811
-668.841 -385.289 1815
-665.233 -385.713 1817
-660.888 -385.713 1817
-656.543 -385.713 1817
-651.48 -385.289 1815
-647.14 -385.289 1815
-642.799 -385.289 1815
-637.756 -384.864 1813
-632.722 -384.44 1811
-628.391 -384.44 1811
-621.648 -382.954 1804
-616.65 -382.529 1802
-612.341 -382.529 1802
-608.032 -382.529 1802
-603.052 -382.104 1800
-598.083 -381.68 1798
-593.123 -381.255 1796
-586.861 -379.982 1790
-582.58 -379.982 1790
-576.362 -378.708 1784
-569.209 -376.797 1775
-561.145 -374.25 1763
-556.929 -374.25 1763
-549.892 -372.34 1754
-544.142 -371.278 1749
-538.725 -370.429 1745
-534.552 -370.429 1745
-528.251 -368.943 1738
-523.492 -368.519 1736
-518.144 -367.669 1732
-514.003 -367.669 1732
-508.978 -367.033 1729
-504.259 -366.608 1727
-498.681 -365.547 1722
-494.564 -365.547 1722
-489.876 -365.122 1720
-485.198 -364.697 1718
-479.13 -363.212 1711
-474.205 -362.575 1708
-470.121 -362.575 1708
-466.037 -362.575 1708
-460.871 -361.726 1704
-456.26 -361.301 1702
-452.19 -361.301 1702
-448.12 -361.301 1702
-443.789 -361.089 1701
-439.721 -361.089 1701
-435.653 -361.089 1701
-431.586 -361.089 1701
-427.518 -361.089 1701
-422.953 -360.664 1699
-418.89 -360.664 1699
-414.827 -360.664 1699
-410.764 -360.664 1699
-406.701 -360.664 1699
-402.639 -360.664 1699
-398.576 -360.664 1699
-394.513 -360.664 1699
-390.91 -361.089 1701
-386.842 -361.089 1701
-382.775 -361.089 1701
-378.93 -361.301 1702
-374.86 -361.301 1702
-370.79 -361.301 1702
-366.72 -361.301 1702
-362.65 -361.301 1702
-358.58 -361.301 1702
-354.51 -361.301 1702
-350.44 -361.301 1702
-346.37 -361.301 1702
-342.3 -361.301 1702
-338.23 -361.301 1702
-334.16 -361.301 1702
-330.09 -361.301 1702
-325.828 -361.089 1701
-321.76 -361.089 1701
-317.693 -361.089 1701
-313.257 -360.664 1699
-309.194 -360.664 1699
-305.131 -360.664 1699
-301.068 -360.664 1699
-297.005 -360.664 1699
-292.942 -360.664 1699
-288.54 -360.24 1697
-284.481 -360.24 1697
-280.423 -360.24 1697
-276.365 -360.24 1697
-272.307 -360.24 1697
-268.565 -360.664 1699
-264.503 -360.664 1699
-260.44 -360.664 1699
-256.377 -360.664 1699
-252.76 -361.301 1702
-248.69 -361.301 1702
-244.907 -361.726 1704
-241.398 -362.575 1708
-238.008 -363.636 1713
-233.912 -363.636 1713
-230.084 -364.061 1715
-226.114 -364.273 1716
-222.27 -364.697 1718
-218.161 -364.697 1718
-214.552 -365.547 1722
-210.8 -366.183 1725
-206.675 -366.183 1725
-202.55 -366.183 1725
-198.885 -367.033 1729
-195.539 -368.519 1736
-191.829 -369.368 1740
-187.668 -369.368 1740
-184.035 -370.429 1745
-180.068 -370.854 1747
-176.595 -372.34 1754
-172.401 -372.34 1754
-168.59 -373.189 1758
-164.854 -374.25 1763
-161.185 -375.524 1769
-156.954 -375.524 1769
-152.897 -375.948 1771
-149.165 -377.222 1777
-145.079 -377.647 1779
-141.379 -379.133 1786
-137.108 -379.133 1786
-133.135 -379.982 1790
-128.998 -380.406 1792
-124.852 -380.831 1794
-120.562 -380.831 1794
-116.402 -381.255 1796
-112.232 -381.68 1798
-108.053 -382.104 1800
-103.748 -382.104 1800
-99.5544 -382.529 1802
-95.351 -382.954 1804
-91.0371 -382.954 1804
-86.7232 -382.954 1804
-82.455 -383.166 1805
-78.1387 -383.166 1805
-73.8224 -383.166 1805
-69.4676 -382.954 1804
-65.1536 -382.954 1804
-60.9409 -383.59 1807
-56.6825 -384.015 1809
-52.3566 -384.015 1809
-48.0839 -384.44 1811
-43.7532 -384.44 1811
-39.4226 -384.44 1811
-35.0919 -384.44 1811
-30.7952 -384.864 1813
-26.4598 -384.864 1813
-22.1244 -384.864 1813
-17.7693 -384.44 1811
-13.4387 -384.44 1811
-9.06274 -382.529 1802
-4.75361 -382.529 1802
200.882 -853.367 4020
210.495 -853.367 4020
220.108 -853.367 4020
227.55 -845.3 3982
237.072 -845.3 3982
246.594 -845.3 3982
255.473 -843.177 3972
262.503 -835.323 3935
271.913 -835.323 3935
281.323 -835.323 3935
290.732 -835.323 3935
300.142 -835.323 3935
306.641 -827.468 3898
315.963 -827.468 3898
325.284 -827.468 3898
330.742 -817.916 3853
339.956 -817.916 3853
347.539 -814.095 3835
356.709 -814.095 3835
365.021 -812.184 3826
372.508 -808.576 3809
386.025 -817.916 3853
398.931 -825.558 3889
408.231 -825.558 3889
417.531 -825.558 3889
426.831 -825.558 3889
438.149 -829.379 3907
447.492 -829.379 3907
458.939 -833.2 3925
469.518 -835.323 3935
481.119 -839.144 3953
490.572 -839.144 3953
500.024 -839.144 3953
515.664 -849.333 4001
525.231 -849.333 4001
534.799 -849.333 4001
545.591 -851.244 4010
555.18 -851.244 4010
564.769 -851.244 4010
574.358 -851.244 4010
583.948 -851.244 4010
595.017 -853.367 4020
608.992 -859.523 4049
618.674 -859.523 4049
628.356 -859.523 4049
638.039 -859.523 4049
647.721 -859.523 4049
657.404 -859.523 4049
1768.82 -868.014 4089
1778.59 -868.014 4089
1788.37 -868.014 4089
1784.96 -861.646 4059
1794.66 -861.646 4059
1804.37 -861.646 4059
1814.08 -861.646 4059
1823.78 -861.646 4059
1833.49 -861.646 4059
1843.2 -861.646 4059
1848.34 -859.523 4049
1858.02 -859.523 4049
1867.7 -859.523 4049
1872.75 -857.4 4039
1882.41 -857.4 4039
1883.16 -853.367 4020
1892.78 -853.367 4020
1897.66 -851.244 4010
1893.93 -845.3 3982
1903.45 -845.3 3982
1868.3 -825.558 3889
1877.6 -825.558 3889
3027.36 -861.646 4059
3037.07 -861.646 4059
3061.79 -865.891 4079
3079.07 -868.014 4089
3088.85 -868.014 4089
3098.63 -868.014 4089
3100.81 -865.891 4079
3095.31 -861.646 4059
3105.01 -861.646 4059
-2475.97 -759.573 3619
-2467.32 -759.573 3619
-2458.66 -759.573 3619
-2450.01 -759.573 3619
-2456.87 -764.4 3642
-2453.54 -766.079 3650
-2444.81 -766.079 3650
-2436.08 -766.079 3650
-2432.68 -767.758 3658
-2429.89 -769.647 3667
-2421.12 -769.647 3667
-2422.88 -773.006 3683
-2429.8 -778.043 3707
-2432.04 -781.611 3724
-2423.14 -781.611 3724
-2419.42 -783.29 3732
-2410.49 -783.29 3732
-2401.57 -783.29 3732
-2376.62 -778.043 3707
-2347.31 -771.326 3675
-2327.71 -767.758 3658
-2318.96 -767.758 3658
-2310.21 -767.758 3658
-678.856 -379.262 1807
-674.535 -379.262 1807
-671.697 -380.101 1811
-668.841 -380.941 1815
-665.233 -381.361 1817
-660.888 -381.361 1817
-656.543 -381.361 1817
-652.198 -381.361 1817
-647.853 -381.361 1817
-642.799 -380.941 1815
-638.459 -380.941 1815
-633.42 -380.521 1813
-629.085 -380.521 1813
-622.682 -379.262 1807
-616.65 -378.212 1802
-612.341 -378.212 1802
-608.032 -378.212 1802
-603.052 -377.793 1800
-598.083 -377.373 1798
-593.123 -376.953 1796
-586.861 -375.694 1790
-582.58 -375.694 1790
-576.362 -374.434 1784
-569.209 -372.545 1775
-561.145 -370.027 1763
-556.929 -370.027 1763
-549.892 -368.138 1754
-544.142 -367.088 1749
-538.725 -366.249 1745
-534.552 -366.249 1745
-528.859 -365.199 1740
-523.492 -364.36 1736
-518.144 -363.52 1732
-514.003 -363.52 1732
-508.978 -362.891 1729
-504.259 -362.471 1727
-498.681 -361.422 1722
-494.564 -361.422 1722
-489.876 -361.002 1720
-485.198 -360.582 1718
-479.69 -359.533 1713
-475.038 -359.113 1711
-470.947 -359.113 1711
-466.037 -358.483 1708
-461.411 -358.063 1706
-456.796 -357.644 1704
-452.721 -357.644 1704
-448.12 -357.224 1702
-444.05 -357.224 1702
-439.98 -357.224 1702
-435.91 -357.224 1702
-431.586 -357.014 1701
-427.518 -357.014 1701
-422.953 -356.594 1699
-418.89 -356.594 1699
-414.827 -356.594 1699
-410.764 -356.594 1699
-406.701 -356.594 1699
-402.639 -356.594 1699
-398.576 -356.594 1699
-394.513 -356.594 1699
-390.91 -357.014 1701
-386.842 -357.014 1701
-382.775 -357.014 1701
-378.93 -357.224 1702
-374.86 -357.224 1702
-370.79 -357.224 1702
-366.72 -357.224 1702
-362.65 -357.224 1702
-358.58 -357.224 1702
-354.51 -357.224 1702
-350.44 -357.224 1702
-346.37 -357.224 1702
-342.3 -357.224 1702
-338.23 -357.224 1702
-334.16 -357.224 1702
-330.09 -357.224 1702
-325.828 -357.014 1701
-321.76 -357.014 1701
-317.693 -357.014 1701
-313.257 -356.594 1699
-309.194 -356.594 1699
-305.131 -356.594 1699
-301.068 -356.594 1699
-297.005 -356.594 1699
-292.942 -356.594 1699
-288.54 -356.174 1697
-284.481 -356.174 1697
-280.423 -356.174 1697
-276.365 -356.174 1697
-272.307 -356.174 1697
-268.565 -356.594 1699
-264.503 -356.594 1699
-260.44 -356.594 1699
-256.377 -356.594 1699
-252.76 -357.224 1702
-248.69 -357.224 1702
-245.195 -358.063 1706
-241.398 -358.483 1708
-238.008 -359.533 1713
-233.912 -359.533 1713
-230.084 -359.952 1715
-226.114 -360.162 1716
-222.27 -360.582 1718
-218.161 -360.582 1718
-214.676 -361.631 1723
-210.8 -362.051 1725
-206.915 -362.471 1727
-202.785 -362.471 1727
-198.885 -362.891 1729
-195.539 -364.36 1736
-191.939 -365.409 1741
-187.776 -365.409 1741
-184.035 -366.249 1745
-180.274 -367.088 1749
-176.595 -368.138 1754
-172.401 -368.138 1754
-168.782 -369.397 1760
-164.854 -370.027 1763
-161.185 -371.286 1769
-156.954 -371.286 1769
-153.242 -372.545 1775
-149.333 -373.385 1779
-145.161 -373.595 1780
-141.379 -374.854 1786
-137.108 -374.854 1786
-133.284 -376.113 1792
-129.142 -376.533 1794
-124.992 -376.953 1796
-120.697 -376.953 1796
-116.661 -377.793 1800
-112.357 -377.793 1800
-108.173 -378.212 1802
-103.864 -378.212 1802
-99.5544 -378.212 1802
-95.351 -378.632 1804
-91.0876 -378.842 1805
-86.7713 -378.842 1805
-82.5463 -379.262 1807
-78.2252 -379.262 1807
-73.9042 -379.262 1807
-69.5061 -378.842 1805
-65.1536 -378.632 1804
-60.9409 -379.262 1807
-56.6825 -379.682 1809
-52.3566 -379.682 1809
-48.0839 -380.101 1811
-43.7532 -380.101 1811
-39.4226 -380.101 1811
-35.0919 -380.101 1811
-30.7952 -380.521 1813
-26.4598 -380.521 1813
-22.1244 -380.521 1813
-17.7693 -380.101 1811
-13.4387 -380.101 1811
-9.06274 -378.212 1802
-4.75361 -378.212 1802
-0.443497 -377.373 1798
200.882 -843.737 4020
210.495 -843.737 4020
220.108 -843.737 4020
228.064 -837.65 3991
237.072 -835.761 3982
246.594 -835.761 3982
255.473 -833.662 3972
262.503 -825.896 3935
271.913 -825.896 3935
281.323 -825.896 3935
290.732 -825.896 3935
300.142 -825.896 3935
306.641 -818.131 3898
315.963 -818.131 3898
325.284 -818.131 3898
330.742 -808.686 3853
339.956 -808.686 3853
347.539 -804.908 3835
356.709 -804.908 3835
365.021 -803.019 3826
372.508 -799.451 3809
386.025 -808.686 3853
398.931 -816.242 3889
408.231 -816.242 3889
417.531 -816.242 3889
426.831 -816.242 3889
438.149 -820.02 3907
447.492 -820.02 3907
460.108 -825.896 3935
469.518 -825.896 3935
481.119 -829.674 3953
490.572 -829.674 3953
506.096 -839.749 4001
515.664 -839.749 4001
526.413 -841.638 4010
536.002 -841.638 4010
549.537 -847.724 4039
559.195 -847.724 4039
568.854 -847.724 4039
578.512 -847.724 4039
585.404 -843.737 4020
596.497 -845.836 4030
608.992 -849.823 4049
618.674 -849.823 4049
628.356 -849.823 4049
638.039 -849.823 4049
647.721 -849.823 4049
657.404 -849.823 4049
1768.82 -858.219 4089
1778.59 -858.219 4089
1788.37 -858.219 4089
1784.96 -851.922 4059
1794.66 -851.922 4059
1804.37 -851.922 4059
1814.08 -851.922 4059
1823.78 -851.922 4059
1833.49 -851.922 4059
1843.2 -851.922 4059
1852.9 -851.922 4059
1862.61 -851.922 4059
1872.31 -851.922 4059
1872.75 -847.724 4039
1882.41 -847.724 4039
1883.16 -843.737 4020
1892.78 -843.737 4020
1897.66 -841.638 4010
1893.93 -835.761 3982
1903.45 -835.761 3982
1868.3 -816.242 3889
1877.6 -816.242 3889
3027.36 -851.922 4059
3037.07 -851.922 4059
3054.28 -854.021 4069
3079.07 -858.219 4089
3088.85 -858.219 4089
3098.63 -858.219 4089
3100.81 -856.12 4079
3095.31 -851.922 4059
3105.01 -851.922 4059
-2475.97 -750.904 3619
-2467.32 -750.904 3619
-2458.66 -750.904 3619
-2450.01 -750.904 3619
-2456.87 -755.676 3642
-2453.54 -757.336 3650
-2444.81 -757.336 3650
-2441.42 -758.996 3658
-2432.68 -758.996 3658
-2445.8 -765.843 3691
-2436.97 -765.843 3691
-2428.14 -765.843 3691
-2440.95 -772.69 3724
-2437.27 -774.35 3732
-2428.34 -774.35 3732
-2419.42 -774.35 3732
-2410.49 -774.35 3732
-2401.57 -774.35 3732
-2376.62 -769.163 3707
-2357.53 -765.843 3691
-2327.71 -758.996 3658
-2318.96 -758.996 3658
-2310.21 -758.996 3658
-678.856 -374.933 1807
-674.535 -374.933 1807
-673.181 -376.593 1815
-668.841 -376.593 1815
-665.233 -377.008 1817
-660.888 -377.008 1817
-656.543 -377.008 1817
-652.198 -377.008 1817
-647.853 -377.008 1817
-643.508 -377.008 1817
-638.459 -376.593 1815
-633.42 -376.178 1813
-629.085 -376.178 1813
-622.682 -374.933 1807
-617.676 -374.518 1805
-612.341 -373.896 1802
-608.032 -373.896 1802
-603.052 -373.481 1800
-598.083 -373.066 1798
-591.802 -371.821 1792
-586.205 -370.991 1788
-581.929 -370.991 1788
-575.715 -369.746 1782
-567.285 -367.048 1769
-561.145 -365.804 1763
-556.929 -365.804 1763
-549.265 -363.521 1752
-544.142 -362.899 1749
-538.725 -362.069 1745
-534.552 -362.069 1745
-528.859 -361.031 1740
-523.492 -360.201 1736
-518.144 -359.371 1732
-514.003 -359.371 1732
-508.978 -358.749 1729
-504.259 -358.334 1727
-498.681 -357.296 1722
-494.564 -357.296 1722
-489.876 -356.882 1720
-485.198 -356.467 1718
-479.69 -355.429 1713
-475.038 -355.014 1711
-470.947 -355.014 1711
-466.037 -354.392 1708
-461.411 -353.977 1706
-456.796 -353.562 1704
-452.721 -353.562 1704
-448.12 -353.147 1702
-444.05 -353.147 1702
-439.98 -353.147 1702
-435.91 -353.147 1702
-431.586 -352.939 1701
-427.518 -352.939 1701
-422.953 -352.524 1699
-418.89 -352.524 1699
-414.827 -352.524 1699
-410.764 -352.524 1699
-406.701 -352.524 1699
-402.639 -352.524 1699
-398.107 -352.109 1697
-394.513 -352.524 1699
-390.45 -352.524 1699
-386.842 -352.939 1701
-382.775 -352.939 1701
-378.707 -352.939 1701
-374.639 -352.939 1701
-370.572 -352.939 1701
-366.504 -352.939 1701
-362.437 -352.939 1701
-358.369 -352.939 1701
-354.301 -352.939 1701
-350.234 -352.939 1701
-346.166 -352.939 1701
-342.099 -352.939 1701
-338.031 -352.939 1701
-333.963 -352.939 1701
-329.896 -352.939 1701
-325.445 -352.524 1699
-321.382 -352.524 1699
-317.319 -352.524 1699
-313.257 -352.524 1699
-309.194 -352.524 1699
-305.131 -352.524 1699
-301.068 -352.524 1699
-296.656 -352.109 1697
-292.598 -352.109 1697
-288.199 -351.694 1695
-284.146 -351.694 1695
-280.093 -351.694 1695
-276.365 -352.109 1697
-272.307 -352.109 1697
-268.565 -352.524 1699
-264.503 -352.524 1699
-260.44 -352.524 1699
-256.377 -352.524 1699
-252.76 -353.147 1702
-248.69 -353.147 1702
-245.195 -353.977 1706
-241.398 -354.392 1708
-238.008 -355.429 1713
-233.912 -355.429 1713
-230.084 -355.844 1715
-226.114 -356.052 1716
-222.27 -356.467 1718
-218.161 -356.467 1718
-214.676 -357.504 1723
-210.8 -357.919 1725
-206.915 -358.334 1727
-202.785 -358.334 1727
-198.885 -358.749 1729
-195.539 -360.201 1736
-191.939 -361.239 1741
-187.776 -361.239 1741
-184.035 -362.069 1745
-180.274 -362.899 1749
-176.595 -363.936 1754
-172.401 -363.936 1754
-168.782 -365.181 1760
-164.854 -365.804 1763
-161.185 -367.048 1769
-156.954 -367.048 1769
-153.242 -368.293 1775
-149.333 -369.123 1779
-145.161 -369.331 1780
-141.379 -370.576 1786
-137.108 -370.576 1786
-133.284 -371.821 1792
-129.142 -372.236 1794
-124.992 -372.651 1796
-120.697 -372.651 1796
-116.661 -373.481 1800
-112.357 -373.481 1800
-108.173 -373.896 1802
-103.864 -373.896 1802
-99.5544 -373.896 1802
-95.351 -374.311 1804
-91.0876 -374.518 1805
-86.7713 -374.518 1805
-82.5463 -374.933 1807
-78.2252 -374.933 1807
-73.9042 -374.933 1807
-69.5061 -374.518 1805
-65.1536 -374.311 1804
-60.9409 -374.933 1807
-56.6825 -375.348 1809
-52.3566 -375.348 1809
-48.0308 -375.348 1809
-43.7049 -375.348 1809
-39.379 -375.348 1809
-35.0532 -375.348 1809
-30.7273 -375.348 1809
-26.4014 -375.348 1809
-22.0755 -375.348 1809
-17.7497 -375.348 1809
-13.3867 -374.311 1804
-9.06274 -373.896 1802
-4.75361 -373.896 1802
-0.443497 -373.066 1798
200.882 -834.107 4020
210.495 -834.107 4020
220.108 -834.107 4020
228.064 -828.09 3991
237.072 -826.222 3982
246.594 -826.222 3982
255.473 -824.147 3972
262.503 -816.47 3935
271.913 -816.47 3935
281.323 -816.47 3935
290.732 -816.47 3935
300.142 -816.47 3935
306.641 -808.793 3898
315.963 -808.793 3898
325.284 -808.793 3898
330.742 -799.456 3853
337.574 -793.854 3826
346.723 -793.854 3826
355.872 -793.854 3826
364.258 -792.194 3818
371.628 -788.459 3800
385.123 -797.589 3844
398.931 -806.926 3889
408.231 -806.926 3889
417.531 -806.926 3889
426.831 -806.926 3889
438.149 -810.66 3907
447.492 -810.66 3907
460.108 -816.47 3935
469.518 -816.47 3935
481.119 -820.205 3953
490.572 -820.205 3953
506.096 -830.164 4001
515.664 -830.164 4001
526.413 -832.032 4010
536.002 -832.032 4010
549.537 -838.049 4039
559.195 -838.049 4039
568.854 -838.049 4039
578.512 -838.049 4039
585.404 -834.107 4020
596.497 -836.182 4030
608.992 -840.124 4049
618.674 -840.124 4049
628.356 -840.124 4049
638.039 -840.124 4049
647.721 -840.124 4049
657.404 -840.124 4049
1764.49 -846.349 4079
1774.24 -846.349 4079
1784 -846.349 4079
1784.96 -842.199 4059
1794.66 -842.199 4059
1804.37 -842.199 4059
1814.08 -842.199 4059
1823.78 -842.199 4059
1833.49 -842.199 4059
1843.2 -842.199 4059
1852.9 -842.199 4059
1862.61 -842.199 4059
1872.31 -842.199 4059
1872.75 -838.049 4039
1882.41 -838.049 4039
1883.16 -834.107 4020
1892.78 -834.107 4020
1897.66 -832.032 4010
1893.93 -826.222 3982
1903.45 -826.222 3982
1868.3 -806.926 3889
1877.6 -806.926 3889
3027.36 -842.199 4059
3037.07 -842.199 4059
3054.28 -844.274 4069
3079.07 -848.424 4089
3088.85 -848.424 4089
3098.63 -848.424 4089
3093.2 -844.274 4069
3095.31 -842.199 4059
3105.01 -842.199 4059
-2465.03 -738.953 3603
-2467.32 -742.234 3619
-2458.66 -742.234 3619
-2450.01 -742.234 3619
-2456.87 -746.951 3642
-2453.54 -748.592 3650
-2444.81 -748.592 3650
-2441.42 -750.233 3658
-2432.68 -750.233 3658
-2445.8 -757.001 3691
-2436.97 -757.001 3691
-2428.14 -757.001 3691
-2440.95 -763.769 3724
-2437.27 -765.41 3732
-2428.34 -765.41 3732
-2419.42 -765.41 3732
-2410.49 -765.41 3732
-2401.57 -765.41 3732
-2376.62 -760.282 3707
-2357.53 -757.001 3691
-2327.71 -750.233 3658
-2318.96 -750.233 3658
-2310.21 -750.233 3658
-678.856 -370.604 1807
-674.535 -370.604 1807
-673.181 -372.245 1815
-668.841 -372.245 1815
-665.233 -372.655 1817
-660.888 -372.655 1817
-656.543 -372.655 1817
-652.198 -372.655 1817
-647.853 -372.655 1817
-643.508 -372.655 1817
-638.459 -372.245 1815
-633.42 -371.835 1813
-629.085 -371.835 1813
-622.682 -370.604 1807
-617.676 -370.194 1805
-612.341 -369.579 1802
-608.032 -369.579 1802
-603.052 -369.169 1800
-598.083 -368.759 1798
-591.802 -367.528 1792
-586.205 -366.708 1788
-581.929 -366.708 1788
-575.715 -365.477 1782
-567.285 -362.811 1769
-561.145 -361.58 1763
-556.929 -361.58 1763
-549.265 -359.324 1752
-544.142 -358.709 1749
-538.725 -357.889 1745
-534.552 -357.889 1745
-528.859 -356.863 1740
-523.492 -356.043 1736
-518.144 -355.222 1732
-514.003 -355.222 1732
-508.978 -354.607 1729
-504.259 -354.197 1727
-498.971 -353.376 1723
-494.851 -353.376 1723
-489.876 -352.761 1720
-485.198 -352.351 1718
-479.69 -351.326 1713
-475.038 -350.915 1711
-470.947 -350.915 1711
-466.31 -350.505 1709
-461.952 -350.3 1708
-457.332 -349.89 1706
-453.252 -349.89 1706
-448.646 -349.48 1704
-444.571 -349.48 1704
-439.98 -349.07 1702
-435.91 -349.07 1702
-431.84 -349.07 1702
-427.518 -348.864 1701
-423.451 -348.864 1701
-419.383 -348.864 1701
-414.827 -348.454 1699
-410.764 -348.454 1699
-406.701 -348.454 1699
-402.639 -348.454 1699
-398.576 -348.454 1699
-394.049 -348.044 1697
-390.45 -348.454 1699
-386.387 -348.454 1699
-382.325 -348.454 1699
-378.262 -348.454 1699
-374.639 -348.864 1701
-370.572 -348.864 1701
-366.504 -348.864 1701
-362.437 -348.864 1701
-358.369 -348.864 1701
-354.301 -348.864 1701
-350.234 -348.864 1701
-346.166 -348.864 1701
-342.099 -348.864 1701
-337.633 -348.454 1699
-333.571 -348.454 1699
-329.508 -348.454 1699
-325.445 -348.454 1699
-321.004 -348.044 1697
-316.946 -348.044 1697
-312.888 -348.044 1697
-308.83 -348.044 1697
-304.772 -348.044 1697
-300.714 -348.044 1697
-296.656 -348.044 1697
-292.253 -347.634 1695
-288.199 -347.634 1695
-284.481 -348.044 1697
-280.423 -348.044 1697
-276.365 -348.044 1697
-272.307 -348.044 1697
-268.565 -348.454 1699
-264.503 -348.454 1699
-260.44 -348.454 1699
-256.377 -348.454 1699
-252.76 -349.07 1702
-248.69 -349.07 1702
-245.195 -349.89 1706
-241.398 -350.3 1708
-238.286 -351.736 1715
-234.185 -351.736 1715
-230.084 -351.736 1715
-226.114 -351.941 1716
-222.528 -352.761 1720
-218.415 -352.761 1720
-214.676 -353.376 1723
-210.8 -353.787 1725
-206.915 -354.197 1727
-202.785 -354.197 1727
-198.885 -354.607 1729
-195.539 -356.043 1736
-191.939 -357.068 1741
-187.776 -357.068 1741
-184.246 -358.299 1747
-180.274 -358.709 1749
-176.797 -360.145 1756
-172.597 -360.145 1756
-168.782 -360.965 1760
-165.041 -361.99 1765
-161.185 -362.811 1769
-156.954 -362.811 1769
-153.242 -364.041 1775
-149.417 -365.067 1780
-145.324 -365.477 1782
-141.537 -366.708 1788
-137.262 -366.708 1788
