ply
format ascii 1.0
comment File generated
element vertex 2144
property float x
property float y
property float z
end_header
-353.866 -121.573 1556
-350.595 -121.729 1558
-346.87 -121.729 1558
-343.805 -121.964 1561
-340.072 -121.964 1561
-336.339 -121.964 1561
-332.606 -121.964 1561
-330.348 -122.511 1568
-327.224 -122.745 1571
-324.085 -122.979 1574
-320.321 -122.979 1574
-317.16 -123.214 1577
-314.581 -123.683 1583
-310.992 -123.761 1584
-307.204 -123.761 1584
-303.991 -123.995 1587
-300.764 -124.23 1590
-297.895 -124.62 1595
-294.634 -124.855 1598
-290.995 -124.933 1599
-287.531 -125.089 1601
-284.588 -125.48 1606
-281.272 -125.714 1609
-277.425 -125.714 1609
-273.747 -125.792 1610
-270.4 -126.027 1613
-267.369 -126.417 1618
-263.5 -126.417 1618
-260.112 -126.652 1621
-256.552 -126.808 1623
-253.138 -127.042 1626
-249.25 -127.042 1626
-245.814 -127.277 1629
-242.661 -127.667 1634
-239.192 -127.902 1637
-235.278 -127.902 1637
-231.787 -128.136 1640
-228.421 -128.449 1644
-225.036 -128.761 1648
-221.095 -128.761 1648
-218.077 -129.308 1655
-215.154 -129.933 1663
-211.812 -130.324 1668
-207.824 -130.324 1668
-204.324 -130.636 1672
-201.883 -131.652 1685
-198.676 -132.199 1692
-194.629 -132.199 1692
-190.921 -132.433 1695
-187.86 -133.137 1704
-184.54 -133.683 1711
-180.449 -133.683 1711
-176.873 -134.074 1716
-173.172 -134.387 1720
-169.55 -134.777 1725
-165.425 -134.777 1725
-161.3 -134.777 1725
-157.54 -135.09 1729
-153.405 -135.09 1729
-149.271 -135.09 1729
-145.304 -135.246 1731
-141.572 -135.637 1736
-138.45 -136.652 1749
-134.268 -136.652 1749
-130.457 -137.043 1754
-126.407 -137.199 1756
-122.486 -137.512 1760
-118.278 -137.512 1760
-114.198 -137.668 1762
-109.985 -137.668 1762
-105.772 -137.668 1762
-101.443 -137.512 1760
-188.735 -292.213 3740
-179.792 -292.213 3740
-170.849 -292.213 3740
-161.559 -291.588 3732
-152.634 -291.588 3732
-143.402 -290.963 3724
-134.497 -290.963 3724
-125.322 -290.338 3716
-116.436 -290.338 3716
-107.55 -290.338 3716
-98.6635 -290.338 3716
-89.7774 -290.338 3716
-80.5213 -289.009 3699
-71.6758 -289.009 3699
-62.8304 -289.009 3699
-53.985 -289.009 3699
-45.1396 -289.009 3699
-36.2941 -289.009 3699
-27.4487 -289.009 3699
-18.6033 -289.009 3699
-9.73673 -288.384 3691
-0.910428 -288.384 3691
7.89872 -287.759 3683
16.7059 -287.759 3683
25.5131 -287.759 3683
34.3202 -287.759 3683
43.1274 -287.759 3683
51.9346 -287.759 3683
60.7417 -287.759 3683
69.5489 -287.759 3683
78.3561 -287.759 3683
87.1632 -287.759 3683
95.7619 -287.134 3675
104.55 -287.134 3675
113.338 -287.134 3675
122.126 -287.134 3675
130.914 -287.134 3675
139.702 -287.134 3675
148.49 -287.134 3675
157.278 -287.134 3675
166.066 -287.134 3675
174.854 -287.134 3675
183.642 -287.134 3675
192.43 -287.134 3675
201.218 -287.134 3675
210.006 -287.134 3675
218.794 -287.134 3675
227.583 -287.134 3675
236.371 -287.134 3675
245.159 -287.134 3675
253.947 -287.134 3675
262.735 -287.134 3675
271.523 -287.134 3675
279.701 -286.509 3667
288.469 -286.509 3667
297.238 -286.509 3667
306.007 -286.509 3667
314.776 -286.509 3667
323.545 -286.509 3667
331.498 -285.806 3658
340.246 -285.806 3658
348.993 -285.806 3658
356.958 -285.181 3650
365.686 -285.181 3650
374.415 -285.181 3650
382.303 -284.556 3642
390.261 -284.009 3635
398.075 -283.384 3627
406.748 -283.384 3627
415.422 -283.384 3627
424.095 -283.384 3627
432.768 -283.384 3627
441.441 -283.384 3627
450.115 -283.384 3627
458.788 -283.384 3627
467.461 -283.384 3627
477.185 -284.009 3635
486.813 -284.556 3642
495.522 -284.556 3642
507.692 -286.509 3667
522.095 -289.634 3707
532.248 -290.338 3716
541.134 -290.338 3716
550.021 -290.338 3716
1764.49 -318.699 4079
1774.24 -318.699 4079
1784 -318.699 4079
1793.75 -318.699 4079
1803.51 -318.699 4079
1808.82 -317.918 4069
1814.08 -317.137 4059
1806.26 -314.09 4020
1828.97 -316.355 4049
1838.65 -316.355 4049
1848.34 -316.355 4049
1858.02 -316.355 4049
1867.7 -316.355 4049
1855.13 -312.605 4001
1851.18 -310.339 3972
2414.17 -319.481 4089
2423.94 -319.481 4089
2433.72 -319.481 4089
2443.5 -319.481 4089
2453.28 -319.481 4089
2463.06 -319.481 4089
2472.84 -319.481 4089
2476.54 -318.699 4079
2456.43 -314.871 4030
2466.07 -314.871 4030
2475.7 -314.871 4030
2473.01 -313.308 4010
2470.83 -311.824 3991
2451.17 -308.152 3944
2460.6 -308.152 3944
2464.39 -307.448 3935
2456.2 -305.261 3907
2459.86 -304.558 3898
2469.18 -304.558 3898
2467.06 -303.151 3880
2459.1 -301.042 3853
2468.32 -301.042 3853
2477.53 -301.042 3853
2464.16 -298.307 3818
2467.46 -297.604 3809
2476.57 -297.604 3809
2485.67 -297.604 3809
2494.78 -297.604 3809
2492.72 -296.276 3792
2513 -297.604 3809
2528.07 -298.307 3818
2537.2 -298.307 3818
2546.33 -298.307 3818
2549.43 -297.604 3809
2558.54 -297.604 3809
2567.65 -297.604 3809
2570.67 -296.901 3800
2579.76 -296.901 3800
2583.39 -296.276 3792
2574.69 -294.244 3766
2583.69 -294.244 3766
2586.5 -293.541 3757
2578.21 -291.588 3732
2598.92 -292.916 3749
2607.89 -292.916 3749
2616.85 -292.916 3749
2619.52 -292.213 3740
2617.21 -290.963 3724
2626.12 -290.963 3724
2617.33 -289.009 3699
2620.5 -288.384 3691
2617.93 -287.134 3675
2626.72 -287.134 3675
2635.51 -287.134 3675
2644.29 -287.134 3675
2664.63 -288.384 3691
2673.46 -288.384 3691
2682.28 -288.384 3691
2679.45 -287.134 3675
2688.23 -287.134 3675
2714.63 -289.009 3699
2723.48 -289.009 3699
2732.33 -289.009 3699
2765.63 -291.588 3732
2780.5 -292.213 3740
2802.12 -293.541 3757
2811.1 -293.541 3757
2832.85 -294.869 3774
2861.45 -296.901 3800
2870.54 -296.901 3800
2886.45 -297.604 3809
2895.55 -297.604 3809
2904.66 -297.604 3809
2900.77 -296.276 3792
-2517.96 -254.701 3363
-2509.92 -254.701 3363
-2501.88 -254.701 3363
-2484.19 -253.716 3350
-2431.83 -249.172 3290
-2463.02 -253.186 3343
-2455.02 -253.186 3343
-2482.16 -256.822 3391
-2474.05 -256.822 3391
-2465.94 -256.822 3391
-2457.84 -256.822 3391
-2439.61 -255.761 3377
-2402.74 -252.732 3337
-2394.76 -252.732 3337
-2367.47 -250.687 3310
-2373.81 -252.202 3330
-2389.29 -254.701 3363
-2391.16 -255.761 3377
-2383.08 -255.761 3377
-2394.7 -257.882 3405
-2386.56 -257.882 3405
-2378.42 -257.882 3405
-2370.27 -257.882 3405
-2371.84 -258.942 3419
-2392.7 -262.123 3461
-2409.23 -264.85 3497
-2400.87 -264.85 3497
-2408.24 -266.592 3520
-2414.82 -268.258 3542
-2421.98 -270 3565
-2413.45 -270 3565
-2415.05 -271.136 3580
-2427.32 -273.484 3611
-2418.69 -273.484 3611
-2415.39 -274.09 3619
-2432.68 -277.043 3658
-2429.89 -277.725 3667
-2421.12 -277.725 3667
-2428.14 -279.543 3691
-2435.7 -281.436 3716
-2453.59 -284.541 3757
-2444.61 -284.541 3757
-2458.31 -287.192 3792
-2477.02 -290.449 3835
-2473.64 -291.13 3844
-2464.45 -291.13 3844
-2455.26 -291.13 3844
-2446.07 -291.13 3844
-2442.58 -291.812 3853
-2433.36 -291.812 3853
-2424.15 -291.812 3853
-2420.58 -292.493 3862
-2433.82 -295.22 3898
-2424.5 -295.22 3898
-2443.68 -298.704 3944
-2434.25 -298.704 3944
-2424.82 -298.704 3944
-1377.4 -261.063 3447
-1369.16 -261.063 3447
-1360.92 -261.063 3447
-1352.67 -261.063 3447
-1338.97 -260.003 3433
-1330.76 -260.003 3433
-1309.07 -257.352 3398
-1287.54 -254.701 3363
-1271.89 -253.186 3343
-1263.9 -253.186 3343
-1251.02 -252.202 3330
-1235.59 -250.687 3310
-1222.85 -249.702 3297
-1214.97 -249.702 3297
-1202.33 -248.718 3284
-1194.47 -248.718 3284
-1184.45 -248.263 3278
-1176.61 -248.263 3278
-1166.28 -247.733 3271
-1158.46 -247.733 3271
-1148.52 -247.279 3265
-1140.72 -247.279 3265
-1128.4 -246.294 3252
-1116.14 -245.31 3239
-1104.29 -244.401 3227
-1096.57 -244.401 3227
-1088.86 -244.401 3227
-1085.16 -245.31 3239
-1077.41 -245.31 3239
-1069.67 -245.31 3239
-1061.92 -245.31 3239
-552.312 -128.524 1697
-548.254 -128.524 1697
-542.593 -128.146 1692
-538.547 -128.146 1692
-534.501 -128.146 1692
-530.454 -128.146 1692
-525.786 -127.994 1690
-520.819 -127.767 1687
-516.785 -127.767 1687
-511.535 -127.464 1683
-506.002 -127.085 1678
-500.494 -126.707 1673
-494.713 -126.252 1667
-490.726 -126.252 1667
-485.28 -125.874 1662
-477.831 -124.965 1650
-473.023 -124.738 1647
-469.085 -124.738 1647
-462.887 -124.132 1639
-456.167 -123.374 1629
-450.606 -122.92 1623
-446.725 -122.92 1623
-441.48 -122.541 1618
-435.988 -122.087 1612
-430.793 -121.708 1607
-426.95 -121.708 1607
-422.317 -121.481 1604
-416.394 -120.875 1596
-411.802 -120.648 1593
-406.968 -120.345 1589
-403.169 -120.345 1589
-397.107 -119.663 1580
-391.337 -119.057 1572
-387.331 -118.982 1571
-383.575 -118.982 1571
-379.093 -118.754 1568
-374.386 -118.451 1564
-370.172 -118.3 1562
-366.436 -118.3 1562
-362.005 -118.073 1559
-358.047 -117.997 1558
-354.321 -117.997 1558
-350.595 -117.997 1558
-346.87 -117.997 1558
-343.144 -117.997 1558
-340.072 -118.224 1561
-336.339 -118.224 1561
-332.606 -118.224 1561
-330.348 -118.754 1568
-327.224 -118.982 1571
-324.085 -119.209 1574
-320.321 -119.209 1574
-317.16 -119.436 1577
-314.581 -119.89 1583
-310.992 -119.966 1584
-307.204 -119.966 1584
-303.991 -120.193 1587
-300.764 -120.421 1590
-297.895 -120.799 1595
-294.081 -120.799 1595
-290.995 -121.102 1599
-287.531 -121.254 1601
-284.588 -121.632 1606
-281.272 -121.86 1609
-277.425 -121.86 1609
-274.087 -122.087 1612
-270.735 -122.314 1615
-267.699 -122.693 1620
-263.826 -122.693 1620
-260.112 -122.768 1621
-256.71 -122.996 1624
-253.449 -123.299 1628
-249.556 -123.299 1628
-246.116 -123.526 1631
-242.958 -123.905 1636
-239.484 -124.132 1639
-235.565 -124.132 1639
-231.787 -124.207 1640
-228.56 -124.586 1645
-225.309 -124.965 1650
-221.363 -124.965 1650
-218.34 -125.495 1657
-215.413 -126.101 1665
-212.066 -126.48 1670
-208.073 -126.48 1670
-204.324 -126.631 1672
-201.883 -127.616 1685
-198.676 -128.146 1692
-194.629 -128.146 1692
-190.921 -128.373 1695
-187.86 -129.055 1704
-184.54 -129.585 1711
-180.449 -129.585 1711
-176.873 -129.963 1716
-172.971 -130.115 1718
-169.354 -130.494 1723
-165.234 -130.494 1723
-161.3 -130.645 1725
-157.54 -130.948 1729
-153.405 -130.948 1729
-149.271 -130.948 1729
-145.304 -131.099 1731
-141.736 -131.63 1738
-138.609 -132.614 1751
-134.421 -132.614 1751
-130.606 -132.993 1756
-126.839 -133.447 1762
-122.695 -133.523 1763
-118.479 -133.523 1763
-114.393 -133.674 1765
-110.172 -133.674 1765
-105.952 -133.674 1765
-101.616 -133.523 1763
-180.225 -283.935 3749
-171.26 -283.935 3749
-162.295 -283.935 3749
-152.962 -283.254 3740
-143.402 -282.042 3724
-134.497 -282.042 3724
-125.592 -282.042 3724
-116.686 -282.042 3724
-107.55 -281.436 3716
-98.6635 -281.436 3716
-89.7774 -281.436 3716
-80.6954 -280.754 3707
-71.6758 -280.148 3699
-62.8304 -280.148 3699
-53.985 -280.148 3699
-45.1396 -280.148 3699
-36.2941 -280.148 3699
-27.4487 -280.148 3699
-18.6033 -280.148 3699
-9.73673 -279.543 3691
-0.910428 -279.543 3691
7.89872 -278.937 3683
16.7059 -278.937 3683
25.5131 -278.937 3683
34.3202 -278.937 3683
43.1274 -278.937 3683
51.9346 -278.937 3683
60.7417 -278.937 3683
69.5489 -278.937 3683
78.3561 -278.937 3683
87.1632 -278.937 3683
95.7619 -278.331 3675
104.55 -278.331 3675
113.338 -278.331 3675
122.126 -278.331 3675
130.914 -278.331 3675
139.702 -278.331 3675
148.49 -278.331 3675
157.278 -278.331 3675
166.066 -278.331 3675
174.854 -278.331 3675
183.642 -278.331 3675
192.43 -278.331 3675
201.218 -278.331 3675
210.006 -278.331 3675
218.794 -278.331 3675
227.583 -278.331 3675
236.371 -278.331 3675
245.159 -278.331 3675
253.947 -278.331 3675
262.735 -278.331 3675
271.523 -278.331 3675
279.701 -277.725 3667
288.469 -277.725 3667
297.238 -277.725 3667
306.007 -277.725 3667
314.776 -277.725 3667
323.545 -277.725 3667
332.314 -277.725 3667
341.083 -277.725 3667
348.993 -277.043 3658
356.958 -276.437 3650
365.686 -276.437 3650
374.415 -276.437 3650
382.303 -275.831 3642
390.261 -275.301 3635
398.953 -275.301 3635
407.646 -275.301 3635
415.422 -274.695 3627
424.095 -274.695 3627
433.723 -275.301 3635
442.415 -275.301 3635
451.107 -275.301 3635
459.8 -275.301 3635
468.492 -275.301 3635
477.185 -275.301 3635
487.882 -276.437 3650
496.61 -276.437 3650
507.692 -277.725 3667
522.095 -280.754 3707
534.54 -282.648 3732
543.464 -282.648 3732
553.573 -283.254 3740
562.516 -283.254 3740
571.46 -283.254 3740
1784 -308.928 4079
1793.75 -308.928 4079
1803.51 -308.928 4079
1813.26 -308.928 4079
1814.08 -307.413 4059
1806.26 -304.46 4020
1828.97 -306.656 4049
1838.65 -306.656 4049
1848.34 -306.656 4049
1858.02 -306.656 4049
1867.7 -306.656 4049
1850.49 -302.263 3991
1825.08 -296.583 3916
2414.17 -309.686 4089
2423.94 -309.686 4089
2433.72 -309.686 4089
2443.5 -309.686 4089
2447.28 -308.928 4079
2457.03 -308.928 4079
2466.79 -308.928 4079
2476.54 -308.928 4079
2450.33 -304.46 4020
2459.95 -304.46 4020
2469.56 -304.46 4020
2467.45 -303.021 4001
2465.26 -301.582 3982
2451.17 -298.704 3944
2460.6 -298.704 3944
2458.13 -297.265 3925
2456.2 -295.902 3907
2448.5 -293.857 3880
2457.78 -293.857 3880
2449.89 -291.812 3853
2459.1 -291.812 3853
2456.79 -290.449 3835
2438.31 -287.192 3792
2447.38 -287.192 3792
2456.44 -287.192 3792
2465.51 -287.192 3792
2474.58 -287.192 3792
2483.65 -287.192 3792
2492.72 -287.192 3792
2501.78 -287.192 3792
2522.11 -288.479 3809
2531.22 -288.479 3809
2540.32 -288.479 3809
2538.05 -287.192 3792
2547.12 -287.192 3792
2561.58 -287.798 3800
2570.67 -287.798 3800
2579.76 -287.798 3800
2583.39 -287.192 3792
2586.31 -286.51 3783
2595.35 -286.51 3783
2592.7 -285.223 3766
2601.7 -285.223 3766
2610.71 -285.223 3766
2619.71 -285.223 3766
2628.72 -285.223 3766
2631.42 -284.541 3757
2628.46 -283.254 3740
2637.4 -283.254 3740
2635.02 -282.042 3724
2638.25 -281.436 3716
2635.03 -280.148 3699
2643.87 -280.148 3699
2652.72 -280.148 3699
2655.81 -279.543 3691
2664.63 -279.543 3691
2673.46 -279.543 3691
2682.28 -279.543 3691
2691.11 -279.543 3691
2688.23 -278.331 3675
2714.63 -280.148 3699
2723.48 -280.148 3699
2732.33 -280.148 3699
2765.63 -282.648 3732
2780.5 -283.254 3740
2802.12 -284.541 3757
2811.1 -284.541 3757
2832.85 -285.829 3774
2861.45 -287.798 3800
2870.54 -287.798 3800
2886.45 -288.479 3809
2895.55 -288.479 3809
2904.66 -288.479 3809
2900.77 -287.192 3792
-2517.96 -246.645 3363
-2509.92 -246.645 3363
-2501.88 -246.645 3363
-2484.19 -245.691 3350
-2523.15 -252.806 3447
-2514.91 -252.806 3447
-2506.67 -252.806 3447
-2467.98 -249.725 3405
-2449.73 -248.698 3391
-2407.06 -245.178 3343
-2399.06 -245.178 3343
-2386.78 -244.738 3337
-2378.8 -244.738 3337
-2394.26 -247.158 3370
-2406.03 -249.212 3398
-2397.9 -249.212 3398
-2409.47 -251.265 3426
-2416 -252.806 3447
-2407.75 -252.806 3447
-2399.51 -252.806 3447
-2386.41 -252.292 3440
-2392.7 -253.832 3461
-2399.58 -255.446 3483
-2391.26 -255.446 3483
-2397.98 -257.059 3505
-2414.82 -259.773 3542
-2421.98 -261.46 3565
-2413.45 -261.46 3565
-2420.44 -263.147 3588
-2432.7 -265.42 3619
-2424.05 -265.42 3619
-2420.73 -266.007 3627
-2438.66 -268.941 3667
-2440.49 -270.114 3683
-2431.69 -270.114 3683
-2433.41 -271.287 3699
-2457.33 -274.954 3749
-2476.45 -278.108 3792
-2467.38 -278.108 3792
-2480.36 -280.602 3826
-2482.83 -281.922 3844
-2502.6 -285.222 3889
-2493.3 -285.222 3889
-2484 -285.222 3889
-2457.52 -283.242 3862
-2448.28 -283.242 3862
-2439.05 -283.242 3862
-2424.15 -282.582 3853
-2420.58 -283.242 3862
-2462.54 -289.256 3944
-2453.11 -289.256 3944
-2443.68 -289.256 3944
-2434.25 -289.256 3944
-2424.82 -289.256 3944
-1377.4 -252.806 3447
-1374.72 -253.832 3461
-1366.44 -253.832 3461
-1358.17 -253.832 3461
-1341.7 -252.292 3440
-1333.47 -252.292 3440
-1311.76 -249.725 3405
-1298.26 -248.698 3391
-1274.55 -245.691 3350
-1266.54 -245.691 3350
-1253.65 -244.738 3337
-1243.06 -244.225 3330
-1225.08 -242.244 3303
-1217.18 -242.244 3303
-1204.52 -241.291 3290
-1196.65 -241.291 3290
-1188.79 -241.291 3290
-1180.92 -241.291 3290
-1168.77 -240.411 3278
-1160.93 -240.411 3278
-1150.63 -239.898 3271
-1142.81 -239.898 3271
-1130.48 -238.944 3258
-1118.55 -238.064 3246
-1108.4 -237.551 3239
-1100.65 -237.551 3239
-1092.9 -237.551 3239
-1085.16 -237.551 3239
-1077.41 -237.551 3239
-1069.67 -237.551 3239
-1061.92 -237.551 3239
-553.94 -124.826 1702
-549.87 -124.826 1702
-544.196 -124.459 1697
-540.138 -124.459 1697
-536.08 -124.459 1697
-531.081 -124.239 1694
-526.408 -124.093 1692
-520.819 -123.726 1687
-516.785 -123.726 1687
-512.143 -123.579 1685
-506.605 -123.212 1680
-501.691 -122.992 1677
-495.009 -122.332 1668
-491.021 -122.332 1668
-485.28 -121.892 1662
-477.251 -120.866 1648
-472.449 -120.646 1645
-468.515 -120.646 1645
-462.04 -119.985 1636
-456.167 -119.472 1629
-450.051 -118.885 1621
-446.175 -118.885 1621
-441.207 -118.592 1617
-435.447 -118.079 1610
-430.793 -117.859 1607
-426.95 -117.859 1607
-422.054 -117.565 1603
-416.394 -117.052 1596
-411.802 -116.832 1593
-406.968 -116.538 1589
-403.169 -116.538 1589
-397.107 -115.878 1580
-391.337 -115.292 1572
-387.331 -115.218 1571
-383.575 -115.218 1571
-379.093 -114.998 1568
-374.386 -114.705 1564
-370.646 -114.705 1564
-366.906 -114.705 1564
-362.469 -114.485 1561
-358.277 -114.338 1559
-354.321 -114.265 1558
-350.595 -114.265 1558
-346.87 -114.265 1558
-343.144 -114.265 1558
-340.072 -114.485 1561
-336.339 -114.485 1561
-332.606 -114.485 1561
-330.348 -114.998 1568
-327.224 -115.218 1571
-324.085 -115.438 1574
-320.321 -115.438 1574
-317.16 -115.658 1577
-314.581 -116.098 1583
-310.992 -116.172 1584
-307.204 -116.172 1584
-304.374 -116.538 1589
-301.142 -116.758 1592
-298.082 -117.052 1596
-294.266 -117.052 1596
-291.359 -117.419 1601
-287.89 -117.565 1603
-284.765 -117.859 1607
-281.447 -118.079 1610
-277.597 -118.079 1610
-274.257 -118.299 1613
-271.07 -118.592 1617
-267.865 -118.885 1621
-263.988 -118.885 1621
-260.433 -119.032 1623
-256.71 -119.105 1624
-253.605 -119.472 1629
-249.71 -119.472 1629
-246.116 -119.619 1631
-242.958 -119.985 1636
-239.63 -120.279 1640
-235.709 -120.279 1640
-231.787 -120.279 1640
-228.56 -120.646 1645
-225.582 -121.159 1652
-221.632 -121.159 1652
-218.34 -121.526 1657
-215.413 -122.112 1665
-212.066 -122.479 1670
-208.073 -122.479 1670
-204.446 -122.699 1673
-201.883 -123.579 1685
-198.676 -124.093 1692
-194.629 -124.093 1692
-190.921 -124.313 1695
-187.86 -124.973 1704
-184.325 -125.339 1709
-180.238 -125.339 1709
-176.873 -125.853 1716
-172.971 -125.999 1718
-169.354 -126.366 1723
-165.234 -126.366 1723
-161.3 -126.513 1725
-157.54 -126.806 1729
-153.405 -126.806 1729
-149.271 -126.806 1729
-145.304 -126.953 1731
-141.736 -127.466 1738
-138.609 -128.42 1751
-134.421 -128.42 1751
-130.904 -129.08 1760
-127.055 -129.446 1765
-123.391 -130.033 1773
-119.151 -130.033 1773
-115.171 -130.327 1777
-110.921 -130.327 1777
-106.672 -130.327 1777
-102.423 -130.327 1777
-180.225 -274.954 3749
-171.26 -274.954 3749
-162.295 -274.954 3749
-152.962 -274.294 3740
-143.402 -273.121 3724
-134.497 -273.121 3724
-125.592 -273.121 3724
-116.686 -273.121 3724
-107.781 -273.121 3724
-98.8759 -273.121 3724
-89.7774 -272.534 3716
-80.6954 -271.874 3707
-71.6758 -271.287 3699
-62.8304 -271.287 3699
-53.985 -271.287 3699
-45.1396 -271.287 3699
-36.2941 -271.287 3699
-27.4487 -271.287 3699
-18.563 -270.701 3691
-9.73673 -270.701 3691
-0.908454 -270.114 3683
7.89872 -270.114 3683
16.7059 -270.114 3683
25.5131 -270.114 3683
34.3202 -270.114 3683
43.1274 -270.114 3683
51.9346 -270.114 3683
60.7417 -270.114 3683
69.5489 -270.114 3683
78.1859 -269.527 3675
86.9739 -269.527 3675
95.7619 -269.527 3675
104.55 -269.527 3675
113.091 -268.941 3667
121.86 -268.941 3667
130.629 -268.941 3667
139.702 -269.527 3675
148.49 -269.527 3675
157.278 -269.527 3675
166.066 -269.527 3675
174.854 -269.527 3675
183.642 -269.527 3675
192.43 -269.527 3675
201.218 -269.527 3675
210.006 -269.527 3675
218.794 -269.527 3675
227.583 -269.527 3675
236.371 -269.527 3675
245.159 -269.527 3675
253.947 -269.527 3675
262.735 -269.527 3675
271.523 -269.527 3675
279.701 -268.941 3667
288.469 -268.941 3667
297.238 -268.941 3667
306.007 -268.941 3667
314.776 -268.941 3667
323.545 -268.941 3667
332.314 -268.941 3667
341.083 -268.941 3667
348.993 -268.28 3658
356.958 -267.694 3650
365.686 -267.694 3650
374.415 -267.694 3650
382.303 -267.107 3642
391.012 -267.107 3642
398.953 -266.594 3635
407.646 -266.594 3635
416.338 -266.594 3635
425.03 -266.594 3635
433.723 -266.594 3635
442.415 -266.594 3635
451.107 -266.594 3635
459.8 -266.594 3635
468.492 -266.594 3635
478.104 -267.107 3642
487.882 -267.694 3650
496.61 -267.694 3650
507.692 -268.941 3667
520.968 -271.287 3699
534.54 -273.708 3732
543.464 -273.708 3732
553.573 -274.294 3740
562.516 -274.294 3740
571.46 -274.294 3740
1764.49 -299.157 4079
1774.24 -299.157 4079
1784 -299.157 4079
1793.75 -299.157 4079
1803.51 -299.157 4079
1813.26 -299.157 4079
1814.08 -297.69 4059
1806.26 -294.83 4020
1824.46 -296.223 4039
1834.11 -296.223 4039
1843.77 -296.223 4039
1853.43 -296.223 4039
1863.09 -296.223 4039
1850.49 -292.703 3991
1825.08 -287.202 3916
2367.34 -297.69 4059
2377.04 -297.69 4059
2392.63 -298.423 4069
2402.36 -298.423 4069
2418.02 -299.157 4079
2427.77 -299.157 4079
2437.53 -299.157 4079
2447.28 -299.157 4079
2457.03 -299.157 4079
2466.79 -299.157 4079
2476.54 -299.157 4079
2450.33 -294.83 4020
2453.83 -294.096 4010
2463.42 -294.096 4010
2467.45 -293.436 4001
2453.5 -290.649 3963
2451.17 -289.256 3944
2460.6 -289.256 3944
2458.13 -287.862 3925
2450.54 -285.882 3898
2442.82 -283.902 3871
2452.08 -283.902 3871
2449.89 -282.582 3853
2453.36 -281.922 3844
2445.9 -280.015 3818
2438.31 -278.108 3792
2447.38 -278.108 3792
2450.61 -277.448 3783
2453.81 -276.788 3774
2457.61 -276.201 3766
2466.62 -276.201 3766
2469.71 -275.541 3757
2495.85 -277.448 3783
2510.85 -278.108 3792
2519.92 -278.108 3792
2528.99 -278.108 3792
2538.05 -278.108 3792
2547.12 -278.108 3792
2561.58 -278.695 3800
2570.67 -278.695 3800
2579.76 -278.695 3800
2583.39 -278.108 3792
2592.46 -278.108 3792
2601.53 -278.108 3792
2598.21 -276.788 3774
2601.7 -276.201 3766
2616.25 -276.788 3774
2625.28 -276.788 3774
2634.3 -276.788 3774
2643.33 -276.788 3774
2646.73 -276.201 3766
2655.74 -276.201 3766
2646.35 -274.294 3740
2655.29 -274.294 3740
2652.83 -273.121 3724
2661.74 -273.121 3724
2658.45 -271.874 3707
2667.32 -271.874 3707
2670.41 -271.287 3699
2673.46 -270.701 3691
2682.28 -270.701 3691
2691.11 -270.701 3691
2694.09 -270.114 3683
2714.63 -271.287 3699
2729.37 -271.874 3707
2738.23 -271.874 3707
2759.7 -273.121 3724
2787.19 -274.954 3749
2802.12 -275.541 3757
2811.1 -275.541 3757
2839.6 -277.448 3783
2861.45 -278.695 3800
2870.54 -278.695 3800
2879.63 -278.695 3800
2888.71 -278.695 3800
2897.8 -278.695 3800
2900.77 -278.108 3792
-2517.96 -238.589 3363
-2509.92 -238.589 3363
-2501.88 -238.589 3363
-2484.19 -237.667 3350
-2523.15 -244.548 3447
-2573.28 -250.224 3527
-2564.84 -250.224 3527
-2556.41 -250.224 3527
-2490.18 -244.548 3447
-2481.94 -244.548 3447
-2443.56 -241.569 3405
-2401.08 -238.163 3357
-2402.32 -239.085 3370
-2409.18 -240.575 3391
-2420.9 -242.562 3419
-2412.72 -242.562 3419
-2439.01 -246.038 3468
-2430.72 -246.038 3468
-2422.42 -246.038 3468
-2414.13 -246.038 3468
-2405.84 -246.038 3468
-2407.91 -247.102 3483
-2409.23 -248.095 3497
-2400.87 -248.095 3497
-2413.03 -250.224 3527
-2430.5 -252.92 3565
-2421.98 -252.92 3565
-2429.02 -254.552 3588
-2430.56 -255.616 3603
-2438.08 -257.318 3627
-2429.41 -257.318 3627
-2430.74 -258.383 3642
-2449.3 -261.291 3683
-2451.1 -262.426 3699
-2442.25 -262.426 3699
-2438.67 -262.994 3707
-2462.58 -266.541 3757
-2476.45 -269.024 3792
-2467.38 -269.024 3792
-2480.36 -271.436 3826
-2482.83 -272.714 3844
-2502.6 -275.906 3889
-2493.3 -275.906 3889
-2484 -275.906 3889
-2457.52 -273.991 3862
-2448.28 -273.991 3862
-2439.05 -273.991 3862
-2424.15 -273.352 3853
-2420.58 -273.991 3862
-2462.54 -279.808 3944
-2453.11 -279.808 3944
-2443.68 -279.808 3944
-2434.25 -279.808 3944
-2424.82 -279.808 3944
-1394.09 -246.038 3468
-1385.79 -246.038 3468
-1377.5 -246.038 3468
-1366.44 -245.541 3461
-1358.17 -245.541 3461
-1341.7 -244.052 3440
-1333.47 -244.052 3440
-1314.46 -242.065 3412
-1298.26 -240.575 3391
-1274.55 -237.667 3350
-1266.54 -237.667 3350
-1253.65 -236.744 3337
-1245.67 -236.744 3337
-1225.08 -234.332 3303
-1217.18 -234.332 3303
-1204.52 -233.41 3290
-1196.65 -233.41 3290
-1188.79 -233.41 3290
-1180.92 -233.41 3290
-1170.91 -232.984 3284
-1160.93 -232.558 3278
-1150.63 -232.062 3271
-1142.81 -232.062 3271
-1130.48 -231.14 3258
-1118.55 -230.288 3246
-1110.79 -230.288 3246
-1103.03 -230.288 3246
-1095.27 -230.288 3246
-1087.5 -230.288 3246
-1079.74 -230.288 3246
-1071.98 -230.288 3246
-1061.92 -229.792 3239
-556.218 -121.245 1709
-551.808 -121.174 1708
-546.441 -120.891 1704
-541.411 -120.678 1701
-537.344 -120.678 1701
-532.022 -120.394 1697
-527.964 -120.394 1697
-522.362 -120.039 1692
-518.316 -120.039 1692
-512.75 -119.685 1687
-508.113 -119.543 1685
-501.99 -119.046 1678
-495.603 -118.479 1670
-491.609 -118.479 1670
-485.28 -117.911 1662
-477.251 -116.918 1648
-472.449 -116.705 1645
-468.515 -116.705 1645
-462.04 -116.066 1636
-456.167 -115.57 1629
-450.051 -115.002 1621
-446.175 -115.002 1621
-441.207 -114.718 1617
-435.447 -114.222 1610
-430.793 -114.009 1607
-426.95 -114.009 1607
-422.054 -113.725 1603
-416.394 -113.229 1596
-411.802 -113.016 1593
-406.968 -112.732 1589
-403.169 -112.732 1589
-397.107 -112.093 1580
-391.337 -111.526 1572
-387.331 -111.455 1571
-383.575 -111.455 1571
-379.093 -111.242 1568
-374.625 -111.029 1565
-370.646 -110.958 1564
-366.906 -110.958 1564
-362.469 -110.746 1561
-358.277 -110.604 1559
-354.321 -110.533 1558
-350.595 -110.533 1558
-346.87 -110.533 1558
-343.144 -110.533 1558
-340.072 -110.746 1561
-336.339 -110.746 1561
-332.606 -110.746 1561
-330.348 -111.242 1568
-327.224 -111.455 1571
-324.085 -111.668 1574
-320.321 -111.668 1574
-317.16 -111.881 1577
-314.581 -112.306 1583
-310.992 -112.377 1584
-307.204 -112.377 1584
-304.374 -112.732 1589
-301.142 -112.945 1592
-298.082 -113.229 1596
-294.266 -113.229 1596
-291.359 -113.583 1601
-288.069 -113.796 1604
-285.12 -114.151 1609
-281.797 -114.364 1612
-277.942 -114.364 1612
-274.597 -114.577 1615
-271.238 -114.789 1618
-268.195 -115.144 1623
-264.314 -115.144 1623
-260.593 -115.215 1624
-257.026 -115.357 1626
-253.916 -115.712 1631
-250.016 -115.712 1631
-246.267 -115.783 1632
-243.107 -116.137 1637
-239.63 -116.35 1640
-235.709 -116.35 1640
-232.07 -116.492 1642
-228.56 -116.705 1645
-225.719 -117.272 1653
-221.766 -117.272 1653
-218.735 -117.769 1660
-215.672 -118.266 1667
-212.32 -118.62 1672
-208.322 -118.62 1672
-204.69 -118.833 1675
-201.883 -119.543 1685
-198.676 -120.039 1692
-194.629 -120.039 1692
-190.921 -120.252 1695
-187.86 -120.891 1704
-184.54 -121.387 1711
-180.449 -121.387 1711
-176.873 -121.742 1716
-173.172 -122.026 1720
-169.354 -122.239 1723
-165.234 -122.239 1723
-161.487 -122.522 1727
-157.54 -122.664 1729
-153.583 -122.806 1731
-149.443 -122.806 1731
-145.304 -122.806 1731
-141.736 -123.303 1738
-138.609 -124.225 1751
-134.421 -124.225 1751
-130.904 -124.864 1760
-127.343 -125.502 1769
-123.391 -125.786 1773
-119.151 -125.786 1773
-115.171 -126.07 1777
-110.921 -126.07 1777
-106.672 -126.07 1777
-102.423 -126.07 1777
-189.593 -266.541 3757
-180.609 -266.541 3757
-171.625 -266.541 3757
-162.641 -266.541 3757
-152.962 -265.335 3740
-143.402 -264.2 3724
-134.497 -264.2 3724
-125.592 -264.2 3724
-116.686 -264.2 3724
-107.781 -264.2 3724
-98.8759 -264.2 3724
-89.7774 -263.633 3716
-80.6954 -262.994 3707
-71.6758 -262.426 3699
-62.8304 -262.426 3699
-53.985 -262.426 3699
-45.1396 -262.426 3699
-36.2941 -262.426 3699
-27.4487 -262.426 3699
-18.563 -261.859 3691
-9.73673 -261.859 3691
-0.908454 -261.291 3683
7.89872 -261.291 3683
16.7059 -261.291 3683
25.5131 -261.291 3683
34.3202 -261.291 3683
43.1274 -261.291 3683
51.9346 -261.291 3683
60.7417 -261.291 3683
69.5489 -261.291 3683
78.1859 -260.724 3675
86.9739 -260.724 3675
95.7619 -260.724 3675
104.55 -260.724 3675
113.091 -260.156 3667
121.86 -260.156 3667
130.629 -260.156 3667
139.702 -260.724 3675
148.49 -260.724 3675
157.278 -260.724 3675
166.066 -260.724 3675
174.854 -260.724 3675
183.642 -260.724 3675
192.43 -260.724 3675
201.218 -260.724 3675
210.006 -260.724 3675
218.794 -260.724 3675
227.583 -260.724 3675
236.371 -260.724 3675
245.159 -260.724 3675
253.947 -260.724 3675
262.735 -260.724 3675
271.523 -260.724 3675
280.311 -260.724 3675
289.099 -260.724 3675
297.238 -260.156 3667
306.007 -260.156 3667
314.776 -260.156 3667
323.545 -260.156 3667
332.314 -260.156 3667
341.083 -260.156 3667
348.993 -259.518 3658
357.741 -259.518 3658
365.686 -258.95 3650
374.415 -258.95 3650
382.303 -258.383 3642
391.012 -258.383 3642
399.721 -258.383 3642
408.431 -258.383 3642
416.338 -257.886 3635
425.03 -257.886 3635
433.723 -257.886 3635
442.415 -257.886 3635
451.107 -257.886 3635
459.8 -257.886 3635
468.492 -257.886 3635
478.104 -258.383 3642
487.882 -258.95 3650
496.61 -258.95 3650
507.692 -260.156 3667
520.968 -262.426 3699
534.54 -264.768 3732
543.464 -264.768 3732
554.905 -265.974 3749
563.87 -265.974 3749
572.835 -265.974 3749
581.8 -265.974 3749
590.765 -265.974 3749
594.451 -263.633 3716
603.337 -263.633 3716
612.223 -263.633 3716
621.109 -263.633 3716
1759.04 -290.095 4089
1768.82 -290.095 4089
1778.59 -290.095 4089
1784 -289.386 4079
1793.75 -289.386 4079
1803.51 -289.386 4079
1813.26 -289.386 4079
1814.08 -287.967 4059
1806.26 -285.2 4020
1824.46 -286.548 4039
1834.11 -286.548 4039
1843.77 -286.548 4039
1853.43 -286.548 4039
1863.09 -286.548 4039
1850.49 -283.142 3991
1825.08 -277.822 3916
2325.36 -285.2 4020
2357.63 -287.967 4059
2367.34 -287.967 4059
2377.04 -287.967 4059
2392.63 -288.676 4069
2402.36 -288.676 4069
2418.02 -289.386 4079
2427.77 -289.386 4079
2437.53 -289.386 4079
2447.28 -289.386 4079
2457.03 -289.386 4079
2466.79 -289.386 4079
2476.54 -289.386 4079
2450.33 -285.2 4020
2453.83 -284.49 4010
2463.42 -284.49 4010
2467.45 -283.852 4001
2453.5 -281.156 3963
2451.17 -279.808 3944
2460.6 -279.808 3944
2458.13 -278.46 3925
2450.54 -276.545 3898
2442.82 -274.629 3871
2452.08 -274.629 3871
2449.89 -273.352 3853
2453.36 -272.714 3844
2445.9 -270.869 3818
2438.31 -269.024 3792
2447.38 -269.024 3792
2450.61 -268.386 3783
2453.81 -267.747 3774
2457.61 -267.18 3766
2466.62 -267.18 3766
2469.71 -266.541 3757
2495.85 -268.386 3783
2510.85 -269.024 3792
2519.92 -269.024 3792
2528.99 -269.024 3792
2538.05 -269.024 3792
2558.54 -270.23 3809
2567.65 -270.23 3809
2576.76 -270.23 3809
2585.87 -270.23 3809
2594.98 -270.23 3809
2597.93 -269.592 3800
2607.02 -269.592 3800
2604.4 -268.386 3783
2601.7 -267.18 3766
2616.25 -267.747 3774
2631.54 -268.386 3783
2640.59 -268.386 3783
2649.63 -268.386 3783
2652.35 -267.747 3774
2661.38 -267.747 3774
2664.74 -267.18 3766
2661.68 -265.974 3749
2664.23 -265.335 3740
2673.18 -265.335 3740
2682.12 -265.335 3740
2691.06 -265.335 3740
2700.01 -265.335 3740
2691.57 -263.633 3716
2700.45 -263.633 3716
2709.34 -263.633 3716
2718.22 -263.633 3716
2727.11 -263.633 3716
2741.89 -264.2 3724
2750.79 -264.2 3724
2790.82 -267.18 3766
2819.16 -269.024 3792
2834.19 -269.592 3800
2843.28 -269.592 3800
2852.37 -269.592 3800
2875.01 -270.869 3818
2884.14 -270.869 3818
2893.27 -270.869 3818
2902.4 -270.869 3818
2911.53 -270.869 3818
2900.77 -269.024 3792
-2508.23 -229.642 3350
-2500.22 -229.642 3350
-2492.21 -229.642 3350
-2484.19 -229.642 3350
-2523.15 -236.291 3447
-2573.28 -241.775 3527
-2564.84 -241.775 3527
-2556.41 -241.775 3527
-2490.18 -236.291 3447
-2481.94 -236.291 3447
-2443.56 -233.412 3405
-2401.08 -230.121 3357
-2402.32 -231.013 3370
-2409.18 -232.452 3391
-2420.9 -234.372 3419
-2412.72 -234.372 3419
-2439.01 -237.73 3468
-2430.72 -237.73 3468
-2422.42 -237.73 3468
-2414.13 -237.73 3468
-2405.84 -237.73 3468
-2407.91 -238.759 3483
-2409.23 -239.718 3497
-2400.87 -239.718 3497
-2413.03 -241.775 3527
-2430.5 -244.38 3565
-2421.98 -244.38 3565
-2429.02 -245.956 3588
-2430.56 -246.985 3603
-2438.08 -248.63 3627
-2429.41 -248.63 3627
-2430.74 -249.658 3642
-2449.3 -252.469 3683
-2451.1 -253.565 3699
-2442.25 -253.565 3699
-2438.67 -254.114 3707
-2462.58 -257.541 3757
-2476.45 -259.941 3792
-2467.38 -259.941 3792
-2480.36 -262.271 3826
-2482.83 -263.505 3844
-2502.6 -266.59 3889
-2493.3 -266.59 3889
-2484 -266.59 3889
-2457.52 -264.739 3862
-2448.28 -264.739 3862
-2439.05 -264.739 3862
-2424.15 -264.122 3853
-2409.3 -263.505 3844
-2462.54 -270.36 3944
-2453.11 -270.36 3944
-2443.68 -270.36 3944
-2434.25 -270.36 3944
-2424.82 -270.36 3944
-1394.09 -237.73 3468
-1385.79 -237.73 3468
-1377.5 -237.73 3468
-1366.44 -237.251 3461
-1358.17 -237.251 3461
-1341.7 -235.811 3440
-1333.47 -235.811 3440
-1314.46 -233.892 3412
-1298.26 -232.452 3391
-1274.55 -229.642 3350
-1266.54 -229.642 3350
-1253.65 -228.75 3337
-1245.67 -228.75 3337
-1225.08 -226.42 3303
-1217.18 -226.42 3303
-1204.52 -225.529 3290
-1196.65 -225.529 3290
-1188.79 -225.529 3290
-1180.92 -225.529 3290
-1170.91 -225.117 3284
-1160.93 -224.706 3278
-1150.63 -224.226 3271
-1142.81 -224.226 3271
-1130.48 -223.335 3258
-1118.55 -222.512 3246
-1110.79 -222.512 3246
-1103.03 -222.512 3246
-1095.27 -222.512 3246
-1087.5 -222.512 3246
-1079.74 -222.512 3246
-1071.98 -222.512 3246
-1061.92 -222.033 3239
-556.218 -117.151 1709
-551.808 -117.083 1708
-546.441 -116.809 1704
-541.411 -116.603 1701
-537.344 -116.603 1701
-532.022 -116.329 1697
-527.964 -116.329 1697
-522.362 -115.986 1692
-518.316 -115.986 1692
-512.75 -115.643 1687
-508.113 -115.506 1685
-501.99 -115.026 1678
-495.603 -114.478 1670
-491.609 -114.478 1670
-485.28 -113.93 1662
-476.962 -112.901 1647
-471.587 -112.559 1642
-467.661 -112.559 1642
-460.91 -111.873 1632
-454.767 -111.325 1624
-449.218 -110.913 1618
-445.349 -110.913 1618
-440.661 -110.708 1615
-435.447 -110.365 1610
-429.988 -109.954 1604
-426.153 -109.954 1604
-421.527 -109.748 1601
-416.133 -109.337 1595
-411.027 -108.994 1590
-406.2 -108.72 1586
-402.408 -108.72 1586
-397.107 -108.309 1580
-391.337 -107.76 1572
-387.331 -107.692 1571
-383.575 -107.692 1571
-379.093 -107.486 1568
-374.625 -107.28 1565
-370.646 -107.212 1564
-366.906 -107.212 1564
-362.469 -107.006 1561
-358.277 -106.869 1559
-354.321 -106.8 1558
-350.595 -106.8 1558
-346.87 -106.8 1558
-343.144 -106.8 1558
-339.636 -106.869 1559
-336.339 -107.006 1561
-332.606 -107.006 1561
-329.927 -107.349 1566
-326.807 -107.555 1569
-323.673 -107.76 1572
-319.914 -107.76 1572
-317.16 -108.103 1577
-314.184 -108.377 1581
-310.992 -108.583 1584
-307.204 -108.583 1584
-304.374 -108.926 1589
-301.142 -109.131 1592
-298.082 -109.405 1596
-294.266 -109.405 1596
-291.359 -109.748 1601
-288.069 -109.954 1604
-285.12 -110.297 1609
-281.797 -110.502 1612
-277.942 -110.502 1612
-274.597 -110.708 1615
-271.238 -110.913 1618
-268.195 -111.256 1623
-264.314 -111.256 1623
-260.593 -111.325 1624
-257.026 -111.462 1626
-253.916 -111.805 1631
-250.016 -111.805 1631
-246.267 -111.873 1632
-243.107 -112.216 1637
-239.63 -112.422 1640
-235.709 -112.422 1640
-232.07 -112.559 1642
-228.56 -112.764 1645
-225.719 -113.313 1653
-221.766 -113.313 1653
-218.735 -113.793 1660
-215.672 -114.272 1667
-212.32 -114.615 1672
-208.322 -114.615 1672
-204.69 -114.821 1675
-201.883 -115.506 1685
-198.441 -115.849 1690
-194.399 -115.849 1690
-190.921 -116.192 1695
-187.64 -116.672 1702
-184.54 -117.289 1711
-180.449 -117.289 1711
-176.873 -117.631 1716
-173.172 -117.906 1720
-169.354 -118.111 1723
-165.234 -118.111 1723
-161.487 -118.385 1727
-157.54 -118.522 1729
-153.583 -118.66 1731
-149.443 -118.66 1731
-145.304 -118.66 1731
-141.736 -119.139 1738
-138.609 -120.031 1751
-134.421 -120.031 1751
-130.904 -120.648 1760
-127.343 -121.264 1769
-123.391 -121.539 1773
-119.151 -121.539 1773
-115.171 -121.813 1777
-110.921 -121.813 1777
-106.672 -121.813 1777
-102.423 -121.813 1777
-189.593 -257.541 3757
-180.609 -257.541 3757
-171.625 -257.541 3757
-162.641 -257.541 3757
-152.962 -256.376 3740
-143.402 -255.279 3724
-134.497 -255.279 3724
-125.592 -255.279 3724
-116.686 -255.279 3724
-107.781 -255.279 3724
-98.8759 -255.279 3724
-89.7774 -254.731 3716
-80.6954 -254.114 3707
-71.6758 -253.565 3699
-62.8304 -253.565 3699
-53.8682 -253.017 3691
-45.0419 -253.017 3691
-36.2156 -253.017 3691
-27.33 -252.469 3683
-18.5228 -252.469 3683
-9.71562 -252.469 3683
-0.906481 -251.92 3675
7.88156 -251.92 3675
16.6696 -251.92 3675
25.4576 -251.92 3675
34.2457 -251.92 3675
43.0337 -251.92 3675
51.8218 -251.92 3675
60.6098 -251.92 3675
69.3978 -251.92 3675
78.0157 -251.372 3667
86.7846 -251.372 3667
95.5535 -251.372 3667
104.322 -251.372 3667
113.091 -251.372 3667
121.86 -251.372 3667
130.629 -251.372 3667
139.398 -251.372 3667
148.49 -251.92 3675
157.278 -251.92 3675
166.066 -251.92 3675
174.854 -251.92 3675
183.642 -251.92 3675
192.43 -251.92 3675
201.218 -251.92 3675
210.006 -251.92 3675
218.794 -251.92 3675
227.583 -251.92 3675
236.371 -251.92 3675
245.159 -251.92 3675
253.947 -251.92 3675
262.735 -251.92 3675
271.523 -251.92 3675
280.311 -251.92 3675
289.099 -251.92 3675
297.238 -251.372 3667
306.007 -251.372 3667
314.776 -251.372 3667
323.545 -251.372 3667
332.314 -251.372 3667
341.083 -251.372 3667
348.993 -250.755 3658
357.741 -250.755 3658
365.686 -250.207 3650
374.415 -250.207 3650
382.303 -249.658 3642
391.012 -249.658 3642
399.721 -249.658 3642
408.431 -249.658 3642
416.338 -249.178 3635
425.03 -249.178 3635
433.723 -249.178 3635
442.415 -249.178 3635
451.107 -249.178 3635
459.8 -249.178 3635
468.492 -249.178 3635
478.104 -249.658 3642
487.882 -250.207 3650
496.61 -250.207 3650
507.692 -251.372 3667
520.968 -253.565 3699
534.54 -255.828 3732
543.464 -255.828 3732
554.905 -256.993 3749
563.87 -256.993 3749
572.835 -256.993 3749
581.8 -256.993 3749
590.765 -256.993 3749
594.451 -254.731 3716
603.337 -254.731 3716
612.223 -254.731 3716
621.109 -254.731 3716
1759.04 -280.3 4089
1768.82 -280.3 4089
1778.59 -280.3 4089
1784 -279.614 4079
1793.75 -279.614 4079
1803.51 -279.614 4079
1808.82 -278.929 4069
1814.08 -278.243 4059
1797.72 -274.267 4001
1820.39 -276.255 4030
1830.03 -276.255 4030
1839.66 -276.255 4030
1849.3 -276.255 4030
1858.94 -276.255 4030
1837.51 -271.663 3963
1825.08 -268.441 3916
2325.36 -275.57 4020
2357.63 -278.243 4059
2367.34 -278.243 4059
2377.04 -278.243 4059
2392.63 -278.929 4069
2402.36 -278.929 4069
2412.09 -278.929 4069
2409.92 -277.558 4049
2419.6 -277.558 4049
2447.28 -279.614 4079
2457.03 -279.614 4079
2466.79 -279.614 4079
2464.4 -278.243 4059
2450.33 -275.57 4020
2448.32 -274.267 4001
2457.89 -274.267 4001
2455.74 -272.965 3982
2447.31 -270.977 3953
2439.36 -269.058 3925
2448.74 -269.058 3925
2446.86 -267.824 3907
2439.22 -265.973 3880
2431.46 -264.122 3853
2440.68 -264.122 3853
2438.45 -262.888 3835
2441.87 -262.271 3826
2445.9 -261.723 3818
2438.31 -259.941 3792
2447.38 -259.941 3792
2444.78 -258.707 3774
2448.61 -258.158 3766
2440.65 -256.376 3740
2449.59 -256.376 3740
2458.53 -256.376 3740
2478.69 -257.541 3757
2498.93 -258.707 3774
2513.94 -259.324 3783
2522.98 -259.324 3783
2538.05 -259.941 3792
2558.54 -261.106 3809
2567.65 -261.106 3809
2576.76 -261.106 3809
2585.87 -261.106 3809
2594.98 -261.106 3809
2597.93 -260.489 3800
2607.02 -260.489 3800
2604.4 -259.324 3783
2601.7 -258.158 3766
2616.25 -258.707 3774
2631.54 -259.324 3783
2640.59 -259.324 3783
2649.63 -259.324 3783
2652.35 -258.707 3774
2661.38 -258.707 3774
2664.74 -258.158 3766
2661.68 -256.993 3749
2664.23 -256.376 3740
2673.18 -256.376 3740
2682.12 -256.376 3740
2691.06 -256.376 3740
2700.01 -256.376 3740
2691.57 -254.731 3716
2700.45 -254.731 3716
2709.34 -254.731 3716
2718.22 -254.731 3716
2727.11 -254.731 3716
2741.89 -255.279 3724
2750.79 -255.279 3724
2790.82 -258.158 3766
2819.16 -259.941 3792
2834.19 -260.489 3800
2843.28 -260.489 3800
2852.37 -260.489 3800
2875.01 -261.723 3818
2884.14 -261.723 3818
2893.27 -261.723 3818
2902.4 -261.723 3818
2911.53 -261.723 3818
2893.88 -259.324 3783
-2502.99 -221.154 3343
-2494.99 -221.154 3343
-2487 -221.154 3343
-2469.36 -220.294 3330
-2523.15 -228.034 3447
-2573.28 -233.326 3527
-2564.84 -233.326 3527
-2556.41 -233.326 3527
-2547.98 -233.326 3527
-2539.54 -233.326 3527
-2463.65 -227.107 3433
-2405.37 -222.477 3363
-2402.32 -222.94 3370
-2419.13 -225.255 3405
-2425.86 -226.644 3426
-2417.66 -226.644 3426
-2439.01 -229.423 3468
-2446.14 -230.878 3490
-2437.79 -230.878 3490
-2429.44 -230.878 3490
-2421.1 -230.878 3490
-2417.59 -231.341 3497
-2429.9 -233.326 3527
-2421.46 -233.326 3527
-2423.29 -234.318 3542
-2446.18 -237.361 3588
-2437.6 -237.361 3588
-2439.18 -238.354 3603
-2441.36 -239.412 3619
-2448.16 -240.934 3642
-2439.45 -240.934 3642
-2447.43 -242.588 3667
-2449.3 -243.646 3683
-2451.1 -244.704 3699
-2442.25 -244.704 3699
-2438.67 -245.234 3707
-2462.58 -248.541 3757
-2476.45 -250.857 3792
-2467.38 -250.857 3792
-2480.36 -253.106 3826
-2477.02 -253.701 3835
-2502.6 -257.274 3889
-2493.3 -257.274 3889
-2484 -257.274 3889
-2451.79 -254.892 3853
-2442.58 -254.892 3853
-2433.36 -254.892 3853
-2418.49 -254.297 3844
-2398.01 -253.106 3826
-2388.87 -253.106 3826
-2379.72 -253.106 3826
-2370.57 -253.106 3826
-1394.09 -229.423 3468
-1385.79 -229.423 3468
-1377.5 -229.423 3468
-1366.44 -228.96 3461
-1358.17 -228.96 3461
-1341.7 -227.571 3440
-1333.47 -227.571 3440
-1314.46 -225.718 3412
-1298.26 -224.329 3391
-1274.55 -221.617 3350
-1266.54 -221.617 3350
-1255.9 -221.154 3343
-1245.67 -220.757 3337
-1225.08 -218.507 3303
-1217.18 -218.507 3303
-1207.08 -218.11 3297
-1196.65 -217.647 3290
-1188.79 -217.647 3290
-1180.92 -217.647 3290
-1170.91 -217.25 3284
-1160.93 -216.854 3278
-1150.63 -216.39 3271
-1142.81 -216.39 3271
-1130.48 -215.53 3258
-1120.62 -215.134 3252
-1112.84 -215.134 3252
-1105.07 -215.134 3252
-1097.29 -215.134 3252
-1089.51 -215.134 3252
-1081.74 -215.134 3252
-1073.96 -215.134 3252
-560.305 -113.058 1709
-556.218 -113.058 1709
-552.131 -113.058 1709
-547.724 -112.991 1708
-541.411 -112.528 1701
-537.344 -112.528 1701
-532.022 -112.264 1697
-527.964 -112.264 1697
-522.98 -112.065 1694
-518.929 -112.065 1694
-513.358 -111.734 1689
-508.113 -111.47 1685
-502.588 -111.139 1680
-496.197 -110.61 1672
-492.198 -110.61 1672
-483.82 -109.618 1657
-476.383 -108.824 1645
-471.013 -108.493 1640
-467.091 -108.493 1640
-460.91 -107.964 1632
-454.767 -107.434 1624
-449.218 -107.038 1618
-445.349 -107.038 1618
-440.661 -106.839 1615
-435.447 -106.508 1610
-429.988 -106.111 1604
-426.153 -106.111 1604
-421.001 -105.781 1599
-415.612 -105.384 1593
-411.027 -105.185 1590
-406.2 -104.921 1586
-402.408 -104.921 1586
-397.107 -104.524 1580
-391.337 -103.994 1572
-387.331 -103.928 1571
-383.575 -103.928 1571
-379.093 -103.73 1568
-374.625 -103.531 1565
-370.646 -103.465 1564
-366.906 -103.465 1564
-362.701 -103.333 1562
-358.736 -103.267 1561
-353.866 -102.936 1556
-350.145 -102.936 1556
-346.424 -102.936 1556
-343.144 -103.068 1558
-339.636 -103.134 1559
-335.908 -103.134 1559
-332.18 -103.134 1559
-329.716 -103.531 1565
-326.599 -103.73 1568
-323.673 -103.994 1572
-319.914 -103.994 1572
-316.758 -104.193 1575
-314.184 -104.59 1581
-310.796 -104.722 1583
-307.011 -104.722 1583
-304.374 -105.119 1589
-301.142 -105.318 1592
-298.082 -105.582 1596
-294.266 -105.582 1596
-291.359 -105.913 1601
-288.069 -106.111 1604
-285.12 -106.442 1609
-281.797 -106.641 1612
-278.114 -106.707 1613
-274.597 -106.839 1615
-271.238 -107.038 1618
-268.195 -107.368 1623
-264.314 -107.368 1623
-260.914 -107.567 1626
-257.342 -107.699 1628
-254.072 -107.964 1632
-250.169 -107.964 1632
-246.569 -108.096 1634
-243.107 -108.294 1637
-239.63 -108.493 1640
-235.709 -108.493 1640
-232.07 -108.625 1642
-228.977 -109.022 1648
-225.719 -109.353 1653
-221.766 -109.353 1653
-218.999 -109.948 1662
-215.672 -110.279 1667
-212.32 -110.61 1672
-208.322 -110.61 1672
-204.69 -110.808 1675
-202.123 -111.602 1687
-198.91 -112.065 1694
-194.859 -112.065 1694
-191.597 -112.528 1701
-188.081 -112.859 1706
-184.756 -113.322 1713
-180.66 -113.322 1713
-177.079 -113.653 1718
-173.373 -113.918 1722
-169.55 -114.116 1725
-165.425 -114.116 1725
-161.487 -114.248 1727
-157.54 -114.381 1729
-153.583 -114.513 1731
-149.443 -114.513 1731
-145.304 -114.513 1731
-141.736 -114.976 1738
-138.609 -115.836 1751
-134.421 -115.836 1751
-130.904 -116.431 1760
-127.343 -117.027 1769
-123.391 -117.291 1773
-119.151 -117.291 1773
-115.171 -117.556 1777
-110.921 -117.556 1777
-106.672 -117.556 1777
-189.593 -248.541 3757
-180.609 -248.541 3757
-171.625 -248.541 3757
-162.641 -248.541 3757
-152.962 -247.417 3740
-143.402 -246.358 3724
-134.497 -246.358 3724
-125.322 -245.829 3716
-116.436 -245.829 3716
-107.55 -245.829 3716
-98.6635 -245.829 3716
-89.7774 -245.829 3716
-80.6954 -245.234 3707
-71.5208 -244.175 3691
-62.6945 -244.175 3691
-53.8682 -244.175 3691
-45.0419 -244.175 3691
-36.1371 -243.646 3683
-27.33 -243.646 3683
-18.5228 -243.646 3683
-9.69452 -243.117 3675
-0.906481 -243.117 3675
7.88156 -243.117 3675
16.6696 -243.117 3675
25.4576 -243.117 3675
34.1711 -242.588 3667
42.94 -242.588 3667
51.7089 -242.588 3667
60.4779 -242.588 3667
69.2468 -242.588 3667
78.0157 -242.588 3667
86.7846 -242.588 3667
95.5535 -242.588 3667
104.322 -242.588 3667
113.091 -242.588 3667
121.86 -242.588 3667
130.629 -242.588 3667
139.398 -242.588 3667
148.49 -243.117 3675
157.278 -243.117 3675
166.066 -243.117 3675
174.854 -243.117 3675
183.642 -243.117 3675
192.43 -243.117 3675
201.218 -243.117 3675
210.006 -243.117 3675
218.794 -243.117 3675
227.583 -243.117 3675
236.371 -243.117 3675
245.159 -243.117 3675
253.947 -243.117 3675
262.735 -243.117 3675
271.523 -243.117 3675
280.311 -243.117 3675
289.099 -243.117 3675
297.887 -243.117 3675
306.675 -243.117 3675
315.463 -243.117 3675
324.251 -243.117 3675
332.314 -242.588 3667
341.083 -242.588 3667
349.852 -242.588 3667
357.741 -241.992 3658
365.686 -241.463 3650
374.415 -241.463 3650
383.143 -241.463 3650
391.012 -240.934 3642
399.721 -240.934 3642
408.431 -240.934 3642
417.14 -240.934 3642
425.03 -240.471 3635
433.723 -240.471 3635
442.415 -240.471 3635
451.107 -240.471 3635
459.8 -240.471 3635
469.394 -240.934 3642
478.104 -240.934 3642
488.951 -241.992 3658
497.699 -241.992 3658
507.692 -242.588 3667
520.968 -244.704 3699
536.975 -248.012 3749
545.94 -248.012 3749
554.905 -248.012 3749
565.073 -248.541 3757
574.057 -248.541 3757
583.041 -248.541 3757
592.026 -248.541 3757
597.01 -246.888 3732
605.935 -246.888 3732
614.859 -246.888 3732
627.962 -248.541 3757
636.946 -248.541 3757
645.93 -248.541 3757
1759.04 -270.505 4089
1768.82 -270.505 4089
1778.59 -270.505 4089
1779.63 -269.182 4069
1789.36 -269.182 4069
1799.09 -269.182 4069
1765.7 -262.765 3972
1775.19 -262.765 3972
1784.69 -262.765 3972
1807.29 -264.683 4001
1816.86 -264.683 4001
1826.43 -264.683 4001
1822.69 -262.765 3972
1832.18 -262.765 3972
1837.51 -262.169 3963
1816.69 -257.869 3898
2331.15 -266.602 4030
2357.63 -268.52 4059
2367.34 -268.52 4059
2377.04 -268.52 4059
2386.75 -268.52 4059
2396.45 -268.52 4059
2406.16 -268.52 4059
2409.92 -267.858 4049
2419.6 -267.858 4049
2429.28 -267.858 4049
2438.96 -267.858 4049
2448.65 -267.858 4049
2446.79 -266.602 4030
2438.75 -264.683 4001
2436.69 -263.426 3982
2446.22 -263.426 3982
2437.85 -261.508 3953
2436.16 -260.317 3935
2428.17 -258.465 3907
2437.51 -258.465 3907
2429.95 -256.678 3880
2422.25 -254.892 3853
2414.43 -253.106 3826
2423.57 -253.106 3826
2432.72 -253.106 3826
2436.77 -252.577 3818
2445.9 -252.577 3818
2438.31 -250.857 3792
2447.38 -250.857 3792
2444.78 -249.666 3774
2448.61 -249.137 3766
2446.52 -248.012 3749
2455.48 -248.012 3749
2464.45 -248.012 3749
2489.91 -249.666 3774
2498.93 -249.666 3774
2513.94 -250.261 3783
2522.98 -250.261 3783
2538.05 -250.857 3792
2564.59 -252.577 3818
2573.72 -252.577 3818
2582.85 -252.577 3818
2591.98 -252.577 3818
2594.98 -251.981 3809
2597.93 -251.386 3800
2607.02 -251.386 3800
2604.4 -250.261 3783
2601.7 -249.137 3766
2616.25 -249.666 3774
2631.54 -250.261 3783
2640.59 -250.261 3783
2649.63 -250.261 3783
2652.35 -249.666 3774
2661.38 -249.666 3774
2664.74 -249.137 3766
2661.68 -248.012 3749
2670.64 -248.012 3749
2679.61 -248.012 3749
2688.57 -248.012 3749
2697.54 -248.012 3749
2706.5 -248.012 3749
2708.95 -247.417 3740
2717.89 -247.417 3740
2709.34 -245.829 3716
2718.22 -245.829 3716
2738.85 -246.888 3732
2753.67 -247.417 3740
2762.61 -247.417 3740
2803.42 -250.261 3783
2819.16 -250.857 3792
2834.19 -251.386 3800
2843.28 -251.386 3800
2852.37 -251.386 3800
