ply
format ascii 1.0
comment File generated
element vertex 2247
property float x
property float y
property float z
end_header
2011.66 940.118 3724
2029.25 944.157 3740
2038.19 944.157 3740
2075.6 957.285 3792
2084.66 957.285 3792
2193.12 1002.73 3972
2202.62 1002.73 3972
2217.68 1005.25 3982
2242.87 1012.32 4010
2258.07 1014.84 4020
2267.69 1014.84 4020
2277.3 1014.84 4020
2281.22 1012.32 4010
2290.81 1012.32 4010
2300.4 1012.32 4010
2309.99 1012.32 4010
2319.58 1012.32 4010
2329.17 1012.32 4010
2338.76 1012.32 4010
2343.08 1010.05 4001
2352.64 1010.05 4001
2362.21 1010.05 4001
2371.78 1010.05 4001
2370.04 1005.25 3982
2384.94 1007.52 3991
2394.48 1007.52 3991
2410.05 1010.05 4001
2419.62 1010.05 4001
2429.18 1010.05 4001
2438.75 1010.05 4001
2453.83 1012.32 4010
2469.56 1014.84 4020
2479.17 1014.84 4020
2500.55 1019.64 4039
2510.21 1019.64 4039
2519.87 1019.64 4039
2529.52 1019.64 4039
2539.18 1019.64 4039
2543.16 1017.37 4030
2552.8 1017.37 4030
2549.72 1012.32 4010
2553.56 1010.05 4001
2556.72 1007.52 3991
2566.27 1007.52 3991
2575.81 1007.52 3991
2567.22 1000.45 3963
2576.69 1000.45 3963
2579.65 997.929 3953
2589.1 997.929 3953
2592.63 995.657 3944
2596.13 993.385 3935
2581.04 984.044 3898
2590.36 984.044 3898
2599.68 984.044 3898
2566.84 968.14 3835
2564.59 963.848 3818
2573.72 963.848 3818
2565.26 957.285 3792
2562.11 952.74 3774
2554.1 946.429 3749
2556.91 944.157 3740
2565.85 944.157 3740
2574.8 944.157 3740
2560.94 935.826 3707
2564.26 933.807 3699
2573.11 933.807 3699
2576.37 931.787 3691
2585.2 931.787 3691
533.796 181.258 718
535.513 181.258 718
537.978 181.51 719
539.698 181.51 719
541.417 181.51 719
543.136 181.51 719
544.098 181.258 718
545.815 181.258 718
547.532 181.258 718
549.249 181.258 718
-2365.97 805.307 3160
-2358.41 805.307 3160
-2346.39 803.778 3154
-2338.85 803.778 3154
-2322.44 800.72 3142
-2314.93 800.72 3142
-2307.41 800.72 3142
-2291.11 797.662 3130
-2283.63 797.662 3130
-2289.23 802.249 3148
-2281.71 802.249 3148
-2291.52 808.365 3172
-2288.25 809.894 3178
-2289.26 812.952 3190
-2281.64 812.952 3190
-2291.12 819.068 3214
-2301.19 825.44 3239
-2311.86 832.066 3265
-2304.05 832.066 3265
-2322.97 841.75 3303
-2348.01 853.727 3350
-2378.42 867.744 3405
-2370.27 867.744 3405
-2371.84 871.312 3419
-2368.51 873.095 3426
-2360.32 873.095 3426
-2352.12 873.095 3426
-2348.72 874.879 3433
-2340.51 874.879 3433
-2337.06 876.663 3440
-2328.83 876.663 3440
-2325.33 878.447 3447
-2321.79 880.231 3454
-2318.22 882.015 3461
-2309.94 882.015 3461
-2306.32 883.799 3468
-2303.33 885.838 3476
-2308.88 891.189 3497
-2300.52 891.189 3497
-2297.4 893.228 3505
-2293.59 895.012 3512
-2285.19 895.012 3512
-2276.79 895.012 3512
-2268.4 895.012 3512
-2260 895.012 3512
-2256.73 897.051 3520
-2248.31 897.051 3520
-2239.89 897.051 3520
-2240.35 900.619 3534
-2231.9 900.619 3534
-2223.45 900.619 3534
-2224.4 904.441 3549
-2220.91 906.48 3557
-2217.38 908.519 3565
-2208.85 908.519 3565
-2204.65 910.303 3572
-2205.94 914.38 3588
-2201.65 916.164 3595
-2193.05 916.164 3595
-2184.46 916.164 3595
-2180.7 918.203 3603
-2172.09 918.203 3603
-2163.47 918.203 3603
-2154.85 918.203 3603
-2155.77 922.28 3619
-2151.86 924.319 3627
-2143.19 924.319 3627
-2134.52 924.319 3627
-2125.84 924.319 3627
-2117.17 924.319 3627
-2108.5 924.319 3627
-2104.45 926.358 3635
-2095.76 926.358 3635
-2091.09 928.142 3642
-2082.38 928.142 3642
-2073.67 928.142 3642
-2064.96 928.142 3642
-2056.25 928.142 3642
-2047.54 928.142 3642
-2038.83 928.142 3642
-2030.12 928.142 3642
-2021.42 928.142 3642
-2012.71 928.142 3642
-2004 928.142 3642
-1995.29 928.142 3642
-1986.58 928.142 3642
-1974.07 926.358 3635
-1969.16 928.142 3642
-1964.76 930.18 3650
-1960.32 932.219 3658
-1951.57 932.219 3658
-1947.6 934.513 3667
-1951.52 940.629 3691
-1942.7 940.629 3691
-1933.87 940.629 3691
-1925.04 940.629 3691
-1912.06 938.59 3683
-1903.26 938.59 3683
-1886.22 934.513 3667
-1868.75 930.18 3650
-1860.02 930.18 3650
-1851.29 930.18 3650
-1842.56 930.18 3650
-1829.81 928.142 3642
-1813.61 924.319 3627
-1804.93 924.319 3627
-1796.26 924.319 3627
-1787.59 924.319 3627
-1782.84 926.358 3635
-1774.14 926.358 3635
-1765.45 926.358 3635
-1752.89 924.319 3627
-1732.68 918.203 3603
-1724.06 918.203 3603
-1711.64 916.164 3595
-1699.72 914.38 3588
-1683.6 910.303 3572
-1668.03 906.48 3557
-1659.52 906.48 3557
-1651.02 906.48 3557
-1638.82 904.441 3549
-1630.33 904.441 3549
-1621.84 904.441 3549
-1613.35 904.441 3549
-1598.09 900.619 3534
-1589.63 900.619 3534
-1581.18 900.619 3534
-1572.73 900.619 3534
-1564.28 900.619 3534
-1552.75 898.835 3527
-1544.32 898.835 3527
-1535.88 898.835 3527
-1524.42 897.051 3520
-1519.01 898.835 3527
-1510.58 898.835 3527
-1502.14 898.835 3527
-1490.75 897.051 3520
-1482.33 897.051 3520
-1476.84 898.835 3527
-1468.41 898.835 3527
-1459.97 898.835 3527
-1451.54 898.835 3527
-1443.11 898.835 3527
-1434.67 898.835 3527
-1426.24 898.835 3527
-1417.8 898.835 3527
-1409.37 898.835 3527
-1400.93 898.835 3527
-1392.5 898.835 3527
-1384.07 898.835 3527
-1378.36 900.619 3534
-1369.91 900.619 3534
-1367.24 904.441 3549
-1358.75 904.441 3549
-1356.35 908.519 3565
-1347.83 908.519 3565
-1344.94 912.341 3580
-1344.96 918.203 3603
-1342.28 922.28 3619
-1333.63 922.28 3619
-1327.9 924.319 3627
-1319.23 924.319 3627
-1310.56 924.319 3627
-1301.88 924.319 3627
-1290.36 922.28 3619
-1276.04 918.203 3603
-1267.42 918.203 3603
-1261.6 920.242 3611
-1252.97 920.242 3611
-1244.33 920.242 3611
-1232.96 918.203 3603
-1224.34 918.203 3603
-1213.03 916.164 3595
-1191.7 906.48 3557
-595.422 456.171 1790
-591.141 456.171 1790
-586.861 456.171 1790
-582.58 456.171 1790
-576.362 454.642 1784
-572.095 454.642 1784
-567.829 454.642 1784
-563.563 454.642 1784
-557.103 452.858 1777
-553.475 453.367 1779
-549.221 453.367 1779
-544.967 453.367 1779
-540.713 453.367 1779
-535.856 452.858 1777
-533.701 454.642 1784
-529.435 454.642 1784
-525.168 454.642 1784
-521.486 455.151 1786
-517.215 455.151 1786
-513.519 455.661 1788
-509.243 455.661 1788
-504.968 455.661 1788
-500.132 455.151 1786
-495.861 455.151 1786
-491.59 455.151 1786
-486.774 454.642 1784
-481.967 454.132 1782
-477.705 454.132 1782
-472.647 453.367 1779
-466.287 451.329 1771
-461.008 450.309 1767
-456.783 450.309 1767
-451.277 449.035 1762
-445.033 446.996 1754
-438.074 444.193 1743
-433.159 443.428 1740
-428.999 443.428 1740
-423.861 442.409 1736
-417.534 440.116 1727
-412.207 438.841 1722
-408.089 438.841 1722
-403.033 437.822 1718
-397.764 436.548 1713
-393.208 436.038 1711
-389.116 436.038 1711
-383.9 434.764 1706
-379.375 434.254 1704
-375.3 434.254 1704
-371.225 434.254 1704
-367.151 434.254 1704
-363.076 434.254 1704
-359.001 434.254 1704
-354.926 434.254 1704
-350.851 434.254 1704
-346.777 434.254 1704
-343.506 435.273 1708
-339.422 435.273 1708
-335.338 435.273 1708
-331.447 435.528 1709
-327.361 435.528 1709
-323.652 436.038 1711
-319.561 436.038 1711
-315.469 436.038 1711
-311.378 436.038 1711
-307.286 436.038 1711
-303.194 436.038 1711
-299.103 436.038 1711
-295.011 436.038 1711
-290.58 435.528 1709
-286.493 435.528 1709
-282.406 435.528 1709
-278.32 435.528 1709
-274.233 435.528 1709
-270.146 435.528 1709
-266.059 435.528 1709
-261.973 435.528 1709
-258.188 436.038 1711
-254.096 436.038 1711
-250.005 436.038 1711
-245.913 436.038 1711
-241.822 436.038 1711
-238.008 436.548 1713
-233.912 436.548 1713
-230.084 437.057 1715
-226.114 437.312 1716
-222.528 438.332 1720
-218.415 438.332 1720
-214.552 438.841 1722
-210.8 439.606 1725
-207.155 440.625 1729
-203.02 440.625 1729
-199.116 441.135 1731
-194.976 441.135 1731
-190.947 441.39 1732
-186.805 441.39 1732
-182.875 441.899 1734
-178.934 442.409 1736
-174.984 442.919 1738
-170.828 442.919 1738
-166.96 443.683 1741
-162.984 444.193 1743
-159.18 445.212 1747
-155.002 445.212 1747
-150.997 445.722 1749
-146.815 445.722 1749
-142.633 445.722 1749
-138.134 444.703 1745
-310.835 1031.86 4049
-301.153 1031.86 4049
-291.47 1031.86 4049
-278.447 1019.63 4001
-268.88 1019.63 4001
-259.312 1019.63 4001
-242.192 988.795 3880
-232.913 988.795 3880
-223.635 988.795 3880
-214.854 991.088 3889
-205.554 991.088 3889
-196.255 991.088 3889
-186.522 988.795 3880
-177.244 988.795 3880
-167.966 988.795 3880
-158.687 988.795 3880
-148.716 984.207 3862
-139.481 984.207 3862
-129.942 981.914 3853
-120.164 977.327 3835
-110.502 972.994 3818
-101.372 972.994 3818
-91.6136 966.368 3792
-81.9798 959.742 3766
-72.3153 951.078 3732
-63.3909 951.078 3732
-54.1017 944.707 3707
-44.8467 936.552 3675
-35.8133 930.18 3650
-27.0851 930.18 3650
-18.2814 926.358 3635
-9.52569 920.242 3611
-0.886748 916.164 3595
7.69497 914.38 3588
16.275 914.38 3588
24.7995 912.341 3580
33.2206 908.519 3565
41.652 906.48 3557
50.1578 906.48 3557
58.4163 902.657 3542
66.7352 900.619 3534
75.1861 900.619 3534
83.6369 900.619 3534
91.9054 898.835 3527
100.34 898.835 3527
108.774 898.835 3527
117.208 898.835 3527
125.642 898.835 3527
134.342 900.619 3534
142.793 900.619 3534
151.244 900.619 3534
159.695 900.619 3534
168.146 900.619 3534
176.247 898.835 3527
184.681 898.835 3527
193.115 898.835 3527
201.149 897.051 3520
209.983 898.835 3527
218.417 898.835 3527
227.816 902.657 3542
236.286 902.657 3542
245.24 904.441 3549
254.299 906.48 3557
262.804 906.48 3557
271.31 906.48 3557
280.445 908.519 3565
290.186 912.341 3580
298.747 912.341 3580
307.308 912.341 3580
316.575 914.38 3588
325.155 914.38 3588
333.735 914.38 3588
342.315 914.38 3588
351.579 916.164 3595
360.978 918.203 3603
369.593 918.203 3603
378.209 918.203 3603
385.215 914.38 3588
391.27 908.519 3565
399.795 908.519 3565
403.968 898.835 3527
411.584 897.051 3520
419.047 895.012 3512
423.915 887.622 3483
432.244 887.622 3483
436.905 880.231 3454
441.556 873.095 3426
448.829 871.312 3419
457.005 871.312 3419
457.562 857.04 3363
464.773 855.511 3357
468.998 848.63 3330
476.961 848.63 3330
484.924 848.63 3330
492.887 848.63 3330
500.85 848.63 3330
508.813 848.63 3330
516.776 848.63 3330
524.739 848.63 3330
533.822 850.414 3337
541.802 850.414 3337
550.77 851.943 3343
558.764 851.943 3343
566.758 851.943 3343
574.753 851.943 3343
582.747 851.943 3343
590.741 851.943 3343
599.989 853.727 3350
607.999 853.727 3350
617.297 855.511 3357
625.325 855.511 3357
633.353 855.511 3357
641.38 855.511 3357
649.408 855.511 3357
657.436 855.511 3357
662.688 851.943 3343
670.682 851.943 3343
678.676 851.943 3343
686.67 851.943 3343
693.418 850.414 3337
701.397 850.414 3337
709.377 850.414 3337
715.852 848.63 3330
723.815 848.63 3330
730.24 846.846 3323
738.186 846.846 3323
746.133 846.846 3323
754.079 846.846 3323
763.63 848.63 3330
771.593 848.63 3330
779.556 848.63 3330
785.864 846.846 3323
793.81 846.846 3323
801.757 846.846 3323
811.409 848.63 3330
819.372 848.63 3330
827.335 848.63 3330
837.054 850.414 3337
846.553 851.943 3343
854.547 851.943 3343
871.314 860.608 3377
883.035 864.176 3391
898.502 871.312 3419
906.678 871.312 3419
922.346 878.447 3447
942.197 889.405 3490
956.535 895.012 3512
964.933 895.012 3512
979.429 900.619 3534
994.309 906.48 3557
1007.04 910.303 3572
1015.59 910.303 3572
1026.42 912.341 3580
1041.63 918.203 3603
1054.91 922.28 3619
1068.27 926.358 3635
1076.96 926.358 3635
1092.52 932.219 3658
1106.39 936.552 3675
1115.17 936.552 3675
1123.96 936.552 3675
1132.75 936.552 3675
1141.54 936.552 3675
1150.33 936.552 3675
1159.11 936.552 3675
1170.45 938.59 3683
1179.25 938.59 3683
1188.06 938.59 3683
1194.27 936.552 3675
1203.05 936.552 3675
1206.24 932.219 3658
1217.97 934.513 3667
1226.74 934.513 3667
1235.51 934.513 3667
1244.28 934.513 3667
1253.05 934.513 3667
1258.72 932.219 3658
1267.47 932.219 3658
1276.22 932.219 3658
1284.96 932.219 3658
1293.71 932.219 3658
1299.61 930.18 3650
1308.34 930.18 3650
1319.95 932.219 3658
1328.7 932.219 3658
1337.45 932.219 3658
1343.25 930.18 3650
1346.42 926.358 3635
1355.12 926.358 3635
1363.81 926.358 3635
1366.46 922.28 3619
1372.07 920.242 3611
1380.71 920.242 3611
1386.27 918.203 3603
1389.07 914.38 3588
1394.54 912.341 3580
1403.1 912.341 3580
1405.74 908.519 3565
1407.92 904.441 3549
1416.41 904.441 3549
1418.87 900.619 3534
1427.32 900.619 3534
1426.84 895.012 3512
1432.37 893.228 3505
1437.47 891.189 3497
1445.83 891.189 3497
1448.37 887.622 3483
1450.43 883.799 3468
1452.83 880.231 3454
1461.09 880.231 3454
1466.37 878.447 3447
1477.61 880.231 3454
1504.37 891.189 3497
1528.73 900.619 3534
1537.19 900.619 3534
1552.2 904.441 3549
1567.72 908.519 3565
1593.05 918.203 3603
1601.66 918.203 3603
1627.71 928.142 3642
1662.03 942.668 3699
1732.31 977.327 3835
1741.48 977.327 3835
1754.76 979.62 3844
1772.21 984.207 3862
1802.2 995.675 3907
1811.54 995.675 3907
1838.13 1005.1 3944
1851.78 1007.4 3953
1865.94 1009.95 3963
1875.42 1009.95 3963
1884.89 1009.95 3963
1889.59 1007.4 3953
1890.39 1002.81 3935
1899.8 1002.81 3935
1904.36 1000.26 3925
1878.64 981.914 3853
1883.45 979.62 3844
1892.64 979.62 3844
1884.51 970.701 3809
1867.77 957.449 3757
1847.78 942.668 3699
1856.63 942.668 3699
1844.8 932.219 3658
1837.84 924.319 3627
1834.29 918.203 3603
1835.23 914.38 3588
1843.81 914.38 3588
1852.39 914.38 3588
1860.97 914.38 3588
1869.55 914.38 3588
1878.13 914.38 3588
1886.71 914.38 3588
1898.99 916.164 3595
1924.57 924.319 3627
1958.83 936.552 3675
1967.61 936.552 3675
1985.01 940.629 3691
2007.34 947 3716
2024.91 951.078 3732
2033.83 951.078 3732
2070.67 964.075 3783
2079.72 964.075 3783
2188.15 1009.95 3963
2197.62 1009.95 3963
2212.11 1012.24 3972
2242.87 1021.92 4010
2252.46 1021.92 4010
2262.04 1021.92 4010
2271.63 1021.92 4010
2281.22 1021.92 4010
2285.67 1019.63 4001
2300.4 1021.92 4010
2309.99 1021.92 4010
2319.58 1021.92 4010
2329.17 1021.92 4010
2338.76 1021.92 4010
2343.08 1019.63 4001
2352.64 1019.63 4001
2339.78 1009.95 3963
2349.25 1009.95 3963
2358.73 1009.95 3963
2379.56 1014.79 3982
2389.08 1014.79 3982
2404.03 1017.08 3991
2413.57 1017.08 3991
2423.11 1017.08 3991
2438.75 1019.63 4001
2448.32 1019.63 4001
2463.42 1021.92 4010
2473.01 1021.92 4010
2500.55 1029.31 4039
2510.21 1029.31 4039
2519.87 1029.31 4039
2529.52 1029.31 4039
2539.18 1029.31 4039
2543.16 1027.02 4030
2552.8 1027.02 4030
2549.72 1021.92 4010
2553.56 1019.63 4001
2556.72 1017.08 3991
2566.27 1017.08 3991
2575.81 1017.08 3991
2567.22 1009.95 3963
2576.69 1009.95 3963
2579.65 1007.4 3953
2589.1 1007.4 3953
2592.63 1005.1 3944
2596.13 1002.81 3935
2581.04 993.382 3898
2590.36 993.382 3898
2599.68 993.382 3898
2566.84 977.327 3835
2564.59 972.994 3818
2573.72 972.994 3818
2565.26 966.368 3792
2562.11 961.781 3774
2559.55 957.449 3757
2568.53 957.449 3757
2577.52 957.449 3757
2586.5 957.449 3757
2583.74 953.116 3740
2576.05 947 3716
2584.93 947 3716
2593.82 947 3716
2596.4 944.707 3707
2599.64 942.668 3699
2608.49 942.668 3699
533.796 182.978 718
535.513 182.978 718
537.978 183.233 719
539.698 183.233 719
541.417 183.233 719
543.136 183.233 719
544.856 183.233 719
545.815 182.978 718
547.532 182.978 718
549.249 182.978 718
-2361.48 811.333 3154
-2353.94 811.333 3154
-2341.93 809.79 3148
-2329.95 808.246 3142
-2322.44 808.246 3142
-2314.93 808.246 3142
-2298.6 805.16 3130
-2286.72 803.616 3124
-2283.63 805.16 3130
-2284.87 808.246 3142
-2277.36 808.246 3142
-2287.18 814.42 3166
-2283.93 815.964 3172
-2284.96 819.05 3184
-2277.34 819.05 3184
-2278.28 822.137 3196
-2292.67 830.112 3227
-2302.65 836.543 3252
-2294.87 836.543 3252
-2309.6 844.774 3284
-2329.09 854.807 3323
-2368.64 872.299 3391
-2360.53 872.299 3391
-2362.13 875.9 3405
-2363.67 879.502 3419
-2355.49 879.502 3419
-2347.32 879.502 3419
-2343.93 881.302 3426
-2335.74 881.302 3426
-2332.3 883.103 3433
-2324.09 883.103 3433
-2315.88 883.103 3433
-2317.08 886.704 3447
-2313.53 888.505 3454
-2305.27 888.505 3454
-2301.67 890.306 3461
-2303.33 894.164 3476
-2308.88 899.566 3497
-2300.52 899.566 3497
-2297.4 901.624 3505
-2289.02 901.624 3505
-2285.19 903.425 3512
-2276.79 903.425 3512
-2268.4 903.425 3512
-2260 903.425 3512
-2251.6 903.425 3512
-2243.2 903.425 3512
-2234.8 903.425 3512
-2235.91 907.284 3527
-2231.9 909.084 3534
-2223.45 909.084 3534
-2220.01 911.142 3542
-2220.91 915.001 3557
-2212.4 915.001 3557
-2203.9 915.001 3557
-2204.65 918.859 3572
-2205.94 922.975 3588
-2201.65 924.776 3595
-2193.05 924.776 3595
-2184.46 924.776 3595
-2180.7 926.834 3603
-2172.09 926.834 3603
-2163.47 926.834 3603
-2154.85 926.834 3603
-2151 928.892 3611
-2151.86 933.008 3627
-2143.19 933.008 3627
-2134.52 933.008 3627
-2125.84 933.008 3627
-2117.17 933.008 3627
-2108.5 933.008 3627
-2099.82 933.008 3627
-2095.76 935.065 3635
-2087.07 935.065 3635
-2078.38 935.065 3635
-2073.67 936.866 3642
-2064.96 936.866 3642
-2056.25 936.866 3642
-2047.54 936.866 3642
-2034.92 935.065 3635
-2026.22 935.065 3635
-2021.42 936.866 3642
-2012.71 936.866 3642
-2004 936.866 3642
-1987.07 933.008 3627
-1982.76 935.065 3635
-1974.07 935.065 3635
-1965.38 935.065 3635
-1964.76 938.924 3650
-1956.03 938.924 3650
-1947.3 938.924 3650
-1942.82 940.982 3658
-1951.52 949.471 3691
-1942.7 949.471 3691
-1933.87 949.471 3691
-1925.04 949.471 3691
-1916.22 949.471 3691
-1907.39 949.471 3691
-1890.33 945.355 3675
-1872.84 940.982 3658
-1860.02 938.924 3650
-1851.29 938.924 3650
-1842.56 938.924 3650
-1833.83 938.924 3650
-1825.11 938.924 3650
-1816.38 938.924 3650
-1803.69 936.866 3642
-1794.98 936.866 3642
-1786.27 936.866 3642
-1777.56 936.866 3642
-1765.45 935.065 3635
-1752.89 933.008 3627
-1732.68 926.834 3603
-1724.06 926.834 3603
-1711.64 924.776 3595
-1699.72 922.975 3588
-1683.6 918.859 3572
-1668.03 915.001 3557
-1659.52 915.001 3557
-1651.02 915.001 3557
-1638.82 912.943 3549
-1630.33 912.943 3549
-1621.84 912.943 3549
-1613.35 912.943 3549
-1598.09 909.084 3534
-1589.63 909.084 3534
-1581.18 909.084 3534
-1572.73 909.084 3534
-1564.28 909.084 3534
-1552.75 907.284 3527
-1544.32 907.284 3527
-1535.88 907.284 3527
-1524.42 905.483 3520
-1519.01 907.284 3527
-1510.58 907.284 3527
-1502.14 907.284 3527
-1490.75 905.483 3520
-1482.33 905.483 3520
-1476.84 907.284 3527
-1468.41 907.284 3527
-1459.97 907.284 3527
-1451.54 907.284 3527
-1443.11 907.284 3527
-1434.67 907.284 3527
-1426.24 907.284 3527
-1417.8 907.284 3527
-1409.37 907.284 3527
-1400.93 907.284 3527
-1389.74 905.483 3520
-1381.32 905.483 3520
-1372.9 905.483 3520
-1361.38 903.425 3512
-1361.46 909.084 3534
-1353.01 909.084 3534
-1350.27 912.943 3549
-1341.78 912.943 3549
-1336.3 915.001 3557
-1336.38 920.917 3580
-1339.31 928.892 3611
-1330.68 928.892 3611
-1322.05 928.892 3611
-1313.41 928.892 3611
-1304.78 928.892 3611
-1296.14 928.892 3611
-1279.3 922.975 3588
-1267.89 920.917 3580
-1256.52 918.859 3572
-1253.56 922.975 3588
-1244.98 922.975 3588
-1236.4 922.975 3588
-1222.35 918.859 3572
-1213.81 918.859 3572
-1205.27 918.859 3572
-1179.3 905.483 3520
-595.422 460.459 1790
-591.141 460.459 1790
-586.861 460.459 1790
-582.58 460.459 1790
-576.362 458.915 1784
-572.095 458.915 1784
-567.829 458.915 1784
-563.563 458.915 1784
-557.103 457.115 1777
-553.475 457.629 1779
-549.221 457.629 1779
-544.967 457.629 1779
-540.713 457.629 1779
-535.856 457.115 1777
-533.701 458.915 1784
-529.435 458.915 1784
-525.168 458.915 1784
-521.486 459.43 1786
-517.215 459.43 1786
-513.519 459.944 1788
-509.243 459.944 1788
-504.968 459.944 1788
-500.132 459.43 1786
-495.861 459.43 1786
-491.59 459.43 1786
-486.774 458.915 1784
-481.967 458.401 1782
-477.705 458.401 1782
-472.647 457.629 1779
-466.287 455.571 1771
-461.008 454.542 1767
-456.783 454.542 1767
-451.277 453.256 1762
-445.033 451.198 1754
-438.074 448.368 1743
-433.159 447.597 1740
-428.999 447.597 1740
-423.861 446.568 1736
-417.534 444.253 1727
-412.207 442.966 1722
-408.089 442.966 1722
-403.033 441.937 1718
-397.764 440.651 1713
-393.208 440.137 1711
-389.116 440.137 1711
-383.9 438.851 1706
-379.375 438.336 1704
-375.3 438.336 1704
-371.225 438.336 1704
-367.151 438.336 1704
-363.076 438.336 1704
-359.001 438.336 1704
-354.926 438.336 1704
-350.851 438.336 1704
-346.777 438.336 1704
-343.506 439.365 1708
-339.422 439.365 1708
-335.338 439.365 1708
-331.447 439.622 1709
-327.361 439.622 1709
-323.652 440.137 1711
-319.561 440.137 1711
-315.469 440.137 1711
-311.378 440.137 1711
-307.286 440.137 1711
-303.194 440.137 1711
-299.103 440.137 1711
-295.011 440.137 1711
-290.58 439.622 1709
-286.493 439.622 1709
-282.406 439.622 1709
-278.32 439.622 1709
-274.233 439.622 1709
-270.146 439.622 1709
-266.059 439.622 1709
-261.973 439.622 1709
-258.188 440.137 1711
-254.096 440.137 1711
-250.005 440.137 1711
-245.913 440.137 1711
-241.822 440.137 1711
-238.008 440.651 1713
-233.912 440.651 1713
-230.084 441.166 1715
-226.114 441.423 1716
-222.528 442.452 1720
-218.415 442.452 1720
-214.552 442.966 1722
-210.8 443.738 1725
-207.155 444.767 1729
-203.02 444.767 1729
-199.116 445.282 1731
-194.976 445.282 1731
-190.947 445.539 1732
-186.805 445.539 1732
-182.875 446.053 1734
-178.934 446.568 1736
-174.984 447.082 1738
-170.828 447.082 1738
-166.96 447.854 1741
-162.984 448.368 1743
-159.18 449.397 1747
-155.002 449.397 1747
-150.997 449.912 1749
-146.815 449.912 1749
-142.633 449.912 1749
-288.015 1029.22 4001
-278.447 1029.22 4001
-268.88 1029.22 4001
-253.803 1007.35 3916
-241.63 995.774 3871
-232.913 998.089 3880
-223.635 998.089 3880
-214.357 998.089 3880
-204.603 995.774 3871
-195.346 995.774 3871
-186.09 995.774 3871
-176.833 995.774 3871
-167.576 995.774 3871
-157.583 991.144 3853
-148.369 991.144 3853
-139.156 991.144 3853
-129.335 986.513 3835
-120.164 986.513 3835
-110.241 979.825 3809
-101.133 979.825 3809
-91.3961 973.137 3783
-81.9798 968.764 3766
-72.3153 960.018 3732
-63.3909 960.018 3732
-54.1017 953.587 3707
-44.8467 945.355 3675
-35.8133 938.924 3650
-27.0851 938.924 3650
-18.2814 935.065 3635
-9.52569 928.892 3611
-0.886748 924.776 3595
7.69497 922.975 3588
16.275 922.975 3588
24.7995 920.917 3580
33.2206 917.059 3565
41.7456 917.059 3565
50.2706 917.059 3565
58.5317 912.943 3549
66.8863 911.142 3542
75.1861 909.084 3534
83.6369 909.084 3534
91.9054 907.284 3527
100.34 907.284 3527
108.774 907.284 3527
117.44 909.084 3534
125.891 909.084 3534
134.342 909.084 3534
142.793 909.084 3534
151.244 909.084 3534
159.695 909.084 3534
168.146 909.084 3534
176.247 907.284 3527
184.681 907.284 3527
193.115 907.284 3527
201.149 905.483 3520
209.983 907.284 3527
218.417 907.284 3527
227.816 911.142 3542
236.286 911.142 3542
245.24 912.943 3549
254.299 915.001 3557
262.804 915.001 3557
271.31 915.001 3557
280.445 917.059 3565
290.186 920.917 3580
298.747 920.917 3580
307.308 920.917 3580
316.575 922.975 3588
325.155 922.975 3588
333.735 922.975 3588
342.315 922.975 3588
351.579 924.776 3595
360.978 926.834 3603
369.593 926.834 3603
378.209 926.834 3603
385.215 922.975 3588
391.27 917.059 3565
399.795 917.059 3565
403.968 907.284 3527
411.584 905.483 3520
419.047 903.425 3512
423.915 895.965 3483
432.244 895.965 3483
436.905 888.505 3454
441.556 881.302 3426
448.829 879.502 3419
457.005 879.502 3419
458.514 866.897 3370
464.773 863.553 3357
468.998 856.607 3330
476.961 856.607 3330
484.924 856.607 3330
492.887 856.607 3330
500.85 856.607 3330
508.813 856.607 3330
516.776 856.607 3330
524.739 856.607 3330
533.822 858.408 3337
541.802 858.408 3337
550.77 859.952 3343
558.764 859.952 3343
566.758 859.952 3343
574.753 859.952 3343
582.747 859.952 3343
590.741 859.952 3343
599.989 861.752 3350
607.999 861.752 3350
617.297 863.553 3357
625.325 863.553 3357
633.353 863.553 3357
641.38 863.553 3357
649.408 863.553 3357
657.436 863.553 3357
662.688 859.952 3343
670.682 859.952 3343
678.676 859.952 3343
686.67 859.952 3343
693.418 858.408 3337
701.397 858.408 3337
709.377 858.408 3337
715.852 856.607 3330
723.815 856.607 3330
730.24 854.807 3323
738.186 854.807 3323
746.133 854.807 3323
754.079 854.807 3323
763.63 856.607 3330
771.593 856.607 3330
779.556 856.607 3330
785.864 854.807 3323
793.81 854.807 3323
801.757 854.807 3323
811.409 856.607 3330
819.372 856.607 3330
827.335 856.607 3330
837.054 858.408 3337
846.553 859.952 3343
854.547 859.952 3343
871.314 868.698 3377
883.035 872.299 3391
898.502 879.502 3419
906.678 879.502 3419
922.346 886.704 3447
942.197 897.766 3490
956.535 903.425 3512
964.933 903.425 3512
979.429 909.084 3534
994.309 915.001 3557
1007.04 918.859 3572
1015.59 918.859 3572
1026.42 920.917 3580
1041.63 926.834 3603
1054.91 930.95 3619
1068.27 935.065 3635
1076.96 935.065 3635
1092.52 940.982 3658
1106.39 945.355 3675
1115.17 945.355 3675
1123.96 945.355 3675
1132.75 945.355 3675
1141.54 945.355 3675
1150.33 945.355 3675
1159.11 945.355 3675
1170.45 947.413 3683
1179.25 947.413 3683
1188.06 947.413 3683
1194.27 945.355 3675
1203.05 945.355 3675
1206.24 940.982 3658
1217.97 943.297 3667
1226.74 943.297 3667
1235.51 943.297 3667
1244.28 943.297 3667
1253.05 943.297 3667
1258.72 940.982 3658
1267.47 940.982 3658
1276.22 940.982 3658
1284.96 940.982 3658
1293.71 940.982 3658
1299.61 938.924 3650
1308.34 938.924 3650
1319.95 940.982 3658
1328.7 940.982 3658
1337.45 940.982 3658
1343.25 938.924 3650
1346.42 935.065 3635
1355.12 935.065 3635
1363.81 935.065 3635
1366.46 930.95 3619
1372.07 928.892 3611
1380.71 928.892 3611
1386.27 926.834 3603
1389.07 922.975 3588
1394.54 920.917 3580
1403.1 920.917 3580
1405.74 917.059 3565
1407.92 912.943 3549
1416.41 912.943 3549
1418.87 909.084 3534
1427.32 909.084 3534
1426.84 903.425 3512
1432.37 901.624 3505
1437.47 899.566 3497
1445.83 899.566 3497
1448.37 895.965 3483
1453.77 894.164 3476
1455.78 890.306 3461
1464.05 890.306 3461
1466.37 886.704 3447
1477.61 888.505 3454
1504.37 899.566 3497
1528.73 909.084 3534
1537.19 909.084 3534
1552.2 912.943 3549
1567.72 917.059 3565
1593.05 926.834 3603
1601.66 926.834 3603
1631.28 938.924 3650
1658.43 949.471 3691
1720.56 979.825 3809
1729.67 979.825 3809
1750.65 986.513 3835
1768.08 991.144 3853
1793.9 1000.4 3889
1811.54 1005.03 3907
1829.28 1009.66 3925
1847.56 1014.55 3944
1861.23 1016.87 3953
1870.68 1016.87 3953
1880.14 1016.87 3953
1885.29 1014.55 3944
1890.39 1012.24 3935
1899.8 1012.24 3935
1895.63 1005.03 3907
1878.64 991.144 3853
1879.04 986.513 3835
1888.21 986.513 3835
1880.06 977.51 3800
1859.32 962.076 3740
1843.79 949.471 3691
1852.61 949.471 3691
1836.73 936.866 3642
1829.73 928.892 3611
1830.22 924.776 3595
1831.14 920.917 3580
1839.7 920.917 3580
1848.26 920.917 3580
1856.82 920.917 3580
1865.39 920.917 3580
1878.13 922.975 3588
1886.71 922.975 3588
1907.44 928.892 3611
1920.32 930.95 3619
1949.76 940.982 3658
1958.51 940.982 3658
1985.01 949.471 3691
1998.15 951.529 3699
2016.22 955.902 3716
2025.11 955.902 3716
2065.74 970.822 3774
2074.77 970.822 3774
2188.15 1019.44 3963
2197.62 1019.44 3963
2222.7 1026.64 3991
2242.87 1031.53 4010
2258.07 1034.1 4020
2267.69 1034.1 4020
2277.3 1034.1 4020
2281.22 1031.53 4010
2290.81 1031.53 4010
2300.4 1031.53 4010
2309.99 1031.53 4010
2319.58 1031.53 4010
2329.17 1031.53 4010
2338.76 1031.53 4010
2343.08 1029.22 4001
2346.76 1026.64 3991
2333.87 1016.87 3953
2343.32 1016.87 3953
2352.78 1016.87 3953
2362.23 1016.87 3953
2371.68 1016.87 3953
2392.58 1021.76 3972
2408.13 1024.33 3982
2417.65 1024.33 3982
2432.66 1026.64 3991
2448.32 1029.22 4001
2463.42 1031.53 4010
2473.01 1031.53 4010
2500.55 1038.99 4039
2510.21 1038.99 4039
2519.87 1038.99 4039
2529.52 1038.99 4039
2539.18 1038.99 4039
2530.54 1031.53 4010
2540.13 1031.53 4010
2549.72 1031.53 4010
2547.18 1026.64 3991
2556.72 1026.64 3991
2566.27 1026.64 3991
2557.74 1019.44 3963
2567.22 1019.44 3963
2576.69 1019.44 3963
2579.65 1016.87 3953
2589.1 1016.87 3953
2592.63 1014.55 3944
2571.72 1002.72 3898
2581.04 1002.72 3898
2590.36 1002.72 3898
2581.67 995.774 3871
2560.81 984.198 3826
2547.12 975.452 3792
2556.19 975.452 3792
2553.08 970.822 3774
2545.13 964.391 3749
2565.68 968.764 3766
2574.69 968.764 3766
2583.69 968.764 3766
2592.7 968.764 3766
2589.96 964.391 3749
2581.59 957.96 3724
2590.5 957.96 3724
2599.4 957.96 3724
2602.71 955.902 3716
2599.64 951.529 3699
2608.49 951.529 3699
537.978 184.955 719
539.698 184.955 719
541.417 184.955 719
543.136 184.955 719
544.856 184.955 719
545.815 184.698 718
547.532 184.698 718
549.249 184.698 718
-2348 814.215 3136
-2340.5 814.215 3136
-2328.54 812.657 3130
-2321.05 812.657 3130
-2313.57 812.657 3130
-2306.08 812.657 3130
-2294.19 811.1 3124
-2282.33 809.542 3118
-2279.25 811.1 3124
-2280.51 814.215 3136
-2273.01 814.215 3136
-2278.51 818.889 3154
-2279.61 822.004 3166
-2276.35 823.562 3172
-2268.76 823.562 3172
-2269.73 826.678 3184
-2288.4 836.284 3221
-2284.95 837.842 3227
-2277.23 837.842 3227
-2300.46 849.266 3271
-2319.97 859.392 3310
-2363.75 878.605 3384
-2355.66 878.605 3384
-2352.42 880.422 3391
-2353.99 884.057 3405
-2345.85 884.057 3405
-2337.71 884.057 3405
-2329.56 884.057 3405
-2321.42 884.057 3405
-2327.54 889.509 3426
-2319.35 889.509 3426
-2311.16 889.509 3426
-2312.38 893.144 3440
-2308.84 894.962 3447
-2300.6 894.962 3447
-2297.01 896.779 3454
-2298.03 900.414 3468
-2308.88 907.944 3497
-2300.52 907.944 3497
-2292.16 907.944 3497
-2289.02 910.021 3505
-2285.19 911.838 3512
-2276.79 911.838 3512
-2268.4 911.838 3512
-2260 911.838 3512
-2251.6 911.838 3512
-2243.2 911.838 3512
-2234.8 911.838 3512
-2235.91 915.733 3527
-2231.9 917.55 3534
-2223.45 917.55 3534
-2220.01 919.627 3542
-2220.91 923.522 3557
-2212.4 923.522 3557
-2203.9 923.522 3557
-2204.65 927.416 3572
-2205.94 931.57 3588
-2201.65 933.388 3595
-2193.05 933.388 3595
-2184.46 933.388 3595
-2180.7 935.465 3603
-2172.09 935.465 3603
-2163.47 935.465 3603
-2154.85 935.465 3603
-2151 937.542 3611
-2142.37 937.542 3611
-2133.73 937.542 3611
-2134.52 941.696 3627
-2125.84 941.696 3627
-2117.17 941.696 3627
-2108.5 941.696 3627
-2095.19 939.619 3619
-2091.15 941.696 3627
-2087.07 943.773 3635
-2078.38 943.773 3635
-2069.68 943.773 3635
-2060.99 943.773 3635
-2052.3 943.773 3635
-2043.61 943.773 3635
-2034.92 943.773 3635
-2026.22 943.773 3635
-2017.53 943.773 3635
-2004.42 941.696 3627
-1995.74 941.696 3627
-1987.07 941.696 3627
-1978.4 941.696 3627
-1969.72 941.696 3627
-1961.05 941.696 3627
-1960.45 945.591 3642
-1956.03 947.668 3650
-1947.3 947.668 3650
-1938.57 947.668 3650
-1951.52 958.313 3691
-1942.7 958.313 3691
-1933.87 958.313 3691
-1925.04 958.313 3691
-1916.22 958.313 3691
-1907.39 958.313 3691
-1898.56 958.313 3691
-1872.84 949.745 3658
-1864.1 949.745 3658
-1863.97 954.159 3675
-1855.18 954.159 3675
-1846.39 954.159 3675
-1833.61 952.081 3667
-1824.84 952.081 3667
-1816.07 952.081 3667
-1811.24 954.159 3675
-1802.45 954.159 3675
-1793.67 954.159 3675
-1776.62 949.745 3658
-1764.01 947.668 3650
-1740.37 939.619 3619
-1731.72 939.619 3619
-1715.45 935.465 3603
-1699.72 931.57 3588
-1683.6 927.416 3572
-1671.78 925.599 3565
-1663.25 925.599 3565
-1651.02 923.522 3557
-1638.82 921.445 3549
-1627.11 919.627 3542
-1618.64 919.627 3542
-1610.17 919.627 3542
-1598.09 917.55 3534
-1589.63 917.55 3534
-1581.18 917.55 3534
-1572.73 917.55 3534
-1564.28 917.55 3534
-1552.75 915.733 3527
-1544.32 915.733 3527
-1532.83 913.915 3520
-1524.42 913.915 3520
-1516 913.915 3520
-1507.58 913.915 3520
-1499.16 913.915 3520
-1490.75 913.915 3520
-1482.33 913.915 3520
-1476.84 915.733 3527
-1468.41 915.733 3527
-1459.97 915.733 3527
-1451.54 915.733 3527
-1443.11 915.733 3527
-1434.67 915.733 3527
-1426.24 915.733 3527
-1417.8 915.733 3527
-1409.37 915.733 3527
-1398.15 913.915 3520
-1386.58 911.838 3512
-1372.29 907.944 3497
-1367.05 910.021 3505
-1358.67 910.021 3505
-1352.99 911.838 3512
-1350.33 915.733 3527
-1344.56 917.55 3534
-1336.11 917.55 3534
-1333.29 921.445 3549
-1330.78 925.599 3565
-1330.78 931.57 3588
-1322.2 931.57 3588
-1313.62 931.57 3588
-1305.04 931.57 3588
-1296.46 931.57 3588
-1287.88 931.57 3588
-1273.6 927.416 3572
-1265.06 927.416 3572
-1245.96 919.627 3542
-1239.94 921.445 3549
-1231.45 921.445 3549
-1222.97 921.445 3549
-1214.48 921.445 3549
-1205.99 921.445 3549
-1197.51 921.445 3549
-1179.3 913.915 3520
-595.422 464.747 1790
-591.141 464.747 1790
-586.861 464.747 1790
-581.279 463.708 1786
-577.008 463.708 1786
-572.737 463.708 1786
-568.466 463.708 1786
-564.195 463.708 1786
-557.73 461.891 1779
-553.475 461.891 1779
-549.221 461.891 1779
-544.967 461.891 1779
-540.713 461.891 1779
-536.459 461.891 1779
-533.701 463.189 1784
-530.028 463.708 1786
-525.757 463.708 1786
-522.07 464.227 1788
-517.795 464.227 1788
-514.093 464.747 1790
-509.813 464.747 1790
-505.533 464.747 1790
-500.692 464.227 1788
-496.416 464.227 1788
-492.141 464.227 1788
-487.319 463.708 1786
-482.508 463.189 1784
-478.242 463.189 1784
-472.913 462.15 1780
-466.813 460.333 1773
-461.53 459.294 1769
-457.3 459.294 1769
-451.277 457.477 1762
-445.033 455.4 1754
-438.074 452.544 1743
-433.159 451.765 1740
-428.999 451.765 1740
-423.861 450.726 1736
-417.534 448.39 1727
-412.207 447.091 1722
-408.089 447.091 1722
-403.033 446.053 1718
-397.764 444.755 1713
-393.668 444.755 1713
-389.571 444.755 1713
-383.9 442.937 1706
-379.375 442.418 1704
-375.3 442.418 1704
-371.225 442.418 1704
-367.151 442.418 1704
-363.076 442.418 1704
-359.001 442.418 1704
-354.926 442.418 1704
-350.851 442.418 1704
-346.777 442.418 1704
-343.506 443.457 1708
-339.621 443.716 1709
-335.534 443.716 1709
-331.447 443.716 1709
-327.744 444.235 1711
-323.652 444.235 1711
-319.561 444.235 1711
-315.838 444.755 1713
-311.741 444.755 1713
-307.645 444.755 1713
-303.549 444.755 1713
-299.453 444.755 1713
-295.356 444.755 1713
-291.26 444.755 1713
-287.164 444.755 1713
-283.067 444.755 1713
-278.971 444.755 1713
-274.875 444.755 1713
-270.778 444.755 1713
-266.682 444.755 1713
-262.586 444.755 1713
-258.49 444.755 1713
-254.393 444.755 1713
-250.297 444.755 1713
-246.201 444.755 1713
-242.104 444.755 1713
-238.286 445.274 1715
-234.185 445.274 1715
-230.218 445.534 1716
-226.378 446.053 1718
-222.787 447.091 1722
-218.669 447.091 1722
-214.676 447.351 1723
-210.8 447.87 1725
-207.155 448.909 1729
-203.02 448.909 1729
-199.116 449.428 1731
-194.976 449.428 1731
-190.947 449.688 1732
-186.805 449.688 1732
-182.875 450.207 1734
-179.14 451.246 1738
-174.984 451.246 1738
-170.828 451.246 1738
-166.96 452.025 1741
-162.984 452.544 1743
-159.362 454.102 1749
-155.18 454.102 1749
-151.17 454.621 1751
-146.983 454.621 1751
-142.796 454.621 1751
-281.896 1016.73 3916
-272.532 1016.73 3916
-263.168 1016.73 3916
-253.803 1016.73 3916
-241.63 1005.05 3871
-232.913 1007.38 3880
-223.635 1007.38 3880
-214.357 1007.38 3880
-204.603 1005.05 3871
-195.346 1005.05 3871
-185.657 1002.71 3862
-176.422 1002.71 3862
-167.186 1002.71 3862
-157.215 998.037 3844
-147.676 995.7 3835
-138.506 995.7 3835
-129.335 995.7 3835
-119.632 991.286 3818
-109.981 986.613 3800
-100.894 986.613 3800
-91.3961 982.199 3783
-81.7838 975.449 3757
-72.3153 968.958 3732
-63.3909 968.958 3732
-54.1017 962.467 3707
-44.8467 954.159 3675
-35.8133 947.668 3650
-27.0851 947.668 3650
-18.2814 943.773 3635
-9.52569 937.542 3611
-0.886748 933.388 3595
7.69497 931.57 3588
16.275 931.57 3588
24.7995 929.493 3580
33.2206 925.599 3565
41.7456 925.599 3565
50.2706 925.599 3565
58.5317 921.445 3549
66.8863 919.627 3542
75.1861 917.55 3534
83.6369 917.55 3534
91.9054 915.733 3527
100.34 915.733 3527
108.774 915.733 3527
117.44 917.55 3534
125.891 917.55 3534
134.342 917.55 3534
142.793 917.55 3534
151.244 917.55 3534
159.695 917.55 3534
168.146 917.55 3534
176.247 915.733 3527
184.681 915.733 3527
193.115 915.733 3527
201.149 913.915 3520
209.566 913.915 3520
218.417 915.733 3527
227.816 919.627 3542
236.286 919.627 3542
245.24 921.445 3549
253.727 921.445 3549
262.804 923.522 3557
271.31 923.522 3557
280.445 925.599 3565
290.186 929.493 3580
298.747 929.493 3580
307.308 929.493 3580
316.575 931.57 3588
325.155 931.57 3588
333.735 931.57 3588
341.552 929.493 3580
350.895 931.57 3588
360.176 933.388 3595
368.773 933.388 3595
377.37 933.388 3595
385.215 931.57 3588
390.392 923.522 3557
398.898 923.522 3557
403.968 915.733 3527
411.584 913.915 3520
419.047 911.838 3512
423.915 904.309 3483
432.244 904.309 3483
436.905 896.779 3454
441.556 889.509 3426
447.91 885.875 3412
456.069 885.875 3412
458.514 874.97 3370
463.804 869.777 3350
468.998 864.584 3330
476.961 864.584 3330
484.924 864.584 3330
492.887 864.584 3330
500.85 864.584 3330
508.813 864.584 3330
516.776 864.584 3330
524.739 864.584 3330
533.822 866.402 3337
541.802 866.402 3337
550.77 867.96 3343
558.764 867.96 3343
566.758 867.96 3343
574.753 867.96 3343
582.747 867.96 3343
590.741 867.96 3343
599.989 869.777 3350
607.999 869.777 3350
616.01 869.777 3350
624.021 869.777 3350
633.353 871.595 3357
641.38 871.595 3357
649.408 871.595 3357
656.065 869.777 3350
662.688 867.96 3343
670.682 867.96 3343
678.676 867.96 3343
685.438 866.402 3337
693.418 866.402 3337
699.926 864.584 3330
707.889 864.584 3330
715.852 864.584 3330
722.294 862.767 3323
728.921 861.209 3317
738.186 862.767 3323
746.133 862.767 3323
754.079 862.767 3323
763.63 864.584 3330
771.593 864.584 3330
779.556 864.584 3330
785.864 862.767 3323
793.81 862.767 3323
801.757 862.767 3323
811.409 864.584 3330
819.372 864.584 3330
827.335 864.584 3330
837.054 866.402 3337
846.553 867.96 3343
854.547 867.96 3343
871.314 876.787 3377
883.035 880.422 3391
898.502 887.692 3419
906.678 887.692 3419
922.346 894.962 3447
942.197 906.126 3490
956.535 911.838 3512
964.933 911.838 3512
979.429 917.55 3534
994.309 923.522 3557
1007.04 927.416 3572
1015.59 927.416 3572
1026.42 929.493 3580
1041.63 935.465 3603
1054.91 939.619 3619
1068.27 943.773 3635
1076.96 943.773 3635
1092.52 949.745 3658
1106.39 954.159 3675
1115.17 954.159 3675
1123.96 954.159 3675
1132.75 954.159 3675
1139.05 952.081 3667
1147.82 952.081 3667
1156.59 952.081 3667
1167.9 954.159 3675
1176.69 954.159 3675
1185.48 954.159 3675
1191.67 952.081 3667
1197.49 949.745 3658
1206.24 949.745 3658
1214.98 949.745 3658
1223.73 949.745 3658
1232.48 949.745 3658
1241.23 949.745 3658
1249.97 949.745 3658
1258.72 949.745 3658
1267.47 949.745 3658
1276.22 949.745 3658
1284.96 949.745 3658
1293.71 949.745 3658
1299.61 947.668 3650
1308.34 947.668 3650
1319.95 949.745 3658
1328.7 949.745 3658
1337.45 949.745 3658
1343.25 947.668 3650
1346.42 943.773 3635
1355.12 943.773 3635
1363.81 943.773 3635
1366.46 939.619 3619
1372.07 937.542 3611
1380.71 937.542 3611
1386.27 935.465 3603
1389.07 931.57 3588
1394.54 929.493 3580
1403.1 929.493 3580
1405.74 925.599 3565
1407.92 921.445 3549
1416.41 921.445 3549
1418.87 917.55 3534
1427.32 917.55 3534
1426.84 911.838 3512
1432.37 910.021 3505
1437.47 907.944 3497
1445.83 907.944 3497
1448.37 904.309 3483
1453.77 902.491 3476
1455.78 898.597 3461
1464.05 898.597 3461
1466.37 894.962 3447
1477.61 896.779 3454
1504.37 907.944 3497
1528.73 917.55 3534
1537.19 917.55 3534
1552.2 921.445 3549
1567.72 925.599 3565
1593.05 935.465 3603
1601.66 935.465 3603
1631.28 947.668 3650
1658.43 958.313 3691
1720.56 988.95 3809
1729.67 988.95 3809
1750.65 995.7 3835
1768.08 1000.37 3853
1793.9 1009.72 3889
1811.54 1014.39 3907
1829.28 1019.07 3925
1847.56 1024 3944
1861.23 1026.34 3953
1870.68 1026.34 3953
1880.14 1026.34 3953
1885.29 1024 3944
1890.39 1021.66 3935
1899.8 1021.66 3935
1895.63 1014.39 3907
1878.64 1000.37 3853
1879.04 995.7 3835
1888.21 995.7 3835
1880.06 986.613 3800
1859.32 971.035 3740
1843.79 958.313 3691
1852.61 958.313 3691
1836.73 945.591 3642
1829.73 937.542 3611
1830.22 933.388 3595
1831.14 929.493 3580
1839.7 929.493 3580
1848.26 929.493 3580
1856.82 929.493 3580
1865.39 929.493 3580
1881.8 933.388 3595
1890.39 933.388 3595
1907.44 937.542 3611
1924.57 941.696 3627
1958.83 954.159 3675
1967.61 954.159 3675
1985.01 958.313 3691
1998.15 960.39 3699
2020.56 966.881 3724
2029.47 966.881 3724
2065.74 979.862 3774
2074.77 979.862 3774
2188.15 1028.93 3963
2197.62 1028.93 3963
2222.7 1036.2 3991
2248.46 1043.73 4020
2258.07 1043.73 4020
2267.69 1043.73 4020
2277.3 1043.73 4020
2281.22 1041.14 4010
2290.81 1041.14 4010
2300.4 1041.14 4010
2309.99 1041.14 4010
2319.58 1041.14 4010
2329.17 1041.14 4010
2338.76 1041.14 4010
2343.08 1038.8 4001
2346.76 1036.2 3991
2333.87 1026.34 3953
2343.32 1026.34 3953
2352.78 1026.34 3953
2362.23 1026.34 3953
2371.68 1026.34 3953
2392.58 1031.27 3972
2408.13 1033.87 3982
2417.65 1033.87 3982
2432.66 1036.2 3991
2448.32 1038.8 4001
2463.42 1041.14 4010
2473.01 1041.14 4010
2500.55 1048.67 4039
2510.21 1048.67 4039
2519.87 1048.67 4039
2529.52 1048.67 4039
2539.18 1048.67 4039
2530.54 1041.14 4010
2540.13 1041.14 4010
2549.72 1041.14 4010
2547.18 1036.2 3991
2556.72 1036.2 3991
2566.27 1036.2 3991
2557.74 1028.93 3963
2567.22 1028.93 3963
2576.69 1028.93 3963
2579.65 1026.34 3953
2589.1 1026.34 3953
2592.63 1024 3944
2571.72 1012.06 3898
2581.04 1012.06 3898
2590.36 1012.06 3898
2581.67 1005.05 3871
2560.81 993.363 3826
2547.12 984.536 3792
2556.19 984.536 3792
2553.08 979.862 3774
2545.13 973.372 3749
2565.68 977.785 3766
2574.69 977.785 3766
2589.18 979.862 3774
2598.21 979.862 3774
2607.23 979.862 3774
2581.59 966.881 3724
2590.5 966.881 3724
2599.4 966.881 3724
2602.71 964.804 3716
2599.64 960.39 3699
2608.49 960.39 3699
537.978 186.678 719
539.698 186.678 719
541.417 186.678 719
543.136 186.678 719
544.856 186.678 719
545.815 186.418 718
547.532 186.418 718
549.249 186.418 718
-2348 821.728 3136
-2340.5 821.728 3136
-2328.54 820.155 3130
-2321.05 820.155 3130
-2313.57 820.155 3130
-2306.08 820.155 3130
-2294.19 818.583 3124
-2282.33 817.011 3118
-2279.25 818.583 3124
-2280.51 821.728 3136
-2273.01 821.728 3136
-2278.51 826.444 3154
-2279.61 829.589 3166
-2276.35 831.161 3172
-2268.76 831.161 3172
-2269.73 834.305 3184
-2288.4 844 3221
-2284.95 845.572 3227
-2277.23 845.572 3227
-2300.46 857.102 3271
-2319.97 867.321 3310
-2363.75 886.711 3384
-2355.66 886.711 3384
-2352.42 888.545 3391
-2353.99 892.214 3405
-2345.85 892.214 3405
-2337.71 892.214 3405
-2329.56 892.214 3405
-2321.42 892.214 3405
-2327.54 897.716 3426
-2319.35 897.716 3426
-2311.16 897.716 3426
-2312.38 901.385 3440
-2308.84 903.219 3447
-2300.6 903.219 3447
-2297.01 905.053 3454
-2298.03 908.722 3468
-2308.88 916.321 3497
-2300.52 916.321 3497
-2292.16 916.321 3497
-2289.02 918.417 3505
-2285.19 920.251 3512
-2276.79 920.251 3512
-2268.4 920.251 3512
-2260 920.251 3512
-2251.6 920.251 3512
-2243.2 920.251 3512
-2234.8 920.251 3512
-2235.91 924.182 3527
-2231.9 926.016 3534
-2223.45 926.016 3534
-2220.01 928.112 3542
-2220.91 932.042 3557
-2212.4 932.042 3557
-2203.9 932.042 3557
-2204.65 935.973 3572
-2205.94 940.165 3588
-2201.65 942 3595
-2193.05 942 3595
-2184.46 942 3595
-2180.7 944.096 3603
-2172.09 944.096 3603
-2163.47 944.096 3603
-2154.85 944.096 3603
-2151 946.192 3611
-2142.37 946.192 3611
-2133.73 946.192 3611
-2134.52 950.385 3627
-2125.84 950.385 3627
-2117.17 950.385 3627
-2108.5 950.385 3627
-2095.19 948.288 3619
-2091.15 950.385 3627
-2087.07 952.481 3635
-2078.38 952.481 3635
-2069.68 952.481 3635
-2060.99 952.481 3635
-2052.3 952.481 3635
-2043.61 952.481 3635
-2034.92 952.481 3635
-2026.22 952.481 3635
-2017.53 952.481 3635
-2004.42 950.385 3627
-1995.74 950.385 3627
-1987.07 950.385 3627
-1978.4 950.385 3627
-1969.72 950.385 3627
-1961.05 950.385 3627
-1960.45 954.315 3642
-1956.03 956.411 3650
-1947.3 956.411 3650
-1938.57 956.411 3650
-1951.52 967.155 3691
-1942.7 967.155 3691
-1933.87 967.155 3691
-1925.04 967.155 3691
-1916.22 967.155 3691
-1907.39 967.155 3691
-1898.56 967.155 3691
-1872.84 958.508 3658
-1872.76 962.962 3675
-1863.97 962.962 3675
-1855.18 962.962 3675
-1846.39 962.962 3675
-1837.61 962.962 3675
-1828.82 962.962 3675
-1820.03 962.962 3675
-1815.19 965.058 3683
-1806.38 965.058 3683
-1797.57 965.058 3683
-1788.76 965.058 3683
-1764.01 956.411 3650
-1744.22 950.385 3627
-1735.55 950.385 3627
-1723.06 948.288 3619
-1706.83 944.096 3603
-1683.6 935.973 3572
-1675.06 935.973 3572
-1666.52 935.973 3572
-1647.3 929.946 3549
-1635.58 928.112 3542
-1623.44 926.016 3534
-1614.99 926.016 3534
-1606.54 926.016 3534
-1598.09 926.016 3534
-1589.63 926.016 3534
-1581.18 926.016 3534
-1569.62 924.182 3527
-1561.18 924.182 3527
-1552.75 924.182 3527
-1544.32 924.182 3527
-1532.83 922.347 3520
-1520.95 920.251 3512
-1512.55 920.251 3512
-1504.15 920.251 3512
-1495.76 920.251 3512
-1487.36 920.251 3512
-1478.96 920.251 3512
-1473.91 922.347 3520
-1465.49 922.347 3520
-1457.08 922.347 3520
-1451.54 924.182 3527
-1443.11 924.182 3527
-1434.67 924.182 3527
-1426.24 924.182 3527
-1414.99 922.347 3520
-1406.57 922.347 3520
-1394.98 920.251 3512
-1380.66 916.321 3497
-1372.29 916.321 3497
-1363.93 916.321 3497
-1355.57 916.321 3497
-1350.29 918.417 3505
-1341.91 918.417 3505
-1341.9 924.182 3527
-1333.46 924.182 3527
-1325.03 924.182 3527
-1324.81 929.946 3549
-1319.29 932.042 3557
-1310.78 932.042 3557
-1305.2 934.139 3565
-1296.68 934.139 3565
-1288.15 934.139 3565
-1276.76 932.042 3557
-1262.9 928.112 3542
-1251.6 926.016 3534
-1238.22 922.347 3520
-1232.25 924.182 3527
-1223.82 924.182 3527
-1215.38 924.182 3527
-1204.55 922.347 3520
-1196.14 922.347 3520
-1187.72 922.347 3520
-598.362 467.986 1786
-595.422 469.035 1790
-591.141 469.035 1790
-586.861 469.035 1790
-581.279 467.986 1786
-577.008 467.986 1786
-572.737 467.986 1786
-568.466 467.986 1786
-564.195 467.986 1786
-557.73 466.152 1779
-553.475 466.152 1779
-549.221 466.152 1779
-544.967 466.152 1779
-540.713 466.152 1779
-536.459 466.152 1779
-534.299 467.986 1786
-530.028 467.986 1786
-525.757 467.986 1786
-522.07 468.511 1788
-517.795 468.511 1788
-514.093 469.035 1790
-509.813 469.035 1790
-505.533 469.035 1790
-501.252 469.035 1790
-496.972 469.035 1790
-492.691 469.035 1790
-487.319 467.986 1786
-482.508 467.462 1784
-478.242 467.462 1784
-472.913 466.414 1780
-467.34 465.104 1775
-461.53 463.532 1769
-457.3 463.532 1769
-451.533 461.96 1763
-445.033 459.601 1754
-438.074 456.719 1743
-433.159 455.933 1740
-428.999 455.933 1740
-423.861 454.885 1736
-417.534 452.527 1727
-412.447 451.479 1723
-408.326 451.479 1723
-403.502 450.692 1720
-398.228 449.382 1715
-393.668 448.858 1713
-389.571 448.858 1713
-383.9 447.024 1706
-379.375 446.5 1704
-375.3 446.5 1704
-371.225 446.5 1704
-367.151 446.5 1704
-363.076 446.5 1704
-359.001 446.5 1704
-354.926 446.5 1704
-350.851 446.5 1704
-346.777 446.5 1704
-343.506 447.548 1708
-339.621 447.81 1709
-335.534 447.81 1709
-331.835 448.334 1711
-327.744 448.334 1711
-324.03 448.858 1713
-319.934 448.858 1713
-315.838 448.858 1713
-311.741 448.858 1713
-307.645 448.858 1713
-303.549 448.858 1713
-299.453 448.858 1713
-295.356 448.858 1713
-291.26 448.858 1713
-287.164 448.858 1713
-283.067 448.858 1713
-278.971 448.858 1713
-274.875 448.858 1713
-270.778 448.858 1713
-266.682 448.858 1713
-262.586 448.858 1713
-258.791 449.382 1715
-254.839 449.644 1716
-250.735 449.644 1716
-246.632 449.644 1716
-242.528 449.644 1716
-238.425 449.644 1716
-234.321 449.644 1716
-230.486 450.168 1718
-226.642 450.692 1720
-222.917 451.479 1723
-218.796 451.479 1723
-214.925 452.003 1725
-211.289 453.051 1729
-207.394 453.575 1731
-203.255 453.575 1731
-199.231 453.837 1732
-195.089 453.837 1732
-191.168 454.361 1734
-187.021 454.361 1734
-183.085 454.885 1736
-179.14 455.409 1738
-175.286 456.195 1741
-171.123 456.195 1741
-167.152 456.719 1743
-163.545 458.291 1749
-159.544 458.815 1751
-155.357 458.815 1751
-151.17 458.815 1751
-146.983 458.815 1751
-142.796 458.815 1751
-285.28 1038.43 3963
-275.803 1038.43 3963
-266.326 1038.43 3963
-255.618 1033.45 3944
-244.439 1026.11 3916
-232.913 1016.68 3880
-223.635 1016.68 3880
-214.357 1016.68 3880
-205.079 1016.68 3880
-195.8 1016.68 3880
-185.657 1011.96 3862
-176.422 1011.96 3862
-167.186 1011.96 3862
-157.583 1009.6 3853
-147.676 1004.89 3835
-138.506 1004.89 3835
-129.335 1004.89 3835
-119.882 1002.53 3826
-109.981 995.716 3800
-100.894 995.716 3800
-90.9854 986.807 3766
-81.7838 984.449 3757
-72.1603 975.802 3724
-63.2551 975.802 3724
-53.985 969.251 3699
-44.8467 962.962 3675
-35.8133 956.411 3650
-27.0851 956.411 3650
-18.2814 952.481 3635
-9.52569 946.192 3611
-0.888721 944.096 3603
7.70999 942 3595
16.3067 942 3595
24.7995 938.069 3580
33.2206 934.139 3565
41.7456 934.139 3565
50.2706 934.139 3565
58.5317 929.946 3549
66.8863 928.112 3542
75.1861 926.016 3534
83.6369 926.016 3534
91.9054 924.182 3527
