ply
format ascii 1.0
comment File generated
element vertex 2253
property float x
property float y
property float z
end_header
1512.07 1233.49 2471
1517.98 1233.49 2471
1533.14 1240.98 2486
1545.89 1246.47 2497
1551.87 1246.47 2497
1557.84 1246.47 2497
1568.82 1250.46 2505
1574.81 1250.46 2505
1580.8 1250.46 2505
1579.82 1244.97 2494
1585.78 1244.97 2494
1582.18 1237.48 2479
1588.1 1237.48 2479
1586.96 1231.99 2468
1588.34 1228.5 2461
1589.04 1224.5 2453
1594.91 1224.5 2453
1600.78 1224.5 2453
1606.64 1224.5 2453
1598.7 1214.02 2432
1592.64 1205.03 2414
1598.42 1205.03 2414
1604.19 1205.03 2414
1609.96 1205.03 2414
1606.36 1198.05 2400
1612.1 1198.05 2400
1606.38 1189.56 2383
1607.35 1186.07 2376
1604.2 1179.58 2363
1607.81 1178.08 2360
1629.18 1189.56 2383
1634.87 1189.56 2383
1657.1 1201.54 2407
1675.29 1210.53 2425
1688.02 1215.52 2435
1693.84 1215.52 2435
1699.66 1215.52 2435
1698.48 1210.53 2425
1704.28 1210.53 2425
1707.26 1208.53 2421
1701.02 1200.04 2404
1706.77 1200.04 2404
1714.65 1201.54 2407
1720.41 1201.54 2407
1726.17 1201.54 2407
1736.96 1205.03 2414
1747.78 1208.53 2421
1769.51 1219.51 2443
1775.35 1219.51 2443
1786.3 1223.01 2450
1818.49 1240.98 2486
1824.43 1240.98 2486
1830.38 1240.98 2486
1809.73 1223.01 2450
1765.94 1189.56 2383
1771.64 1189.56 2383
1764.66 1181.07 2366
1762.83 1176.08 2356
1756.46 1168.09 2340
1762.05 1168.09 2340
1767.65 1168.09 2340
1773.24 1168.09 2340
1778.84 1168.09 2340
1786.72 1169.59 2343
1792.33 1169.59 2343
-1836.68 1254.45 2501
-1830.7 1254.45 2501
-1824.71 1254.45 2501
-1818.73 1254.45 2501
-1812.75 1254.45 2501
-1803.88 1252.45 2497
-1795.75 1250.94 2494
-1766.11 1234.39 2461
-1760.22 1234.39 2461
-1754.34 1234.39 2461
-1745.61 1232.39 2457
-1739.73 1232.39 2457
-1721.16 1223.36 2439
-1715.32 1223.36 2439
-1709.49 1223.36 2439
-1703.66 1223.36 2439
-1697.83 1223.36 2439
-1722.52 1245.43 2483
-1716.58 1245.43 2483
-1728.56 1258.47 2509
-1730.11 1263.99 2520
-1724.08 1263.99 2520
-1718.06 1263.99 2520
-1712.03 1263.99 2520
-1700.59 1259.97 2512
-1694.58 1259.97 2512
-1686.56 1258.47 2509
-1672.52 1252.45 2497
-1679.23 1261.98 2516
-1673.21 1261.98 2516
-1667.2 1261.98 2516
-1656.56 1258.47 2509
-1650.56 1258.47 2509
-1644.56 1258.47 2509
-1628.76 1250.94 2494
-1622.8 1250.94 2494
-1609.7 1245.43 2483
-1603.77 1245.43 2483
-1590.11 1239.41 2471
-1575.22 1232.39 2457
-1553.38 1219.85 2432
-1547.56 1219.85 2432
-1541.75 1219.85 2432
-1535.93 1219.85 2432
-1525.35 1289.57 2571
-1519.2 1289.57 2571
-1513.05 1289.57 2571
-1502.22 1285.55 2563
-1477.99 1270 2532
-1456.24 1256.46 2505
-1450.25 1256.46 2505
-1444.26 1256.46 2505
-1438.27 1256.46 2505
-1425.99 1250.94 2494
-1420.03 1250.94 2494
-1397.05 1235.9 2464
-1391.16 1235.9 2464
-1403.82 1252.45 2497
-1404.57 1258.47 2509
-1398.57 1258.47 2509
-1398.67 1263.99 2520
-1392.65 1263.99 2520
-1386.62 1263.99 2520
-1374.57 1258.47 2509
-1358.2 1248.94 2490
-1332.16 1230.38 2453
-1328.45 1232.39 2457
-1326.35 1235.9 2464
-1320.45 1235.9 2464
-1322.56 1243.42 2479
-1316.64 1243.42 2479
-1310.71 1243.42 2479
-1289.52 1228.87 2450
-1289.42 1234.39 2461
-1283.54 1234.39 2461
-1277.65 1234.39 2461
-1232.44 1230.38 2453
-1226.57 1230.38 2453
-1220.71 1230.38 2453
-1225.73 1241.41 2475
-1230.66 1252.45 2497
-1228.61 1256.46 2505
-1222.62 1256.46 2505
-1216.63 1256.46 2505
-1210.64 1256.46 2505
-1206.57 1258.47 2509
-1200.57 1258.47 2509
-1194.57 1258.47 2509
-1182.89 1252.45 2497
-1176.92 1252.45 2497
-1170.95 1252.45 2497
-1164.98 1252.45 2497
-1160.86 1254.45 2501
-1159.96 1259.97 2512
-1153.95 1259.97 2512
-1151.6 1263.99 2520
-1145.58 1263.99 2520
-1141.36 1265.99 2524
-1135.32 1265.99 2524
-1129.29 1265.99 2524
-1123.25 1265.99 2524
-1117.22 1265.99 2524
-1107.66 1261.98 2516
-1078.88 1235.9 2464
-1072.98 1235.9 2464
-1067.09 1235.9 2464
-1061.2 1235.9 2464
-1052.31 1232.39 2457
-1041.75 1226.87 2446
-1046.49 1239.41 2471
-1040.58 1239.41 2471
-1034.67 1239.41 2471
-1022.93 1232.39 2457
-1017.06 1232.39 2457
-1009.53 1230.38 2453
-1002.44 1228.87 2450
-996.582 1228.87 2450
-1006.9 1248.94 2490
-1000.94 1248.94 2490
-994.99 1248.94 2490
-989.035 1248.94 2490
-985.845 1252.45 2497
-979.874 1252.45 2497
-973.903 1252.45 2497
-967.932 1252.45 2497
-959.264 1248.94 2490
-953.309 1248.94 2490
-947.355 1248.94 2490
-942.913 1250.94 2494
-943.711 1259.97 2512
-937.704 1259.97 2512
-931.697 1259.97 2512
-923.111 1256.46 2505
-914.192 1252.45 2497
-908.221 1252.45 2497
-899.72 1248.94 2490
-893.766 1248.94 2490
-886.385 1246.93 2486
-880.441 1246.93 2486
-874.496 1246.93 2486
-871.346 1250.94 2494
-869.199 1256.46 2505
-864.587 1258.47 2509
-858.587 1258.47 2509
-854.966 1261.98 2516
-848.95 1261.98 2516
-842.933 1261.98 2516
-836.917 1261.98 2516
-830.9 1261.98 2516
-824.884 1261.98 2516
-822.773 1268 2528
-816.727 1268 2528
-811.965 1270 2532
-806.865 1271.51 2535
-800.803 1271.51 2535
-794.741 1271.51 2535
-789.924 1273.52 2539
-787.557 1279.53 2551
-782.682 1281.54 2555
-776.572 1281.54 2555
-770.462 1281.54 2555
-524.72 916.389 1827
-520.351 916.389 1827
-518.241 920.402 1835
-514.974 922.408 1839
-512.797 926.421 1847
-508.38 926.421 1847
-503.964 926.421 1847
-500.899 928.929 1852
-497.007 929.932 1854
-492.573 929.932 1854
-488.14 929.932 1854
-483.706 929.932 1854
-479.273 929.932 1854
-474.327 928.929 1852
-468.63 926.421 1847
-464.213 926.421 1847
-459.796 926.421 1847
-455.379 926.421 1847
-450.963 926.421 1847
-446.546 926.421 1847
-442.129 926.421 1847
-437.239 925.418 1845
-432.827 925.418 1845
-427.95 924.414 1843
-423.543 924.414 1843
-419.136 924.414 1843
-413.829 922.408 1839
-408.095 919.399 1833
-403.712 919.399 1833
-398.022 916.389 1827
-392.791 914.383 1823
-387.153 911.373 1817
-382.808 911.373 1817
-377.63 909.367 1813
-371.647 905.354 1805
-365.906 901.843 1798
-357.987 892.815 1780
-353.73 892.815 1780
-348.492 890.307 1775
-341.92 884.288 1763
-335.406 878.269 1751
-331.218 878.269 1751
-326.284 876.263 1747
-321.738 875.26 1745
-316.655 872.752 1740
-312.494 872.752 1740
-308.333 872.752 1740
-304.173 872.752 1740
-300.012 872.752 1740
-295.851 872.752 1740
-291.355 871.748 1738
-287.694 873.253 1741
-283.531 873.253 1741
-279.689 874.256 1743
-275.837 875.26 1745
-271.664 875.26 1745
-268.411 878.269 1751
-265.28 881.78 1758
-261.67 883.786 1762
-257.457 883.786 1762
-253.387 884.288 1763
-251.15 891.31 1777
-247.317 892.815 1780
-243.061 892.815 1780
-239.341 894.821 1784
-236.129 898.834 1792
-232.879 902.846 1800
-228.574 902.846 1800
-224.768 904.853 1804
-221.31 908.364 1811
-217.219 909.367 1813
-212.883 909.367 1813
-208.778 910.37 1815
-204.663 911.373 1817
-200.539 912.377 1819
-196.189 912.377 1819
-192.261 914.383 1823
-187.902 914.383 1823
-183.542 914.383 1823
-179.183 914.383 1823
-175.207 916.389 1827
-171.212 918.396 1831
-167.016 919.399 1833
-162.633 919.399 1833
-158.249 919.399 1833
-191.646 1214.33 2421
-185.856 1214.33 2421
-180.067 1214.33 2421
-174.062 1212.82 2418
-168.279 1212.82 2418
-160.817 1200.28 2393
-154.9 1198.78 2390
-148.124 1190.25 2373
-142.449 1190.25 2373
-137.178 1193.76 2380
-131.487 1193.76 2380
-125.796 1193.76 2380
-120.76 1200.28 2393
-115.23 1202.29 2397
-109.498 1202.29 2397
-103.896 1203.8 2400
-98.8933 1212.82 2418
-93.4962 1217.84 2428
-87.6902 1217.84 2428
-82.8621 1232.39 2457
-77.3313 1237.9 2468
-72.1821 1250.94 2494
-66.2182 1250.94 2494
-60.2543 1250.94 2494
-54.2904 1250.94 2494
-48.4621 1254.45 2501
-42.4814 1254.45 2501
-36.6175 1258.47 2509
-30.6178 1258.47 2509
-24.618 1258.47 2509
-18.6182 1258.47 2509
-12.6184 1258.47 2509
-6.61865 1258.47 2509
-0.618874 1258.47 2509
5.37233 1256.46 2505
11.3263 1252.45 2497
17.2766 1250.94 2494
23.2405 1250.94 2494
29.2044 1250.94 2494
35.1683 1250.94 2494
40.9508 1245.43 2483
46.8884 1245.43 2483
52.4218 1235.9 2464
58.3139 1235.9 2464
64.2061 1235.9 2464
69.5008 1225.36 2443
75.4353 1226.87 2446
81.2844 1226.87 2446
87.1336 1226.87 2446
92.9827 1226.87 2446
98.8318 1226.87 2446
103.782 1216.33 2425
110.033 1221.35 2435
116.236 1225.36 2443
122.778 1232.39 2457
128.653 1232.39 2457
135.514 1241.41 2475
141.89 1245.43 2483
148.661 1252.45 2497
154.632 1252.45 2497
161.375 1258.47 2509
167.842 1261.98 2516
174.411 1265.99 2524
180.447 1265.99 2524
186.483 1265.99 2524
192.518 1265.99 2524
198.554 1265.99 2524
204.589 1265.99 2524
210.625 1265.99 2524
217.348 1270 2532
223.667 1271.51 2535
229.729 1271.51 2535
235.791 1271.51 2535
242.616 1275.52 2543
248.697 1275.52 2543
254.778 1275.52 2543
260.859 1275.52 2543
266.101 1271.51 2535
270.982 1265.99 2524
277.017 1265.99 2524
280.474 1254.45 2501
285.652 1250.94 2494
290.33 1245.43 2483
296.268 1245.43 2483
302.205 1245.43 2483
308.515 1246.93 2486
314.966 1248.94 2490
320.92 1248.94 2490
326.875 1248.94 2490
331.359 1243.42 2479
335.246 1235.9 2464
341.138 1235.9 2464
347.03 1235.9 2464
351.92 1232.39 2457
355.757 1225.36 2443
361.599 1225.36 2443
366.839 1223.36 2439
372.671 1223.36 2439
378.504 1223.36 2439
384.966 1225.36 2443
394.168 1235.9 2464
400.06 1235.9 2464
407.764 1241.41 2475
415.02 1245.43 2483
420.958 1245.43 2483
426.895 1245.43 2483
432.833 1245.43 2483
437.357 1241.41 2475
443.992 1243.42 2479
449.92 1243.42 2479
458.606 1250.94 2494
465.129 1252.45 2497
471.1 1252.45 2497
477.071 1252.45 2497
483.816 1254.45 2501
489.796 1254.45 2501
497.958 1259.97 2512
503.964 1259.97 2512
511.596 1263.99 2520
517.622 1263.99 2520
525.31 1268 2528
531.355 1268 2528
537.401 1268 2528
543.446 1268 2528
549.491 1268 2528
552.02 1259.97 2512
557.361 1258.47 2509
561.564 1254.45 2501
567.545 1254.45 2501
573.525 1254.45 2501
576.957 1248.94 2490
581.975 1246.93 2486
585.319 1241.41 2475
591.237 1241.41 2475
594.501 1235.9 2464
594.302 1223.36 2439
593.983 1210.82 2414
604.228 1219.85 2432
610.043 1219.85 2432
615.859 1219.85 2432
621.675 1219.85 2432
627.49 1219.85 2432
632.264 1217.84 2428
636.231 1214.33 2421
635.656 1202.29 2397
641.388 1202.29 2397
647.12 1202.29 2397
652.851 1202.29 2397
660.507 1205.8 2404
668.195 1209.31 2411
675.918 1212.82 2418
681.7 1212.82 2418
689.472 1216.33 2425
699.285 1223.36 2439
706.274 1225.36 2443
712.116 1225.36 2443
723.248 1234.39 2461
731.206 1237.9 2468
737.108 1237.9 2468
743.01 1237.9 2468
748.912 1237.9 2468
748.085 1226.87 2446
753.934 1226.87 2446
759.783 1226.87 2446
756.868 1212.82 2418
752.873 1197.27 2387
756.356 1193.76 2380
763.008 1195.27 2383
768.706 1195.27 2383
778.954 1202.29 2397
784.686 1202.29 2397
792.727 1205.8 2404
798.475 1205.8 2404
804.224 1205.8 2404
810.983 1207.31 2407
816.739 1207.31 2407
822.495 1207.31 2407
828.251 1207.31 2407
834.007 1207.31 2407
839.763 1207.31 2407
843.06 1203.8 2400
848.799 1203.8 2400
852.046 1200.28 2393
857.768 1200.28 2393
858.799 1193.76 2380
861.948 1190.25 2373
868.72 1191.76 2376
874.401 1191.76 2376
880.083 1191.76 2376
884.646 1190.25 2373
890.321 1190.25 2373
897.128 1191.76 2376
906.99 1197.27 2387
912.698 1197.27 2387
922.253 1202.29 2397
927.985 1202.29 2397
933.717 1202.29 2397
939.449 1202.29 2397
942.421 1198.78 2390
952.103 1203.8 2400
962.232 1209.31 2411
967.998 1209.31 2411
973.763 1209.31 2411
985.217 1216.33 2425
1004.09 1232.39 2457
1009.97 1232.39 2457
1026.59 1245.43 2483
1033.78 1246.93 2486
1039.72 1246.93 2486
1045.67 1246.93 2486
1051.61 1246.93 2486
1060.96 1250.94 2494
1069.92 1254.45 2501
1075.9 1254.45 2501
1081.88 1254.45 2501
1087.86 1254.45 2501
1093.84 1254.45 2501
1099.82 1254.45 2501
1100.94 1248.94 2490
1111.78 1254.45 2501
1117.76 1254.45 2501
1123.75 1254.45 2501
1129.73 1254.45 2501
1132.53 1250.94 2494
1136.67 1248.94 2490
1147.67 1254.45 2501
1153.65 1254.45 2501
1159.63 1254.45 2501
1155.36 1243.42 2479
1161.28 1243.42 2479
1162.03 1237.9 2468
1166.04 1235.9 2464
1160.04 1223.36 2439
1162.53 1219.85 2432
1168.35 1219.85 2432
1174.16 1219.85 2432
1194.05 1234.39 2461
1201.4 1235.9 2464
1207.29 1235.9 2464
1213.18 1235.9 2464
1219.07 1235.9 2464
1223.47 1234.39 2461
1236.35 1241.41 2475
1242.27 1241.41 2475
1248.19 1241.41 2475
1254.11 1241.41 2475
1260.02 1241.41 2475
1265.94 1241.41 2475
1269.81 1239.41 2471
1275.72 1239.41 2471
1283.7 1241.41 2475
1289.62 1241.41 2475
1295.54 1241.41 2475
1297.77 1237.9 2468
1303.67 1237.9 2468
1309.58 1237.9 2468
1315.48 1237.9 2468
1325.13 1241.41 2475
1331.05 1241.41 2475
1336.96 1241.41 2475
1339.09 1237.9 2468
1344.99 1237.9 2468
1350.89 1237.9 2468
1356.79 1237.9 2468
1362.69 1237.9 2468
1366.38 1235.9 2464
1366.14 1230.38 2453
1372.01 1230.38 2453
1377.87 1230.38 2453
1383.74 1230.38 2453
1385.64 1226.87 2446
1391.49 1226.87 2446
1397.34 1226.87 2446
1403.19 1226.87 2446
1411.34 1228.87 2450
1425.3 1235.9 2464
1431.19 1235.9 2464
1437.08 1235.9 2464
1442.97 1235.9 2464
1425.93 1216.33 2425
1431.73 1216.33 2425
1433.38 1212.82 2418
1439.16 1212.82 2418
1442.56 1210.82 2414
1450.73 1212.82 2418
1477.59 1230.38 2453
1483.46 1230.38 2453
1489.33 1230.38 2453
1495.19 1230.38 2453
1507.79 1235.9 2464
1513.68 1235.9 2464
1531.29 1245.43 2483
1544.04 1250.94 2494
1550 1250.94 2494
1555.97 1250.94 2494
1568.82 1256.46 2505
1574.81 1256.46 2505
1580.8 1256.46 2505
1579.82 1250.94 2494
1585.78 1250.94 2494
1582.18 1243.42 2479
1588.1 1243.42 2479
1586.96 1237.9 2468
1588.34 1234.39 2461
1589.04 1230.38 2453
1594.91 1230.38 2453
1600.78 1230.38 2453
1606.64 1230.38 2453
1598.7 1219.85 2432
1592.64 1210.82 2414
1598.42 1210.82 2414
1604.19 1210.82 2414
1609.96 1210.82 2414
1606.36 1203.8 2400
1612.1 1203.8 2400
1606.38 1195.27 2383
1607.35 1191.76 2376
1604.2 1185.24 2363
1607.81 1183.73 2360
1629.18 1195.27 2383
1634.87 1195.27 2383
1657.1 1207.31 2407
1675.29 1216.33 2425
1688.02 1221.35 2435
1693.84 1221.35 2435
1699.66 1221.35 2435
1698.48 1216.33 2425
1704.28 1216.33 2425
1707.26 1214.33 2421
1701.02 1205.8 2404
1706.77 1205.8 2404
1714.65 1207.31 2407
1720.41 1207.31 2407
1726.17 1207.31 2407
1736.96 1210.82 2414
1763.67 1225.36 2443
1776.75 1230.38 2453
1782.62 1230.38 2453
1804.52 1241.41 2475
1818.49 1246.93 2486
1824.43 1246.93 2486
1830.38 1246.93 2486
1836.32 1246.93 2486
1765.94 1195.27 2383
1771.64 1195.27 2383
1769.88 1190.25 2373
1762.83 1181.73 2356
1756.46 1173.7 2340
1762.05 1173.7 2340
1767.65 1173.7 2340
1773.24 1173.7 2340
1778.84 1173.7 2340
1786.72 1175.21 2343
1792.33 1175.21 2343
-1836.68 1260.45 2501
-1830.7 1260.45 2501
-1824.71 1260.45 2501
-1818.73 1260.45 2501
-1812.75 1260.45 2501
-1803.88 1258.43 2497
-1795.75 1256.92 2494
-1766.11 1240.29 2461
-1760.22 1240.29 2461
-1754.34 1240.29 2461
-1745.61 1238.27 2457
-1739.73 1238.27 2457
-1721.16 1229.2 2439
-1715.32 1229.2 2439
-1709.49 1229.2 2439
-1703.66 1229.2 2439
-1705.48 1234.74 2450
-1722.52 1251.37 2483
-1716.58 1251.37 2483
-1712.71 1252.89 2486
-1717.06 1260.45 2501
-1711.08 1260.45 2501
-1705.1 1260.45 2501
-1699.12 1260.45 2501
-1693.14 1260.45 2501
-1687.16 1260.45 2501
-1676.47 1256.92 2494
-1670.51 1256.92 2494
-1666.55 1258.43 2497
-1660.58 1258.43 2497
-1654.61 1258.43 2497
-1648.64 1258.43 2497
-1642.66 1258.43 2497
-1636.69 1258.43 2497
-1623.54 1252.89 2486
-1617.59 1252.89 2486
-1601.92 1245.33 2471
-1596.02 1245.33 2471
-1585.6 1241.8 2464
-1559.19 1225.67 2432
-1539.96 1215.09 2411
-1547.56 1225.67 2432
-1541.75 1225.67 2432
-1535.93 1225.67 2432
-1515.86 1287.66 2555
-1509.75 1287.66 2555
-1503.64 1287.66 2555
-1490.49 1281.61 2543
-1470.99 1270.02 2520
-1453.91 1260.45 2501
-1447.93 1260.45 2501
-1441.95 1260.45 2501
-1435.97 1260.45 2501
-1425.99 1256.92 2494
-1420.03 1256.92 2494
-1397.05 1241.8 2464
-1387.21 1238.27 2457
-1385.27 1241.8 2464
-1393.93 1254.9 2490
-1387.98 1254.9 2490
-1382.02 1254.9 2490
-1376.07 1254.9 2490
-1370.11 1254.9 2490
-1364.16 1254.9 2490
-1352.2 1249.36 2479
-1332.16 1236.26 2453
-1318.72 1229.2 2439
-1316.66 1232.73 2446
-1310.81 1232.73 2446
-1304.96 1232.73 2446
-1297.52 1231.22 2443
-1291.67 1231.22 2443
-1285.83 1231.22 2443
-1289.42 1240.29 2461
-1283.54 1240.29 2461
-1277.65 1240.29 2461
-1232.44 1236.26 2453
-1226.57 1236.26 2453
-1220.71 1236.26 2453
-1225.73 1247.34 2475
-1230.66 1258.43 2497
-1228.61 1262.46 2505
-1222.62 1262.46 2505
-1216.63 1262.46 2505
-1210.64 1262.46 2505
-1206.57 1264.48 2509
-1200.57 1264.48 2509
-1194.57 1264.48 2509
-1191.89 1268.01 2516
-1185.87 1268.01 2516
-1179.86 1268.01 2516
-1173.84 1268.01 2516
-1167.83 1268.01 2516
-1163.66 1270.02 2520
-1157.63 1270.02 2520
-1151.6 1270.02 2520
-1149.21 1274.05 2528
-1144.98 1276.07 2532
-1138.92 1276.07 2532
-1132.87 1276.07 2532
-1126.81 1276.07 2532
-1120.76 1276.07 2532
-1107.66 1268.01 2516
-1078.88 1241.8 2464
-1072.98 1241.8 2464
-1067.09 1241.8 2464
-1061.2 1241.8 2464
-1052.31 1238.27 2457
-1041.75 1232.73 2446
-1035.9 1232.73 2446
-1030.05 1232.73 2446
-1024.2 1232.73 2446
-1012.52 1225.67 2432
-1000.91 1218.62 2418
-995.13 1218.62 2418
-977.891 1204.5 2390
-972.176 1204.5 2390
-966.461 1204.5 2390
-960.746 1204.5 2390
-953.832 1202.99 2387
-946.535 1200.98 2383
-944.784 1206.02 2393
-940.632 1208.03 2397
-934.9 1208.03 2397
-931.881 1211.56 2404
-932.682 1220.13 2421
-929.572 1223.66 2428
-923.766 1223.66 2428
-926.278 1234.74 2450
-921.546 1236.26 2453
-915.68 1236.26 2453
-909.814 1236.26 2453
-905.423 1238.27 2457
-901.012 1240.29 2461
-896.218 1241.8 2464
-890.326 1241.8 2464
-884.433 1241.8 2464
-878.541 1241.8 2464
-877.961 1249.36 2479
-872.033 1249.36 2479
-868.551 1252.89 2486
-865.382 1256.92 2494
-864.587 1264.48 2509
-858.587 1264.48 2509
-852.588 1264.48 2509
-847.6 1265.99 2512
-841.593 1265.99 2512
-835.586 1265.99 2512
-829.579 1265.99 2512
-823.572 1265.99 2512
-818.867 1268.01 2516
-812.851 1268.01 2516
-809.4 1272.04 2524
-805.91 1276.07 2532
-800.803 1277.58 2535
-794.741 1277.58 2535
-789.924 1279.6 2539
-787.557 1285.65 2551
-782.682 1287.66 2555
-776.572 1287.66 2555
-770.462 1287.66 2555
-524.72 920.766 1827
-520.351 920.766 1827
-518.241 924.798 1835
-514.414 925.806 1837
-512.797 930.845 1847
-508.38 930.845 1847
-503.964 930.845 1847
-500.899 933.365 1852
-497.007 934.373 1854
-492.573 934.373 1854
-488.14 934.373 1854
-483.706 934.373 1854
-479.273 934.373 1854
-474.327 933.365 1852
-468.63 930.845 1847
-464.213 930.845 1847
-459.796 930.845 1847
-455.379 930.845 1847
-450.963 930.845 1847
-446.546 930.845 1847
-442.129 930.845 1847
-437.239 929.837 1845
-432.827 929.837 1845
-427.95 928.829 1843
-423.543 928.829 1843
-419.136 928.829 1843
-413.829 926.813 1839
-408.095 923.79 1833
-403.712 923.79 1833
-398.022 920.766 1827
-392.791 918.75 1823
-387.153 915.726 1817
-382.808 915.726 1817
-377.63 913.71 1813
-371.647 909.678 1805
-365.906 906.15 1798
-357.987 897.079 1780
-353.73 897.079 1780
-348.492 894.559 1775
-341.92 888.511 1763
-335.406 882.464 1751
-331.218 882.464 1751
-326.284 880.448 1747
-321.738 879.44 1745
-316.655 876.92 1740
-312.494 876.92 1740
-308.333 876.92 1740
-304.173 876.92 1740
-300.012 876.92 1740
-295.851 876.92 1740
-291.355 875.912 1738
-287.694 877.424 1741
-283.531 877.424 1741
-279.689 878.432 1743
-275.837 879.44 1745
-271.664 879.44 1745
-268.411 882.464 1751
-265.28 885.991 1758
-261.67 888.007 1762
-257.457 888.007 1762
-253.387 888.511 1763
-251.432 896.575 1779
-247.595 898.087 1782
-243.334 898.087 1782
-239.609 900.103 1786
-236.656 905.142 1796
-233.137 908.166 1802
-228.828 908.166 1802
-224.768 909.174 1804
-221.31 912.702 1811
-217.219 913.71 1813
-212.883 913.71 1813
-209.008 915.726 1817
-204.663 915.726 1817
-200.98 918.75 1823
-196.62 918.75 1823
-192.261 918.75 1823
-187.902 918.75 1823
-183.542 918.75 1823
-179.183 918.75 1823
-175.207 920.766 1827
-171.399 923.79 1833
-167.198 924.798 1835
-162.81 924.798 1835
-158.422 924.798 1835
-191.646 1220.13 2421
-185.856 1220.13 2421
-180.067 1220.13 2421
-174.062 1218.62 2418
-168.279 1218.62 2418
-160.817 1206.02 2393
-154.9 1204.5 2390
-148.124 1195.94 2373
-142.449 1195.94 2373
-137.178 1199.46 2380
-131.487 1199.46 2380
-125.796 1199.46 2380
-120.76 1206.02 2393
-115.23 1208.03 2397
-109.498 1208.03 2397
-103.896 1209.54 2400
-98.8933 1218.62 2418
-93.4962 1223.66 2428
-87.6902 1223.66 2428
-82.8621 1238.27 2457
-77.3313 1243.81 2468
-72.1821 1256.92 2494
-66.2182 1256.92 2494
-60.2543 1256.92 2494
-54.2904 1256.92 2494
-48.4621 1260.45 2501
-42.4814 1260.45 2501
-36.6175 1264.48 2509
-30.6178 1264.48 2509
-24.618 1264.48 2509
-18.6182 1264.48 2509
-12.6184 1264.48 2509
-6.61865 1264.48 2509
-0.618874 1264.48 2509
5.37233 1262.46 2505
11.3263 1258.43 2497
17.2766 1256.92 2494
23.2405 1256.92 2494
29.2044 1256.92 2494
35.1683 1256.92 2494
40.9508 1251.37 2483
46.8884 1251.37 2483
52.4218 1241.8 2464
58.3139 1241.8 2464
64.2061 1241.8 2464
69.5008 1231.22 2443
75.4353 1232.73 2446
81.2844 1232.73 2446
87.1336 1232.73 2446
92.9827 1232.73 2446
98.8318 1232.73 2446
103.782 1222.14 2425
110.033 1227.18 2435
116.236 1231.22 2443
122.778 1238.27 2457
128.653 1238.27 2457
135.514 1247.34 2475
141.89 1251.37 2483
148.661 1258.43 2497
154.632 1258.43 2497
161.375 1264.48 2509
167.842 1268.01 2516
174.411 1272.04 2524
180.447 1272.04 2524
186.483 1272.04 2524
192.518 1272.04 2524
198.554 1272.04 2524
204.589 1272.04 2524
210.625 1272.04 2524
217.348 1276.07 2532
223.667 1277.58 2535
229.729 1277.58 2535
235.791 1277.58 2535
242.616 1281.61 2543
248.697 1281.61 2543
254.778 1281.61 2543
260.859 1281.61 2543
266.101 1277.58 2535
270.982 1272.04 2524
277.017 1272.04 2524
280.474 1260.45 2501
285.652 1256.92 2494
290.33 1251.37 2483
296.268 1251.37 2483
301.232 1247.34 2475
307.647 1249.36 2479
313.575 1249.36 2479
319.503 1249.36 2479
325.431 1249.36 2479
329.354 1241.8 2464
334.838 1240.29 2461
340.723 1240.29 2461
344.073 1231.22 2443
348.769 1227.18 2435
354.592 1227.18 2435
358.934 1222.14 2425
364.733 1222.14 2425
370.532 1222.14 2425
375.71 1220.13 2421
381.5 1220.13 2421
390.808 1231.22 2443
396.65 1231.22 2443
405.952 1241.8 2464
413.683 1247.34 2475
419.601 1247.34 2475
425.52 1247.34 2475
430.218 1243.81 2468
435.413 1241.8 2464
442.021 1243.81 2468
447.923 1243.81 2468
455.848 1249.36 2479
463.08 1252.89 2486
471.1 1258.43 2497
477.071 1258.43 2497
483.042 1258.43 2497
489.013 1258.43 2497
495.777 1260.45 2501
501.758 1260.45 2501
509.362 1264.48 2509
515.978 1265.99 2512
521.985 1265.99 2512
527.992 1265.99 2512
533.999 1265.99 2512
540.006 1265.99 2512
546.013 1265.99 2512
551.361 1264.48 2509
554.028 1256.92 2494
557.522 1251.37 2483
563.46 1251.37 2483
569.398 1251.37 2483
575.335 1251.37 2483
579.4 1247.34 2475
584.373 1245.33 2471
590.281 1245.33 2471
592.813 1238.27 2457
593.327 1227.18 2435
592.261 1213.07 2407
599.756 1216.6 2414
605.528 1216.6 2414
613.073 1220.13 2421
618.863 1220.13 2421
624.652 1220.13 2421
630.441 1220.13 2421
634.391 1216.6 2414
635.656 1208.03 2397
639.514 1204.5 2390
646.04 1206.02 2393
651.762 1206.02 2393
657.484 1206.02 2393
666.255 1211.56 2404
673.961 1215.09 2411
679.726 1215.09 2411
687.482 1218.62 2418
694.124 1220.13 2421
701.07 1222.14 2425
706.869 1222.14 2425
720.015 1234.74 2450
725.874 1234.74 2450
731.732 1234.74 2450
737.591 1234.74 2450
742.236 1232.73 2446
743.803 1225.67 2432
749.619 1225.67 2432
752.018 1220.13 2421
752.486 1211.56 2404
750.665 1199.46 2380
753.178 1194.43 2370
760.767 1197.45 2376
766.448 1197.45 2376
775.705 1202.99 2387
782.395 1204.5 2390
788.11 1204.5 2390
793.825 1204.5 2390
799.54 1204.5 2390
807.614 1208.03 2397
814.364 1209.54 2400
820.103 1209.54 2400
825.842 1209.54 2400
830.542 1208.03 2397
836.274 1208.03 2397
840.601 1206.02 2393
846.323 1206.02 2393
852.046 1206.02 2393
857.768 1206.02 2393
856.274 1195.94 2373
858.316 1190.9 2363
862.87 1189.39 2360
868.513 1189.39 2360
874.157 1189.39 2360
879.8 1189.39 2360
885.443 1189.39 2360
895.995 1195.94 2373
904.33 1199.46 2380
910.021 1199.46 2380
918.406 1202.99 2387
924.114 1202.99 2387
929.822 1202.99 2387
935.53 1202.99 2387
936.9 1197.45 2376
948.136 1204.5 2390
953.851 1204.5 2390
959.566 1204.5 2390
965.282 1204.5 2390
975.06 1209.54 2400
998.371 1231.22 2443
1004.21 1231.22 2443
1015.84 1238.27 2457
1029.2 1247.34 2475
1035.12 1247.34 2475
1042.72 1249.36 2479
1048.65 1249.36 2479
1056.28 1251.37 2483
1063.5 1252.89 2486
1071.17 1254.9 2490
1077.12 1254.9 2490
1083.08 1254.9 2490
1085.97 1251.37 2483
1091.91 1251.37 2483
1096.08 1249.36 2479
1106.89 1254.9 2490
1112.85 1254.9 2490
1118.8 1254.9 2490
1122.95 1252.89 2486
1128.89 1252.89 2486
1136.67 1254.9 2490
1144.46 1256.92 2494
1150.42 1256.92 2494
1156.38 1256.92 2494
1155.36 1249.36 2479
1161.28 1249.36 2479
1162.03 1243.81 2468
1166.04 1241.8 2464
1160.04 1229.2 2439
1159.18 1222.14 2425
1164.98 1222.14 2425
1170.78 1222.14 2425
1176.58 1222.14 2425
1192.62 1232.73 2446
1198.47 1232.73 2446
1204.32 1232.73 2446
1210.17 1232.73 2446
1212.54 1229.2 2439
1229.36 1240.29 2461
1235.24 1240.29 2461
1244.66 1243.81 2468
1250.56 1243.81 2468
1256.46 1243.81 2468
1262.36 1243.81 2468
1268.26 1243.81 2468
1270.55 1240.29 2461
1276.44 1240.29 2461
1283.89 1241.8 2464
1289.78 1241.8 2464
1295.67 1241.8 2464
1303.67 1243.81 2468
1313.29 1247.34 2475
1319.21 1247.34 2475
1327.27 1249.36 2479
1333.2 1249.36 2479
1339.13 1249.36 2479
1339.09 1243.81 2468
1344.99 1243.81 2468
1350.89 1243.81 2468
1356.79 1243.81 2468
1362.69 1243.81 2468
1366.38 1241.8 2464
1366.14 1236.26 2453
1372.01 1236.26 2453
1377.87 1236.26 2453
1383.74 1236.26 2453
1385.64 1232.73 2446
1391.49 1232.73 2446
1397.34 1232.73 2446
1401.47 1231.22 2443
1407.31 1231.22 2443
1418.93 1236.26 2453
1424.8 1236.26 2453
1430.67 1236.26 2453
1436.53 1236.26 2453
1425.93 1222.14 2425
1431.73 1222.14 2425
1433.38 1218.62 2418
1439.16 1218.62 2418
1442.56 1216.6 2414
1450.73 1218.62 2418
1464.94 1225.67 2432
1470.76 1225.67 2432
1483.25 1231.22 2443
1489.1 1231.22 2443
1503.5 1238.27 2457
1509.38 1238.27 2457
1522.04 1243.81 2468
1537.23 1251.37 2483
1547.52 1254.9 2490
1553.47 1254.9 2490
1561.93 1256.92 2494
1567.89 1256.92 2494
1573.86 1256.92 2494
1577.29 1254.9 2490
1576.25 1249.36 2479
1572.6 1241.8 2464
1578.49 1241.8 2464
1579.89 1238.27 2457
1581.24 1234.74 2450
1572.85 1223.66 2428
1578.66 1223.66 2428
1584.46 1223.66 2428
1585.68 1220.13 2421
1586.87 1216.6 2414
1583.41 1209.54 2400
1589.15 1209.54 2400
1590.23 1206.02 2393
1589.29 1200.98 2383
1588.29 1195.94 2373
1593.97 1195.94 2373
1592.9 1190.9 2363
1591.79 1185.86 2353
1586.55 1177.79 2337
1592.14 1177.79 2337
1613.45 1189.39 2360
1619.1 1189.39 2360
1640.57 1200.98 2383
1658.02 1209.54 2400
1673.46 1216.6 2414
1679.23 1216.6 2414
1685.01 1216.6 2414
1690.78 1216.6 2414
1696.55 1216.6 2414
1700.21 1215.09 2411
1698.19 1209.54 2400
1703.93 1209.54 2400
1709.67 1209.54 2400
1715.41 1209.54 2400
1736.96 1216.6 2414
1763.67 1231.22 2443
1776.75 1236.26 2453
1782.62 1236.26 2453
1804.52 1247.34 2475
1818.49 1252.89 2486
1824.43 1252.89 2486
1830.38 1252.89 2486
1836.32 1252.89 2486
1765.94 1200.98 2383
1771.64 1200.98 2383
1769.88 1195.94 2373
1760.59 1185.86 2353
1754.2 1177.79 2337
1759.79 1177.79 2337
1754.81 1170.74 2323
1760.36 1170.74 2323
1771.24 1174.27 2330
1784.43 1179.31 2340
1790.03 1179.31 2340
-1836.68 1266.44 2501
-1830.7 1266.44 2501
-1824.71 1266.44 2501
-1818.73 1266.44 2501
-1812.75 1266.44 2501
-1803.88 1264.41 2497
-1795.75 1262.89 2494
-1766.11 1246.18 2461
-1760.22 1246.18 2461
-1754.34 1246.18 2461
-1745.61 1244.16 2457
-1739.73 1244.16 2457
-1721.16 1235.04 2439
-1715.32 1235.04 2439
-1709.49 1235.04 2439
-1706.45 1237.07 2443
-1710.36 1244.16 2457
-1722.52 1257.32 2483
-1716.58 1257.32 2483
-1712.71 1258.84 2486
-1717.06 1266.44 2501
-1711.08 1266.44 2501
-1705.1 1266.44 2501
-1699.12 1266.44 2501
-1693.14 1266.44 2501
-1687.16 1266.44 2501
-1676.47 1262.89 2494
-1670.51 1262.89 2494
-1666.55 1264.41 2497
-1660.58 1264.41 2497
-1654.61 1264.41 2497
-1651.28 1266.44 2501
-1645.3 1266.44 2501
-1639.31 1266.44 2501
-1623.54 1258.84 2486
-1617.59 1258.84 2486
-1601.92 1251.25 2471
-1596.02 1251.25 2471
-1585.6 1247.7 2464
-1559.19 1231.5 2432
-1539.96 1220.86 2411
-1547.56 1231.5 2432
-1541.75 1231.5 2432
-1535.93 1231.5 2432
-1506.36 1285.68 2539
-1500.29 1285.68 2539
-1494.22 1285.68 2539
-1481.7 1280.11 2528
-1468.65 1274.03 2516
-1445.19 1258.84 2486
-1447.93 1266.44 2501
-1441.95 1266.44 2501
-1435.97 1266.44 2501
-1425.99 1262.89 2494
-1420.03 1262.89 2494
-1397.05 1247.7 2464
-1387.21 1244.16 2457
-1385.27 1247.7 2464
-1390.01 1257.32 2483
-1384.07 1257.32 2483
-1382.02 1260.87 2490
-1376.07 1260.87 2490
-1370.11 1260.87 2490
-1364.16 1260.87 2490
-1350.02 1253.27 2475
-1318.58 1229.47 2428
-1314.94 1231.5 2432
-1309.12 1231.5 2432
-1303.31 1231.5 2432
-1297.49 1231.5 2432
-1289.55 1229.47 2428
-1283.74 1229.47 2428
-1272.67 1224.41 2418
-1264.8 1222.38 2414
-1232.44 1242.13 2453
-1226.57 1242.13 2453
-1220.71 1242.13 2453
-1222.27 1249.73 2468
-1229.18 1262.89 2494
-1228.61 1268.46 2505
-1222.62 1268.46 2505
-1216.63 1268.46 2505
-1210.64 1268.46 2505
-1206.57 1270.49 2509
-1200.57 1270.49 2509
-1194.57 1270.49 2509
-1199.47 1282.13 2532
-1193.42 1282.13 2532
-1187.36 1282.13 2532
-1173.84 1274.03 2516
-1167.83 1274.03 2516
-1165.5 1278.08 2524
-1159.47 1278.08 2524
-1153.43 1278.08 2524
-1149.21 1280.11 2528
-1146.33 1283.65 2535
-1140.27 1283.65 2535
-1136 1285.68 2539
-1129.93 1285.68 2539
-1123.86 1285.68 2539
-1075.81 1244.16 2457
-1069.93 1244.16 2457
-1064.06 1244.16 2457
-1058.18 1244.16 2457
-1049.31 1240.61 2450
-1041.75 1238.59 2446
-1035.9 1238.59 2446
-1025.42 1233.02 2435
-1018.34 1231.5 2432
-1000.87 1217.32 2404
-985.182 1205.17 2380
-979.491 1205.17 2380
-973.8 1205.17 2380
-969.329 1206.69 2383
-963.63 1206.69 2383
-957.932 1206.69 2383
-952.233 1206.69 2383
-942.563 1201.62 2373
-936.888 1201.62 2373
-932.391 1203.14 2376
-926.709 1203.14 2376
-926.454 1210.23 2390
-923.436 1213.77 2397
-923.064 1220.86 2411
-917.298 1220.86 2411
-915.314 1225.93 2421
-917.789 1237.07 2443
-911.947 1237.07 2443
-906.105 1237.07 2443
-892.156 1225.93 2421
-888.93 1229.47 2428
-893.672 1244.16 2457
-887.796 1244.16 2457
-883.357 1246.18 2461
-877.472 1246.18 2461
-872.649 1247.7 2464
-866.757 1247.7 2464
-862.262 1249.73 2468
-861.565 1257.32 2483
-858.04 1260.87 2490
-852.086 1260.87 2490
-852.588 1270.49 2509
-846.588 1270.49 2509
-840.588 1270.49 2509
-834.588 1270.49 2509
-828.588 1270.49 2509
-822.589 1270.49 2509
-816.589 1270.49 2509
-810.589 1270.49 2509
-806.834 1274.03 2516
-803.364 1278.08 2524
-799.855 1282.13 2532
-793.801 1282.13 2532
-788.679 1283.65 2535
-786.322 1289.73 2547
-781.457 1291.76 2551
-775.356 1291.76 2551
-769.256 1291.76 2551
-531.406 929.193 1835
-527.018 929.193 1835
-522.63 929.193 1835
-518.806 930.206 1837
-517.214 935.27 1847
-512.797 935.27 1847
-509.757 937.802 1852
-505.874 938.814 1854
-501.981 939.827 1856
-497.543 939.827 1856
-493.104 939.827 1856
-488.666 939.827 1856
-484.228 939.827 1856
-479.79 939.827 1856
-475.351 939.827 1856
-470.913 939.827 1856
-465.972 938.814 1854
-461.539 938.814 1854
-457.105 938.814 1854
-452.672 938.814 1854
-447.755 937.802 1852
-443.326 937.802 1852
-438.423 936.789 1850
-434 936.789 1850
-428.879 935.27 1847
-424.462 935.27 1847
-419.136 933.244 1843
-414.729 933.244 1843
-408.986 930.206 1837
-404.593 930.206 1837
-399.329 928.181 1833
-393.653 925.142 1827
-388.005 922.104 1821
-383.651 922.104 1821
-378.463 920.079 1817
-373.294 918.053 1813
-366.313 911.47 1800
-359.193 904.381 1786
-354.923 904.381 1786
-348.885 899.824 1777
-342.308 893.747 1765
-336.363 889.19 1756
-332.164 889.19 1756
-327.031 886.658 1751
-322.107 884.633 1747
-317.201 882.607 1743
-313.033 882.607 1743
-308.333 881.088 1740
-304.173 881.088 1740
-300.012 881.088 1740
-296.021 881.594 1741
-291.858 881.594 1741
-287.694 881.594 1741
-283.531 881.594 1741
-279.689 882.607 1743
-276.153 884.633 1747
-271.975 884.633 1747
-268.564 887.164 1752
-265.884 892.228 1762
-261.819 892.734 1763
-257.603 892.734 1763
-253.962 894.76 1767
-251.432 900.836 1779
-247.595 902.356 1782
-243.334 902.356 1782
-239.609 904.381 1786
-236.656 909.445 1796
-233.137 912.483 1802
-228.828 912.483 1802
-224.768 913.496 1804
-221.31 917.04 1811
-217.219 918.053 1813
-212.883 918.053 1813
-209.008 920.079 1817
-204.663 920.079 1817
-200.98 923.117 1823
-196.62 923.117 1823
-192.261 923.117 1823
-187.902 923.117 1823
-183.542 923.117 1823
-179.183 923.117 1823
-175.207 925.142 1827
-171.399 928.181 1833
-167.198 929.193 1835
-162.81 929.193 1835
-158.422 929.193 1835
-191.646 1225.93 2421
-185.856 1225.93 2421
-180.067 1225.93 2421
-174.062 1224.41 2418
-168.279 1224.41 2418
-160.616 1210.23 2390
-153.799 1201.62 2373
-147.312 1195.04 2360
-141.669 1195.04 2360
-136.198 1196.56 2363
-130.548 1196.56 2363
-125.584 1203.14 2376
-120.104 1205.17 2380
-114.413 1205.17 2380
-108.722 1205.17 2380
-103.16 1206.69 2383
-98.0345 1213.77 2397
-92.8416 1220.86 2411
-87.0762 1220.86 2411
-81.8841 1229.47 2428
-76.2973 1233.02 2435
-71.227 1246.18 2461
-65.342 1246.18 2461
-59.6261 1249.73 2468
-53.7897 1251.25 2471
-48.0358 1255.3 2479
-42.1078 1255.3 2479
-36.3403 1260.87 2490
-30.4347 1262.89 2494
-24.4708 1262.89 2494
-18.5069 1262.89 2494
-12.5581 1264.41 2497
-6.587 1264.41 2497
-0.615914 1264.41 2497
5.34016 1260.87 2490
11.1947 1249.73 2468
17.048 1246.18 2461
22.933 1246.18 2461
28.818 1246.18 2461
34.7029 1246.18 2461
40.4065 1240.61 2450
46.2652 1240.61 2450
51.975 1237.07 2443
57.6276 1233.02 2435
63.4504 1233.02 2435
68.7896 1224.41 2418
74.5718 1224.41 2418
80.1213 1220.86 2411
85.8868 1220.86 2411
91.5002 1218.84 2407
97.256 1218.84 2407
102.883 1217.32 2404
109.084 1222.38 2414
115.19 1225.93 2421
121.679 1233.02 2435
127.501 1233.02 2435
134.146 1240.61 2450
141.033 1249.73 2468
147.828 1257.32 2483
153.765 1257.32 2483
159.896 1258.84 2486
166.841 1266.44 2501
173.098 1268.46 2505
179.089 1268.46 2505
185.079 1268.46 2505
191.069 1268.46 2505
197.374 1270.49 2509
203.374 1270.49 2509
209.373 1270.49 2509
216.661 1278.08 2524
223.049 1280.11 2528
229.095 1280.11 2528
235.512 1282.13 2532
241.853 1283.65 2535
247.915 1283.65 2535
253.977 1283.65 2535
260.039 1283.65 2535
265.786 1282.13 2532
270.123 1274.03 2516
276.139 1274.03 2516
280.474 1266.44 2501
284.736 1258.84 2486
290.33 1257.32 2483
296.268 1257.32 2483
301.232 1253.27 2475
307.647 1255.3 2479
313.575 1255.3 2479
319.503 1255.3 2479
325.431 1255.3 2479
329.354 1247.7 2464
334.838 1246.18 2461
340.723 1246.18 2461
344.073 1237.07 2443
348.769 1233.02 2435
354.592 1233.02 2435
358.934 1227.95 2425
364.733 1227.95 2425
370.532 1227.95 2425
375.71 1225.93 2421
381.5 1225.93 2421
390.808 1237.07 2443
396.65 1237.07 2443
405.952 1247.7 2464
413.683 1253.27 2475
419.601 1253.27 2475
425.52 1253.27 2475
430.218 1249.73 2468
435.413 1247.7 2464
442.021 1249.73 2468
447.923 1249.73 2468
455.848 1255.3 2479
463.08 1258.84 2486
471.1 1264.41 2497
477.071 1264.41 2497
483.042 1264.41 2497
489.013 1264.41 2497
495.777 1266.44 2501
501.758 1266.44 2501
509.362 1270.49 2509
515.978 1272.01 2512
521.985 1272.01 2512
527.992 1272.01 2512
533.999 1272.01 2512
540.006 1272.01 2512
546.013 1272.01 2512
551.361 1270.49 2509
554.028 1262.89 2494
557.522 1257.32 2483
563.46 1257.32 2483
569.398 1257.32 2483
575.335 1257.32 2483
579.4 1253.27 2475
584.373 1251.25 2471
590.281 1251.25 2471
592.813 1244.16 2457
593.327 1233.02 2435
592.261 1218.84 2407
599.756 1222.38 2414
605.528 1222.38 2414
613.073 1225.93 2421
618.863 1225.93 2421
624.652 1225.93 2421
630.441 1225.93 2421
634.391 1222.38 2414
635.656 1213.77 2397
639.514 1210.23 2390
646.04 1211.75 2393
651.762 1211.75 2393
657.484 1211.75 2393
666.255 1217.32 2404
673.961 1220.86 2411
679.726 1220.86 2411
687.482 1224.41 2418
694.124 1225.93 2421
701.07 1227.95 2425
706.869 1227.95 2425
720.015 1240.61 2450
725.874 1240.61 2450
731.732 1240.61 2450
737.591 1240.61 2450
742.236 1238.59 2446
743.803 1231.5 2432
749.619 1231.5 2432
752.018 1225.93 2421
752.486 1217.32 2404
750.665 1205.17 2380
753.178 1200.1 2370
760.767 1203.14 2376
766.448 1203.14 2376
775.705 1208.71 2387
782.395 1210.23 2390
788.11 1210.23 2390
793.825 1210.23 2390
799.54 1210.23 2390
807.614 1213.77 2397
814.364 1215.29 2400
820.103 1215.29 2400
825.842 1215.29 2400
830.542 1213.77 2397
836.274 1213.77 2397
840.601 1211.75 2393
846.323 1211.75 2393
850.977 1210.23 2390
856.693 1210.23 2390
855.191 1200.1 2370
858.316 1196.56 2363
862.87 1195.04 2360
868.513 1195.04 2360
874.157 1195.04 2360
879.8 1195.04 2360
885.443 1195.04 2360
895.995 1201.62 2373
904.33 1205.17 2380
910.021 1205.17 2380
915.712 1205.17 2380
921.404 1205.17 2380
927.095 1205.17 2380
932.786 1205.17 2380
934.534 1200.1 2370
944.169 1205.17 2380
951.058 1206.69 2383
956.756 1206.69 2383
962.455 1206.69 2383
969.778 1208.71 2387
988.155 1224.41 2418
993.937 1224.41 2418
1010.06 1237.07 2443
1020.06 1242.13 2453
1027.59 1244.16 2457
1035.15 1246.18 2461
1041.04 1246.18 2461
1048.2 1247.7 2464
1057.09 1251.25 2471
1062.99 1251.25 2471
1068.9 1251.25 2471
1074.81 1251.25 2471
1079.41 1249.73 2468
1085.31 1249.73 2468
1091.21 1249.73 2468
1102 1255.3 2479
1107.93 1255.3 2479
1113.86 1255.3 2479
1117.98 1253.27 2475
1122.08 1251.25 2471
1134.84 1258.84 2486
1140.78 1258.84 2486
1146.73 1258.84 2486
1152.67 1258.84 2486
1151.63 1251.25 2471
1157.54 1251.25 2471
1160.15 1247.7 2464
1166.04 1247.7 2464
1153.38 1227.95 2425
1143.89 1211.75 2393
1149.61 1211.75 2393
1155.33 1211.75 2393
1161.05 1211.75 2393
1180.43 1225.93 2421
1195.04 1235.04 2439
1200.87 1235.04 2439
1206.7 1235.04 2439
1209.06 1231.5 2432
1225.36 1242.13 2453
1231.23 1242.13 2453
1244.66 1249.73 2468
1250.56 1249.73 2468
1256.46 1249.73 2468
1262.36 1249.73 2468
1266.21 1247.7 2464
1270.55 1246.18 2461
1276.44 1246.18 2461
1282.32 1246.18 2461
1288.21 1246.18 2461
1295.67 1247.7 2464
1303.67 1249.73 2468
1313.29 1253.27 2475
1319.21 1253.27 2475
1327.27 1255.3 2479
1333.2 1255.3 2479
1339.13 1255.3 2479
1339.09 1249.73 2468
1344.99 1249.73 2468
1350.89 1249.73 2468
1356.79 1249.73 2468
1362.69 1249.73 2468
1366.38 1247.7 2464
1366.14 1242.13 2453
1372.01 1242.13 2453
1373.94 1238.59 2446
1369.64 1229.47 2428
1381.67 1235.04 2439
1387.51 1235.04 2439
1393.34 1235.04 2439
1399.17 1235.04 2439
1398.67 1229.47 2428
1404.47 1229.47 2428
1410.28 1229.47 2428
1416.09 1229.47 2428
1409.59 1218.84 2407
1411.23 1215.29 2400
1416.97 1215.29 2400
1422.71 1215.29 2400
1428.45 1215.29 2400
1436.58 1217.32 2404
1442.33 1217.32 2404
1458.32 1225.93 2421
1464.11 1225.93 2421
1474.15 1229.47 2428
1479.95 1229.47 2428
1488.21 1231.5 2432
1494.02 1231.5 2432
1515.26 1244.16 2457
1527.94 1249.73 2468
1533.84 1249.73 2468
1539.74 1249.73 2468
1552.54 1255.3 2479
1558.46 1255.3 2479
1564.39 1255.3 2479
1560.82 1247.7 2464
1559.72 1242.13 2453
1565.58 1242.13 2453
1571.45 1242.13 2453
1554.81 1224.41 2418
1551.55 1217.32 2404
1559.25 1218.84 2407
1565 1218.84 2407
1570.76 1218.84 2407
1571.93 1215.29 2400
1575.7 1213.77 2397
1572.19 1206.69 2383
1577.89 1206.69 2383
1578.94 1203.14 2376
1582.62 1201.62 2373
1576.91 1193.01 2356
1582.55 1193.01 2356
1584.14 1189.98 2350
1587.05 1187.95 2346
1575.01 1174.78 2320
1580.56 1174.78 2320
1606.62 1189.98 2350
1612.23 1189.98 2350
1628.87 1198.08 2366
1649.03 1208.71 2387
1656.82 1210.23 2390
1662.54 1210.23 2390
1668.25 1210.23 2390
1673.97 1210.23 2390
1679.68 1210.23 2390
1683.28 1208.71 2387
1686.16 1206.69 2383
1682.63 1200.1 2370
1688.3 1200.1 2370
1763.67 1237.07 2443
1776.75 1242.13 2453
1782.62 1242.13 2453
1804.52 1253.27 2475
1818.49 1258.84 2486
1824.43 1258.84 2486
1830.38 1258.84 2486
1836.32 1258.84 2486
1765.94 1206.69 2383
1771.64 1206.69 2383
1769.88 1201.62 2373
1760.59 1191.49 2353
1754.2 1183.39 2337
1759.79 1183.39 2337
1754.81 1176.3 2323
1760.36 1176.3 2323
1771.24 1179.85 2330
1784.43 1184.91 2340
1790.03 1184.91 2340
-1831.54 1268.87 2494
-1825.57 1268.87 2494
-1821.8 1270.39 2497
-1815.83 1270.39 2497
-1809.85 1270.39 2497
-1801.72 1268.87 2494
-1774.15 1253.6 2464
-1763.24 1250.04 2457
-1757.36 1250.04 2457
-1751.48 1250.04 2457
-1735.66 1242.92 2443
-1729.82 1242.92 2443
-1716.22 1237.32 2432
-1710.4 1237.32 2432
-1704.59 1237.32 2432
-1706.45 1242.92 2443
-1710.36 1250.04 2457
-1707.26 1252.08 2461
-1701.37 1252.08 2461
-1702.38 1257.17 2471
-1706.76 1264.8 2486
-1700.82 1264.8 2486
-1694.88 1264.8 2486
-1694.37 1268.87 2494
-1688.4 1268.87 2494
-1682.44 1268.87 2494
-1673.79 1266.83 2490
-1667.83 1266.83 2490
-1661.88 1266.83 2490
-1655.92 1266.83 2490
-1649.97 1266.83 2490
-1651.28 1272.43 2501
-1645.3 1272.43 2501
-1639.31 1272.43 2501
-1623.54 1264.8 2486
-1617.59 1264.8 2486
-1601.92 1257.17 2471
-1596.02 1257.17 2471
-1578.52 1248.01 2453
-1545.73 1226.64 2411
-1537.41 1224.6 2407
-1531.65 1224.6 2407
-1517.02 1217.48 2393
-1496.78 1205.78 2370
-1467.83 1186.96 2333
-1462.25 1186.96 2333
-1452.92 1183.9 2327
-1443.01 1180.34 2320
-1437.46 1180.34 2320
-1452.28 1197.13 2353
-1446.65 1197.13 2353
-1441.02 1197.13 2353
-1435.4 1197.13 2353
-1429.77 1197.13 2353
-1416.28 1190.52 2340
-1465.28 1246.48 2450
-1459.42 1246.48 2450
-1506.36 1291.76 2539
-1500.29 1291.76 2539
-1494.22 1291.76 2539
-1481.7 1286.17 2528
-1468.65 1280.06 2516
-1445.19 1264.8 2486
-1447.93 1272.43 2501
-1441.95 1272.43 2501
-1435.97 1272.43 2501
-1425.99 1268.87 2494
-1420.03 1268.87 2494
-1397.05 1253.6 2464
-1387.21 1250.04 2457
-1385.27 1253.6 2464
-1390.01 1263.27 2483
-1384.07 1263.27 2483
-1382.02 1266.83 2490
-1376.07 1266.83 2490
-1370.11 1266.83 2490
-1364.16 1266.83 2490
-1350.02 1259.2 2475
-1318.58 1235.29 2428
-1314.94 1237.32 2432
-1309.12 1237.32 2432
-1303.31 1237.32 2432
-1297.49 1237.32 2432
-1289.55 1235.29 2428
-1283.74 1235.29 2428
-1272.67 1230.2 2418
-1264.8 1228.17 2414
-1232.44 1248.01 2453
-1226.57 1248.01 2453
-1220.71 1248.01 2453
-1222.27 1255.64 2468
-1229.18 1268.87 2494
-1228.61 1274.46 2505
-1222.62 1274.46 2505
-1216.63 1274.46 2505
-1210.64 1274.46 2505
-1206.57 1276.5 2509
-1200.57 1276.5 2509
-1194.57 1276.5 2509
-1199.47 1288.2 2532
-1193.42 1288.2 2532
-1187.36 1288.2 2532
-1173.84 1280.06 2516
-1167.83 1280.06 2516
-1165.5 1284.13 2524
-1159.47 1284.13 2524
-1153.43 1284.13 2524
-1149.21 1286.17 2528
-1146.33 1289.73 2535
-1140.27 1289.73 2535
-1136 1291.76 2539
-1129.93 1291.76 2539
-1123.86 1291.76 2539
-1075.81 1250.04 2457
-1069.93 1250.04 2457
-1064.06 1250.04 2457
-1058.18 1250.04 2457
-1049.31 1246.48 2450
-1041.75 1244.45 2446
-1035.9 1244.45 2446
-1025.42 1238.85 2435
-1018.34 1237.32 2432
-1000.87 1223.08 2404
-985.182 1210.87 2380
-979.491 1210.87 2380
-973.8 1210.87 2380
-969.329 1212.39 2383
-963.63 1212.39 2383
-957.932 1212.39 2383
-952.233 1212.39 2383
-942.563 1207.31 2373
-936.888 1207.31 2373
-932.391 1208.83 2376
-926.709 1208.83 2376
-926.454 1215.96 2390
-923.436 1219.52 2397
-917.704 1219.52 2397
-911.972 1219.52 2397
-907.374 1221.04 2400
-905.768 1226.64 2411
-900.002 1226.64 2411
-894.237 1226.64 2411
-888.471 1226.64 2411
-882.706 1226.64 2411
-883.124 1235.29 2428
-877.318 1235.29 2428
-874.024 1238.85 2435
-868.201 1238.85 2435
-867.691 1246.48 2450
-861.832 1246.48 2450
-857.022 1248.01 2453
-858.789 1259.2 2475
-855.628 1263.27 2483
-849.69 1263.27 2483
-844.772 1264.8 2486
-842.539 1270.39 2497
-836.568 1270.39 2497
-830.597 1270.39 2497
-824.625 1270.39 2497
-816.359 1266.83 2490
-810.405 1266.83 2490
-802.189 1263.27 2483
-798.496 1266.83 2490
-800.818 1280.06 2516
-798.592 1286.17 2528
-792.547 1286.17 2528
-787.746 1288.2 2532
-783.852 1291.76 2539
-779.006 1293.8 2543
-772.925 1293.8 2543
-766.844 1293.8 2543
-534.302 938.677 1845
-529.89 938.677 1845
-525.478 938.677 1845
-522.478 941.221 1850
-519.174 943.256 1854
-514.741 943.256 1854
-510.858 944.273 1856
-506.419 944.273 1856
-502.522 945.291 1858
-498.079 945.291 1858
-493.636 945.291 1858
-489.719 946.308 1860
-485.272 946.308 1860
-480.824 946.308 1860
-475.351 944.273 1856
-470.913 944.273 1856
-466.978 945.291 1858
-462.535 945.291 1858
-458.092 945.291 1858
-452.672 943.256 1854
-448.238 943.256 1854
-443.805 943.256 1854
-438.897 942.238 1852
-434 941.221 1850
-429.576 941.221 1850
-425.152 941.221 1850
-420.046 939.694 1847
-414.729 937.659 1843
-409.431 935.624 1839
-405.033 935.624 1839
-399.764 933.589 1835
-394.514 931.554 1831
-389.284 929.519 1827
-384.915 929.519 1827
-379.296 926.466 1821
-374.118 924.431 1817
-366.72 916.8 1802
-359.998 910.695 1790
-355.717 910.695 1790
-349.474 905.607 1780
-344.635 904.081 1777
-337.513 896.449 1762
-333.299 896.449 1762
-327.965 893.396 1756
-322.475 889.835 1749
-317.929 888.818 1747
-313.751 888.818 1747
-309.219 887.8 1745
-304.697 886.782 1743
-300.184 885.765 1741
-296.021 885.765 1741
-291.858 885.765 1741
-287.694 885.765 1741
-283.857 886.782 1743
-280.01 887.8 1745
-276.153 888.818 1747
-271.975 888.818 1747
-268.871 892.379 1754
-266.035 896.958 1763
-261.819 896.958 1763
-258.187 898.993 1767
-254.249 900.01 1769
-251.574 905.607 1780
-247.595 906.624 1782
-243.607 907.642 1784
-239.609 908.659 1786
-236.656 913.747 1796
-233.137 916.8 1802
-228.828 916.8 1802
-224.893 918.326 1805
-221.31 921.379 1811
-217.219 922.396 1813
-212.883 922.396 1813
-209.008 924.431 1817
-204.663 924.431 1817
-200.98 927.484 1823
-196.62 927.484 1823
-192.261 927.484 1823
-187.902 927.484 1823
-183.542 927.484 1823
-179.183 927.484 1823
-175.207 929.519 1827
-171.586 933.589 1835
-167.38 934.607 1837
-162.988 934.607 1837
-158.595 934.607 1837
-190.537 1224.6 2407
-184.781 1224.6 2407
-179.026 1224.6 2407
-172.55 1219.52 2397
-166.818 1219.52 2397
-160.145 1212.39 2383
-152.956 1200.69 2360
-146.688 1195.6 2350
-141.069 1195.6 2350
-135.795 1198.66 2356
-130.161 1198.66 2356
-125.056 1203.74 2366
-119.903 1208.83 2376
-114.221 1208.83 2376
-108.539 1208.83 2376
-102.727 1207.31 2373
-97.3392 1210.87 2380
-91.9174 1214.43 2387
-86.2094 1214.43 2387
-80.9398 1221.04 2400
-76.078 1235.29 2428
-70.4745 1238.85 2435
-64.6517 1238.85 2435
-58.9255 1240.88 2439
-53.3326 1246.48 2450
-47.7451 1253.6 2464
-41.853 1253.6 2464
-36.063 1257.17 2471
-30.2517 1261.24 2479
-24.3236 1261.24 2479
-18.3956 1261.24 2479
-12.4676 1261.24 2479
-6.53951 1261.24 2479
-0.611474 1261.24 2479
5.29298 1255.64 2468
11.1448 1250.04 2457
16.944 1244.45 2446
22.7932 1244.45 2446
28.6423 1244.45 2446
34.4914 1244.45 2446
40.0437 1235.29 2428
45.7931 1233.76 2425
51.592 1233.76 2425
57.2963 1231.73 2421
63.0075 1230.2 2418
68.5905 1226.64 2411
74.3559 1226.64 2411
79.9884 1224.6 2407
85.7443 1224.6 2407
91.2341 1221.04 2400
96.9732 1221.04 2400
102.584 1219.52 2397
108.316 1219.52 2397
114.714 1226.64 2411
120.479 1226.64 2411
126.245 1226.64 2411
132.394 1230.2 2418
139.147 1238.85 2435
146.28 1250.04 2457
152.155 1250.04 2457
158.288 1252.08 2461
165.374 1261.24 2479
171.302 1261.24 2479
177.23 1261.24 2479
183.453 1263.27 2483
189.391 1263.27 2483
195.565 1264.8 2486
201.509 1264.8 2486
207.788 1266.83 2490
215.03 1274.46 2505
221.638 1278.03 2512
227.645 1278.03 2512
233.652 1278.03 2512
241.185 1286.17 2528
247.23 1286.17 2528
253.275 1286.17 2528
259.321 1286.17 2528
264.106 1280.06 2516
268.512 1272.43 2501
274.493 1272.43 2501
278.791 1264.8 2486
284.393 1263.27 2483
288.927 1257.17 2471
294.836 1257.17 2471
299.893 1253.6 2464
305.785 1253.6 2464
311.677 1253.6 2464
317.569 1253.6 2464
323.068 1252.08 2461
327.883 1248.01 2453
331.845 1240.88 2439
337.677 1240.88 2439
342.946 1238.85 2435
347.336 1233.76 2425
352.553 1231.73 2421
358.342 1231.73 2421
364.132 1231.73 2421
369.921 1231.73 2421
374.158 1226.64 2411
381.027 1230.2 2418
389.529 1238.85 2435
395.351 1238.85 2435
403.645 1246.48 2450
411.844 1253.6 2464
417.736 1253.6 2464
423.629 1253.6 2464
429.521 1253.6 2464
434.176 1250.04 2457
440.051 1250.04 2457
445.927 1250.04 2457
453.825 1255.64 2468
461.776 1261.24 2479
469.024 1264.8 2486
474.969 1264.8 2486
481.688 1266.83 2490
487.642 1266.83 2490
494.389 1268.87 2494
500.353 1268.87 2494
506.317 1268.87 2494
512.281 1268.87 2494
518.868 1270.39 2497
524.839 1270.39 2497
530.811 1270.39 2497
536.782 1270.39 2497
542.753 1270.39 2497
548.065 1268.87 2494
551.585 1263.27 2483
554.828 1257.17 2471
560.737 1257.17 2471
566.646 1257.17 2471
572.555 1257.17 2471
575.186 1250.04 2457
581.062 1250.04 2457
586.937 1250.04 2457
587.505 1238.85 2435
586.505 1224.6 2407
588.078 1215.96 2390
