ply
format ascii 1.0
comment File generated
element vertex 2253
property float x
property float y
property float z
end_header
-1204.04 1234.84 2267
-1198.62 1234.84 2267
-1184.78 1226.12 2251
-1179.39 1226.12 2251
-1158.36 1209.78 2221
-1162.4 1219.58 2239
-1157.04 1219.58 2239
-1164.55 1233.2 2264
-1159.14 1233.2 2264
-1156.78 1236.47 2270
-1151.35 1236.47 2270
-1157.03 1248.45 2292
-1151.55 1248.45 2292
-1146.07 1248.45 2292
-1140.59 1248.45 2292
-1113.31 1224.49 2248
-1094.17 1233.2 2264
-1111.36 1258.8 2311
-1105.83 1258.8 2311
-1100.3 1258.8 2311
-1090.04 1253.36 2301
-1084.54 1253.36 2301
-1080.44 1254.99 2304
-1074.93 1254.99 2304
-1070.82 1256.62 2307
-1065.3 1256.62 2307
-1059.78 1256.62 2307
-1051.52 1253.36 2301
-1041.93 1248.45 2292
-1030.57 1241.37 2279
-1025.12 1241.37 2279
-1019.67 1241.37 2279
-1014.22 1241.37 2279
-1008.77 1241.37 2279
-1003.32 1241.37 2279
-997.872 1241.37 2279
-992.422 1241.37 2279
-986.972 1241.37 2279
-981.523 1241.37 2279
-974.788 1239.74 2276
-969.345 1239.74 2276
-961.362 1236.47 2270
-957.197 1238.1 2273
-951.761 1238.1 2273
-946.326 1238.1 2273
-940.89 1238.1 2273
-935.455 1238.1 2273
-930.02 1238.1 2273
-928.245 1243.01 2282
-924.001 1244.64 2285
-918.537 1244.64 2285
-913.073 1244.64 2285
-907.609 1244.64 2285
-900.96 1243.01 2282
-895.503 1243.01 2282
-888.876 1241.37 2279
-883.426 1241.37 2279
-879.132 1243.01 2282
-873.675 1243.01 2282
-868.219 1243.01 2282
-863.896 1244.64 2285
-861.061 1248.45 2292
-858.94 1253.36 2301
-853.438 1253.36 2301
-849.041 1254.99 2304
-843.531 1254.99 2304
-838.022 1254.99 2304
-832.512 1254.99 2304
-825.926 1253.36 2301
-820.423 1253.36 2301
-813.859 1251.72 2298
-808.363 1251.72 2298
-802.868 1251.72 2298
-797.373 1251.72 2298
-791.878 1251.72 2298
-793.911 1263.71 2320
-788.363 1263.71 2320
-782.815 1263.71 2320
-782.963 1272.97 2337
-779.37 1276.23 2343
-773.768 1276.23 2343
-768.165 1276.23 2343
-761.586 1274.6 2340
-755.99 1274.6 2340
-560.165 1003.88 1843
-555.758 1003.88 1843
-551.351 1003.88 1843
-546.944 1003.88 1843
-540.77 1000.61 1837
-536.378 1000.61 1837
-531.985 1000.61 1837
-527.018 999.525 1835
-522.06 998.436 1833
-517.112 997.347 1831
-512.733 997.347 1831
-508.91 998.436 1833
-504.527 998.436 1833
-500.144 998.436 1833
-496.301 999.525 1835
-491.913 999.525 1835
-487.525 999.525 1835
-483.137 999.525 1835
-479.271 1000.61 1837
-475.395 1001.7 1839
-470.997 1001.7 1839
-466.6 1001.7 1839
-462.202 1001.7 1839
-457.805 1001.7 1839
-453.407 1001.7 1839
-449.009 1001.7 1839
-444.612 1001.7 1839
-440.693 1002.79 1841
-436.291 1002.79 1841
-431.888 1002.79 1841
-427.486 1002.79 1841
-423.083 1002.79 1841
-418.681 1002.79 1841
-413.829 1001.7 1839
-409.431 1001.7 1839
-405.033 1001.7 1839
-400.636 1001.7 1839
-396.238 1001.7 1839
-391.841 1001.7 1839
-387.443 1001.7 1839
-383.045 1001.7 1839
-378.236 1000.61 1837
-372.622 997.347 1831
-368.244 997.347 1831
-363.865 997.347 1831
-358.309 994.078 1825
-353.945 994.078 1825
-349.197 992.989 1823
-344.838 992.989 1823
-340.105 991.9 1821
-335.382 990.81 1819
-329.94 987.542 1813
-325.605 987.542 1813
-320.915 986.453 1811
-315.885 984.274 1807
-311.047 982.64 1804
-306.733 982.64 1804
-301.748 980.461 1800
-296.452 977.193 1794
-291.185 973.925 1788
-286.91 973.925 1788
-282.318 972.835 1786
-277.424 970.656 1782
-272.856 969.567 1780
-269.505 972.835 1786
-265.234 972.835 1786
-261.548 975.014 1790
-257.555 976.103 1792
-254.4 980.461 1800
-250.096 980.461 1800
-246.338 982.64 1804
-242.158 983.184 1805
-237.842 983.184 1805
-233.526 983.184 1805
-229.209 983.184 1805
-224.893 983.184 1805
-220.821 984.274 1807
-216.5 984.274 1807
-212.179 984.274 1807
-208.318 986.453 1811
-204.663 989.721 1817
-200.759 991.9 1821
-196.404 991.9 1821
-192.261 992.989 1823
-187.902 992.989 1823
-183.542 992.989 1823
-186.589 1246.27 2288
-181.117 1246.27 2288
-175.646 1246.27 2288
-170.175 1246.27 2288
-164.703 1246.27 2288
-159.232 1246.27 2288
-154.03 1248.45 2292
-148.549 1248.45 2292
-143.255 1250.09 2295
-138.307 1254.99 2304
-133.201 1258.8 2311
-127.675 1258.8 2311
-122.149 1258.8 2311
-116.925 1262.07 2317
-111.384 1262.07 2317
-105.844 1262.07 2317
-100.433 1263.71 2320
-94.8852 1263.71 2320
-89.3374 1263.71 2320
-83.7896 1263.71 2320
-78.2418 1263.71 2320
-72.6 1262.07 2317
-67.0593 1262.07 2317
-61.3594 1258.8 2311
-55.5915 1253.36 2301
-50.0238 1251.72 2298
-44.5867 1253.36 2301
-39.1862 1256.62 2307
-33.6695 1256.62 2307
-28.1527 1256.62 2307
-22.5771 1253.36 2301
-17.0747 1253.36 2301
-11.5271 1248.45 2292
-6.03566 1246.27 2288
-0.563622 1244.64 2285
4.90051 1244.64 2285
10.351 1243.01 2282
15.7456 1238.1 2273
21.1811 1238.1 2273
26.6165 1238.1 2273
32.0519 1238.1 2273
37.4874 1238.1 2273
42.9228 1238.1 2273
48.4221 1239.74 2276
53.8647 1239.74 2276
59.3073 1239.74 2276
64.7499 1239.74 2276
70.1925 1239.74 2276
75.4357 1236.47 2270
80.7571 1234.84 2267
86.0641 1233.2 2264
91.478 1233.2 2264
96.7635 1231.57 2261
102.17 1231.57 2261
107.577 1231.57 2261
112.984 1231.57 2261
118.39 1231.57 2261
123.797 1231.57 2261
129.547 1234.84 2267
135.325 1238.1 2273
140.761 1238.1 2273
146.196 1238.1 2273
151.631 1238.1 2273
157.067 1238.1 2273
162.502 1238.1 2273
167.938 1238.1 2273
173.602 1239.74 2276
179.989 1246.27 2288
185.46 1246.27 2288
190.931 1246.27 2288
196.402 1246.27 2288
202.227 1248.45 2292
207.979 1250.09 2295
213.467 1250.09 2295
219.242 1251.72 2298
224.737 1251.72 2298
230.232 1251.72 2298
235.727 1251.72 2298
241.223 1251.72 2298
246.718 1251.72 2298
252.213 1251.72 2298
257.372 1250.09 2295
262.86 1250.09 2295
268.699 1251.72 2298
274.194 1251.72 2298
280.054 1253.36 2301
285.557 1253.36 2301
291.059 1253.36 2301
296.561 1253.36 2301
302.458 1254.99 2304
307.967 1254.99 2304
313.477 1254.99 2304
319.402 1256.62 2307
325.482 1258.8 2311
331.008 1258.8 2311
336.534 1258.8 2311
342.505 1260.44 2314
348.038 1260.44 2314
353.572 1260.44 2314
359.571 1262.07 2317
365.111 1262.07 2317
370.652 1262.07 2317
376.193 1262.07 2317
381.239 1260.44 2314
386.271 1258.8 2311
391.797 1258.8 2311
396.636 1256.62 2307
402.153 1256.62 2307
407.139 1254.99 2304
412.649 1254.99 2304
419.429 1258.8 2311
424.955 1258.8 2311
430.481 1258.8 2311
435.253 1256.62 2307
440.77 1256.62 2307
446.287 1256.62 2307
451.803 1256.62 2307
456.131 1253.36 2301
461.633 1253.36 2301
467.135 1253.36 2301
473.254 1254.99 2304
478.764 1254.99 2304
484.273 1254.99 2304
489.783 1254.99 2304
495.937 1256.62 2307
501.454 1256.62 2307
507.85 1258.8 2311
513.376 1258.8 2311
518.902 1258.8 2311
524.429 1258.8 2311
529.955 1258.8 2311
535.481 1258.8 2311
539.369 1254.99 2304
543.459 1251.72 2298
547.521 1248.45 2292
553.002 1248.45 2292
556.046 1243.01 2282
560.765 1241.37 2279
566.96 1243.01 2282
572.417 1243.01 2282
577.874 1243.01 2282
583.331 1243.01 2282
588.014 1241.37 2279
593.464 1241.37 2279
598.125 1239.74 2276
601.977 1236.47 2270
605.799 1233.2 2264
611.213 1233.2 2264
615.81 1231.57 2261
621.217 1231.57 2261
625.515 1229.39 2257
630.912 1229.39 2257
632.081 1221.22 2242
637.442 1221.22 2242
647.104 1229.39 2257
653.657 1231.57 2261
659.064 1231.57 2261
664.471 1231.57 2261
670.766 1233.2 2264
679.764 1239.74 2276
685.207 1239.74 2276
690.65 1239.74 2276
696.092 1239.74 2276
701.535 1239.74 2276
706.977 1239.74 2276
712.42 1239.74 2276
719.755 1243.01 2282
726.165 1244.64 2285
734.831 1250.09 2295
740.319 1250.09 2295
745.807 1250.09 2295
752.278 1251.72 2298
758.762 1253.36 2301
764.264 1253.36 2301
770.77 1254.99 2304
778.638 1258.8 2311
784.165 1258.8 2311
790.716 1260.44 2314
796.25 1260.44 2314
801.783 1260.44 2314
806.27 1258.8 2311
811.796 1258.8 2311
815.908 1256.62 2307
816.084 1248.45 2292
815.829 1239.74 2276
821.272 1239.74 2276
826.715 1239.74 2276
834.351 1243.01 2282
840.912 1244.64 2285
846.376 1244.64 2285
851.84 1244.64 2285
857.304 1244.64 2285
861.636 1243.01 2282
867.093 1243.01 2282
871.403 1241.37 2279
876.852 1241.37 2279
881.141 1239.74 2276
886.583 1239.74 2276
890.85 1238.1 2273
893.92 1234.84 2267
896.961 1231.57 2261
899.574 1227.76 2254
904.964 1227.76 2254
909.142 1226.12 2251
922.244 1236.47 2270
927.672 1236.47 2270
933.1 1236.47 2270
938.529 1236.47 2270
941.462 1233.2 2264
945.621 1231.57 2261
951.028 1231.57 2261
956.435 1231.57 2261
964.394 1234.84 2267
969.815 1234.84 2267
975.236 1234.84 2267
979.359 1233.2 2264
984.773 1233.2 2264
988.875 1231.57 2261
994.282 1231.57 2261
1002.34 1234.84 2267
1007.76 1234.84 2267
1013.18 1234.84 2267
1018.6 1234.84 2267
1026.74 1238.1 2273
1032.17 1238.1 2273
1037.61 1238.1 2273
1043.04 1238.1 2273
1054.01 1244.64 2285
1059.48 1244.64 2285
1064.94 1244.64 2285
1070.41 1244.64 2285
1075.87 1244.64 2285
1081.33 1244.64 2285
1079.66 1236.47 2270
1078.88 1229.39 2257
1084.27 1229.39 2257
1080.98 1219.58 2239
1086.34 1219.58 2239
1082.91 1209.78 2221
1088.22 1209.78 2221
1093.54 1209.78 2221
1095.88 1206.51 2215
1097.2 1202.15 2207
1099.48 1198.89 2201
1106.25 1200.52 2204
1111.52 1200.52 2204
1116.79 1200.52 2204
1122.06 1200.52 2204
1127.33 1200.52 2204
1132.6 1200.52 2204
1139.42 1202.15 2207
1147.81 1205.42 2213
1153.1 1205.42 2213
1162.58 1209.78 2221
1167.89 1209.78 2221
1173.2 1209.78 2221
1186.47 1217.95 2236
1191.82 1217.95 2236
1197.17 1217.95 2236
1205.74 1221.22 2242
1211.1 1221.22 2242
1216.46 1221.22 2242
1220.19 1219.58 2239
1225.54 1219.58 2239
1232.55 1221.22 2242
1237.91 1221.22 2242
1243.27 1221.22 2242
1238.61 1211.41 2224
1234.42 1202.15 2207
1239.69 1202.15 2207
1243.28 1200.52 2204
1235.52 1187.99 2181
1240.73 1187.99 2181
1239.09 1181.46 2169
1244.28 1181.46 2169
1249.47 1181.46 2169
1254.66 1181.46 2169
1259.84 1181.46 2169
1265.03 1181.46 2169
1265.53 1177.1 2161
1275.4 1181.46 2169
1285.9 1186.36 2178
1299.41 1193.98 2192
1304.65 1193.98 2192
1309.89 1193.98 2192
1318.73 1197.25 2198
1325.8 1198.89 2201
1331.06 1198.89 2201
1352.11 1213.05 2227
1357.44 1213.05 2227
1362.76 1213.05 2227
1368.09 1213.05 2227
1373.41 1213.05 2227
1370.07 1205.42 2213
1391.52 1219.58 2239
1396.88 1219.58 2239
1402.23 1219.58 2239
1411.36 1222.85 2245
1416.72 1222.85 2245
1434.13 1233.2 2264
1439.54 1233.2 2264
1458.36 1244.64 2285
1463.82 1244.64 2285
1475.72 1250.09 2295
1481.2 1250.09 2295
1486.69 1250.09 2295
1496.08 1253.36 2301
1501.58 1253.36 2301
1507.09 1253.36 2301
1512.59 1253.36 2301
1509.51 1246.27 2288
1514.99 1246.27 2288
1525.11 1250.09 2295
1530.6 1250.09 2295
1536.09 1250.09 2295
1541.57 1250.09 2295
1547.06 1250.09 2295
1552.55 1250.09 2295
1556 1248.45 2292
1544.45 1234.84 2267
1549.87 1234.84 2267
1536.08 1219.58 2239
1517.34 1200.52 2204
1510.18 1190.72 2186
1519.56 1193.98 2192
1528.98 1197.25 2198
1534.23 1197.25 2198
1539.49 1197.25 2198
1544.75 1197.25 2198
1550 1197.25 2198
1555.26 1197.25 2198
1552 1190.72 2186
1563.63 1195.62 2195
1568.88 1195.62 2195
1574.13 1195.62 2195
1579.38 1195.62 2195
1582.46 1193.98 2192
1587.71 1193.98 2192
1587.13 1189.63 2184
1590.17 1187.99 2181
1610.01 1198.89 2201
1627.75 1208.15 2218
1655.15 1224.49 2248
1660.52 1224.49 2248
1670.34 1227.76 2254
1680.94 1231.57 2261
1686.34 1231.57 2261
1691.75 1231.57 2261
1701.66 1234.84 2267
1709.34 1236.47 2270
1719.3 1239.74 2276
1724.74 1239.74 2276
1734.75 1243.01 2282
1742.49 1244.64 2285
1747.96 1244.64 2285
-1708.59 1248.47 2282
-1705.37 1250.11 2285
-1699.91 1250.11 2285
-1694.44 1250.11 2285
-1688.98 1250.11 2285
-1683.51 1250.11 2285
-1675.85 1248.47 2282
-1670.39 1248.47 2282
-1517.48 1200.88 2195
-1512.23 1200.88 2195
-1509.04 1202.52 2198
-1540.04 1231.51 2251
-1534.66 1231.51 2251
-1544.22 1243.55 2273
-1542.85 1246.83 2279
-1543.47 1251.76 2288
-1538 1251.76 2288
-1537.22 1255.59 2295
-1539.74 1262.15 2307
-1534.22 1262.15 2307
-1528.7 1262.15 2307
-1523.19 1262.15 2307
-1509.78 1255.59 2295
-1504.29 1255.59 2295
-1492.27 1250.11 2285
-1471.19 1236.98 2261
-1457.36 1229.87 2248
-1466.19 1241.91 2270
-1468.48 1248.47 2282
-1463.03 1248.47 2282
-1461.4 1251.76 2288
-1455.93 1251.76 2288
-1450.46 1251.76 2288
-1444.99 1251.76 2288
-1439.52 1251.76 2288
-1436.55 1253.94 2292
-1432.94 1255.59 2295
-1427.46 1255.59 2295
-1423.83 1257.23 2298
-1418.33 1257.23 2298
-1412.84 1257.23 2298
-1405.5 1255.59 2295
-1393.92 1250.11 2285
-1384.81 1246.83 2279
-1379.36 1246.83 2279
-1366.67 1240.27 2267
-1376.26 1253.94 2292
-1377.96 1260.51 2304
-1386.15 1273.09 2327
-1380.59 1273.09 2327
-1375.02 1273.09 2327
-1371.22 1274.73 2330
-1365.65 1274.73 2330
-1360.08 1274.73 2330
-1360.32 1280.2 2340
-1366.3 1291.15 2360
-1360.66 1291.15 2360
-1355.02 1291.15 2360
-1349.37 1291.15 2360
-1332.34 1280.2 2340
-1326.75 1280.2 2340
-1319.46 1278.56 2337
-1313.87 1278.56 2337
-1311.64 1281.85 2343
-1306.04 1281.85 2343
-1300.43 1281.85 2343
-1294.83 1281.85 2343
-1289.23 1281.85 2343
-1283.62 1281.85 2343
-1270.93 1274.73 2330
-1259.93 1269.26 2320
-1251.14 1265.98 2314
-1245.6 1265.98 2314
-1226.14 1251.76 2288
-1211.06 1241.91 2270
-1204.04 1240.27 2267
-1198.62 1240.27 2267
-1184.78 1231.51 2251
-1179.39 1231.51 2251
-1158.36 1215.1 2221
-1162.4 1224.95 2239
-1157.04 1224.95 2239
-1164.55 1238.63 2264
-1159.14 1238.63 2264
-1156.78 1241.91 2270
-1151.35 1241.91 2270
-1157.03 1253.94 2292
-1151.55 1253.94 2292
-1146.07 1253.94 2292
-1140.59 1253.94 2292
-1113.31 1229.87 2248
-1089.21 1209.08 2210
-1085.4 1210.72 2213
-1086.94 1218.38 2227
-1081.61 1218.38 2227
-1094.17 1238.63 2264
-1094.53 1245.19 2276
-1089.08 1245.19 2276
-1083.64 1245.19 2276
-1078.2 1245.19 2276
-1075.58 1248.47 2282
-1072.94 1251.76 2288
-1067.47 1251.76 2288
-1062 1251.76 2288
-1056.53 1251.76 2288
-1051.05 1251.76 2288
-1044.21 1250.11 2285
-1033.29 1243.55 2273
-1025.14 1240.27 2267
-1022.42 1243.55 2273
-1016.99 1243.55 2273
-1011.55 1243.55 2273
-1006.12 1243.55 2273
-1000.68 1243.55 2273
-995.245 1243.55 2273
-987.196 1240.27 2267
-981.775 1240.27 2267
-976.354 1240.27 2267
-970.933 1240.27 2267
-965.512 1240.27 2267
-960.091 1240.27 2267
-954.67 1240.27 2267
-949.249 1240.27 2267
-943.828 1240.27 2267
-938.407 1240.27 2267
-932.986 1240.27 2267
-927.565 1240.27 2267
-924.584 1243.55 2273
-922.788 1248.47 2282
-917.331 1248.47 2282
-911.874 1248.47 2282
-905.226 1246.83 2279
-899.776 1246.83 2279
-894.326 1246.83 2279
-886.536 1243.55 2273
-881.101 1243.55 2273
-875.665 1243.55 2273
-870.23 1243.55 2273
-864.794 1243.55 2273
-861.627 1246.83 2279
-857.305 1248.47 2282
-855.581 1253.94 2292
-850.1 1253.94 2292
-845.724 1255.59 2295
-840.236 1255.59 2295
-834.748 1255.59 2295
-829.26 1255.59 2295
-820.183 1250.11 2285
-814.719 1250.11 2285
-808.192 1248.47 2282
-802.735 1248.47 2282
-797.278 1248.47 2282
-790.78 1246.83 2279
-783.263 1243.55 2273
-777.827 1243.55 2273
-772.392 1243.55 2273
-773.368 1253.94 2292
-779.613 1273.09 2327
-774.048 1273.09 2327
-768.484 1273.09 2327
-553.949 1005.02 1837
-549.556 1005.02 1837
-545.163 1005.02 1837
-539.593 1002.83 1833
-535.21 1002.83 1833
-530.826 1002.83 1833
-525.294 1000.64 1829
-520.921 1000.64 1829
-515.982 999.544 1827
-512.173 1000.64 1829
-508.355 1001.73 1831
-503.976 1001.73 1831
-500.144 1002.83 1833
-495.76 1002.83 1833
-491.377 1002.83 1833
-486.994 1002.83 1833
-483.137 1003.92 1835
-479.271 1005.02 1837
-475.395 1006.11 1839
-470.997 1006.11 1839
-466.6 1006.11 1839
-462.202 1006.11 1839
-457.805 1006.11 1839
-453.407 1006.11 1839
-449.009 1006.11 1839
-444.612 1006.11 1839
-440.693 1007.2 1841
-436.291 1007.2 1841
-431.888 1007.2 1841
-427.486 1007.2 1841
-423.083 1007.2 1841
-418.681 1007.2 1841
-413.829 1006.11 1839
-409.431 1006.11 1839
-405.033 1006.11 1839
-400.636 1006.11 1839
-396.238 1006.11 1839
-391.841 1006.11 1839
-387.443 1006.11 1839
-383.045 1006.11 1839
-378.236 1005.02 1837
-372.622 1001.73 1831
-368.244 1001.73 1831
-363.865 1001.73 1831
-358.309 998.45 1825
-353.557 997.356 1823
-349.197 997.356 1823
-344.838 997.356 1823
-339.732 995.168 1819
-335.013 994.073 1817
-329.576 990.791 1811
-325.245 990.791 1811
-320.915 990.791 1811
-315.885 988.603 1807
-310.702 985.867 1802
-306.393 985.867 1802
-301.748 984.773 1800
-296.122 980.396 1792
-291.185 978.208 1788
-286.91 978.208 1788
-282.002 976.019 1784
-277.424 974.925 1782
-273.469 976.019 1784
-269.505 977.114 1786
-265.234 977.114 1786
-261.548 979.302 1790
-257.555 980.396 1792
-254.4 984.773 1800
-250.096 984.773 1800
-246.338 986.961 1804
-242.158 987.508 1805
-237.842 987.508 1805
-233.526 987.508 1805
-229.463 988.603 1807
-225.142 988.603 1807
-220.821 988.603 1807
-216.74 989.697 1809
-212.414 989.697 1809
-208.548 991.885 1813
-204.888 995.168 1819
-200.98 997.356 1823
-196.62 997.356 1823
-192.261 997.356 1823
-187.902 997.356 1823
-183.542 997.356 1823
-197.013 1248.47 2282
-191.556 1248.47 2282
-186.589 1251.76 2288
-181.117 1251.76 2288
-175.646 1251.76 2288
-170.175 1251.76 2288
-164.703 1251.76 2288
-159.023 1250.11 2285
-153.559 1250.11 2285
-148.095 1250.11 2285
-143.068 1253.94 2292
-138.127 1258.87 2301
-132.798 1260.51 2304
-127.288 1260.51 2304
-121.779 1260.51 2304
-116.421 1262.15 2307
-111.096 1264.34 2311
-105.57 1264.34 2311
-100.173 1265.98 2314
-94.6399 1265.98 2314
-89.1064 1265.98 2314
-83.4646 1264.34 2311
-77.9383 1264.34 2311
-72.1926 1260.51 2304
-66.6831 1260.51 2304
-61.0938 1258.87 2301
-55.374 1253.94 2292
-49.6755 1248.47 2282
-44.3348 1251.76 2288
-38.9824 1255.59 2295
-33.4943 1255.59 2295
-28.0063 1255.59 2295
-22.4888 1253.94 2292
-17.0079 1253.94 2292
-11.4768 1248.47 2282
-6.00401 1245.19 2276
-0.561402 1245.19 2276
4.8812 1245.19 2276
10.2966 1241.91 2270
15.7041 1240.27 2267
21.1252 1240.27 2267
26.5462 1240.27 2267
31.9673 1240.27 2267
37.3884 1240.27 2267
42.8661 1241.91 2270
48.2944 1241.91 2270
53.7227 1241.91 2270
59.2291 1243.55 2273
64.6645 1243.55 2273
70.1 1243.55 2273
75.4357 1241.91 2270
80.7571 1240.27 2267
86.0641 1238.63 2264
91.478 1238.63 2264
96.7635 1236.98 2261
102.17 1236.98 2261
107.387 1234.8 2257
112.784 1234.8 2257
118.181 1234.8 2257
123.578 1234.8 2257
129.204 1236.98 2261
134.968 1240.27 2267
140.389 1240.27 2267
145.81 1240.27 2267
151.231 1240.27 2267
156.652 1240.27 2267
162.073 1240.27 2267
167.494 1240.27 2267
172.687 1238.63 2264
178.337 1240.27 2267
184.487 1245.19 2276
189.93 1245.19 2276
195.372 1245.19 2276
201.344 1248.47 2282
206.801 1248.47 2282
212.258 1248.47 2282
217.715 1248.47 2282
223.172 1248.47 2282
228.629 1248.47 2282
234.086 1248.47 2282
239.858 1250.11 2285
245.322 1250.11 2285
250.786 1250.11 2285
256.25 1250.11 2285
261.715 1250.11 2285
267.529 1251.76 2288
273.478 1253.94 2292
278.959 1253.94 2292
284.44 1253.94 2292
290.68 1257.23 2298
296.175 1257.23 2298
301.67 1257.23 2298
307.165 1257.23 2298
312.66 1257.23 2298
318.156 1257.23 2298
323.651 1257.23 2298
329.146 1257.23 2298
335.515 1260.51 2304
342.061 1264.34 2311
347.587 1264.34 2311
353.113 1264.34 2311
358.64 1264.34 2311
364.166 1264.34 2311
369.692 1264.34 2311
375.218 1264.34 2311
379.591 1260.51 2304
385.101 1260.51 2304
390.611 1260.51 2304
396.12 1260.51 2304
401.63 1260.51 2304
406.079 1257.23 2298
412.112 1258.87 2301
418.703 1262.15 2307
424.22 1262.15 2307
429.736 1262.15 2307
435.253 1262.15 2307
440.77 1262.15 2307
446.287 1262.15 2307
450.628 1258.87 2301
455.536 1257.23 2298
461.031 1257.23 2298
466.526 1257.23 2298
472.638 1258.87 2301
478.14 1258.87 2301
484.273 1260.51 2304
489.783 1260.51 2304
495.937 1262.15 2307
501.454 1262.15 2307
507.85 1264.34 2311
513.376 1264.34 2311
518.902 1264.34 2311
524.429 1264.34 2311
529.955 1264.34 2311
535.481 1264.34 2311
539.369 1260.51 2304
543.459 1257.23 2298
547.521 1253.94 2292
553.002 1253.94 2292
556.046 1248.47 2282
560.765 1246.83 2279
566.96 1248.47 2282
572.417 1248.47 2282
577.874 1248.47 2282
583.331 1248.47 2282
588.014 1246.83 2279
593.464 1246.83 2279
598.125 1245.19 2276
601.977 1241.91 2270
606.602 1240.27 2267
612.023 1240.27 2267
617.444 1240.27 2267
621.217 1236.98 2261
625.515 1234.8 2257
630.912 1234.8 2257
632.081 1226.59 2242
637.442 1226.59 2242
647.104 1234.8 2257
653.657 1236.98 2261
659.064 1236.98 2261
664.471 1236.98 2261
670.766 1238.63 2264
679.764 1245.19 2276
685.207 1245.19 2276
690.65 1245.19 2276
696.092 1245.19 2276
701.535 1245.19 2276
706.977 1245.19 2276
712.42 1245.19 2276
719.755 1248.47 2282
726.165 1250.11 2285
734.831 1255.59 2295
740.319 1255.59 2295
745.807 1255.59 2295
752.278 1257.23 2298
758.762 1258.87 2301
764.264 1258.87 2301
770.77 1260.51 2304
778.638 1264.34 2311
784.165 1264.34 2311
790.716 1265.98 2314
796.25 1265.98 2314
801.783 1265.98 2314
806.27 1264.34 2311
811.796 1264.34 2311
815.908 1262.15 2307
816.084 1253.94 2292
815.829 1245.19 2276
821.272 1245.19 2276
826.715 1245.19 2276
834.351 1248.47 2282
840.912 1250.11 2285
846.376 1250.11 2285
851.84 1250.11 2285
857.304 1250.11 2285
861.636 1248.47 2282
867.093 1248.47 2282
871.403 1246.83 2279
876.852 1246.83 2279
881.141 1245.19 2276
886.583 1245.19 2276
890.85 1243.55 2273
893.92 1240.27 2267
896.961 1236.98 2261
899.574 1233.15 2254
904.964 1233.15 2254
909.142 1231.51 2251
922.244 1241.91 2270
927.672 1241.91 2270
933.1 1241.91 2270
938.529 1241.91 2270
941.462 1238.63 2264
945.621 1236.98 2261
951.028 1236.98 2261
956.435 1236.98 2261
961.841 1236.98 2261
964.254 1233.15 2254
969.643 1233.15 2254
975.034 1233.15 2254
980.424 1233.15 2254
984.501 1231.51 2251
989.884 1231.51 2251
996.594 1233.15 2254
1001.98 1233.15 2254
1013.18 1240.27 2267
1018.6 1240.27 2267
1024.03 1240.27 2267
1029.45 1240.27 2267
1036.24 1241.91 2270
1041.67 1241.91 2270
1047.09 1241.91 2270
1052.52 1241.91 2270
1059.35 1243.55 2273
1064.78 1243.55 2273
1070.22 1243.55 2273
1074.24 1241.91 2270
1073.48 1234.8 2257
1071.71 1226.59 2242
1077.07 1226.59 2242
1075.19 1218.38 2227
1077.6 1215.1 2221
1076.09 1207.44 2207
1081.36 1207.44 2207
1086.64 1207.44 2207
1091.92 1207.44 2207
1094.21 1204.16 2201
1099.48 1204.16 2201
1104.74 1204.16 2201
1110 1204.16 2201
1115.27 1204.16 2201
1120.53 1204.16 2201
1125.79 1204.16 2201
1132.6 1205.8 2204
1137.87 1205.8 2204
1144.7 1207.44 2207
1149.97 1207.44 2207
1155.25 1207.44 2207
1158.95 1205.8 2204
1164.22 1205.8 2204
1178.51 1215.1 2221
1183.82 1215.1 2221
1189.14 1215.1 2221
1196.06 1216.74 2224
1201.38 1216.74 2224
1206.7 1216.74 2224
1202.75 1207.44 2207
1209.67 1209.08 2210
1214.95 1209.08 2210
1220.24 1209.08 2210
1223.86 1207.44 2207
1227.47 1205.8 2204
1224.35 1197.59 2189
1229.58 1197.59 2189
1226.92 1189.93 2175
1228.72 1186.65 2169
1232.77 1185.56 2167
1232.81 1180.63 2158
1239.69 1182.27 2161
1244.86 1182.27 2161
1250.03 1182.27 2161
1255.2 1182.27 2161
1260.36 1182.27 2161
1263.77 1180.63 2158
1267.17 1178.99 2155
1285.9 1191.58 2178
1295.85 1195.95 2186
1301.08 1195.95 2186
1306.31 1195.95 2186
1311.54 1195.95 2186
1316.76 1195.95 2186
1331.06 1204.16 2201
1336.32 1204.16 2201
1348.9 1210.72 2213
1354.19 1210.72 2213
1359.49 1210.72 2213
1362.93 1209.08 2210
1358.93 1200.88 2195
1366.04 1202.52 2198
1376.91 1207.44 2207
1382.19 1207.44 2207
1398.15 1216.74 2224
1403.47 1216.74 2224
1422.09 1228.23 2245
1427.46 1228.23 2245
1443.04 1236.98 2261
1450.37 1238.63 2264
1457.71 1240.27 2267
1463.13 1240.27 2267
1468.55 1240.27 2267
1483.73 1248.47 2282
1489.19 1248.47 2282
1494.64 1248.47 2282
1502.07 1250.11 2285
1507.54 1250.11 2285
1513 1250.11 2285
1518.46 1250.11 2285
1523.93 1250.11 2285
1531.4 1251.76 2288
1539.56 1253.94 2292
1545.04 1253.94 2292
1550.52 1253.94 2292
1551.25 1250.11 2285
1527.42 1226.59 2242
1532.78 1226.59 2242
1521.68 1213.46 2218
1507.01 1197.59 2189
1500.5 1188.29 2172
1509.86 1191.58 2178
1526.89 1200.88 2195
1532.14 1200.88 2195
1537.39 1200.88 2195
1542.64 1200.88 2195
1547.89 1200.88 2195
1543.23 1193.22 2181
1544.19 1189.93 2175
1553.66 1193.22 2181
1562.45 1195.95 2186
1567.68 1195.95 2186
1572.9 1195.95 2186
1578.13 1195.95 2186
1583.36 1195.95 2186
1582.77 1191.58 2178
1587.98 1191.58 2178
1610.01 1204.16 2201
1627.75 1213.46 2218
1655.15 1229.87 2248
1660.52 1229.87 2248
1670.34 1233.15 2254
1675.73 1233.15 2254
1681.12 1233.15 2254
1686.51 1233.15 2254
1697.16 1236.98 2261
1707.08 1240.27 2267
1719.3 1245.19 2276
1724.74 1245.19 2276
1737.03 1250.11 2285
1742.49 1250.11 2285
1747.96 1250.11 2285
-1704.1 1250.64 2276
-1700.89 1252.29 2279
-1695.44 1252.29 2279
-1689.99 1252.29 2279
-1684.54 1252.29 2279
-1679.09 1252.29 2279
-1671.44 1250.64 2276
-1666 1250.64 2276
-1660.56 1250.64 2276
-1517.48 1206.13 2195
-1512.23 1206.13 2195
-1509.04 1207.78 2198
-1540.04 1236.91 2251
-1534.66 1236.91 2251
-1540.15 1245.7 2267
-1536.76 1247.35 2270
-1535.38 1250.64 2276
-1529.93 1250.64 2276
-1532.53 1257.24 2288
-1531.73 1261.08 2295
-1528.24 1262.73 2298
-1522.74 1262.73 2298
-1517.25 1262.73 2298
-1507.8 1259.43 2292
-1502.32 1259.43 2292
-1488.35 1252.29 2279
-1468.59 1240.2 2257
-1451.52 1230.31 2239
-1466.19 1247.35 2270
-1468.48 1253.94 2282
-1463.03 1253.94 2282
-1461.4 1257.24 2288
-1455.93 1257.24 2288
-1450.46 1257.24 2288
-1444.99 1257.24 2288
-1439.52 1257.24 2288
-1436.55 1259.43 2292
-1431.07 1259.43 2292
-1425.59 1259.43 2292
-1423.83 1262.73 2298
-1418.33 1262.73 2298
-1412.84 1262.73 2298
-1403.67 1259.43 2292
-1392.09 1253.94 2282
-1384.81 1252.29 2279
-1379.36 1252.29 2279
-1366.67 1245.7 2267
-1373.86 1257.24 2288
-1377.96 1266.03 2304
-1386.15 1278.67 2327
-1380.59 1278.67 2327
-1375.02 1278.67 2327
-1369.46 1278.67 2327
-1365.65 1280.32 2330
-1360.08 1280.32 2330
-1360.32 1285.81 2340
-1362.25 1292.95 2353
-1356.62 1292.95 2353
-1351 1292.95 2353
-1341.37 1289.11 2346
-1332.34 1285.81 2340
-1326.75 1285.81 2340
-1319.46 1284.16 2337
-1313.87 1284.16 2337
-1309.96 1285.81 2340
-1304.36 1285.81 2340
-1298.77 1285.81 2340
-1293.17 1285.81 2340
-1283.72 1281.96 2333
-1278.15 1281.96 2333
-1270.93 1280.32 2330
-1258.3 1273.17 2317
-1245.73 1266.03 2304
-1240.22 1266.03 2304
-1226.14 1257.24 2288
-1211.06 1247.35 2270
-1202.45 1244.05 2264
-1197.03 1244.05 2264
-1183.2 1235.26 2248
-1176.25 1233.61 2245
-1158.36 1220.42 2221
-1162.4 1230.31 2239
-1157.04 1230.31 2239
-1164.55 1244.05 2264
-1159.14 1244.05 2264
-1156.78 1247.35 2270
-1151.35 1247.35 2270
-1150.47 1252.29 2279
-1145.02 1252.29 2279
-1139.57 1252.29 2279
-1129.64 1247.35 2270
-1113.31 1235.26 2248
-1089.21 1214.38 2210
-1085.4 1216.02 2213
-1086.94 1223.72 2227
-1081.61 1223.72 2227
-1094.17 1244.05 2264
-1094.53 1250.64 2276
-1089.08 1250.64 2276
-1083.64 1250.64 2276
-1078.2 1250.64 2276
-1075.58 1253.94 2282
-1072.94 1257.24 2288
-1067.47 1257.24 2288
-1062 1257.24 2288
-1056.53 1257.24 2288
-1051.05 1257.24 2288
-1044.21 1255.59 2285
-1033.29 1248.99 2273
-1025.14 1245.7 2267
-1022.42 1248.99 2273
-1016.99 1248.99 2273
-1011.55 1248.99 2273
-1006.12 1248.99 2273
-1000.68 1248.99 2273
-995.245 1248.99 2273
-987.196 1245.7 2267
-981.775 1245.7 2267
-976.354 1245.7 2267
-970.933 1245.7 2267
-965.512 1245.7 2267
-960.091 1245.7 2267
-954.67 1245.7 2267
-949.249 1245.7 2267
-943.828 1245.7 2267
-938.407 1245.7 2267
-932.986 1245.7 2267
-927.565 1245.7 2267
-924.584 1248.99 2273
-922.788 1253.94 2282
-917.331 1253.94 2282
-911.874 1253.94 2282
-905.226 1252.29 2279
-899.776 1252.29 2279
-894.326 1252.29 2279
-886.536 1248.99 2273
-881.101 1248.99 2273
-875.665 1248.99 2273
-870.23 1248.99 2273
-864.794 1248.99 2273
-861.627 1252.29 2279
-857.305 1253.94 2282
-855.581 1259.43 2292
-850.1 1259.43 2292
-845.724 1261.08 2295
-840.236 1261.08 2295
-834.748 1261.08 2295
-829.26 1261.08 2295
-820.183 1255.59 2285
-814.719 1255.59 2285
-808.192 1253.94 2282
-802.735 1253.94 2282
-797.278 1253.94 2282
-790.78 1252.29 2279
-783.263 1248.99 2273
-777.827 1248.99 2273
-772.392 1248.99 2273
-773.368 1259.43 2292
-779.613 1278.67 2327
-774.048 1278.67 2327
-768.484 1278.67 2327
-733.084 1228.66 2236
-723.832 1222.07 2224
-718.513 1222.07 2224
-711.271 1218.77 2218
-553.949 1009.42 1837
-549.556 1009.42 1837
-545.163 1009.42 1837
-539.593 1007.22 1833
-535.21 1007.22 1833
-530.826 1007.22 1833
-525.294 1005.02 1829
-520.921 1005.02 1829
-515.982 1003.92 1827
-512.173 1005.02 1829
-508.355 1006.12 1831
-503.976 1006.12 1831
-500.144 1007.22 1833
-495.76 1007.22 1833
-491.377 1007.22 1833
-486.994 1007.22 1833
-483.137 1008.32 1835
-479.271 1009.42 1837
-475.395 1010.51 1839
-470.997 1010.51 1839
-466.6 1010.51 1839
-461.7 1009.42 1837
-457.307 1009.42 1837
-452.914 1009.42 1837
-449.009 1010.51 1839
-444.612 1010.51 1839
-440.214 1010.51 1839
-435.817 1010.51 1839
-431.419 1010.51 1839
-427.486 1011.61 1841
-423.083 1011.61 1841
-418.681 1011.61 1841
-413.829 1010.51 1839
-409.431 1010.51 1839
-405.033 1010.51 1839
-400.636 1010.51 1839
-396.238 1010.51 1839
-391.841 1010.51 1839
-387.443 1010.51 1839
-383.045 1010.51 1839
-378.236 1009.42 1837
-372.622 1006.12 1831
-368.244 1006.12 1831
-363.865 1006.12 1831
-357.916 1001.72 1823
-353.557 1001.72 1823
-349.197 1001.72 1823
-344.838 1001.72 1823
-339.358 998.426 1817
-335.013 998.426 1817
-329.576 995.129 1811
-325.245 995.129 1811
-320.915 995.129 1811
-315.885 992.931 1807
-310.702 990.184 1802
-306.393 990.184 1802
-301.748 989.085 1800
-296.122 984.689 1792
-291.185 982.491 1788
-286.91 982.491 1788
-282.002 980.293 1784
-277.113 978.095 1780
-273.469 980.293 1784
-269.807 982.491 1788
-265.531 982.491 1788
-261.84 984.689 1792
-257.842 985.788 1794
-254.683 990.184 1802
-250.374 990.184 1802
-246.474 991.832 1805
-242.158 991.832 1805
-237.842 991.832 1805
-233.526 991.832 1805
-229.463 992.931 1807
-225.142 992.931 1807
-221.065 994.03 1809
-216.979 995.129 1811
-212.649 995.129 1811
-208.548 996.228 1813
-204.888 999.525 1819
-200.98 1001.72 1823
-196.62 1001.72 1823
-192.261 1001.72 1823
-187.902 1001.72 1823
-183.542 1001.72 1823
-197.013 1253.94 2282
-191.556 1253.94 2282
-186.589 1257.24 2288
-181.117 1257.24 2288
-175.646 1257.24 2288
-169.728 1253.94 2282
-164.271 1253.94 2282
-158.815 1253.94 2282
-153.559 1255.59 2285
-148.095 1255.59 2285
-142.631 1255.59 2285
-137.587 1259.43 2292
-132.625 1264.38 2301
-127.123 1264.38 2301
-121.62 1264.38 2301
-116.118 1264.38 2301
-110.615 1264.38 2301
-105.113 1264.38 2301
-99.4807 1262.73 2298
-93.9855 1262.73 2298
-88.4903 1262.73 2298
-82.8867 1261.08 2295
-77.2975 1259.43 2292
-71.8166 1259.43 2292
-66.3357 1259.43 2292
-60.7487 1257.24 2288
-54.8425 1247.35 2270
-49.0659 1238.55 2254
-43.8697 1244.05 2264
-38.5577 1247.35 2270
-33.1295 1247.35 2270
-27.7012 1247.35 2270
-22.273 1247.35 2270
-16.8447 1247.35 2270
-11.4164 1247.35 2270
-5.95389 1240.2 2257
-0.555235 1236.91 2251
4.82759 1236.91 2251
10.1968 1235.26 2248
15.5932 1236.91 2251
20.9761 1236.91 2251
26.3589 1236.91 2251
31.7417 1236.91 2251
37.2235 1240.2 2257
42.6207 1240.2 2257
48.0178 1240.2 2257
53.415 1240.2 2257
59.1509 1247.35 2270
64.5792 1247.35 2270
70.0074 1247.35 2270
75.336 1245.7 2267
80.7571 1245.7 2267
85.9501 1242.4 2261
91.3568 1242.4 2261
96.7635 1242.4 2261
101.99 1240.2 2257
107.101 1236.91 2251
112.484 1236.91 2251
117.867 1236.91 2251
123.25 1236.91 2251
128.633 1236.91 2251
134.015 1236.91 2251
139.398 1236.91 2251
144.781 1236.91 2251
150.164 1236.91 2251
155.547 1236.91 2251
160.929 1236.91 2251
166.312 1236.91 2251
171.924 1238.55 2254
177.55 1240.2 2257
183.515 1244.05 2264
188.928 1244.05 2264
194.342 1244.05 2264
200.021 1245.7 2267
205.442 1245.7 2267
210.863 1245.7 2267
216.57 1247.35 2270
222.292 1248.99 2273
227.727 1248.99 2273
233.163 1248.99 2273
238.913 1250.64 2276
244.356 1250.64 2276
249.798 1250.64 2276
255.241 1250.64 2276
260.684 1250.64 2276
266.828 1253.94 2282
272.285 1253.94 2282
277.742 1253.94 2282
283.199 1253.94 2282
289.035 1255.59 2285
294.499 1255.59 2285
299.963 1255.59 2285
305.428 1255.59 2285
310.892 1255.59 2285
316.356 1255.59 2285
322.242 1257.24 2288
327.714 1257.24 2288
334.204 1261.08 2295
339.692 1261.08 2295
345.632 1262.73 2298
351.127 1262.73 2298
357.088 1264.38 2301
362.59 1264.38 2301
368.092 1264.38 2301
373.108 1262.73 2298
378.603 1262.73 2298
384.098 1262.73 2298
389.593 1262.73 2298
394.573 1261.08 2295
400.061 1261.08 2295
405.549 1261.08 2295
411.574 1262.73 2298
417.614 1264.38 2301
423.116 1264.38 2301
428.619 1264.38 2301
434.121 1264.38 2301
439.624 1264.38 2301
445.126 1264.38 2301
450.041 1262.73 2298
454.347 1259.43 2292
459.827 1259.43 2292
465.308 1259.43 2292
470.789 1259.43 2292
476.27 1259.43 2292
483.012 1262.73 2298
488.507 1262.73 2298
494.002 1262.73 2298
500.802 1266.03 2304
507.85 1269.88 2311
513.376 1269.88 2311
518.902 1269.88 2311
523.521 1267.68 2307
529.038 1267.68 2307
533.859 1266.03 2304
538.667 1264.38 2301
542.75 1261.08 2295
546.566 1257.24 2288
552.037 1257.24 2288
556.046 1253.94 2282
560.765 1252.29 2279
566.215 1252.29 2279
571.665 1252.29 2279
577.115 1252.29 2279
582.564 1252.29 2279
588.014 1252.29 2279
593.464 1252.29 2279
597.337 1248.99 2273
601.977 1247.35 2270
606.602 1245.7 2267
612.023 1245.7 2267
617.444 1245.7 2267
621.217 1242.4 2261
622.189 1233.61 2245
627.558 1233.61 2245
631.235 1230.31 2239
634.883 1227.01 2233
640.223 1227.01 2233
645.563 1227.01 2233
650.902 1227.01 2233
656.242 1227.01 2233
666.915 1236.91 2251
674.09 1240.2 2257
679.487 1240.2 2257
684.884 1240.2 2257
692.422 1244.05 2264
697.836 1244.05 2264
703.25 1244.05 2264
708.664 1244.05 2264
715.97 1247.35 2270
722.352 1248.99 2273
730.669 1253.94 2282
736.126 1253.94 2282
741.583 1253.94 2282
748.022 1255.59 2285
755.794 1259.43 2292
761.275 1259.43 2292
768.763 1262.73 2298
776.28 1266.03 2304
781.79 1266.03 2304
788.324 1267.68 2307
793.841 1267.68 2307
799.358 1267.68 2307
804.874 1267.68 2307
810.391 1267.68 2307
811.664 1261.08 2295
816.084 1259.43 2292
814.754 1248.99 2273
821.272 1250.64 2276
826.715 1250.64 2276
834.351 1253.94 2282
840.912 1255.59 2285
846.376 1255.59 2285
851.84 1255.59 2285
856.179 1253.94 2282
860.503 1252.29 2279
865.953 1252.29 2279
871.403 1252.29 2279
876.852 1252.29 2279
881.141 1250.64 2276
886.583 1250.64 2276
888.499 1245.7 2267
892.737 1244.05 2264
895.374 1240.2 2257
898.376 1236.91 2251
903.759 1236.91 2251
907.93 1235.26 2248
921.025 1245.7 2267
926.446 1245.7 2267
931.867 1245.7 2267
937.288 1245.7 2267
941.462 1244.05 2264
942.694 1238.55 2254
948.084 1238.55 2254
953.474 1238.55 2254
958.864 1238.55 2254
964.254 1238.55 2254
969.643 1238.55 2254
975.034 1238.55 2254
980.424 1238.55 2254
984.501 1236.91 2251
989.884 1236.91 2251
996.594 1238.55 2254
1001.98 1238.55 2254
1013.18 1245.7 2267
1018.6 1245.7 2267
1024.03 1245.7 2267
1029.45 1245.7 2267
1036.24 1247.35 2270
1041.67 1247.35 2270
1047.09 1247.35 2270
1052.52 1247.35 2270
1059.35 1248.99 2273
1064.78 1248.99 2273
1070.22 1248.99 2273
1074.24 1247.35 2270
1073.48 1240.2 2257
1071.71 1231.96 2242
1077.07 1231.96 2242
1075.19 1223.72 2227
1077.6 1220.42 2221
1076.09 1212.73 2207
1081.36 1212.73 2207
1086.64 1212.73 2207
1091.92 1212.73 2207
1094.21 1209.43 2201
1099.48 1209.43 2201
1104.74 1209.43 2201
1110 1209.43 2201
1115.27 1209.43 2201
1120.53 1209.43 2201
1125.79 1209.43 2201
1132.6 1211.08 2204
1137.87 1211.08 2204
1144.7 1212.73 2207
1149.97 1212.73 2207
1155.25 1212.73 2207
1158.95 1211.08 2204
1164.22 1211.08 2204
1178.51 1220.42 2221
1183.82 1220.42 2221
1189.14 1220.42 2221
1196.06 1222.07 2224
1201.38 1222.07 2224
1206.7 1222.07 2224
1202.75 1212.73 2207
1209.67 1214.38 2210
1214.95 1214.38 2210
1220.24 1214.38 2210
1223.86 1212.73 2207
1227.47 1211.08 2204
1224.35 1202.84 2189
1229.58 1202.84 2189
1226.92 1195.14 2175
1228.72 1191.85 2169
1232.77 1190.75 2167
1232.81 1185.8 2158
1239.69 1187.45 2161
1244.86 1187.45 2161
1250.03 1187.45 2161
1255.2 1187.45 2161
1260.36 1187.45 2161
1263.77 1185.8 2158
1267.17 1184.15 2155
1285.9 1196.79 2178
1295.85 1201.19 2186
1301.08 1201.19 2186
1306.31 1201.19 2186
1311.54 1201.19 2186
1316.76 1201.19 2186
1331.06 1209.43 2201
1336.32 1209.43 2201
1348.9 1216.02 2213
1354.19 1216.02 2213
1359.49 1216.02 2213
1362.93 1214.38 2210
1358.93 1206.13 2195
1366.04 1207.78 2198
1376.91 1212.73 2207
1382.19 1212.73 2207
1398.15 1222.07 2224
1403.47 1222.07 2224
1422.09 1233.61 2245
1427.46 1233.61 2245
1443.04 1242.4 2261
1448.45 1242.4 2261
1453.85 1242.4 2261
1450.87 1235.26 2248
1458.19 1236.91 2251
1472.03 1244.05 2264
1479.4 1245.7 2267
1484.82 1245.7 2267
1496.16 1250.64 2276
1501.6 1250.64 2276
1507.04 1250.64 2276
1512.48 1250.64 2276
1517.93 1250.64 2276
1531.4 1257.24 2288
1536.87 1257.24 2288
1542.34 1257.24 2288
1547.81 1257.24 2288
1549.21 1253.94 2282
1527.42 1231.96 2242
1532.78 1231.96 2242
1521.68 1218.77 2218
1507.01 1202.84 2189
1498.43 1191.85 2169
1509.86 1196.79 2178
1526.89 1206.13 2195
1532.14 1206.13 2195
1537.39 1206.13 2195
1542.64 1206.13 2195
1547.89 1206.13 2195
1541.11 1196.79 2178
1539.93 1191.85 2169
1553.66 1198.44 2181
1562.45 1201.19 2186
1567.68 1201.19 2186
1572.9 1201.19 2186
1578.13 1201.19 2186
1583.36 1201.19 2186
1582.77 1196.79 2178
1587.98 1196.79 2178
1610.01 1209.43 2201
1627.75 1218.77 2218
1655.15 1235.26 2248
1660.52 1235.26 2248
1670.34 1238.55 2254
1675.73 1238.55 2254
1681.12 1238.55 2254
1686.51 1238.55 2254
1697.16 1242.4 2261
1707.08 1245.7 2267
1719.3 1250.64 2276
1724.74 1250.64 2276
1737.03 1255.59 2285
1742.49 1255.59 2285
1747.96 1255.59 2285
-1699.6 1252.78 2270
-1700.89 1257.75 2279
-1695.44 1257.75 2279
-1689.99 1257.75 2279
-1684.54 1257.75 2279
-1676.88 1256.09 2276
-1671.44 1256.09 2276
-1666 1256.09 2276
-1660.56 1256.09 2276
-1648.57 1251.13 2267
-1638.8 1247.82 2261
-1633.39 1247.82 2261
-1517.48 1211.39 2195
-1512.23 1211.39 2195
-1509.04 1213.05 2198
-1514.04 1221.33 2213
-1516.25 1227.4 2224
-1510.93 1227.4 2224
-1521.86 1240.64 2248
-1527.28 1249.47 2264
-1521.87 1249.47 2264
-1526.5 1257.75 2279
-1529.73 1264.93 2292
-1526.24 1266.58 2295
-1520.75 1266.58 2295
-1515.27 1266.58 2295
-1503.2 1261.06 2285
-1497.73 1261.06 2285
-1480.52 1251.13 2267
-1458.83 1237.33 2242
-1451.52 1235.68 2239
-1466.19 1252.78 2270
-1468.48 1259.41 2282
-1463.03 1259.41 2282
-1463.96 1264.93 2292
-1460.38 1266.58 2295
-1454.9 1266.58 2295
-1449.41 1266.58 2295
-1443.92 1266.58 2295
-1436.55 1264.93 2292
-1431.07 1264.93 2292
-1425.59 1264.93 2292
-1420.11 1264.93 2292
-1414.63 1264.93 2292
-1409.15 1264.93 2292
-1397.54 1259.41 2282
-1390.26 1257.75 2279
-1382.98 1256.09 2276
-1377.54 1256.09 2276
-1372.1 1256.09 2276
-1372.06 1261.06 2285
-1377.96 1271.55 2304
-1386.15 1284.24 2327
-1380.59 1284.24 2327
-1375.02 1284.24 2327
-1371.22 1285.9 2330
-1371.51 1291.42 2340
-1365.92 1291.42 2340
-1369.62 1300.25 2356
-1363.99 1300.25 2356
-1358.35 1300.25 2356
-1352.72 1300.25 2356
-1345.37 1298.59 2353
-1332.34 1291.42 2340
-1326.75 1291.42 2340
-1321.15 1291.42 2340
-1315.55 1291.42 2340
-1311.64 1293.07 2343
-1306.04 1293.07 2343
-1300.43 1293.07 2343
-1293.17 1291.42 2340
-1283.72 1287.55 2333
-1278.15 1287.55 2333
-1270.93 1285.9 2330
-1258.3 1278.72 2317
-1245.73 1271.55 2304
-1240.22 1271.55 2304
-1226.14 1262.72 2288
-1214.26 1256.09 2276
-1200.85 1247.82 2261
-1195.45 1247.82 2261
-1178.46 1235.68 2239
-1162.1 1224.09 2218
-1158.36 1225.74 2221
-1162.4 1235.68 2239
-1157.04 1235.68 2239
-1154.78 1238.99 2245
-1159.14 1249.47 2264
-1153.72 1249.47 2264
-1148.31 1249.47 2264
-1142.89 1249.47 2264
-1137.48 1249.47 2264
-1132.07 1249.47 2264
-1109.73 1230.71 2230
-1101.43 1227.4 2224
-1089.21 1219.67 2210
-1085.4 1221.33 2213
-1086.94 1229.05 2227
-1081.61 1229.05 2227
-1087.89 1242.3 2251
-1085.39 1245.61 2257
-1081.9 1247.82 2261
-1076.5 1247.82 2261
-1071.09 1247.82 2261
-1071.34 1254.44 2273
-1067.31 1256.09 2276
-1061.87 1256.09 2276
-1056.43 1256.09 2276
-1050.98 1256.09 2276
-1045.54 1256.09 2276
-1034.62 1249.47 2264
-1024.66 1243.95 2254
-1019.27 1243.95 2254
-1019.72 1251.13 2267
-1014.3 1251.13 2267
-1008.88 1251.13 2267
-1003.46 1251.13 2267
-998.039 1251.13 2267
-991.304 1249.47 2264
-984.584 1247.82 2261
-979.177 1247.82 2261
-973.77 1247.82 2261
-966.65 1245.61 2257
-961.253 1245.61 2257
-957.55 1247.82 2261
-952.143 1247.82 2261
-946.737 1247.82 2261
-942.579 1249.47 2264
-937.165 1249.47 2264
-931.751 1249.47 2264
-925.11 1247.82 2261
-924.584 1254.44 2273
-920.362 1256.09 2276
-914.919 1256.09 2276
-909.477 1256.09 2276
-904.034 1256.09 2276
-897.407 1254.44 2273
-891.971 1254.44 2273
-885.366 1252.78 2270
-879.938 1252.78 2270
-875.665 1254.44 2273
-870.23 1254.44 2273
-864.794 1254.44 2273
-860.493 1256.09 2276
-857.305 1259.41 2282
-854.087 1262.72 2288
-848.616 1262.72 2288
-843.145 1262.72 2288
-837.673 1262.72 2288
-832.202 1262.72 2288
-825.647 1261.06 2285
-818.029 1257.75 2279
-812.579 1257.75 2279
-807.13 1257.75 2279
-801.68 1257.75 2279
-793.086 1252.78 2270
-787.657 1252.78 2270
-777.749 1245.61 2257
-772.352 1245.61 2257
-765.936 1243.95 2254
-756.497 1237.33 2242
-749.125 1234.02 2236
-743.778 1234.02 2236
-738.431 1234.02 2236
-733.084 1234.02 2236
-723.832 1227.4 2224
-718.513 1227.4 2224
-711.271 1224.09 2218
-547.163 1009.4 1829
-542.789 1009.4 1829
-538.415 1009.4 1829
-534.042 1009.4 1829
-529.668 1009.4 1829
-525.294 1009.4 1829
-520.351 1008.3 1827
-515.417 1007.19 1825
-511.613 1008.3 1827
-507.8 1009.4 1829
-503.426 1009.4 1829
-499.598 1010.51 1831
-495.76 1011.61 1833
-491.377 1011.61 1833
-486.994 1011.61 1833
-483.137 1012.71 1835
-479.271 1013.82 1837
-475.395 1014.92 1839
-470.997 1014.92 1839
-466.6 1014.92 1839
-461.7 1013.82 1837
-457.307 1013.82 1837
-452.914 1013.82 1837
-449.009 1014.92 1839
-444.612 1014.92 1839
-440.214 1014.92 1839
-435.817 1014.92 1839
-431.419 1014.92 1839
-427.486 1016.02 1841
-423.083 1016.02 1841
-418.681 1016.02 1841
-413.829 1014.92 1839
-409.431 1014.92 1839
-405.033 1014.92 1839
-400.636 1014.92 1839
-396.238 1014.92 1839
-391.841 1014.92 1839
-387.443 1014.92 1839
-383.045 1014.92 1839
-378.236 1013.82 1837
-372.622 1010.51 1831
-368.244 1010.51 1831
-363.865 1010.51 1831
-357.916 1006.09 1823
-353.557 1006.09 1823
-349.197 1006.09 1823
-344.838 1006.09 1823
-339.358 1002.78 1817
-335.013 1002.78 1817
-329.576 999.467 1811
-325.245 999.467 1811
-320.915 999.467 1811
-315.885 997.26 1807
-310.702 994.5 1802
-306.393 994.5 1802
-301.748 993.397 1800
-296.122 988.982 1792
-291.185 986.774 1788
-286.91 986.774 1788
-282.002 984.567 1784
-277.113 982.359 1780
-273.469 984.567 1784
-269.807 986.774 1788
-265.531 986.774 1788
-261.84 988.982 1792
-257.842 990.085 1794
-254.683 994.5 1802
-250.374 994.5 1802
-246.474 996.156 1805
-242.158 996.156 1805
-237.842 996.156 1805
-233.526 996.156 1805
-229.463 997.26 1807
-225.142 997.26 1807
-221.065 998.364 1809
-217.219 1000.57 1813
-212.883 1000.57 1813
-209.008 1002.78 1817
-205.339 1006.09 1823
-201.2 1007.19 1825
-196.836 1007.19 1825
-192.683 1008.3 1827
-188.314 1008.3 1827
-183.945 1008.3 1827
-198.921 1237.33 2242
-197.013 1259.41 2282
-191.556 1259.41 2282
-186.589 1262.72 2288
-181.117 1262.72 2288
-175.646 1262.72 2288
-169.728 1259.41 2282
-164.271 1259.41 2282
-158.815 1259.41 2282
-153.559 1261.06 2285
-148.095 1261.06 2285
-142.631 1261.06 2285
-137.587 1264.93 2292
-132.625 1269.89 2301
-127.123 1269.89 2301
-121.62 1269.89 2301
-116.118 1269.89 2301
-110.615 1269.89 2301
-105.113 1269.89 2301
-99.4807 1268.24 2298
-93.9855 1268.24 2298
-88.4903 1268.24 2298
-82.3088 1257.75 2279
-76.8591 1257.75 2279
-71.4093 1257.75 2279
-65.9595 1257.75 2279
-60.1911 1251.13 2267
-54.166 1237.33 2242
-48.7394 1235.68 2239
-43.5597 1240.64 2248
-38.3369 1245.61 2257
-32.9397 1245.61 2257
-27.5426 1245.61 2257
-22.1454 1245.61 2257
-16.7482 1245.61 2257
-11.336 1243.95 2254
-5.93806 1242.3 2251
-0.554495 1240.64 2248
4.82115 1240.64 2248
10.1424 1234.02 2236
15.4893 1234.02 2236
20.9481 1240.64 2248
26.3589 1242.3 2251
31.7417 1242.3 2251
37.1245 1242.3 2251
42.6207 1245.61 2257
48.0178 1245.61 2257
53.415 1245.61 2257
58.8122 1245.61 2257
64.3231 1247.82 2261
69.8224 1249.47 2264
75.2363 1249.47 2264
80.6502 1249.47 2264
85.9501 1247.82 2261
91.3568 1247.82 2261
96.3356 1242.3 2251
101.718 1242.3 2251
106.53 1235.68 2239
111.585 1232.36 2233
116.924 1232.36 2233
122.264 1232.36 2233
128.118 1237.33 2242
133.837 1240.64 2248
139.212 1240.64 2248
144.588 1240.64 2248
149.964 1240.64 2248
155.339 1240.64 2248
160.715 1240.64 2248
165.869 1238.99 2245
171.009 1237.33 2242
176.37 1237.33 2242
182.947 1245.61 2257
188.344 1245.61 2257
193.741 1245.61 2257
198.609 1242.3 2251
203.992 1242.3 2251
209.375 1242.3 2251
216.284 1251.13 2267
221.705 1251.13 2267
227.126 1251.13 2267
232.547 1251.13 2267
237.969 1251.13 2267
243.39 1251.13 2267
248.811 1251.13 2267
254.568 1252.78 2270
259.996 1252.78 2270
265.776 1254.44 2273
271.211 1254.44 2273
277.012 1256.09 2276
282.454 1256.09 2276
288.276 1257.75 2279
293.726 1257.75 2279
299.176 1257.75 2279
304.626 1257.75 2279
310.075 1257.75 2279
315.525 1257.75 2279
320.975 1257.75 2279
326.425 1257.75 2279
331.438 1256.09 2276
336.436 1254.44 2273
342.774 1257.75 2279
348.224 1257.75 2279
354.139 1259.41 2282
360.069 1261.06 2285
365.533 1261.06 2285
370.997 1261.06 2285
376.461 1261.06 2285
381.925 1261.06 2285
387.389 1261.06 2285
391.822 1257.75 2279
396.749 1256.09 2276
401.661 1254.44 2273
407.097 1254.44 2273
412.532 1254.44 2273
417.968 1254.44 2273
423.403 1254.44 2273
428.838 1254.44 2273
435.42 1257.75 2279
440.87 1257.75 2279
446.32 1257.75 2279
451.77 1257.75 2279
457.219 1257.75 2279
462.669 1257.75 2279
468.735 1259.41 2282
474.815 1261.06 2285
480.91 1262.72 2288
486.381 1262.72 2288
493.358 1266.58 2295
498.846 1266.58 2295
504.993 1268.24 2298
510.488 1268.24 2298
516.657 1269.89 2301
522.159 1269.89 2301
527.662 1269.89 2301
533.164 1269.89 2301
537.262 1266.58 2295
542.04 1264.93 2292
545.133 1259.41 2282
550.589 1259.41 2282
555.315 1257.75 2279
559.289 1254.44 2273
564.724 1254.44 2273
570.912 1256.09 2276
576.355 1256.09 2276
582.564 1257.75 2279
588.014 1257.75 2279
593.464 1257.75 2279
597.337 1254.44 2273
601.977 1252.78 2270
606.602 1251.13 2267
612.023 1251.13 2267
617.444 1251.13 2267
621.217 1247.82 2261
622.189 1238.99 2245
627.558 1238.99 2245
627.852 1229.05 2227
633.177 1229.05 2227
637.642 1227.4 2224
642.961 1227.4 2224
650.902 1232.36 2233
656.242 1232.36 2233
663.36 1235.68 2239
672.298 1242.3 2251
677.68 1242.3 2251
683.063 1242.3 2251
688.446 1242.3 2251
693.829 1242.3 2251
699.212 1242.3 2251
704.595 1242.3 2251
709.977 1242.3 2251
717.267 1245.61 2257
723.945 1247.82 2261
729.352 1247.82 2261
735.733 1249.47 2264
744.094 1254.44 2273
752.497 1259.41 2282
757.954 1259.41 2282
765.418 1262.72 2288
774.258 1268.24 2298
779.754 1268.24 2298
786.274 1269.89 2301
791.776 1269.89 2301
797.279 1269.89 2301
800.688 1266.58 2295
806.176 1266.58 2295
810.603 1264.93 2292
811.455 1257.75 2279
814.754 1254.44 2273
820.19 1254.44 2273
825.625 1254.44 2273
834.351 1259.41 2282
840.912 1261.06 2285
846.376 1261.06 2285
851.84 1261.06 2285
856.179 1259.41 2282
860.503 1257.75 2279
865.953 1257.75 2279
870.256 1256.09 2276
875.698 1256.09 2276
881.141 1256.09 2276
886.583 1256.09 2276
887.323 1249.47 2264
888.794 1243.95 2254
894.184 1243.95 2254
895.982 1238.99 2245
901.35 1238.99 2245
906.719 1238.99 2245
914.525 1242.3 2251
921.134 1243.95 2254
926.524 1243.95 2254
931.914 1243.95 2254
937.304 1243.95 2254
933.911 1232.36 2233
939.25 1232.36 2233
940.783 1227.4 2224
944.825 1225.74 2221
948.853 1224.09 2218
954.157 1224.09 2218
960.758 1225.74 2221
966.069 1225.74 2221
972.693 1227.4 2224
980.649 1230.71 2230
989.961 1235.68 2239
995.315 1235.68 2239
1003.35 1238.99 2245
1011.42 1242.3 2251
1016.8 1242.3 2251
1022.18 1242.3 2251
1028.93 1243.95 2254
1034.32 1243.95 2254
1039.71 1243.95 2254
1045.1 1243.95 2254
1051.89 1245.61 2257
1057.29 1245.61 2257
1062.69 1245.61 2257
1068.08 1245.61 2257
1066.35 1237.33 2242
1060.23 1224.09 2218
1064.1 1222.43 2215
1069.39 1222.43 2215
1070.81 1218.01 2207
1071.7 1213.05 2198
1074.02 1209.74 2192
1079.26 1209.74 2192
1084.5 1209.74 2192
1085.76 1205.32 2184
1089.49 1203.67 2181
1094.7 1203.67 2181
1099.92 1203.67 2181
1106.65 1205.32 2184
1112.89 1206.43 2186
1118.12 1206.43 2186
1124.89 1208.08 2189
1130.13 1208.08 2189
1135.36 1208.08 2189
1140.59 1208.08 2189
1145.83 1208.08 2189
1151.06 1208.08 2189
1159.47 1211.39 2195
1167.9 1214.7 2201
1173.16 1214.7 2201
1178.43 1214.7 2201
1180.46 1211.39 2195
1185.71 1211.39 2195
1190.96 1211.39 2195
1190.22 1205.32 2184
1206.39 1216.36 2204
