ply
format ascii 1.0
comment File generated
element vertex 2136
property float x
property float y
property float z
end_header
3053 -866.331 3991
-2544.36 -801.17 3732
-2535.43 -801.17 3732
-2526.51 -801.17 3732
-2484.53 -790.651 3683
-2475.72 -790.651 3683
-2439.45 -781.849 3642
-2415.39 -776.912 3619
-2386.12 -770.257 3588
-2372.24 -768.539 3580
-2363.68 -768.539 3580
-2355.12 -768.539 3580
-2356.39 -771.759 3595
-2347.8 -771.759 3595
-2339.2 -771.759 3595
-2330.6 -771.759 3595
-2322.01 -771.759 3595
-2298.61 -766.822 3572
-2290.07 -766.822 3572
-2262.36 -760.382 3542
-2239.89 -755.659 3520
-2203.58 -746.213 3476
-2195.27 -746.213 3476
-2151.1 -733.976 3419
-546.752 -380.191 1771
-542.517 -380.191 1771
-538.282 -380.191 1771
-532.237 -378.903 1765
-524.726 -376.541 1754
-520.531 -376.541 1754
-515.748 -376.112 1752
-511.267 -375.897 1751
-505.342 -374.609 1745
-501.169 -374.609 1745
-495.857 -373.751 1741
-491.412 -373.536 1740
-483.61 -370.745 1727
-479.481 -370.745 1727
-475.351 -370.745 1727
-470.13 -369.886 1723
-465.739 -369.672 1722
-460.013 -368.384 1716
-455.909 -368.384 1716
-450.489 -367.31 1711
-444.571 -365.807 1704
-439.98 -365.378 1702
-435.91 -365.378 1702
-430.064 -363.875 1695
-424.754 -362.802 1690
-418.97 -361.299 1683
-414.945 -361.299 1683
-409.456 -360.011 1677
-404.478 -359.153 1673
-398.563 -357.435 1665
-394.581 -357.435 1665
-390.13 -357.006 1663
-386.154 -357.006 1663
-381.028 -355.932 1658
-375.926 -354.859 1653
-371.973 -354.859 1653
-368.02 -354.859 1653
-364.068 -354.859 1653
-360.115 -354.859 1653
-356.162 -354.859 1653
-351.996 -354.644 1652
-348.046 -354.644 1652
-344.095 -354.644 1652
-340.145 -354.644 1652
-336.194 -354.644 1652
-331.842 -354.215 1650
-327.896 -354.215 1650
-323.95 -354.215 1650
-320.005 -354.215 1650
-316.442 -354.644 1652
-312.681 -354.859 1653
-308.728 -354.859 1653
-304.775 -354.859 1653
-301.186 -355.288 1655
-297.229 -355.288 1655
-294.157 -356.362 1660
-290.188 -356.362 1660
-286.218 -356.362 1660
-281.908 -355.932 1658
-277.944 -355.932 1658
-273.979 -355.932 1658
-269.851 -355.718 1657
-265.889 -355.718 1657
-261.926 -355.718 1657
-257.341 -354.859 1653
-253.388 -354.859 1653
-249.285 -354.644 1652
-245.334 -354.644 1652
-241.092 -354.215 1650
-237.146 -354.215 1650
-232.918 -353.786 1648
-228.838 -353.571 1647
-224.899 -353.571 1647
-220.961 -353.571 1647
-217.022 -353.571 1647
-213.084 -353.571 1647
-209.145 -353.571 1647
-204.833 -352.927 1644
-200.413 -352.068 1640
-196.491 -352.068 1640
-192.57 -352.068 1640
-188.533 -351.854 1639
-184.614 -351.854 1639
-180.694 -351.854 1639
-176.775 -351.854 1639
-172.645 -351.424 1637
-168.627 -351.21 1636
-164.513 -350.78 1634
-160.606 -350.78 1634
-156.699 -350.78 1634
-152.604 -350.351 1632
-148.702 -350.351 1632
-144.799 -350.351 1632
-140.896 -350.351 1632
-136.91 -350.136 1631
-133.01 -350.136 1631
-129.109 -350.136 1631
-125.286 -350.351 1632
-121.383 -350.351 1632
-117.625 -350.78 1634
-113.926 -351.424 1637
-110.012 -351.424 1637
-106.097 -351.424 1637
-102.12 -351.21 1636
-98.2078 -351.21 1636
-94.3533 -351.424 1637
-90.4387 -351.424 1637
-86.6827 -352.068 1640
-82.8619 -352.498 1642
-78.9354 -352.498 1642
-75.0089 -352.498 1642
-71.169 -352.927 1644
-67.2785 -353.142 1645
-63.4604 -353.786 1648
-59.5195 -353.786 1648
-55.5786 -353.786 1648
-51.6378 -353.786 1648
-47.6969 -353.786 1648
-43.756 -353.786 1648
-39.791 -353.571 1647
-10.5281 -856.771 3991
-0.984426 -856.771 3991
8.55926 -856.771 3991
18.103 -856.771 3991
27.8475 -862.997 4020
37.4606 -862.997 4020
47.0736 -862.997 4020
56.6867 -862.997 4020
65.9863 -858.918 4001
75.3651 -856.771 3991
84.9088 -856.771 3991
94.9021 -860.85 4010
104.491 -860.85 4010
114.08 -860.85 4010
124.872 -869.222 4049
134.555 -869.222 4049
144.237 -869.222 4049
153.919 -869.222 4049
163.198 -867.075 4039
172.856 -867.075 4039
180.798 -858.918 4001
189.461 -854.839 3982
198.983 -854.839 3982
208.506 -854.839 3982
216.987 -850.76 3963
226.464 -850.76 3963
237.608 -856.771 3991
247.152 -856.771 3991
256.695 -856.771 3991
301.21 -797.735 3716
310.764 -799.453 3724
319.669 -799.453 3724
328.574 -799.453 3724
340.47 -806.537 3757
349.454 -806.537 3757
358.438 -806.537 3757
368.303 -808.469 3766
379.011 -812.118 3783
389.802 -815.768 3800
398.889 -815.768 3800
407.976 -815.768 3800
419.916 -821.349 3826
433.102 -829.078 3862
442.338 -829.078 3862
455.782 -836.806 3898
466.177 -838.738 3907
475.52 -838.738 3907
484.863 -838.738 3907
494.206 -838.738 3907
507.157 -844.749 3935
523.919 -856.771 3991
533.462 -856.771 3991
543.006 -856.771 3991
1759.04 -877.809 4089
1768.82 -877.809 4089
1778.59 -877.809 4089
1788.37 -877.809 4089
1789.36 -873.516 4069
1799.09 -873.516 4069
1787.03 -862.997 4020
1805.14 -867.075 4039
1828.28 -873.516 4069
1838.01 -873.516 4069
1847.74 -873.516 4069
2960.41 -854.839 3982
3005.73 -865.143 4030
3015.37 -865.143 4030
3031.76 -867.075 4039
3041.42 -867.075 4039
3051.08 -867.075 4039
3060.74 -867.075 4039
3063.56 -865.143 4030
3051.08 -858.918 4001
3060.65 -858.918 4001
-2544.36 -792.23 3732
-2535.43 -792.23 3732
-2526.51 -792.23 3732
-2484.53 -781.828 3683
-2475.72 -781.828 3683
-2444.81 -774.823 3650
-2420.73 -769.94 3627
-2401.42 -766.544 3611
-2377.54 -761.662 3588
-2368.96 -761.662 3588
-2355.12 -759.963 3580
-2361.64 -764.846 3603
-2353.02 -764.846 3603
-2344.4 -764.846 3603
-2335.79 -764.846 3603
-2327.17 -764.846 3603
-2298.61 -758.265 3572
-2290.07 -758.265 3572
-2266.83 -753.383 3549
-2239.89 -747.227 3520
-2216.9 -742.344 3497
-2208.53 -742.344 3497
-2186.96 -737.886 3476
-548.604 -377.222 1777
-544.355 -377.222 1777
-540.105 -377.222 1777
-535.856 -377.222 1777
-525.324 -372.764 1756
-521.125 -372.764 1756
-516.926 -372.764 1756
-511.559 -371.915 1752
-505.921 -370.854 1747
-501.744 -370.854 1747
-496.427 -370.004 1743
-491.412 -369.368 1740
-485.01 -367.669 1732
-480.869 -367.669 1732
-475.351 -366.608 1727
-470.13 -365.759 1723
-465.739 -365.547 1722
-460.013 -364.273 1716
-455.909 -364.273 1716
-450.489 -363.212 1711
-444.571 -361.726 1704
-439.98 -361.301 1702
-435.91 -361.301 1702
-430.064 -359.815 1695
-424.754 -358.754 1690
-418.97 -357.268 1683
-414.945 -357.268 1683
-409.456 -355.994 1677
-404.478 -355.145 1673
-398.084 -353.022 1663
-394.107 -353.022 1663
-390.13 -353.022 1663
-385.921 -352.81 1662
-380.798 -351.748 1657
-375.699 -350.687 1652
-371.748 -350.687 1652
-367.798 -350.687 1652
-363.847 -350.687 1652
-359.897 -350.687 1652
-355.946 -350.687 1652
-351.996 -350.687 1652
-348.046 -350.687 1652
-344.095 -350.687 1652
-340.145 -350.687 1652
-336.194 -350.687 1652
-331.439 -349.838 1648
-327.499 -349.838 1648
-323.95 -350.262 1650
-320.005 -350.262 1650
-316.634 -350.899 1653
-312.681 -350.899 1653
-309.102 -351.324 1655
-305.144 -351.324 1655
-301.186 -351.324 1655
-297.588 -351.748 1657
-294.689 -353.022 1663
-290.712 -353.022 1663
-286.735 -353.022 1663
-282.248 -352.385 1660
-278.279 -352.385 1660
-274.309 -352.385 1660
-270.014 -351.961 1658
-265.889 -351.748 1657
-261.926 -351.748 1657
-257.653 -351.324 1655
-253.695 -351.324 1655
-249.436 -350.899 1653
-245.483 -350.899 1653
-241.092 -350.262 1650
-237.146 -350.262 1650
-233.2 -350.262 1650
-228.977 -349.838 1648
-225.036 -349.838 1648
-221.095 -349.838 1648
-217.154 -349.838 1648
-213.213 -349.838 1648
-209.272 -349.838 1648
-204.958 -349.201 1645
-200.413 -348.14 1640
-196.491 -348.14 1640
-192.57 -348.14 1640
-188.533 -347.927 1639
-184.614 -347.927 1639
-180.694 -347.927 1639
-176.775 -347.927 1639
-172.645 -347.503 1637
-168.627 -347.29 1636
-164.312 -346.441 1632
-160.409 -346.441 1632
-156.507 -346.441 1632
-152.604 -346.441 1632
-148.702 -346.441 1632
-144.799 -346.441 1632
-140.896 -346.441 1632
-136.91 -346.229 1631
-133.01 -346.229 1631
-128.951 -345.805 1629
-125.209 -346.229 1631
-121.309 -346.229 1631
-117.481 -346.441 1632
-113.717 -346.866 1634
-109.81 -346.866 1634
-105.903 -346.866 1634
-101.995 -346.866 1634
-98.0878 -346.866 1634
-94.3533 -347.503 1637
-90.4387 -347.503 1637
-86.6299 -347.927 1639
-82.761 -348.14 1640
-78.8393 -348.14 1640
-74.9175 -348.14 1640
-70.9958 -348.14 1640
-67.0741 -348.14 1640
-63.3449 -349.201 1645
-59.4112 -349.201 1645
-55.5449 -349.626 1647
-51.6064 -349.626 1647
-47.668 -349.626 1647
-43.7295 -349.626 1647
-10.5044 -845.3 3982
-0.982206 -845.3 3982
8.53996 -845.3 3982
18.0168 -843.177 3972
27.515 -843.177 3972
37.0133 -843.177 3972
46.5115 -843.177 3972
56.0098 -843.177 3972
65.508 -843.177 3972
75.3651 -847.211 3991
84.9088 -847.211 3991
94.4525 -847.211 3991
103.996 -847.211 3991
114.08 -851.244 4010
123.978 -853.367 4020
134.222 -857.4 4039
143.881 -857.4 4039
153.539 -857.4 4039
162.026 -851.244 4010
171.615 -851.244 4010
179.939 -845.3 3982
189.889 -847.211 3991
199.433 -847.211 3991
208.977 -847.211 3991
218.028 -845.3 3982
227.55 -845.3 3982
237.608 -847.211 3991
247.152 -847.211 3991
256.695 -847.211 3991
294.212 -793.928 3740
303.156 -793.928 3740
312.099 -793.928 3740
319.669 -790.532 3724
328.574 -790.532 3724
340.47 -797.537 3757
349.454 -797.537 3757
358.438 -797.537 3757
368.303 -799.447 3766
379.011 -803.056 3783
389.802 -806.665 3800
398.889 -806.665 3800
407.976 -806.665 3800
419.916 -812.184 3826
434.112 -821.737 3871
443.368 -821.737 3871
457.887 -831.289 3916
469.518 -835.323 3935
480.023 -837.233 3944
489.455 -837.233 3944
498.886 -837.233 3944
514.375 -847.211 3991
523.919 -847.211 3991
533.462 -847.211 3991
543.006 -847.211 3991
1768.82 -868.014 4089
1778.59 -868.014 4089
1788.37 -868.014 4089
1789.36 -863.768 4069
1799.09 -863.768 4069
1791.48 -855.489 4030
1818.55 -863.768 4069
1832.77 -865.891 4079
1842.52 -865.891 4079
1852.28 -865.891 4079
2960.41 -845.3 3982
3019.91 -859.523 4049
3029.59 -859.523 4049
3054.28 -863.768 4069
3064.01 -863.768 4069
3073.74 -863.768 4069
3075.9 -861.646 4059
3085.6 -861.646 4059
3087.68 -859.523 4049
3097.36 -859.523 4049
-2515.68 -779.932 3716
-2506.79 -779.932 3716
-2497.91 -779.932 3716
-2456.2 -769.647 3667
-2426.07 -762.931 3635
-2417.38 -762.931 3635
-2392.78 -757.894 3611
-2384.15 -757.894 3611
-2375.51 -757.894 3611
-2366.88 -757.894 3611
-2368.69 -761.252 3627
-2360.02 -761.252 3627
-2351.35 -761.252 3627
-2332.34 -757.894 3611
-2318.56 -756.215 3603
-2309.94 -756.215 3603
-2266.83 -744.881 3549
-2258.35 -744.881 3549
-2216.9 -733.967 3497
-2208.53 -733.967 3497
-2200.17 -733.967 3497
-549.221 -373.385 1779
-544.967 -373.385 1779
-540.713 -373.385 1779
-535.856 -372.965 1777
-526.521 -369.397 1760
-522.312 -369.397 1760
-518.103 -369.397 1760
-512.727 -368.558 1756
-505.921 -366.669 1747
-501.744 -366.669 1747
-496.996 -366.249 1745
-491.694 -365.409 1741
-485.57 -363.94 1734
-481.424 -363.94 1734
-476.452 -363.31 1731
-471.221 -362.471 1727
-466.009 -361.631 1723
-460.013 -360.162 1716
-455.909 -360.162 1716
-450.489 -359.113 1711
-444.571 -357.644 1704
-439.98 -357.224 1702
-435.91 -357.224 1702
-430.064 -355.755 1695
-424.754 -354.705 1690
-418.97 -353.236 1683
-414.945 -353.236 1683
-409.456 -351.977 1677
-404.478 -351.137 1673
-398.084 -349.038 1663
-394.107 -349.038 1663
-390.13 -349.038 1663
-385.921 -348.828 1662
-380.798 -347.779 1657
-375.699 -346.73 1652
-371.748 -346.73 1652
-367.798 -346.73 1652
-363.847 -346.73 1652
-359.897 -346.73 1652
-355.946 -346.73 1652
-351.996 -346.73 1652
-348.046 -346.73 1652
-344.095 -346.73 1652
-340.145 -346.73 1652
-336.194 -346.73 1652
-331.842 -346.31 1650
-327.896 -346.31 1650
-324.343 -346.73 1652
-320.393 -346.73 1652
-317.017 -347.359 1655
-313.059 -347.359 1655
-309.102 -347.359 1655
-305.144 -347.359 1655
-301.55 -347.779 1657
-297.588 -347.779 1657
-294.689 -349.038 1663
-290.712 -349.038 1663
-286.735 -349.038 1663
-282.248 -348.409 1660
-278.279 -348.409 1660
-274.309 -348.409 1660
-270.34 -348.409 1660
-265.889 -347.779 1657
-261.926 -347.779 1657
-257.653 -347.359 1655
-253.695 -347.359 1655
-249.436 -346.939 1653
-245.483 -346.939 1653
-241.384 -346.73 1652
-237.433 -346.73 1652
-233.2 -346.31 1650
-229.255 -346.31 1650
-225.309 -346.31 1650
-221.095 -345.89 1648
-217.154 -345.89 1648
-213.213 -345.89 1648
-209.272 -345.89 1648
-204.958 -345.26 1645
-200.413 -344.211 1640
-196.491 -344.211 1640
-192.57 -344.211 1640
-188.533 -344.001 1639
-184.614 -344.001 1639
-180.694 -344.001 1639
-176.775 -344.001 1639
-172.645 -343.581 1637
-168.627 -343.371 1636
-164.312 -342.532 1632
-160.409 -342.532 1632
-156.507 -342.532 1632
-152.604 -342.532 1632
-148.702 -342.532 1632
-144.799 -342.532 1632
-140.896 -342.532 1632
-136.91 -342.322 1631
-133.01 -342.322 1631
-128.951 -341.902 1629
-125.209 -342.322 1631
-121.309 -342.322 1631
-117.481 -342.532 1632
-113.717 -342.952 1634
-109.81 -342.952 1634
-105.903 -342.952 1634
-101.995 -342.952 1634
-98.0878 -342.952 1634
-94.3533 -343.581 1637
-90.4387 -343.581 1637
-86.6299 -344.001 1639
-82.761 -344.211 1640
-78.8393 -344.211 1640
-74.9175 -344.211 1640
-70.9958 -344.211 1640
-67.0741 -344.211 1640
-63.3449 -345.26 1645
-59.4112 -345.26 1645
-55.5449 -345.68 1647
-51.6064 -345.68 1647
-47.668 -345.68 1647
-43.7295 -345.68 1647
-10.5044 -835.761 3982
-0.982206 -835.761 3982
8.53996 -835.761 3982
18.0168 -833.662 3972
27.515 -833.662 3972
37.0133 -833.662 3972
46.5115 -833.662 3972
56.0098 -833.662 3972
65.508 -833.662 3972
75.3651 -837.65 3991
84.9088 -837.65 3991
94.4525 -837.65 3991
103.996 -837.65 3991
114.08 -841.638 4010
123.978 -843.737 4020
134.222 -847.724 4039
143.881 -847.724 4039
153.539 -847.724 4039
162.026 -841.638 4010
171.615 -841.638 4010
179.939 -835.761 3982
189.889 -837.65 3991
199.433 -837.65 3991
208.977 -837.65 3991
218.52 -837.65 3991
227.55 -835.761 3982
237.608 -837.65 3991
247.152 -837.65 3991
256.695 -837.65 3991
257.033 -808.686 3853
266.247 -808.686 3853
275.46 -808.686 3853
284.674 -808.686 3853
291.828 -803.019 3826
294.212 -784.969 3740
303.156 -784.969 3740
312.099 -784.969 3740
319.669 -781.611 3724
329.986 -784.969 3740
340.47 -788.537 3757
349.454 -788.537 3757
358.438 -788.537 3757
368.303 -790.426 3766
379.011 -793.994 3783
389.802 -797.562 3800
398.889 -797.562 3800
407.976 -797.562 3800
419.916 -803.019 3826
434.112 -812.464 3871
443.368 -812.464 3871
457.887 -821.909 3916
469.518 -825.896 3935
480.023 -827.785 3944
489.455 -827.785 3944
498.886 -827.785 3944
514.375 -837.65 3991
523.919 -837.65 3991
533.462 -837.65 3991
548.312 -845.836 4030
557.949 -845.836 4030
567.586 -845.836 4030
1768.82 -858.219 4089
1778.59 -858.219 4089
1788.37 -858.219 4089
1793.75 -856.12 4079
1803.51 -856.12 4079
1791.48 -845.836 4030
1818.55 -854.021 4069
1832.77 -856.12 4079
1847.04 -858.219 4089
1856.82 -858.219 4089
1866.6 -858.219 4089
2960.41 -835.761 3982
3019.91 -849.823 4049
3029.59 -849.823 4049
3069.3 -858.219 4089
3079.07 -858.219 4089
3088.85 -858.219 4089
3098.63 -858.219 4089
3108.41 -858.219 4089
3095.31 -851.922 4059
3105.01 -851.922 4059
-2515.68 -771.03 3716
-2506.79 -771.03 3716
-2497.91 -771.03 3716
-2456.2 -760.863 3667
-2426.07 -754.223 3635
-2417.38 -754.223 3635
-2403.39 -752.563 3627
-2394.71 -752.563 3627
-2375.51 -749.244 3611
-2372.12 -750.904 3619
-2368.69 -752.563 3627
-2360.02 -752.563 3627
-2351.35 -752.563 3627
-2342.67 -752.563 3627
-2318.56 -747.584 3603
-2309.94 -747.584 3603
-2266.83 -736.379 3549
-2258.35 -736.379 3549
-2221.97 -727.25 3505
-2213.59 -727.25 3505
-2200.17 -725.59 3497
-551.382 -370.576 1786
-547.112 -370.576 1786
-542.841 -370.576 1786
-536.459 -369.123 1779
-527.119 -365.596 1762
-522.906 -365.596 1762
-518.692 -365.596 1762
-513.311 -364.766 1758
-505.921 -362.484 1747
-501.744 -362.484 1747
-496.996 -362.069 1745
-491.694 -361.239 1741
-485.57 -359.786 1734
-481.424 -359.786 1734
-476.452 -359.164 1731
-471.221 -358.334 1727
-466.009 -357.504 1723
-460.013 -356.052 1716
-455.909 -356.052 1716
-449.963 -354.599 1709
-444.05 -353.147 1702
-439.204 -352.524 1699
-435.141 -352.524 1699
-429.81 -351.487 1694
-424.754 -350.657 1690
-418.97 -349.204 1683
-414.945 -349.204 1683
-408.967 -347.544 1675
-404.237 -346.922 1672
-398.084 -345.055 1663
-394.107 -345.055 1663
-389.896 -344.847 1662
-385.921 -344.847 1662
-380.798 -343.81 1657
-375.244 -342.357 1650
-371.298 -342.357 1650
-367.352 -342.357 1650
-363.407 -342.357 1650
-359.461 -342.357 1650
-355.946 -342.772 1652
-351.996 -342.772 1652
-348.046 -342.772 1652
-344.095 -342.772 1652
-340.145 -342.772 1652
-336.194 -342.772 1652
-331.842 -342.357 1650
-327.896 -342.357 1650
-324.343 -342.772 1652
-320.393 -342.772 1652
-317.017 -343.395 1655
-313.059 -343.395 1655
-309.102 -343.395 1655
-305.144 -343.395 1655
-301.55 -343.81 1657
-297.588 -343.81 1657
-294.689 -345.055 1663
-290.712 -345.055 1663
-286.735 -345.055 1663
-282.248 -344.432 1660
-278.279 -344.432 1660
-274.309 -344.432 1660
-270.34 -344.432 1660
-265.889 -343.81 1657
-261.926 -343.81 1657
-257.653 -343.395 1655
-253.695 -343.395 1655
-249.436 -342.98 1653
-245.483 -342.98 1653
-241.384 -342.772 1652
-237.433 -342.772 1652
-233.2 -342.357 1650
-229.255 -342.357 1650
-225.309 -342.357 1650
-221.095 -341.942 1648
-217.154 -341.942 1648
-213.213 -341.942 1648
-209.272 -341.942 1648
-204.958 -341.32 1645
-200.413 -340.282 1640
-196.491 -340.282 1640
-192.57 -340.282 1640
-188.533 -340.075 1639
-184.614 -340.075 1639
-180.474 -339.66 1637
-176.559 -339.66 1637
-172.539 -339.452 1636
-168.421 -339.037 1634
-164.312 -338.622 1632
-160.409 -338.622 1632
-156.507 -338.622 1632
-152.511 -338.415 1631
-148.61 -338.415 1631
-144.71 -338.415 1631
-140.81 -338.415 1631
-136.742 -338 1629
-132.847 -338 1629
-128.872 -337.792 1628
-125.056 -338 1629
-121.16 -338 1629
-117.409 -338.415 1631
-113.578 -338.622 1632
-109.676 -338.622 1632
-105.773 -338.622 1632
-101.87 -338.622 1632
-98.0878 -339.037 1634
-94.3533 -339.66 1637
-90.4387 -339.66 1637
-86.6299 -340.075 1639
-82.7105 -340.075 1639
-78.7912 -340.075 1639
-74.8718 -340.075 1639
-70.9525 -340.075 1639
-67.0741 -340.282 1640
-63.1523 -340.282 1640
-59.2306 -340.282 1640
-55.3088 -340.282 1640
-51.3871 -340.282 1640
-47.4654 -340.282 1640
-43.5171 -340.075 1639
-10.478 -824.147 3972
-0.97974 -824.147 3972
8.51852 -824.147 3972
18.0168 -824.147 3972
27.515 -824.147 3972
36.9294 -822.28 3963
46.4062 -822.28 3963
55.8829 -822.28 3963
65.3596 -822.28 3963
74.8364 -822.28 3963
84.5046 -824.147 3972
94.2395 -826.222 3982
103.762 -826.222 3982
113.824 -830.164 4001
123.978 -834.107 4020
133.591 -834.107 4020
143.204 -834.107 4020
152.817 -834.107 4020
162.026 -832.032 4010
171.615 -832.032 4010
179.939 -826.222 3982
189.889 -828.09 3991
199.433 -828.09 3991
208.977 -828.09 3991
218.52 -828.09 3991
227.55 -826.222 3982
237.072 -826.222 3982
246.594 -826.222 3982
256.116 -826.222 3982
257.033 -799.456 3853
266.247 -799.456 3853
275.46 -799.456 3853
284.674 -799.456 3853
291.828 -793.854 3826
294.212 -776.01 3740
303.156 -776.01 3740
312.099 -776.01 3740
319.669 -772.69 3724
329.986 -776.01 3740
340.47 -779.537 3757
349.454 -779.537 3757
358.438 -779.537 3757
368.303 -781.404 3766
377.308 -781.404 3766
389.802 -788.459 3800
398.889 -788.459 3800
407.976 -788.459 3800
419.916 -793.854 3826
434.112 -803.191 3871
443.368 -803.191 3871
457.887 -812.528 3916
469.518 -816.47 3935
480.023 -818.338 3944
489.455 -818.338 3944
498.886 -818.338 3944
514.375 -828.09 3991
523.919 -828.09 3991
533.462 -828.09 3991
548.312 -836.182 4030
557.949 -836.182 4030
567.586 -836.182 4030
1764.49 -846.349 4079
1774.24 -846.349 4079
1784 -846.349 4079
1793.75 -846.349 4079
1803.51 -846.349 4079
1791.48 -836.182 4030
1818.55 -844.274 4069
1832.77 -846.349 4079
1847.04 -848.424 4089
1856.82 -848.424 4089
1866.6 -848.424 4089
3019.91 -840.124 4049
3029.59 -840.124 4049
3069.3 -848.424 4089
3079.07 -848.424 4089
3088.85 -848.424 4089
3098.63 -848.424 4089
3108.41 -848.424 4089
3095.31 -842.199 4059
3105.01 -842.199 4059
-2515.68 -762.128 3716
-2506.79 -762.128 3716
-2497.91 -762.128 3716
-2456.2 -752.079 3667
-2426.07 -745.516 3635
-2417.38 -745.516 3635
-2403.39 -743.875 3627
-2394.71 -743.875 3627
-2375.51 -740.593 3611
-2372.12 -742.234 3619
-2368.69 -743.875 3627
-2360.02 -743.875 3627
-2351.35 -743.875 3627
-2342.67 -743.875 3627
-2318.56 -738.953 3603
-2309.94 -738.953 3603
-2266.83 -727.878 3549
-2258.35 -727.878 3549
-2221.97 -718.854 3505
-2213.59 -718.854 3505
-2200.17 -717.213 3497
-551.382 -366.297 1786
-547.112 -366.297 1786
-542.841 -366.297 1786
-536.459 -364.862 1779
-527.119 -361.375 1762
-522.906 -361.375 1762
-518.692 -361.375 1762
-513.311 -360.555 1758
-505.921 -358.299 1747
-501.744 -358.299 1747
-496.996 -357.889 1745
-492.259 -357.478 1743
-485.57 -355.633 1734
-481.424 -355.633 1734
-476.727 -355.222 1732
-472.312 -355.017 1731
-467.091 -354.197 1727
-461.621 -353.171 1722
-457.503 -353.171 1722
-451.016 -351.326 1713
-445.093 -349.89 1706
-439.98 -349.07 1702
-435.91 -349.07 1702
-431.078 -348.454 1699
-424.754 -346.608 1690
-418.721 -344.968 1682
-414.699 -344.968 1682
-408.479 -343.122 1673
-404.237 -342.917 1672
-397.845 -340.866 1662
-393.87 -340.866 1662
-389.896 -340.866 1662
-385.457 -340.456 1660
-380.338 -339.43 1655
-375.244 -338.405 1650
-371.298 -338.405 1650
-367.352 -338.405 1650
-363.407 -338.405 1650
-359.461 -338.405 1650
-355.946 -338.815 1652
-351.996 -338.815 1652
-348.046 -338.815 1652
-343.679 -338.405 1650
-339.733 -338.405 1650
-335.787 -338.405 1650
-331.842 -338.405 1650
-327.896 -338.405 1650
-324.343 -338.815 1652
-320.393 -338.815 1652
-317.017 -339.43 1655
-313.059 -339.43 1655
-309.475 -339.84 1657
-305.513 -339.84 1657
-301.732 -340.045 1658
-297.768 -340.045 1658
-295.043 -341.481 1665
-291.062 -341.481 1665
-287.08 -341.481 1665
-282.589 -340.866 1662
-278.614 -340.866 1662
-274.64 -340.866 1662
-270.34 -340.456 1660
-266.049 -340.045 1658
-262.084 -340.045 1658
-257.964 -339.84 1657
-253.695 -339.43 1655
-249.737 -339.43 1655
-245.78 -339.43 1655
-241.53 -339.02 1653
-237.433 -338.815 1652
-233.483 -338.815 1652
-229.255 -338.405 1650
-225.309 -338.405 1650
-221.363 -338.405 1650
-217.418 -338.405 1650
-213.213 -337.994 1648
-209.272 -337.994 1648
-204.958 -337.379 1645
-200.413 -336.354 1640
-196.491 -336.354 1640
-192.57 -336.354 1640
-188.533 -336.149 1639
-184.388 -335.738 1637
-180.363 -335.533 1636
-176.451 -335.533 1636
-172.539 -335.533 1636
-168.215 -334.713 1632
-164.211 -334.508 1631
-160.311 -334.508 1631
-156.411 -334.508 1631
-152.511 -334.508 1631
-148.61 -334.508 1631
-144.71 -334.508 1631
-140.637 -334.098 1629
-136.742 -334.098 1629
-132.765 -333.893 1628
-128.872 -333.893 1628
-124.979 -333.893 1628
-121.086 -333.893 1628
-117.409 -334.508 1631
-113.578 -334.713 1632
-109.676 -334.713 1632
-105.773 -334.713 1632
-101.87 -334.713 1632
-98.0878 -335.123 1634
-94.4686 -336.149 1639
-90.5492 -336.149 1639
-86.6299 -336.149 1639
-82.7105 -336.149 1639
-78.7912 -336.149 1639
-74.8718 -336.149 1639
-70.9525 -336.149 1639
-66.9514 -335.738 1637
-63.0368 -335.738 1637
-59.0861 -335.533 1636
-55.1739 -335.533 1636
-51.2618 -335.533 1636
-47.3496 -335.533 1636
-10.3303 -803.147 3916
-0.965926 -803.147 3916
8.39842 -803.147 3916
17.7628 -803.147 3916
27.3834 -810.736 3953
36.8362 -810.736 3953
46.2891 -810.736 3953
55.7419 -810.736 3953
65.1947 -810.736 3953
75.0063 -814.632 3972
84.5046 -814.632 3972
94.6891 -820.58 4001
104.257 -820.58 4001
114.905 -828.374 4039
124.564 -828.374 4039
134.222 -828.374 4039
143.881 -828.374 4039
153.539 -828.374 4039
162.026 -822.426 4010
171.615 -822.426 4010
180.346 -818.529 3991
190.365 -820.58 4001
199.933 -820.58 4001
209.5 -820.58 4001
218.52 -818.529 3991
227.55 -816.683 3982
235.345 -810.736 3953
244.798 -810.736 3953
253.093 -807.044 3935
257.033 -790.226 3853
266.247 -790.226 3853
275.46 -790.226 3853
284.674 -790.226 3853
291.828 -784.689 3826
295.549 -770.537 3757
302.507 -765.41 3732
311.431 -765.41 3732
318.982 -762.128 3716
329.986 -767.051 3740
340.47 -770.537 3757
349.454 -770.537 3757
358.438 -770.537 3757
367.422 -770.537 3757
376.407 -770.537 3757
387.135 -774.024 3774
396.159 -774.024 3774
407.976 -779.356 3800
419.916 -784.689 3826
434.112 -793.918 3871
443.368 -793.918 3871
457.887 -803.147 3916
469.518 -807.044 3935
480.023 -808.89 3944
489.455 -808.89 3944
498.886 -808.89 3944
509.477 -810.736 3953
523.919 -818.529 3991
533.462 -818.529 3991
548.312 -826.528 4030
557.949 -826.528 4030
567.586 -826.528 4030
574.358 -822.426 4010
1764.49 -836.577 4079
1774.24 -836.577 4079
1784 -836.577 4079
1793.75 -836.577 4079
1803.51 -836.577 4079
1791.48 -826.528 4030
1818.55 -834.526 4069
1832.77 -836.577 4079
1847.04 -838.628 4089
1856.82 -838.628 4089
1866.6 -838.628 4089
1871.79 -836.577 4079
1881.54 -836.577 4079
1891.29 -836.577 4079
3069.3 -838.628 4089
3079.07 -838.628 4089
3088.85 -838.628 4089
3098.63 -838.628 4089
3108.41 -838.628 4089
3102.93 -834.526 4069
3112.66 -834.526 4069
-2515.68 -753.227 3716
-2506.79 -753.227 3716
-2497.91 -753.227 3716
-2456.2 -743.294 3667
-2430.74 -738.227 3642
-2422.04 -738.227 3642
-2413.33 -738.227 3642
-2400 -736.808 3635
-2386.04 -735.186 3627
-2377.37 -735.186 3627
-2373.92 -736.808 3635
-2365.23 -736.808 3635
-2356.53 -736.808 3635
-2342.67 -735.186 3627
-2318.56 -730.322 3603
-2309.94 -730.322 3603
-2266.83 -719.376 3549
-2253.89 -717.957 3542
-2226.4 -711.876 3512
-2218.01 -711.876 3512
-552 -362.424 1788
-547.724 -362.424 1788
-543.449 -362.424 1788
-538.57 -362.019 1786
-527.418 -357.357 1763
-523.202 -357.357 1763
-518.692 -357.154 1762
-513.895 -356.749 1760
-506.5 -354.519 1749
-502.318 -354.519 1749
-496.996 -353.708 1745
-492.259 -353.303 1743
-485.57 -351.479 1734
-481.424 -351.479 1734
-476.727 -351.073 1732
-472.312 -350.871 1731
-467.091 -350.06 1727
-461.621 -349.046 1722
-457.503 -349.046 1722
-451.016 -347.222 1713
-445.093 -345.803 1706
-439.98 -344.992 1702
-435.91 -344.992 1702
-431.078 -344.384 1699
-424.754 -342.56 1690
-418.721 -340.938 1682
-414.699 -340.938 1682
-408.479 -339.114 1673
-404.237 -338.911 1672
-398.084 -337.087 1663
-394.107 -337.087 1663
-389.427 -336.479 1660
-385.457 -336.479 1660
-380.338 -335.466 1655
-375.244 -334.452 1650
-371.298 -334.452 1650
-367.352 -334.452 1650
-363.407 -334.452 1650
-359.461 -334.452 1650
-355.516 -334.452 1650
-351.57 -334.452 1650
-347.624 -334.452 1650
-343.679 -334.452 1650
-339.733 -334.452 1650
-335.787 -334.452 1650
-331.842 -334.452 1650
-327.896 -334.452 1650
-324.343 -334.857 1652
-320.393 -334.857 1652
-317.017 -335.466 1655
-313.437 -335.871 1657
-309.662 -336.074 1658
-305.697 -336.074 1658
-302.096 -336.479 1660
-298.127 -336.479 1660
-295.043 -337.493 1665
-291.062 -337.493 1665
-287.08 -337.493 1665
-282.759 -337.087 1663
-278.782 -337.087 1663
-274.805 -337.087 1663
-270.665 -336.884 1662
-266.049 -336.074 1658
-262.084 -336.074 1658
-258.12 -336.074 1658
-254.002 -335.871 1657
-249.737 -335.466 1655
-245.78 -335.466 1655
-241.53 -335.06 1653
-237.577 -335.06 1653
-233.483 -334.857 1652
-229.255 -334.452 1650
-225.309 -334.452 1650
-221.363 -334.452 1650
-217.418 -334.452 1650
-213.213 -334.047 1648
-209.272 -334.047 1648
-204.958 -333.439 1645
-200.413 -332.425 1640
-196.491 -332.425 1640
-192.57 -332.425 1640
-188.533 -332.222 1639
-184.388 -331.817 1637
-180.363 -331.614 1636
-176.451 -331.614 1636
-172.328 -331.209 1634
-168.215 -330.803 1632
-164.01 -330.195 1629
-160.115 -330.195 1629
-156.219 -330.195 1629
-152.324 -330.195 1629
-148.428 -330.195 1629
-144.533 -330.195 1629
-140.637 -330.195 1629
-136.658 -329.993 1628
-132.765 -329.993 1628
-128.872 -329.993 1628
-124.979 -329.993 1628
-121.086 -329.993 1628
-117.409 -330.601 1631
-113.509 -330.601 1631
-109.676 -330.803 1632
-105.773 -330.803 1632
-101.87 -330.803 1632
-98.0878 -331.209 1634
-94.4686 -332.222 1639
-90.5492 -332.222 1639
-86.6299 -332.222 1639
-82.7105 -332.222 1639
-78.7912 -332.222 1639
-74.8718 -332.222 1639
-70.9525 -332.222 1639
-66.9514 -331.817 1637
-63.0368 -331.817 1637
-59.1222 -331.817 1637
-55.2077 -331.817 1637
-51.2931 -331.817 1637
-47.3785 -331.817 1637
-10.3303 -793.766 3916
-0.965926 -793.766 3916
8.39842 -793.766 3916
17.7628 -793.766 3916
27.3834 -801.266 3953
36.8362 -801.266 3953
46.2891 -801.266 3953
55.7419 -801.266 3953
65.1947 -801.266 3953
75.0063 -805.117 3972
84.5046 -805.117 3972
94.9021 -812.82 4010
104.491 -812.82 4010
115.19 -820.725 4049
125.181 -822.752 4059
134.887 -822.752 4059
144.593 -822.752 4059
154.3 -822.752 4059
162.834 -816.874 4030
172.471 -816.874 4030
180.346 -808.969 3991
190.365 -810.996 4001
199.933 -810.996 4001
209.5 -810.996 4001
218.52 -808.969 3991
227.55 -807.144 3982
234.81 -799.442 3944
244.241 -799.442 3944
247.819 -780.996 3853
257.033 -780.996 3853
266.247 -780.996 3853
275.46 -780.996 3853
284.674 -780.996 3853
291.828 -775.523 3826
295.549 -761.537 3757
301.859 -754.848 3724
310.764 -754.848 3724
318.982 -753.227 3716
329.986 -758.091 3740
339.745 -759.916 3749
348.71 -759.916 3749
357.675 -759.916 3749
366.64 -759.916 3749
375.605 -759.916 3749
385.391 -761.537 3757
394.375 -761.537 3757
406.15 -766.807 3783
419.038 -773.902 3818
433.102 -782.821 3862
442.338 -782.821 3862
455.782 -790.118 3898
467.251 -793.766 3916
476.616 -793.766 3916
485.98 -793.766 3916
495.344 -793.766 3916
508.317 -799.442 3944
521.424 -805.117 3972
530.923 -805.117 3972
545.591 -812.82 4010
555.18 -812.82 4010
564.769 -812.82 4010
574.358 -812.82 4010
581.181 -808.969 3991
1764.49 -826.806 4079
1774.24 -826.806 4079
1784 -826.806 4079
1789.36 -824.779 4069
1799.09 -824.779 4069
1782.59 -812.82 4010
1818.55 -824.779 4069
1832.77 -826.806 4079
1842.52 -826.806 4079
1852.28 -826.806 4079
1862.03 -826.806 4079
1871.79 -826.806 4079
1881.54 -826.806 4079
1891.29 -826.806 4079
3039.27 -820.725 4049
3071.54 -826.806 4079
3088.85 -828.833 4089
3098.63 -828.833 4089
3108.41 -828.833 4089
3102.93 -824.779 4069
3112.66 -824.779 4069
-2515.68 -744.325 3716
-2506.79 -744.325 3716
-2497.91 -744.325 3716
-2450.17 -732.707 3658
-2441.42 -732.707 3658
-2432.68 -732.707 3658
-2423.93 -732.707 3658
-2400 -728.1 3635
-2386.04 -726.498 3627
-2377.37 -726.498 3627
-2373.92 -728.1 3635
-2365.23 -728.1 3635
-2356.53 -728.1 3635
-2342.67 -726.498 3627
-2318.56 -721.691 3603
-2309.94 -721.691 3603
-2266.83 -710.874 3549
-2253.89 -709.472 3542
-2226.4 -703.463 3512
-2218.01 -703.463 3512
-556.276 -358.141 1788
-552 -358.141 1788
-547.724 -358.141 1788
-543.449 -358.141 1788
-538.57 -357.741 1786
-527.418 -353.134 1763
-523.202 -353.134 1763
-518.692 -352.933 1762
-514.479 -352.933 1762
-506.5 -350.329 1749
-502.318 -350.329 1749
-496.996 -349.528 1745
-492.259 -349.128 1743
-485.57 -347.325 1734
-481.424 -347.325 1734
-476.727 -346.924 1732
-472.312 -346.724 1731
-467.091 -345.923 1727
-461.621 -344.921 1722
-457.503 -344.921 1722
-451.016 -343.119 1713
-445.093 -341.716 1706
-439.98 -340.915 1702
-435.91 -340.915 1702
-431.078 -340.314 1699
-424.754 -338.512 1690
-418.721 -336.909 1682
-414.699 -336.909 1682
-408.479 -335.106 1673
-404.478 -335.106 1673
-398.084 -333.103 1663
-394.107 -333.103 1663
-389.896 -332.903 1662
-385.457 -332.503 1660
-380.338 -331.501 1655
-375.244 -330.499 1650
-371.298 -330.499 1650
-367.352 -330.499 1650
-363.407 -330.499 1650
-359.461 -330.499 1650
-355.516 -330.499 1650
-351.57 -330.499 1650
-347.624 -330.499 1650
-343.679 -330.499 1650
-339.733 -330.499 1650
-335.787 -330.499 1650
-331.842 -330.499 1650
-328.293 -330.9 1652
-324.932 -331.501 1655
-320.974 -331.501 1655
-317.4 -331.902 1657
-313.627 -332.102 1658
-310.035 -332.503 1660
-306.066 -332.503 1660
-302.46 -332.903 1662
-298.486 -332.903 1662
-295.398 -333.905 1667
-291.411 -333.905 1667
-287.425 -333.905 1667
-283.099 -333.504 1665
-279.117 -333.504 1665
-275.136 -333.504 1665
-270.828 -333.103 1663
-266.37 -332.503 1660
-262.401 -332.503 1660
-258.12 -332.102 1658
-254.155 -332.102 1658
-250.039 -331.902 1657
-246.077 -331.902 1657
-241.53 -331.1 1653
-237.577 -331.1 1653
-233.624 -331.1 1653
-229.255 -330.499 1650
-225.309 -330.499 1650
-221.363 -330.499 1650
-217.418 -330.499 1650
-213.213 -330.099 1648
-209.272 -330.099 1648
-204.958 -329.498 1645
-200.413 -328.496 1640
-196.491 -328.496 1640
-192.57 -328.496 1640
-188.533 -328.296 1639
-184.388 -327.896 1637
-180.363 -327.695 1636
-176.451 -327.695 1636
-172.328 -327.295 1634
-168.215 -326.894 1632
-164.01 -326.293 1629
-160.115 -326.293 1629
-156.219 -326.293 1629
-152.324 -326.293 1629
-148.428 -326.293 1629
-144.533 -326.293 1629
-140.637 -326.293 1629
-136.658 -326.093 1628
-132.765 -326.093 1628
-128.872 -326.093 1628
-124.979 -326.093 1628
-121.086 -326.093 1628
-117.409 -326.694 1631
-113.509 -326.694 1631
-109.676 -326.894 1632
-105.773 -326.894 1632
-101.87 -326.894 1632
-98.0878 -327.295 1634
-94.4686 -328.296 1639
-90.5492 -328.296 1639
-86.6299 -328.296 1639
-82.7105 -328.296 1639
-78.7912 -328.296 1639
-74.8718 -328.296 1639
-70.9525 -328.296 1639
-66.9514 -327.896 1637
-63.1138 -328.296 1639
-59.1945 -328.296 1639
-55.2751 -328.296 1639
-51.3558 -328.296 1639
-47.4364 -328.296 1639
-28.725 -775.372 3871
-19.4683 -775.372 3871
-10.3303 -784.385 3916
-0.965926 -784.385 3916
8.39842 -784.385 3916
17.7628 -784.385 3916
27.3834 -791.797 3953
36.8362 -791.797 3953
46.2891 -791.797 3953
55.7419 -791.797 3953
65.1947 -791.797 3953
75.0063 -795.602 3972
84.5046 -795.602 3972
94.9021 -803.214 4010
104.491 -803.214 4010
115.19 -811.026 4049
125.181 -813.029 4059
134.887 -813.029 4059
144.593 -813.029 4059
154.3 -813.029 4059
163.198 -809.023 4039
172.856 -809.023 4039
180.346 -799.408 3991
190.365 -801.411 4001
199.933 -801.411 4001
209.5 -801.411 4001
218.52 -799.408 3991
227.55 -797.605 3982
234.81 -789.994 3944
244.241 -789.994 3944
247.819 -771.766 3853
257.033 -771.766 3853
266.247 -771.766 3853
275.46 -771.766 3853
284.674 -771.766 3853
291.828 -766.358 3826
295.549 -752.537 3757
301.859 -745.927 3724
310.764 -745.927 3724
319.669 -745.927 3724
330.78 -750.935 3749
340.47 -752.537 3757
349.454 -752.537 3757
358.438 -752.537 3757
368.303 -754.34 3766
377.308 -754.34 3766
386.314 -754.34 3766
395.32 -754.34 3766
406.15 -757.745 3783
419.038 -764.756 3818
433.102 -773.569 3862
442.338 -773.569 3862
455.782 -780.78 3898
467.251 -784.385 3916
476.616 -784.385 3916
485.98 -784.385 3916
495.344 -784.385 3916
508.317 -789.994 3944
521.424 -795.602 3972
530.923 -795.602 3972
545.591 -803.214 4010
555.18 -803.214 4010
564.769 -803.214 4010
574.358 -803.214 4010
581.181 -799.408 3991
590.724 -799.408 3991
600.268 -799.408 3991
609.812 -799.408 3991
1764.49 -817.035 4079
1774.24 -817.035 4079
1784 -817.035 4079
1789.36 -815.032 4069
1799.09 -815.032 4069
1782.59 -803.214 4010
1818.55 -815.032 4069
1832.77 -817.035 4079
1842.52 -817.035 4079
1852.28 -817.035 4079
1862.03 -817.035 4079
1871.79 -817.035 4079
1881.54 -817.035 4079
1891.29 -817.035 4079
1878.21 -807.22 4030
3039.27 -811.026 4049
3071.54 -817.035 4079
3088.85 -819.038 4089
3098.63 -819.038 4089
3108.41 -819.038 4089
3102.93 -815.032 4069
3112.66 -815.032 4069
-2515.68 -735.423 3716
-2506.79 -735.423 3716
-2497.91 -735.423 3716
-2456.2 -725.726 3667
-2447.43 -725.726 3667
-2438.66 -725.726 3667
-2429.89 -725.726 3667
-2415.18 -723.945 3658
-2391.3 -719.393 3635
-2382.61 -719.393 3635
-2378.49 -720.778 3642
-2369.78 -720.778 3642
-2361.07 -720.778 3642
-2347.84 -719.393 3635
-2318.56 -713.06 3603
-2309.94 -713.06 3603
-2271.94 -703.956 3557
-2253.89 -700.987 3542
-2231.48 -696.633 3520
-2223.06 -696.633 3520
-556.276 -353.858 1788
-552 -353.858 1788
-547.724 -353.858 1788
-543.449 -353.858 1788
-538.57 -353.462 1786
-527.418 -348.91 1763
-523.202 -348.91 1763
-518.692 -348.712 1762
-514.479 -348.712 1762
-506.5 -346.14 1749
-502.318 -346.14 1749
-496.996 -345.348 1745
-491.694 -344.556 1741
-485.57 -343.171 1734
-481.424 -343.171 1734
-476.727 -342.775 1732
-472.585 -342.775 1732
-467.091 -341.786 1727
-461.621 -340.796 1722
-457.503 -340.796 1722
-451.016 -339.015 1713
-445.093 -337.63 1706
-439.98 -336.838 1702
-435.91 -336.838 1702
-431.078 -336.244 1699
-424.754 -334.463 1690
-418.721 -332.88 1682
-414.699 -332.88 1682
-408.479 -331.099 1673
-404.478 -331.099 1673
-398.084 -329.12 1663
-394.107 -329.12 1663
-389.896 -328.922 1662
-385.457 -328.526 1660
-379.879 -327.141 1653
-374.789 -326.151 1648
-370.848 -326.151 1648
-366.907 -326.151 1648
-362.966 -326.151 1648
-359.025 -326.151 1648
-355.946 -326.943 1652
-351.996 -326.943 1652
-348.046 -326.943 1652
-344.095 -326.943 1652
-340.145 -326.943 1652
-336.194 -326.943 1652
-332.244 -326.943 1652
-328.492 -327.141 1653
-325.325 -327.932 1657
-321.362 -327.932 1657
-317.591 -328.13 1658
-314.005 -328.526 1660
-310.035 -328.526 1660
-306.066 -328.526 1660
-302.46 -328.922 1662
-298.486 -328.922 1662
-295.575 -330.109 1668
-291.586 -330.109 1668
-287.597 -330.109 1668
-283.099 -329.516 1665
-279.117 -329.516 1665
-275.136 -329.516 1665
-270.828 -329.12 1663
-266.37 -328.526 1660
-262.401 -328.526 1660
-258.12 -328.13 1658
-254.155 -328.13 1658
-250.039 -327.932 1657
-246.077 -327.932 1657
-241.53 -327.141 1653
-237.577 -327.141 1653
-233.624 -327.141 1653
-229.255 -326.547 1650
-225.309 -326.547 1650
-221.363 -326.547 1650
-217.418 -326.547 1650
-213.084 -325.953 1647
-209.145 -325.953 1647
-204.958 -325.557 1645
-200.413 -324.568 1640
-196.372 -324.37 1639
-192.452 -324.37 1639
-188.303 -323.974 1637
-184.276 -323.776 1636
-180.143 -323.38 1634
-176.236 -323.38 1634
-172.117 -322.985 1632
-168.215 -322.985 1632
-164.01 -322.391 1629
-160.115 -322.391 1629
-156.219 -322.391 1629
-152.324 -322.391 1629
-148.428 -322.391 1629
-144.533 -322.391 1629
-140.551 -322.193 1628
-136.658 -322.193 1628
-132.602 -321.797 1626
-128.714 -321.797 1626
-124.979 -322.193 1628
-121.086 -322.193 1628
-117.265 -322.391 1629
-113.509 -322.787 1631
-109.676 -322.985 1632
-105.773 -322.985 1632
-101.87 -322.985 1632
-98.0878 -323.38 1634
-94.4686 -324.37 1639
-90.5492 -324.37 1639
-86.6299 -324.37 1639
-82.7105 -324.37 1639
-78.7912 -324.37 1639
-74.8718 -324.37 1639
-70.9525 -324.37 1639
-66.9514 -323.974 1637
-63.1138 -324.37 1639
-59.1945 -324.37 1639
-55.2751 -324.37 1639
-51.3558 -324.37 1639
-47.4364 -324.37 1639
-28.725 -766.099 3871
-19.4683 -766.099 3871
-10.3303 -775.005 3916
-0.965926 -775.005 3916
8.39842 -775.005 3916
17.7628 -775.005 3916
27.3834 -782.327 3953
36.8362 -782.327 3953
46.2891 -782.327 3953
55.7419 -782.327 3953
65.1947 -782.327 3953
75.0063 -786.087 3972
84.5046 -786.087 3972
94.9021 -793.608 4010
104.491 -793.608 4010
115.19 -801.326 4049
125.181 -803.305 4059
134.887 -803.305 4059
144.593 -803.305 4059
154.3 -803.305 4059
163.198 -799.347 4039
172.856 -799.347 4039
180.346 -789.848 3991
190.365 -791.827 4001
199.933 -791.827 4001
209.5 -791.827 4001
218.028 -788.066 3982
226.464 -784.306 3963
232.607 -773.223 3907
241.95 -773.223 3907
247.819 -762.536 3853
255.232 -757.193 3826
266.247 -762.536 3853
275.46 -762.536 3853
284.674 -762.536 3853
290.532 -753.829 3809
295.549 -743.537 3757
300.481 -733.642 3707
310.764 -737.006 3724
319.669 -737.006 3724
330.78 -741.954 3749
340.47 -743.537 3757
349.454 -743.537 3757
358.438 -743.537 3757
368.303 -745.319 3766
377.308 -745.319 3766
386.314 -745.319 3766
395.32 -745.319 3766
405.184 -746.902 3774
419.038 -755.61 3818
433.102 -764.318 3862
442.338 -764.318 3862
454.73 -769.661 3889
465.103 -771.442 3898
474.425 -771.442 3898
483.746 -771.442 3898
493.067 -771.442 3898
507.157 -778.765 3935
518.93 -782.327 3953
528.383 -782.327 3953
540.421 -786.087 3972
552.55 -789.848 3991
562.093 -789.848 3991
571.637 -789.848 3991
581.181 -789.848 3991
590.724 -789.848 3991
600.268 -789.848 3991
609.812 -789.848 3991
1760.16 -805.284 4069
1769.9 -805.284 4069
1779.63 -805.284 4069
1784.96 -803.305 4059
1794.66 -803.305 4059
1782.59 -793.608 4010
1818.55 -805.284 4069
1828.28 -805.284 4069
1842.52 -807.263 4079
1852.28 -807.263 4079
1862.03 -807.263 4079
1871.79 -807.263 4079
1881.54 -807.263 4079
1891.29 -807.263 4079
1878.21 -797.566 4030
3039.27 -801.326 4049
3071.54 -807.263 4079
3081.3 -807.263 4079
3091.05 -807.263 4079
3093.2 -805.284 4069
3073.19 -797.566 4030
3082.83 -797.566 4030
-2515.68 -726.521 3716
-2506.79 -726.521 3716
-2497.91 -726.521 3716
-2456.2 -716.941 3667
-2447.43 -716.941 3667
-2438.66 -716.941 3667
-2429.89 -716.941 3667
-2415.18 -715.182 3658
-2391.3 -710.685 3635
-2382.61 -710.685 3635
-2378.49 -712.054 3642
-2369.78 -712.054 3642
-2361.07 -712.054 3642
-2347.84 -710.685 3635
-2318.56 -704.429 3603
-2309.94 -704.429 3603
-2271.94 -695.435 3557
-2253.89 -692.502 3542
-2231.48 -688.201 3520
-2223.06 -688.201 3520
-556.276 -349.575 1788
-552 -349.575 1788
-547.724 -349.575 1788
-543.449 -349.575 1788
-538.57 -349.184 1786
-527.418 -344.687 1763
-523.202 -344.687 1763
-518.692 -344.492 1762
-514.479 -344.492 1762
-506.5 -341.95 1749
-502.318 -341.95 1749
-496.427 -340.777 1743
-491.694 -340.386 1741
-485.57 -339.017 1734
-481.424 -339.017 1734
-476.727 -338.626 1732
-472.585 -338.626 1732
-467.091 -337.649 1727
-461.085 -336.28 1720
-456.972 -336.28 1720
-451.016 -334.912 1713
-445.093 -333.543 1706
-439.721 -332.565 1701
-435.653 -332.565 1701
-430.571 -331.783 1697
-424.754 -330.415 1690
-418.721 -328.851 1682
-414.699 -328.851 1682
-408.479 -327.091 1673
-404.478 -327.091 1673
-398.084 -325.136 1663
-394.107 -325.136 1663
-389.896 -324.94 1662
-385.457 -324.549 1660
-379.879 -323.181 1653
-374.789 -322.203 1648
-370.848 -322.203 1648
-366.907 -322.203 1648
-362.966 -322.203 1648
-359.025 -322.203 1648
-355.946 -322.985 1652
-351.996 -322.985 1652
-348.046 -322.985 1652
-344.095 -322.985 1652
-340.145 -322.985 1652
-336.194 -322.985 1652
-332.244 -322.985 1652
-328.492 -323.181 1653
-325.325 -323.963 1657
-321.362 -323.963 1657
-317.591 -324.158 1658
-314.005 -324.549 1660
-310.035 -324.549 1660
-306.066 -324.549 1660
-302.46 -324.94 1662
-298.486 -324.94 1662
-295.575 -326.113 1668
-291.586 -326.113 1668
-287.597 -326.113 1668
-283.439 -325.918 1667
-279.452 -325.918 1667
-275.466 -325.918 1667
-270.828 -325.136 1663
-266.37 -324.549 1660
-262.401 -324.549 1660
-258.431 -324.549 1660
-254.155 -324.158 1658
-250.039 -323.963 1657
-246.077 -323.963 1657
-241.53 -323.181 1653
-237.577 -323.181 1653
-233.624 -323.181 1653
-229.255 -322.594 1650
-225.309 -322.594 1650
-221.363 -322.594 1650
-217.418 -322.594 1650
-213.084 -322.008 1647
-209.145 -322.008 1647
-204.958 -321.617 1645
-200.291 -320.444 1639
-196.132 -320.053 1637
-192.217 -320.053 1637
-188.303 -320.053 1637
-184.276 -319.857 1636
-179.922 -319.075 1632
-176.02 -319.075 1632
-172.117 -319.075 1632
-168.112 -318.88 1631
-163.909 -318.293 1628
-160.016 -318.293 1628
-156.123 -318.293 1628
-152.23 -318.293 1628
-148.337 -318.293 1628
-144.444 -318.293 1628
-140.551 -318.293 1628
-136.49 -317.902 1626
-132.602 -317.902 1626
-128.555 -317.511 1624
-124.825 -317.902 1626
-120.937 -317.902 1626
-117.265 -318.489 1629
-113.509 -318.88 1631
-109.676 -319.075 1632
-105.773 -319.075 1632
-101.995 -319.466 1634
-98.0878 -319.466 1634
-94.3533 -320.053 1637
-90.4387 -320.053 1637
-86.6827 -320.639 1640
-82.9629 -321.421 1644
-79.0316 -321.421 1644
-75.1003 -321.421 1644
-71.169 -321.421 1644
-67.2376 -321.421 1644
-63.3063 -321.421 1644
-59.375 -321.421 1644
-55.4437 -321.421 1644
-51.3558 -320.444 1639
-47.4364 -320.444 1639
-36.7847 -732.973 3749
-28.725 -756.826 3871
-19.4683 -756.826 3871
-10.3303 -765.624 3916
-0.965926 -765.624 3916
8.39842 -765.624 3916
17.7628 -765.624 3916
27.1271 -765.624 3916
36.7524 -771.098 3944
46.1837 -771.098 3944
55.615 -771.098 3944
65.0463 -771.098 3944
75.0063 -776.572 3972
84.5046 -776.572 3972
94.6891 -782.242 4001
104.257 -782.242 4001
114.905 -789.672 4039
125.181 -793.582 4059
134.887 -793.582 4059
144.593 -793.582 4059
153.919 -791.627 4049
163.198 -789.672 4039
172.856 -789.672 4039
179.939 -778.528 3982
189.461 -778.528 3982
198.983 -778.528 3982
208.506 -778.528 3982
216.987 -774.813 3963
224.293 -767.383 3925
232.607 -763.864 3907
241.95 -763.864 3907
247.24 -751.547 3844
254.698 -746.464 3818
265.003 -749.787 3835
274.173 -749.787 3835
283.344 -749.787 3835
290.532 -744.704 3809
295.549 -734.537 3757
300.481 -724.762 3707
312.099 -731.214 3740
321.043 -731.214 3740
330.78 -732.973 3749
341.286 -736.297 3766
350.291 -736.297 3766
359.297 -736.297 3766
368.303 -736.297 3766
377.308 -736.297 3766
386.314 -736.297 3766
395.32 -736.297 3766
404.325 -736.297 3766
419.038 -746.464 3818
431.084 -751.547 3844
440.276 -751.547 3844
451.573 -755.066 3862
464.03 -760.345 3889
474.425 -762.105 3898
483.746 -762.105 3898
494.206 -763.864 3907
507.157 -769.339 3935
517.749 -771.098 3944
527.18 -771.098 3944
537.836 -772.858 3953
547.289 -772.858 3953
556.741 -772.858 3953
564.905 -771.098 3944
574.336 -771.098 3944
600.789 -793.582 4059
612 -795.537 4069
621.73 -795.537 4069
631.46 -795.537 4069
1743.29 -787.912 4030
1752.93 -787.912 4030
1762.57 -787.912 4030
1767.81 -785.957 4020
1777.42 -785.957 4020
1778.59 -782.242 4001
1805.14 -789.672 4039
1819.29 -791.627 4049
1838.01 -795.537 4069
1847.74 -795.537 4069
1857.47 -795.537 4069
1867.2 -795.537 4069
1876.93 -795.537 4069
1886.66 -795.537 4069
1878.21 -787.912 4030
1838.66 -767.383 3925
1843.81 -765.624 3916
1857.43 -767.383 3925
1866.82 -767.383 3925
1876.2 -767.383 3925
3017.5 -785.957 4020
3034.65 -787.912 4030
3044.28 -787.912 4030
3053.92 -787.912 4030
3063.56 -787.912 4030
3073.19 -787.912 4030
3082.83 -787.912 4030
-2484.53 -711.247 3683
-2475.72 -711.247 3683
-2466.92 -711.247 3683
-2447.43 -708.157 3667
-2438.66 -708.157 3667
-2429.89 -708.157 3667
-2415.18 -706.419 3658
-2391.3 -701.977 3635
-2382.61 -701.977 3635
-2378.49 -703.329 3642
-2369.78 -703.329 3642
-2361.07 -703.329 3642
-2352.36 -703.329 3642
-2334 -700.432 3627
-2325.33 -700.432 3627
-2277.05 -688.459 3565
-2263.44 -686.914 3557
-2249.86 -685.369 3549
-2241.37 -685.369 3549
-555.653 -344.906 1786
-551.382 -344.906 1786
-547.112 -344.906 1786
-542.233 -344.519 1784
-536.459 -343.554 1779
-527.418 -340.464 1763
-523.202 -340.464 1763
-518.692 -340.271 1762
-513.895 -339.884 1760
-505.921 -337.374 1747
-501.744 -337.374 1747
-496.427 -336.602 1743
-491.694 -336.215 1741
-485.57 -334.863 1734
-481.424 -334.863 1734
-476.727 -334.477 1732
-472.585 -334.477 1732
-467.091 -333.512 1727
-461.085 -332.16 1720
-456.972 -332.16 1720
-451.016 -330.808 1713
-445.093 -329.456 1706
-439.721 -328.491 1701
-435.653 -328.491 1701
-430.571 -327.718 1697
-424.754 -326.366 1690
-418.721 -324.821 1682
-414.699 -324.821 1682
-408.479 -323.083 1673
-404.237 -322.89 1672
-398.084 -321.152 1663
-394.107 -321.152 1663
-389.896 -320.959 1662
-385.457 -320.573 1660
-380.338 -319.607 1655
-374.789 -318.255 1648
-370.848 -318.255 1648
-366.907 -318.255 1648
-362.966 -318.255 1648
-359.025 -318.255 1648
-355.946 -319.028 1652
-351.996 -319.028 1652
-348.046 -319.028 1652
-344.095 -319.028 1652
-340.145 -319.028 1652
-336.194 -319.028 1652
-332.244 -319.028 1652
-328.492 -319.221 1653
-325.521 -320.187 1658
-321.556 -320.187 1658
-317.591 -320.187 1658
-314.005 -320.573 1660
-310.409 -320.959 1662
-306.435 -320.959 1662
-302.642 -321.152 1663
-298.665 -321.152 1663
-295.575 -322.118 1668
-291.586 -322.118 1668
-287.597 -322.118 1668
-283.439 -321.925 1667
-279.452 -321.925 1667
-275.466 -321.925 1667
-270.828 -321.152 1663
-266.691 -320.959 1662
-262.717 -320.959 1662
-258.431 -320.573 1660
-254.155 -320.187 1658
-250.039 -319.994 1657
-246.077 -319.994 1657
-241.53 -319.221 1653
-237.577 -319.221 1653
-233.483 -319.028 1652
-229.533 -319.028 1652
-225.582 -319.028 1652
-221.363 -318.642 1650
-217.154 -318.255 1648
-212.825 -317.676 1645
-208.892 -317.676 1645
-204.833 -317.483 1644
-200.291 -316.517 1639
-196.132 -316.131 1637
-192.217 -316.131 1637
-188.188 -315.938 1636
-184.05 -315.552 1634
-179.922 -315.166 1632
-176.02 -315.166 1632
-172.012 -314.973 1631
-167.905 -314.586 1629
-163.909 -314.393 1628
-160.016 -314.393 1628
-156.123 -314.393 1628
-152.23 -314.393 1628
-148.337 -314.393 1628
-144.444 -314.393 1628
-140.378 -314.007 1626
-136.49 -314.007 1626
-132.439 -313.621 1624
-128.555 -313.621 1624
-124.979 -314.393 1628
-121.086 -314.393 1628
-117.265 -314.586 1629
-113.578 -315.166 1632
