ply
format ascii 1.0
comment File generated
element vertex 2253
property float x
property float y
property float z
end_header
-44.5416 1026.36 3650
-35.7348 1024.11 3642
-27.0257 1024.11 3642
-18.2412 1019.89 3627
-9.52569 1015.39 3611
-0.890695 1015.39 3611
7.7443 1015.39 3611
16.3793 1015.39 3611
24.9035 1010.89 3595
33.2859 1004.43 3572
41.8276 1004.43 3572
50.3693 1004.43 3572
58.7956 1002.46 3565
67.1695 1000.21 3557
75.5052 997.959 3549
83.9919 997.959 3549
91.9054 991.773 3527
100.34 991.773 3527
108.99 993.742 3534
117.44 993.742 3534
125.891 993.742 3534
134.342 993.742 3534
142.793 993.742 3534
151.244 993.742 3534
159.695 993.742 3534
168.146 993.742 3534
176.247 991.773 3527
184.681 991.773 3527
193.115 991.773 3527
201.549 991.773 3527
209.983 991.773 3527
218.417 991.773 3527
226.851 991.773 3527
235.286 991.773 3527
243.236 989.805 3520
252.654 993.742 3534
261.696 995.991 3542
270.166 995.991 3542
279.816 1000.21 3557
288.97 1002.46 3565
297.495 1002.46 3565
306.02 1002.46 3565
314.545 1002.46 3565
323.705 1004.43 3572
332.247 1004.43 3572
340.788 1004.43 3572
349.33 1004.43 3572
357.872 1004.43 3572
366.414 1004.43 3572
374.955 1004.43 3572
382.745 1002.46 3565
389.514 997.959 3549
398.001 997.959 3549
402.25 987.555 3512
408.076 981.369 3490
415.586 979.401 3483
419.534 969.278 3447
427.776 969.278 3447
434.248 965.341 3433
441.556 963.373 3426
444.235 951.562 3384
452.327 951.562 3384
456.745 943.97 3357
462.004 938.346 3337
468.012 934.41 3323
475.958 934.41 3323
483.031 932.722 3317
490.963 932.722 3317
498.895 932.722 3317
507.744 934.41 3323
515.69 934.41 3323
523.636 934.41 3323
531.582 934.41 3323
539.529 934.41 3323
548.628 936.378 3330
556.591 936.378 3330
564.554 936.378 3330
572.517 936.378 3330
580.48 936.378 3330
588.444 936.378 3330
596.407 936.378 3330
604.37 936.378 3330
612.333 936.378 3330
620.296 936.378 3330
628.259 936.378 3330
637.559 938.346 3337
645.539 938.346 3337
653.519 938.346 3337
661.498 938.346 3337
669.478 938.346 3337
677.458 938.346 3337
684 936.378 3330
691.963 936.378 3330
698.455 934.41 3323
706.401 934.41 3323
715.852 936.378 3330
723.815 936.378 3330
731.778 936.378 3330
739.741 936.378 3330
747.704 936.378 3330
755.667 936.378 3330
763.63 936.378 3330
771.593 936.378 3330
779.556 936.378 3330
787.52 936.378 3330
795.483 936.378 3330
805.135 938.346 3337
813.114 938.346 3337
821.094 938.346 3337
827.335 936.378 3330
835.298 936.378 3330
846.553 940.033 3343
854.547 940.033 3343
869.507 947.626 3370
883.035 953.531 3391
896.662 959.436 3412
904.821 959.436 3412
918.6 965.341 3433
932.478 971.246 3454
944.551 975.183 3468
952.844 975.183 3468
969.174 983.337 3497
983.966 989.805 3520
1002.81 1000.21 3557
1011.32 1000.21 3557
1024.13 1004.43 3572
1037.29 1008.93 3588
1052.58 1015.39 3611
1065.92 1019.89 3627
1074.59 1019.89 3627
1090.13 1026.36 3650
1108.79 1035.64 3683
1117.6 1035.64 3683
1126.41 1035.64 3683
1135.22 1035.64 3683
1146.51 1037.89 3691
1155.33 1037.89 3691
1164.16 1037.89 3691
1175.53 1040.14 3699
1184.38 1040.14 3699
1193.22 1040.14 3699
1196.87 1035.64 3683
1205.67 1035.64 3683
1214.48 1035.64 3683
1223.29 1035.64 3683
1229.42 1033.39 3675
1235.51 1031.14 3667
1244.28 1031.14 3667
1253.05 1031.14 3667
1261.82 1031.14 3667
1267.47 1028.61 3658
1276.22 1028.61 3658
1284.96 1028.61 3658
1293.71 1028.61 3658
1299.61 1026.36 3650
1308.34 1026.36 3650
1317.07 1026.36 3650
1325.79 1026.36 3650
1334.52 1026.36 3650
1340.31 1024.11 3642
1349.02 1024.11 3642
1357.73 1024.11 3642
1363.81 1022.14 3635
1372.5 1022.14 3635
1378.15 1019.89 3627
1386.83 1019.89 3627
1389.34 1015.39 3611
1394.88 1013.14 3603
1397.65 1008.93 3588
1406.23 1008.93 3588
1408.51 1004.43 3572
1414.27 1002.46 3565
1422.79 1002.46 3565
1424.9 997.959 3549
1433.38 997.959 3549
1435.78 993.742 3534
1441.37 991.773 3527
1446.92 989.805 3520
1455.34 989.805 3520
1460.43 987.555 3512
1465.9 985.587 3505
1470.92 983.337 3497
1479.28 983.337 3497
1484.66 981.369 3490
1496 983.337 3497
1514.26 989.805 3520
1535.22 997.959 3549
1543.71 997.959 3549
1555.7 1000.21 3557
1570.8 1004.43 3572
1603.66 1019.89 3627
1612.33 1019.89 3627
1631.28 1026.36 3650
1654.84 1035.64 3683
1704.75 1061.23 3774
1713.78 1061.23 3774
1722.8 1061.23 3774
1743.76 1068.54 3800
1773.14 1080.91 3844
1782.33 1080.91 3844
1825.08 1101.16 3916
1838.66 1103.69 3925
1861.23 1111.56 3953
1870.68 1111.56 3953
1880.14 1111.56 3953
1889.59 1111.56 3953
1894.72 1109.03 3944
1904.15 1109.03 3944
1891.26 1096.1 3898
1857.19 1071.07 3809
1832.49 1051.67 3740
1841.43 1051.67 3740
1830.09 1040.14 3699
1823.03 1031.14 3667
1795.83 1010.89 3595
1789.37 1002.46 3565
1797.89 1002.46 3565
1787.16 991.773 3527
1784.4 985.587 3505
1785.11 981.369 3490
1793.45 981.369 3490
1801.8 981.369 3490
1806.51 979.401 3483
1803.38 973.214 3461
1811.66 973.214 3461
1816.25 971.246 3454
1839.83 979.401 3483
1851.87 981.369 3490
1863.95 983.337 3497
1892.12 993.742 3534
1900.57 993.742 3534
1913.35 995.991 3542
1929.95 1000.21 3557
1959.17 1010.89 3595
1967.77 1010.89 3595
1976.36 1010.89 3595
2207.1 1114.37 3963
2221.61 1116.9 3972
2247.4 1125.06 4001
2284.04 1138.56 4049
2293.73 1138.56 4049
2314.79 1144.18 4069
2330.23 1146.99 4079
2339.98 1146.99 4079
2349.74 1146.99 4079
2386.75 1141.37 4059
2396.45 1141.37 4059
2406.16 1141.37 4059
2415.87 1141.37 4059
2431.55 1144.18 4069
2441.28 1144.18 4069
2451.01 1144.18 4069
2442.6 1135.74 4039
2434.65 1127.59 4010
2432.66 1122.25 3991
2418.95 1111.56 3953
2428.4 1111.56 3953
2437.85 1111.56 3953
2441.73 1109.03 3944
2433.76 1101.16 3916
2443.13 1101.16 3916
2452.49 1101.16 3916
2444.88 1093.57 3889
2459.86 1096.1 3898
2492.62 1106.5 3935
2502.03 1106.5 3935
2529.31 1114.37 3963
2538.79 1114.37 3963
2548.26 1114.37 3963
2557.74 1114.37 3963
2567.22 1114.37 3963
2570.19 1111.56 3953
2567.9 1106.5 3935
2577.31 1106.5 3935
2580.14 1103.69 3925
2583.59 1101.16 3916
2592.96 1101.16 3916
2602.32 1101.16 3916
2611.69 1101.16 3916
540.493 199.929 711
542.194 199.929 711
543.894 199.929 711
-2361.48 894.443 3154
-2353.94 894.443 3154
-2337.47 891.04 3142
-2321.05 887.637 3130
-2304.7 884.234 3118
-2297.24 884.234 3118
-2285.38 882.532 3112
-2277.94 882.532 3112
-2279.25 885.935 3124
-2280.51 889.338 3136
-2273.01 889.338 3136
-2278.51 894.443 3154
-2275.29 896.145 3160
-2280.65 901.249 3178
-2273.05 901.249 3178
-2269.73 902.951 3184
-2288.4 913.444 3221
-2284.95 915.145 3227
-2277.23 915.145 3227
-2282.88 920.533 3246
-2305.96 933.011 3290
-2340 950.027 3350
-2331.99 950.027 3350
-2352.42 961.654 3391
-2353.99 965.624 3405
-2355.49 969.594 3419
-2347.32 969.594 3419
-2353.51 975.55 3440
-2345.28 975.55 3440
-2341.81 977.535 3447
-2333.57 977.535 3447
-2325.33 977.535 3447
-2317.08 977.535 3447
-2308.84 977.535 3447
-2300.6 977.535 3447
-2292.35 977.535 3447
-2293.39 981.505 3461
-2289.73 983.49 3468
-2281.44 983.49 3468
-2273.15 983.49 3468
-2274.65 987.744 3483
-2275.43 991.714 3497
-2267.07 991.714 3497
-2268.4 995.968 3512
-2269.65 1000.22 3527
-2265.7 1002.21 3534
-2257.25 1002.21 3534
-2248.8 1002.21 3534
-2240.35 1002.21 3534
-2236.95 1004.48 3542
-2228.48 1004.48 3542
-2229.41 1008.73 3557
-2225.9 1011 3565
-2217.38 1011 3565
-2208.85 1011 3565
-2204.65 1012.98 3572
-2201.03 1015.25 3580
-2197.36 1017.52 3588
-2188.78 1017.52 3588
-2184.46 1019.51 3595
-2175.86 1019.51 3595
-2167.26 1019.51 3595
-2158.67 1019.51 3595
-2154.85 1021.78 3603
-2146.24 1021.78 3603
-2137.62 1021.78 3603
-2129.01 1021.78 3603
-2111.56 1017.52 3588
-2098.29 1015.25 3580
-2089.73 1015.25 3580
-2072.45 1011 3565
-2063.93 1011 3565
-2055.4 1011 3565
-2046.88 1011 3565
-2038.35 1011 3565
-2029.83 1011 3565
-2021.3 1011 3565
-2012.78 1011 3565
-2004.25 1011 3565
-1991.25 1008.73 3557
-1978.28 1006.46 3549
-1969.8 1006.46 3549
-1961.31 1006.46 3549
-1944.57 1002.21 3534
-1940.5 1004.48 3542
-1935.85 1006.46 3549
-1927.36 1006.46 3549
-1923.2 1008.73 3557
-1927.08 1015.25 3580
-1922.8 1017.52 3588
-1914.22 1017.52 3588
-1905.64 1017.52 3588
-1904.99 1021.78 3603
-1904.8 1026.31 3619
-1896.15 1026.31 3619
-1891.66 1028.58 3627
-1887.14 1030.85 3635
-1882.07 1032.84 3642
-1873.36 1032.84 3642
-1868.75 1035.1 3650
-1860.02 1035.1 3650
-1855.35 1037.37 3658
-1846.6 1037.37 3658
-1837.85 1037.37 3658
-1833.61 1039.92 3667
-1832.8 1044.46 3683
-1823.99 1044.46 3683
-1815.19 1044.46 3683
-1806.38 1044.46 3683
-1797.57 1044.46 3683
-1788.76 1044.46 3683
-1764.01 1035.1 3650
-1748.07 1030.85 3635
-1739.37 1030.85 3635
-1726.87 1028.58 3627
-1714.41 1026.31 3619
-1683.6 1012.98 3572
-1668.03 1008.73 3557
-1659.52 1008.73 3557
-1647.3 1006.46 3549
-1631.89 1002.21 3534
-1620.22 1000.22 3527
-1611.79 1000.22 3527
-1600.17 998.237 3520
-1581.35 991.714 3497
-1572.99 991.714 3497
-1564.63 991.714 3497
-1550.04 987.744 3483
-1538.61 985.759 3476
-1530.3 985.759 3476
-1521.98 985.759 3476
-1510.19 983.49 3468
-1498.86 981.505 3461
-1487.57 979.52 3454
-1482.31 981.505 3461
-1474.04 981.505 3461
-1468.72 983.49 3468
-1472.64 991.714 3497
-1467.63 993.983 3505
-1459.25 993.983 3505
-1450.87 993.983 3505
-1445.37 995.968 3512
-1436.97 995.968 3512
-1428.57 995.968 3512
-1429.07 1002.21 3534
-1420.62 1002.21 3534
-1415.36 1004.48 3542
-1406.89 1004.48 3542
-1398.42 1004.48 3542
-1392.7 1006.46 3549
-1387.33 1008.73 3557
-1378.83 1008.73 3557
-1370.32 1008.73 3557
-1364.88 1011 3565
-1359.02 1012.98 3572
-1350.48 1012.98 3572
-1344.94 1015.25 3580
-1336.38 1015.25 3580
-1327.82 1015.25 3580
-1316.31 1012.98 3572
-1299.35 1006.46 3549
-1288.31 1004.48 3542
-1279.84 1004.48 3542
-1271.37 1004.48 3542
-1262.9 1004.48 3542
-1254.43 1004.48 3542
-1240.69 1000.22 3527
-1232.25 1000.22 3527
-1218.61 995.968 3512
-1202.63 989.729 3490
-1174.78 973.565 3433
-1166.57 973.565 3433
-1144.19 961.654 3391
-586.861 507.626 1790
-582.58 507.626 1790
-581.531 510.462 1800
-577.226 510.462 1800
-572.922 510.462 1800
-567.986 509.895 1798
-562.432 508.761 1794
-554.409 505.358 1782
-547.986 503.372 1775
-543.742 503.372 1775
-537.674 501.671 1769
-531.634 499.969 1763
-526.521 499.119 1760
-522.312 499.119 1760
-515.748 496.85 1752
-508.931 494.297 1743
-503.894 493.447 1740
-499.733 493.447 1740
-493.864 491.745 1734
-488.305 490.327 1729
-484.17 490.327 1729
-480.036 490.327 1729
-474.8 489.193 1725
-471.767 490.327 1729
-467.632 490.327 1729
-463.498 490.327 1729
-459.363 490.327 1729
-455.228 490.327 1729
-451.877 491.178 1732
-448.252 491.745 1734
-444.618 492.312 1736
-440.466 492.312 1736
-437.572 493.73 1741
-433.906 494.297 1743
-430.724 495.432 1747
-426.547 495.432 1747
-423.578 496.85 1752
-421.782 499.686 1762
-420.176 502.805 1773
-415.936 502.805 1773
-413.089 504.507 1779
-409.065 504.79 1780
-404.808 504.79 1780
-400.552 504.79 1780
-396.073 504.507 1779
-391.819 504.507 1779
-387.564 504.507 1779
-381.587 502.238 1771
-377.352 502.238 1771
-372.695 501.671 1769
-368.465 501.671 1769
-363.411 500.536 1765
-357.766 498.551 1758
-352.758 497.417 1754
-348.563 497.417 1754
-343.78 496.566 1751
-338.041 494.297 1743
-333.299 493.447 1740
-329.138 493.447 1740
-323.483 491.178 1732
-318.419 489.76 1727
-312.651 487.208 1718
-308.543 487.208 1718
-304.081 486.641 1716
-299.977 486.641 1716
-295.874 486.641 1716
-292.11 487.208 1718
-288.672 488.342 1722
-284.555 488.342 1722
-280.6 488.626 1723
-276.8 489.193 1725
-272.991 489.76 1727
-268.862 489.76 1727
-265.805 491.745 1734
-262.564 493.447 1740
-258.848 494.297 1743
-254.68 494.297 1743
-251.087 495.432 1747
-247.616 496.85 1752
-244.26 498.551 1758
-240.057 498.551 1758
-237.328 501.671 1769
-234.548 504.79 1780
-230.809 505.925 1784
-226.543 505.925 1784
-223.024 507.626 1790
-219.232 508.761 1794
-215.422 509.895 1798
-211.122 509.895 1798
-207.283 511.029 1802
-204.213 514.149 1813
-199.877 514.149 1813
-195.542 514.149 1813
-191.417 514.716 1815
-187.283 515.283 1817
-183.341 516.418 1821
-178.986 516.418 1821
-175.399 518.686 1829
-171.399 519.821 1833
-167.563 521.522 1839
-163.165 521.522 1839
-158.94 522.089 1841
-155.293 524.642 1850
-151.522 526.91 1858
-147.079 526.91 1858
-142.943 528.045 1862
-138.639 528.612 1864
-134.181 528.612 1864
-129.724 528.612 1864
-227.631 1075.37 3792
-219.024 1077.64 3800
-210.434 1080.19 3809
-201.326 1080.19 3809
-193.53 1087.57 3835
-185.224 1092.67 3853
-176.011 1092.67 3853
-166.797 1092.67 3853
-157.215 1090.12 3844
-148.023 1090.12 3844
-138.831 1090.12 3844
-129.031 1085.02 3826
-119.632 1082.75 3818
-108.736 1065.45 3757
-99.7521 1065.45 3757
-89.9707 1056.09 3724
-80.8913 1053.82 3716
-71.5208 1046.73 3691
-62.6945 1046.73 3691
-53.3866 1037.37 3658
-44.5416 1035.1 3650
-35.6662 1030.85 3635
-26.9738 1030.85 3635
-18.2412 1028.58 3627
-9.54679 1026.31 3619
-0.890695 1024.04 3611
7.72714 1021.78 3603
16.343 1021.78 3603
24.9035 1019.51 3595
33.2859 1012.98 3572
41.8276 1012.98 3572
50.3693 1012.98 3572
58.7956 1011 3565
67.3206 1011 3565
75.5052 1006.46 3549
83.9919 1006.46 3549
91.9054 1000.22 3527
100.539 1002.21 3534
108.99 1002.21 3534
117.44 1002.21 3534
125.891 1002.21 3534
134.342 1002.21 3534
142.793 1002.21 3534
151.244 1002.21 3534
159.695 1002.21 3534
168.146 1002.21 3534
176.247 1000.22 3527
184.681 1000.22 3527
193.115 1000.22 3527
201.549 1000.22 3527
210.4 1002.21 3534
218.851 1002.21 3534
227.302 1002.21 3534
235.286 1000.22 3527
244.203 1002.21 3534
252.654 1002.21 3534
261.696 1004.48 3542
270.166 1004.48 3542
279.816 1008.73 3557
288.97 1011 3565
297.495 1011 3565
306.02 1011 3565
314.545 1011 3565
323.07 1011 3565
332.247 1012.98 3572
340.788 1012.98 3572
349.33 1012.98 3572
357.872 1012.98 3572
366.414 1012.98 3572
374.955 1012.98 3572
382.745 1011 3565
387.868 1002.21 3534
396.319 1002.21 3534
402.25 995.968 3512
408.076 989.729 3490
414.751 985.759 3476
418.682 975.55 3440
426.908 975.55 3440
434.248 973.565 3433
442.458 973.565 3433
445.154 961.654 3391
453.262 961.654 3391
457.562 953.713 3363
462.004 946.34 3337
468.012 942.37 3323
475.958 942.37 3323
483.031 940.668 3317
490.963 940.668 3317
498.895 940.668 3317
507.744 942.37 3323
515.69 942.37 3323
523.636 942.37 3323
531.582 942.37 3323
539.529 942.37 3323
547.475 942.37 3323
555.421 942.37 3323
564.554 944.355 3330
572.517 944.355 3330
580.48 944.355 3330
588.444 944.355 3330
595.153 942.37 3323
603.099 942.37 3323
611.045 942.37 3323
618.992 942.37 3323
626.938 942.37 3323
634.884 942.37 3323
644.185 944.355 3330
652.148 944.355 3330
661.498 946.34 3337
669.478 946.34 3337
677.458 946.34 3337
684 944.355 3330
691.963 944.355 3330
698.455 942.37 3323
707.889 944.355 3330
715.852 944.355 3330
723.815 944.355 3330
731.778 944.355 3330
739.741 944.355 3330
747.704 944.355 3330
755.667 944.355 3330
765.236 946.34 3337
773.215 946.34 3337
781.195 946.34 3337
789.175 946.34 3337
797.155 946.34 3337
805.135 946.34 3337
813.114 946.34 3337
821.094 946.34 3337
829.074 946.34 3337
837.054 946.34 3337
848.325 950.027 3350
856.336 950.027 3350
873.12 959.669 3384
883.035 961.654 3391
896.662 967.609 3412
904.821 967.609 3412
918.6 973.565 3433
932.478 979.52 3454
944.551 983.49 3468
952.844 983.49 3468
967.234 989.729 3490
983.966 998.237 3520
1002.81 1008.73 3557
1011.32 1008.73 3557
1024.13 1012.98 3572
1037.29 1017.52 3588
1050.25 1021.78 3603
1065.92 1028.58 3627
1074.59 1028.58 3627
1090.13 1035.1 3650
1108.79 1044.46 3683
1117.6 1044.46 3683
1126.41 1044.46 3683
1137.68 1046.73 3691
1146.51 1046.73 3691
1155.33 1046.73 3691
1164.16 1046.73 3691
1175.53 1049 3699
1184.38 1049 3699
1193.22 1049 3699
1196.87 1044.46 3683
1205.67 1044.46 3683
1214.48 1044.46 3683
1223.29 1044.46 3683
1232.1 1044.46 3683
1235.51 1039.92 3667
1244.28 1039.92 3667
1253.05 1039.92 3667
1261.82 1039.92 3667
1267.47 1037.37 3658
1276.22 1037.37 3658
1284.96 1037.37 3658
1293.71 1037.37 3658
1299.61 1035.1 3650
1308.34 1035.1 3650
1317.07 1035.1 3650
1325.79 1035.1 3650
1334.52 1035.1 3650
1340.31 1032.84 3642
1349.02 1032.84 3642
1357.73 1032.84 3642
1363.81 1030.85 3635
1372.5 1030.85 3635
1378.15 1028.58 3627
1386.83 1028.58 3627
1389.34 1024.04 3611
1394.88 1021.78 3603
1397.65 1017.52 3588
1406.23 1017.52 3588
1408.51 1012.98 3572
1414.27 1011 3565
1422.79 1011 3565
1424.9 1006.46 3549
1433.38 1006.46 3549
1439.03 1004.48 3542
1444.23 1002.21 3534
1449.8 1000.22 3527
1458.23 1000.22 3527
1460.43 995.968 3512
1465.9 993.983 3505
1470.92 991.714 3497
1479.28 991.714 3497
1484.66 989.729 3490
1496 991.714 3497
1514.26 998.237 3520
1532.2 1004.48 3542
1540.67 1004.48 3542
1552.2 1006.46 3549
1570.8 1012.98 3572
1603.66 1028.58 3627
1612.33 1028.58 3627
1631.28 1035.1 3650
1654.84 1044.46 3683
1701.14 1068 3766
1710.14 1068 3766
1722.8 1070.27 3774
1731.83 1070.27 3774
1781.44 1095.22 3862
1790.68 1095.22 3862
1825.08 1110.54 3916
1838.66 1113.09 3925
1852.76 1115.93 3935
1866.42 1118.48 3944
1875.86 1118.48 3944
1885.29 1118.48 3944
1881.27 1110.54 3916
1890.63 1110.54 3916
1873.8 1095.22 3862
1844.51 1072.82 3783
1824.65 1056.09 3724
1833.56 1056.09 3724
1822.18 1044.46 3683
1814.58 1035.1 3650
1792.33 1017.52 3588
1773.81 1002.21 3534
1782.26 1002.21 3534
1787.16 1000.22 3527
1773.2 987.744 3483
1777.95 985.759 3476
1786.26 985.759 3476
1794.57 985.759 3476
1791.47 979.52 3454
1792.44 975.55 3440
1800.66 975.55 3440
1816.25 979.52 3454
1824.51 979.52 3454
1832.77 979.52 3454
1848.49 983.49 3468
1868.56 989.729 3490
1876.91 989.729 3490
1889.04 991.714 3497
1897.4 991.714 3497
1913.94 995.968 3512
1922.33 995.968 3512
1930.73 995.968 3512
2207.1 1123.87 3963
2221.61 1126.42 3972
2247.4 1134.64 4001
2284.04 1148.26 4049
2305.06 1153.93 4069
2314.79 1153.93 4069
2330.23 1156.76 4079
2339.98 1156.76 4079
2349.74 1156.76 4079
2386.75 1151.09 4059
2396.45 1151.09 4059
2406.16 1151.09 4059
2409.92 1148.26 4049
2413.62 1145.42 4039
2423.28 1145.42 4039
2432.94 1145.42 4039
2425.06 1137.2 4010
2423.11 1131.81 3991
2409.49 1121.03 3953
2401.81 1113.09 3925
2411.2 1113.09 3925
2415.03 1110.54 3916
2418.83 1107.99 3907
2389.02 1090.12 3844
2398.21 1090.12 3844
2401.76 1087.57 3835
2410.93 1087.57 3835
2431.46 1092.67 3853
2469.18 1105.43 3898
2478.5 1105.43 3898
2493.57 1107.99 3907
2502.91 1107.99 3907
2512.26 1107.99 3907
2521.6 1107.99 3907
2530.94 1107.99 3907
2534.43 1105.43 3898
2555.5 1110.54 3916
2564.86 1110.54 3916
2574.23 1110.54 3916
538.973 201.065 709
540.669 201.065 709
542.364 201.065 709
-2352.49 898.567 3142
-2344.98 898.567 3142
-2328.54 895.135 3130
-2316.6 893.419 3124
-2304.7 891.703 3118
-2297.24 891.703 3118
-2285.38 889.987 3112
-2277.94 889.987 3112
-2279.25 893.419 3124
-2280.51 896.851 3136
-2273.01 896.851 3136
-2278.51 901.999 3154
-2275.29 903.714 3160
-2284.96 910.578 3184
-2277.34 910.578 3184
-2269.73 910.578 3184
-2292.67 922.875 3227
-2289.2 924.591 3233
-2281.47 924.591 3233
-2287.1 930.025 3252
-2305.96 940.893 3290
-2344.89 960.054 3357
-2336.86 960.054 3357
-2357.28 971.779 3398
-2363.67 977.785 3419
-2360.32 979.787 3426
-2352.12 979.787 3426
-2358.3 985.792 3447
-2350.05 985.792 3447
-2341.81 985.792 3447
-2333.57 985.792 3447
-2325.33 985.792 3447
-2326.49 989.796 3461
-2318.22 989.796 3461
-2309.94 989.796 3461
-2301.67 989.796 3461
-2293.39 989.796 3461
-2289.73 991.798 3468
-2281.44 991.798 3468
-2282.98 996.088 3483
-2274.65 996.088 3483
-2275.43 1000.09 3497
-2267.07 1000.09 3497
-2273.56 1006.67 3520
-2269.65 1008.67 3527
-2270.83 1012.96 3542
-2262.36 1012.96 3542
-2253.89 1012.96 3542
-2240.35 1010.67 3534
-2236.95 1012.96 3542
-2228.48 1012.96 3542
-2229.41 1017.25 3557
-2220.91 1017.25 3557
-2212.4 1017.25 3557
-2203.9 1017.25 3557
-2200.33 1019.54 3565
-2196.11 1021.54 3572
-2197.36 1026.12 3588
-2188.78 1026.12 3588
-2180.2 1026.12 3588
-2175.86 1028.12 3595
-2167.26 1028.12 3595
-2158.67 1028.12 3595
-2150.07 1028.12 3595
-2141.47 1028.12 3595
-2132.88 1028.12 3595
-2120.14 1026.12 3588
-2106.86 1023.83 3580
-2084.81 1017.25 3557
-2080.98 1019.54 3565
-2072.45 1019.54 3565
-2063.93 1019.54 3565
-2055.4 1019.54 3565
-2046.88 1019.54 3565
-2033.78 1017.25 3557
-2025.27 1017.25 3557
-2016.77 1017.25 3557
-2008.26 1017.25 3557
-1999.76 1017.25 3557
-1986.77 1014.96 3549
-1978.28 1014.96 3549
-1969.8 1014.96 3549
-1953.02 1010.67 3534
-1940.72 1008.67 3527
-1936.12 1010.67 3534
-1932.03 1012.96 3542
-1923.56 1012.96 3542
-1918.88 1014.96 3549
-1927.08 1023.83 3580
-1922.8 1026.12 3588
-1914.22 1026.12 3588
-1905.64 1026.12 3588
-1904.99 1030.41 3603
-1900.59 1032.69 3611
-1891.95 1032.69 3611
-1887.49 1034.98 3619
-1887.14 1039.56 3635
-1878.45 1039.56 3635
-1869.76 1039.56 3635
-1864.65 1041.56 3642
-1860.02 1043.85 3650
-1851.29 1043.85 3650
-1842.56 1043.85 3650
-1837.85 1046.14 3658
-1833.61 1048.71 3667
-1832.8 1053.28 3683
-1823.99 1053.28 3683
-1815.19 1053.28 3683
-1806.38 1053.28 3683
-1797.57 1053.28 3683
-1788.76 1053.28 3683
-1764.01 1043.85 3650
-1748.07 1039.56 3635
-1739.37 1039.56 3635
-1726.87 1037.27 3627
-1714.41 1034.98 3619
-1683.6 1021.54 3572
-1668.03 1017.25 3557
-1659.52 1017.25 3557
-1647.3 1014.96 3549
-1631.89 1010.67 3534
-1617.01 1006.67 3520
-1608.59 1006.67 3520
-1589.72 1000.09 3497
-1578.19 998.09 3490
-1569.84 998.09 3490
-1561.5 998.09 3490
-1546.92 994.086 3476
-1535.07 991.798 3468
-1526.77 991.798 3468
-1518.48 991.798 3468
-1507.14 989.796 3461
-1495.83 987.794 3454
-1484.56 985.792 3447
-1479.31 987.794 3454
-1471.05 987.794 3454
-1465.76 989.796 3461
-1469.69 998.09 3490
-1467.63 1002.38 3505
-1459.25 1002.38 3505
-1450.87 1002.38 3505
-1445.37 1004.38 3512
-1436.97 1004.38 3512
-1428.57 1004.38 3512
-1429.07 1010.67 3534
-1420.62 1010.67 3534
-1415.36 1012.96 3542
-1406.89 1012.96 3542
-1398.42 1012.96 3542
-1392.7 1014.96 3549
-1387.33 1017.25 3557
-1378.83 1017.25 3557
-1370.32 1017.25 3557
-1364.88 1019.54 3565
-1359.02 1021.54 3572
-1350.48 1021.54 3572
-1341.93 1021.54 3572
-1333.39 1021.54 3572
-1324.85 1021.54 3572
-1313.73 1019.54 3565
-1299.35 1014.96 3549
-1280.31 1006.67 3520
-1271.89 1006.67 3520
-1265.99 1008.67 3527
-1257.55 1008.67 3527
-1249.12 1008.67 3527
-1232.95 1002.38 3505
-1224.57 1002.38 3505
-1206.12 994.086 3476
-1182.99 981.789 3433
-1160.41 969.777 3391
-1152.3 969.777 3391
-1130.36 958.052 3350
-581.531 514.774 1800
-577.226 514.774 1800
-572.922 514.774 1800
-567.986 514.202 1798
-562.432 513.058 1794
-554.409 509.626 1782
-547.986 507.624 1775
-543.742 507.624 1775
-537.674 505.908 1769
-531.634 504.193 1763
-526.521 503.335 1760
-522.312 503.335 1760
-515.748 501.047 1752
-508.931 498.473 1743
-503.894 497.615 1740
-499.733 497.615 1740
-493.864 495.899 1734
-488.305 494.469 1729
-484.17 494.469 1729
-480.036 494.469 1729
-474.8 493.325 1725
-471.767 494.469 1729
-467.632 494.469 1729
-463.498 494.469 1729
-459.363 494.469 1729
-455.228 494.469 1729
-451.877 495.327 1732
-448.252 495.899 1734
-444.618 496.471 1736
-440.466 496.471 1736
-437.572 497.901 1741
-433.906 498.473 1743
-430.724 499.617 1747
-426.547 499.617 1747
-423.578 501.047 1752
-421.782 503.907 1762
-420.176 507.052 1773
-415.936 507.052 1773
-413.089 508.768 1779
-409.065 509.054 1780
-404.808 509.054 1780
-400.552 509.054 1780
-396.073 508.768 1779
-391.819 508.768 1779
-387.564 508.768 1779
-381.587 506.48 1771
-377.352 506.48 1771
-372.695 505.908 1769
-368.465 505.908 1769
-362.999 504.193 1763
-357.766 502.763 1758
-352.758 501.619 1754
-348.563 501.619 1754
-343.387 500.189 1749
-338.041 498.473 1743
-333.299 497.615 1740
-329.138 497.615 1740
-323.483 495.327 1732
-318.419 493.897 1727
-312.651 491.323 1718
-308.543 491.323 1718
-304.081 490.751 1716
-299.802 490.465 1715
-295.874 490.751 1716
-292.11 491.323 1718
-288.672 492.467 1722
-284.555 492.467 1722
-280.6 492.753 1723
-276.8 493.325 1725
-272.991 493.897 1727
-268.862 493.897 1727
-265.805 495.899 1734
-262.564 497.615 1740
-258.848 498.473 1743
-254.68 498.473 1743
-251.087 499.617 1747
-247.616 501.047 1752
-244.26 502.763 1758
-240.057 502.763 1758
-237.328 505.908 1769
-234.811 509.626 1782
-231.326 511.342 1788
-227.05 511.342 1788
-223.273 512.486 1792
-219.721 514.202 1798
-215.901 515.346 1802
-211.592 515.346 1802
-207.858 516.776 1807
-204.438 519.064 1815
-200.318 519.636 1817
-195.973 519.636 1817
-191.839 520.208 1819
-187.695 520.78 1821
-183.945 522.496 1827
-179.576 522.496 1827
-175.782 524.212 1833
-171.773 525.356 1837
-167.745 526.499 1841
-163.342 526.499 1841
-159.458 528.215 1847
-155.629 530.217 1854
-151.522 531.361 1858
-147.079 531.361 1858
-142.943 532.505 1862
-138.639 533.077 1864
-134.181 533.077 1864
-129.724 533.077 1864
-227.631 1084.46 3792
-219.543 1089.32 3809
-210.434 1089.32 3809
-201.326 1089.32 3809
-193.53 1096.75 3835
-185.224 1101.9 3853
-176.011 1101.9 3853
-166.797 1101.9 3853
-157.215 1099.33 3844
-148.023 1099.33 3844
-138.831 1099.33 3844
-129.031 1094.18 3826
-119.632 1091.89 3818
-108.736 1074.45 3757
-99.7521 1074.45 3757
-89.9707 1065.01 3724
-80.8913 1062.72 3716
-71.5208 1055.57 3691
-62.6945 1055.57 3691
-53.518 1048.71 3667
-44.6392 1046.14 3658
-35.7348 1041.56 3642
-27.0257 1041.56 3642
-18.2814 1039.56 3635
-9.54679 1034.98 3619
-0.892668 1034.98 3619
7.7443 1032.69 3611
16.3793 1032.69 3611
24.9589 1030.41 3603
33.2859 1021.54 3572
41.8276 1021.54 3572
50.3693 1021.54 3572
58.7956 1019.54 3565
67.3206 1019.54 3565
75.5052 1014.96 3549
83.9919 1014.96 3549
92.0878 1010.67 3534
100.539 1010.67 3534
108.99 1010.67 3534
117.706 1012.96 3542
126.176 1012.96 3542
134.646 1012.96 3542
142.793 1010.67 3534
151.244 1010.67 3534
159.695 1010.67 3534
168.146 1010.67 3534
176.247 1008.67 3527
184.681 1008.67 3527
193.498 1010.67 3534
201.949 1010.67 3534
210.4 1010.67 3534
218.851 1010.67 3534
227.302 1010.67 3534
235.753 1010.67 3534
244.203 1010.67 3534
253.226 1012.96 3542
262.213 1014.96 3549
270.7 1014.96 3549
280.445 1019.54 3565
288.97 1019.54 3565
297.495 1019.54 3565
306.02 1019.54 3565
314.545 1019.54 3565
323.07 1019.54 3565
332.991 1023.83 3580
341.552 1023.83 3580
350.112 1023.83 3580
358.673 1023.83 3580
367.234 1023.83 3580
374.955 1021.54 3572
382.745 1019.54 3565
387.868 1010.67 3534
396.319 1010.67 3534
402.25 1004.38 3512
408.076 998.09 3490
414.751 994.086 3476
418.682 983.79 3440
426.908 983.79 3440
434.248 981.789 3433
442.458 981.789 3433
445.154 969.777 3391
453.262 969.777 3391
457.562 961.77 3363
462.004 954.334 3337
468.012 950.33 3323
475.958 950.33 3323
483.031 948.614 3317
490.963 948.614 3317
498.895 948.614 3317
507.744 950.33 3323
515.69 950.33 3323
523.636 950.33 3323
531.582 950.33 3323
539.529 950.33 3323
547.475 950.33 3323
555.421 950.33 3323
564.554 952.332 3330
572.517 952.332 3330
580.48 952.332 3330
588.444 952.332 3330
595.153 950.33 3323
603.099 950.33 3323
611.045 950.33 3323
618.992 950.33 3323
626.938 950.33 3323
634.884 950.33 3323
644.185 952.332 3330
652.148 952.332 3330
661.498 954.334 3337
669.478 954.334 3337
677.458 954.334 3337
684 952.332 3330
691.963 952.332 3330
699.926 952.332 3330
707.889 952.332 3330
715.852 952.332 3330
723.815 952.332 3330
731.778 952.332 3330
741.296 954.334 3337
749.276 954.334 3337
757.256 954.334 3337
766.612 956.05 3343
776.228 958.052 3350
784.238 958.052 3350
792.249 958.052 3350
798.588 956.05 3343
808.271 958.052 3350
816.282 958.052 3350
824.293 958.052 3350
832.304 958.052 3350
840.315 958.052 3350
850.098 960.054 3357
858.126 960.054 3357
873.12 967.775 3384
883.035 969.777 3391
896.662 975.783 3412
904.821 975.783 3412
918.6 981.789 3433
932.478 987.794 3454
944.551 991.798 3468
952.844 991.798 3468
967.234 998.09 3490
983.966 1006.67 3520
1000.56 1014.96 3549
1009.05 1014.96 3549
1024.13 1021.54 3572
1034.98 1023.83 3580
1047.91 1028.12 3595
1063.56 1034.98 3619
1072.22 1034.98 3619
1087.74 1041.56 3642
1108.79 1053.28 3683
1117.6 1053.28 3683
1126.41 1053.28 3683
1137.68 1055.57 3691
1148.99 1057.86 3699
1157.84 1057.86 3699
1166.68 1057.86 3699
1175.53 1057.86 3699
1184.38 1057.86 3699
1193.22 1057.86 3699
1196.87 1053.28 3683
1205.67 1053.28 3683
1214.48 1053.28 3683
1223.29 1053.28 3683
1232.1 1053.28 3683
1235.51 1048.71 3667
1244.28 1048.71 3667
1253.05 1048.71 3667
1261.82 1048.71 3667
1267.47 1046.14 3658
1276.22 1046.14 3658
1284.96 1046.14 3658
1290.88 1043.85 3650
1299.61 1043.85 3650
1308.34 1043.85 3650
1317.07 1043.85 3650
1325.79 1043.85 3650
1334.52 1043.85 3650
1340.31 1041.56 3642
1346.42 1039.56 3635
1355.12 1039.56 3635
1363.81 1039.56 3635
1372.5 1039.56 3635
1378.15 1037.27 3627
1386.83 1037.27 3627
1389.34 1032.69 3611
1394.88 1030.41 3603
1397.65 1026.12 3588
1406.23 1026.12 3588
1408.51 1021.54 3572
1414.27 1019.54 3565
1419.6 1017.25 3557
1424.9 1014.96 3549
1433.38 1014.96 3549
1439.03 1012.96 3542
1444.23 1010.67 3534
1449.8 1008.67 3527
1458.23 1008.67 3527
1460.43 1004.38 3512
1465.9 1002.38 3505
1470.92 1000.09 3497
1479.28 1000.09 3497
1484.66 998.09 3490
1496 1000.09 3497
1510.82 1004.38 3512
1528.73 1010.67 3534
1537.19 1010.67 3534
1552.2 1014.96 3549
1567.72 1019.54 3565
1603.66 1037.27 3627
1612.33 1037.27 3627
1631.28 1043.85 3650
1654.84 1053.28 3683
1701.14 1077.02 3766
1710.14 1077.02 3766
1722.8 1079.31 3774
1731.83 1079.31 3774
1781.44 1104.48 3862
1790.68 1104.48 3862
1829.28 1122.49 3925
1838.66 1122.49 3925
1852.76 1125.35 3935
1862.17 1125.35 3935
1871.58 1125.35 3935
1876.2 1122.49 3925
1868.3 1112.2 3889
1877.6 1112.2 3889
1860.7 1096.75 3835
1831.83 1074.45 3757
1812.4 1057.86 3699
1821.25 1057.86 3699
1818.22 1051 3675
1810.6 1041.56 3642
1788.34 1023.83 3580
1770.3 1008.67 3527
1778.73 1008.67 3527
1776.02 1002.38 3505
1769.63 994.086 3476
1770.27 989.796 3461
1778.55 989.796 3461
1786.83 989.796 3461
1784.21 983.79 3440
1785.14 979.787 3426
1793.34 979.787 3426
1794.17 975.783 3412
1802.33 975.783 3412
1814.2 977.785 3419
1826.11 979.787 3426
1849.29 987.794 3454
1857.55 987.794 3454
1869.59 989.796 3461
1877.87 989.796 3461
1894.32 994.086 3476
1902.63 994.086 3476
1910.94 994.086 3476
2212.11 1135.93 3972
2221.61 1135.93 3972
2247.4 1144.23 4001
2256.97 1144.23 4001
2310.72 1166.54 4079
2320.48 1166.54 4079
2330.23 1166.54 4079
2345.72 1169.4 4089
2355.5 1169.4 4089
2365.28 1169.4 4089
2374.99 1155.1 4039
2384.65 1155.1 4039
2394.31 1155.1 4039
2398.61 1152.52 4030
2402.27 1149.66 4020
2405.88 1146.8 4010
2415.47 1146.8 4010
2402.08 1135.93 3972
2400.04 1130.5 3953
2359.51 1107.05 3871
2357.75 1101.9 3853
2366.97 1101.9 3853
2354.6 1091.89 3818
2363.73 1091.89 3818
2361.67 1086.75 3800
2370.76 1086.75 3800
2358.55 1077.02 3766
2383.9 1084.46 3792
2409.38 1091.89 3818
2434.98 1099.33 3844
2444.17 1099.33 3844
2464.85 1104.48 3862
2474.08 1104.48 3862
2483.32 1104.48 3862
2504.17 1109.62 3880
2513.45 1109.62 3880
2534.43 1114.77 3898
2543.75 1114.77 3898
2553.07 1114.77 3898
539.143 202.192 707
540.834 202.192 707
-2352.49 906.093 3142
-2344.98 906.093 3142
-2328.54 902.633 3130
-2316.6 900.903 3124
-2304.7 899.172 3118
-2297.24 899.172 3118
-2285.38 897.442 3112
-2282.33 899.172 3118
-2283.63 902.633 3130
-2276.14 902.633 3130
-2268.66 902.633 3130
-2278.51 909.554 3154
-2275.29 911.284 3160
-2284.96 918.205 3184
-2277.34 918.205 3184
-2269.73 918.205 3184
-2292.67 930.606 3227
-2293.45 934.066 3239
-2285.7 934.066 3239
-2287.1 937.815 3252
-2305.96 948.774 3290
-2344.89 968.095 3357
-2336.86 968.095 3357
-2357.28 979.919 3398
-2363.67 985.975 3419
-2360.32 987.994 3426
-2361.73 992.031 3440
-2358.3 994.05 3447
-2350.05 994.05 3447
-2341.81 994.05 3447
-2333.57 994.05 3447
-2330.05 996.068 3454
-2326.49 998.087 3461
-2318.22 998.087 3461
-2309.94 998.087 3461
-2301.67 998.087 3461
-2293.39 998.087 3461
-2299.64 1004.43 3483
-2291.31 1004.43 3483
-2287.57 1006.45 3490
-2279.22 1006.45 3490
-2285.19 1012.79 3512
-2276.79 1012.79 3512
-2278.08 1017.12 3527
-2279.3 1021.45 3542
-2275.32 1023.46 3549
-2266.83 1023.46 3549
-2258.35 1023.46 3549
-2245.42 1021.45 3542
-2236.95 1021.45 3542
-2228.48 1021.45 3542
-2229.41 1025.77 3557
-2220.91 1025.77 3557
-2212.4 1025.77 3557
-2203.9 1025.77 3557
-2195.39 1025.77 3557
-2191.8 1028.08 3565
-2187.57 1030.1 3572
-2179.02 1030.1 3572
-2175.34 1032.4 3580
-2171.62 1034.71 3588
-2163.04 1034.71 3588
-2154.46 1034.71 3588
-2145.88 1034.71 3588
-2137.3 1034.71 3588
-2128.72 1034.71 3588
-2115.42 1032.4 3580
-2102.15 1030.1 3572
-2084.81 1025.77 3557
-2076.31 1025.77 3557
-2067.8 1025.77 3557
-2059.3 1025.77 3557
-2050.79 1025.77 3557
-2042.29 1025.77 3557
-2033.78 1025.77 3557
-2025.27 1025.77 3557
-2016.77 1025.77 3557
-2008.26 1025.77 3557
-1995.26 1023.46 3549
-1986.77 1023.46 3549
-1974.38 1021.45 3542
-1965.91 1021.45 3542
-1953.02 1019.14 3534
-1940.72 1017.12 3527
-1936.12 1019.14 3534
-1932.03 1021.45 3542
-1923.56 1021.45 3542
-1918.88 1023.46 3549
-1922.77 1030.1 3572
-1918.52 1032.4 3580
-1909.96 1032.4 3580
-1905.64 1034.71 3588
-1900.77 1036.73 3595
-1896.38 1039.04 3603
-1887.76 1039.04 3603
-1883.32 1041.34 3611
-1878.84 1043.65 3619
-1878.45 1048.27 3635
-1869.76 1048.27 3635
-1864.65 1050.28 3642
-1860.02 1052.59 3650
-1851.29 1052.59 3650
-1842.56 1052.59 3650
-1837.85 1054.9 3658
-1829.11 1054.9 3658
-1832.8 1062.11 3683
-1823.99 1062.11 3683
-1819.13 1064.41 3691
-1810.3 1064.41 3691
-1801.48 1064.41 3691
-1788.76 1062.11 3683
-1764.01 1052.59 3650
-1748.07 1048.27 3635
-1739.37 1048.27 3635
-1730.68 1048.27 3635
-1714.41 1043.65 3619
-1687.37 1032.4 3580
-1668.03 1025.77 3557
-1659.52 1025.77 3557
-1651.02 1025.77 3557
-1638.82 1023.46 3549
-1613.33 1012.79 3512
-1604.93 1012.79 3512
-1589.72 1008.47 3497
-1575.02 1004.43 3483
-1566.69 1004.43 3483
-1558.36 1004.43 3483
-1546.92 1002.41 3476
-1535.07 1000.11 3468
-1523.69 998.087 3461
-1515.42 998.087 3461
-1504.09 996.068 3454
-1492.8 994.05 3447
-1481.54 992.031 3440
-1476.32 994.05 3447
-1468.07 994.05 3447
-1462.79 996.068 3454
-1469.69 1006.45 3490
-1467.63 1010.78 3505
-1459.25 1010.78 3505
-1450.87 1010.78 3505
-1445.37 1012.79 3512
-1436.97 1012.79 3512
-1428.57 1012.79 3512
-1426.24 1017.12 3527
-1420.62 1019.14 3534
-1415.36 1021.45 3542
-1406.89 1021.45 3542
-1398.42 1021.45 3542
-1389.95 1021.45 3542
-1381.48 1021.45 3542
-1373.01 1021.45 3542
-1370.32 1025.77 3557
-1361.82 1025.77 3557
-1356.35 1028.08 3565
-1347.83 1028.08 3565
-1339.3 1028.08 3565
-1330.78 1028.08 3565
-1322.25 1028.08 3565
-1307.83 1023.46 3549
-1296.78 1021.45 3542
-1277.4 1012.79 3512
-1269 1012.79 3512
-1260.6 1012.79 3512
-1252.21 1012.79 3512
-1241.33 1010.78 3505
-1227.67 1006.45 3490
-1219.33 1006.45 3490
-1206.12 1002.41 3476
-1180.58 987.994 3426
-1155.62 973.863 3377
-1147.54 973.863 3377
-1119.22 956.56 3317
-582.177 519.663 1802
-577.868 519.663 1802
-573.559 519.663 1802
-569.249 519.663 1802
-563.059 517.932 1796
-554.409 513.895 1782
-547.986 511.876 1775
-543.742 511.876 1775
-538.282 510.723 1771
-531.634 508.416 1763
-526.521 507.551 1760
-522.312 507.551 1760
-515.748 505.244 1752
-508.931 502.648 1743
-503.894 501.783 1740
-499.733 501.783 1740
-493.864 500.053 1734
-488.305 498.611 1729
-484.17 498.611 1729
-480.036 498.611 1729
-475.351 498.034 1727
-471.767 498.611 1729
-467.632 498.611 1729
-463.498 498.611 1729
-459.363 498.611 1729
-455.228 498.611 1729
-451.877 499.476 1732
-447.735 499.476 1732
-444.618 500.63 1736
-440.466 500.63 1736
-437.572 502.071 1741
-433.906 502.648 1743
-430.231 503.225 1745
-426.058 503.225 1745
-423.578 505.244 1752
-421.782 508.127 1762
-420.176 511.3 1773
-415.936 511.3 1773
-413.089 513.03 1779
-409.065 513.318 1780
-404.808 513.318 1780
-400.552 513.318 1780
-396.073 513.03 1779
-391.819 513.03 1779
-387.564 513.03 1779
-381.587 510.723 1771
-377.352 510.723 1771
-372.274 509.569 1767
-368.048 509.569 1767
-362.999 508.416 1763
-357.766 506.974 1758
-352.355 505.244 1752
-348.166 505.244 1752
-343.387 504.379 1749
-338.041 502.648 1743
-333.299 501.783 1740
-329.138 501.783 1740
-323.483 499.476 1732
-318.419 498.034 1727
-312.651 495.439 1718
-308.543 495.439 1718
-304.081 494.862 1716
-299.802 494.574 1715
-295.874 494.862 1716
-292.11 495.439 1718
-288.672 496.592 1722
-284.555 496.592 1722
-280.6 496.881 1723
-276.8 497.457 1725
-272.991 498.034 1727
-268.862 498.034 1727
-265.805 500.053 1734
-262.262 501.206 1738
-258.848 502.648 1743
-254.68 502.648 1743
-251.087 503.802 1747
-247.616 505.244 1752
-244.26 506.974 1758
-240.057 506.974 1758
-237.06 509.569 1767
-234.811 513.895 1782
-231.326 515.625 1788
-227.05 515.625 1788
-223.273 516.779 1792
-219.721 518.509 1798
-215.901 519.663 1802
-211.592 519.663 1802
-207.858 521.105 1807
-204.438 523.412 1815
-200.318 523.988 1817
-195.973 523.988 1817
-191.839 524.565 1819
-187.695 525.142 1821
-183.945 526.872 1827
-179.576 526.872 1827
-175.782 528.603 1833
-171.773 529.756 1837
-167.745 530.91 1841
-163.342 530.91 1841
-159.458 532.64 1847
-155.629 534.659 1854
-151.522 535.812 1858
-147.079 535.812 1858
-142.789 536.389 1860
-138.341 536.389 1860
-133.894 536.389 1860
-219.543 1098.44 3809
-210.434 1098.44 3809
-201.326 1098.44 3809
-193.53 1105.94 3835
-185.224 1111.13 3853
-176.011 1111.13 3853
-166.797 1111.13 3853
-156.847 1105.94 3835
-147.676 1105.94 3835
-138.506 1105.94 3835
-128.762 1101.04 3818
-119.632 1101.04 3818
-108.736 1083.45 3757
-99.7521 1083.45 3757
-89.7774 1071.62 3716
-80.3471 1064.41 3691
-71.5208 1064.41 3691
-62.6945 1064.41 3691
-53.518 1057.49 3667
-44.6392 1054.9 3658
-35.7348 1050.28 3642
-27.0257 1050.28 3642
-18.2814 1048.27 3635
-9.54679 1043.65 3619
-0.892668 1043.65 3619
7.7443 1041.34 3611
16.3793 1041.34 3611
24.9589 1039.04 3603
33.2859 1030.1 3572
41.8276 1030.1 3572
50.3693 1030.1 3572
58.7956 1028.08 3565
67.3206 1028.08 3565
75.5052 1023.46 3549
83.9919 1023.46 3549
92.0878 1019.14 3534
100.539 1019.14 3534
108.99 1019.14 3534
117.706 1021.45 3542
126.176 1021.45 3542
134.646 1021.45 3542
142.793 1019.14 3534
151.244 1019.14 3534
159.695 1019.14 3534
168.146 1019.14 3534
176.247 1017.12 3527
184.681 1017.12 3527
193.498 1019.14 3534
201.949 1019.14 3534
210.4 1019.14 3534
218.851 1019.14 3534
227.302 1019.14 3534
235.753 1019.14 3534
244.203 1019.14 3534
253.226 1021.45 3542
262.213 1023.46 3549
270.7 1023.46 3549
280.445 1028.08 3565
288.97 1028.08 3565
297.495 1028.08 3565
306.02 1028.08 3565
314.545 1028.08 3565
323.07 1028.08 3565
332.991 1032.4 3580
341.552 1032.4 3580
350.112 1032.4 3580
358.673 1032.4 3580
367.234 1032.4 3580
374.955 1030.1 3572
382.745 1028.08 3565
387.868 1019.14 3534
396.319 1019.14 3534
401.448 1010.78 3505
407.257 1004.43 3483
414.751 1002.41 3476
418.682 992.031 3440
426.908 992.031 3440
434.248 990.012 3433
442.458 990.012 3433
445.154 977.9 3391
453.262 977.9 3391
457.562 969.826 3363
462.004 962.328 3337
468.012 958.29 3323
475.958 958.29 3323
483.031 956.56 3317
490.963 956.56 3317
498.895 956.56 3317
507.744 958.29 3323
515.69 958.29 3323
523.636 958.29 3323
531.582 958.29 3323
539.529 958.29 3323
547.475 958.29 3323
555.421 958.29 3323
564.554 960.309 3330
572.517 960.309 3330
580.48 960.309 3330
588.444 960.309 3330
595.153 958.29 3323
603.099 958.29 3323
611.045 958.29 3323
617.874 956.56 3317
625.806 956.56 3317
633.738 956.56 3317
642.831 958.29 3323
650.777 958.29 3323
660.111 960.309 3330
668.074 960.309 3330
676.037 960.309 3330
684 960.309 3330
691.963 960.309 3330
699.926 960.309 3330
707.889 960.309 3330
715.852 960.309 3330
723.815 960.309 3330
731.778 960.309 3330
742.629 964.058 3343
750.623 964.058 3343
758.617 964.058 3343
768.217 966.077 3350
776.228 966.077 3350
784.238 966.077 3350
792.249 966.077 3350
800.26 966.077 3350
811.408 969.826 3363
819.45 969.826 3363
827.492 969.826 3363
834.043 968.095 3357
842.07 968.095 3357
851.617 969.826 3363
859.659 969.826 3363
873.12 975.882 3384
883.035 977.9 3391
896.662 983.956 3412
904.821 983.956 3412
918.6 990.012 3433
932.478 996.068 3454
944.551 1000.11 3468
952.844 1000.11 3468
967.234 1006.45 3490
983.966 1015.1 3520
1000.56 1023.46 3549
1009.05 1023.46 3549
1024.13 1030.1 3572
1034.98 1032.4 3580
1047.91 1036.73 3595
1063.56 1043.65 3619
1072.22 1043.65 3619
1087.74 1050.28 3642
1108.79 1062.11 3683
1117.6 1062.11 3683
1126.41 1062.11 3683
1137.68 1064.41 3691
1148.99 1066.72 3699
1157.84 1066.72 3699
1166.68 1066.72 3699
1175.53 1066.72 3699
1184.38 1066.72 3699
1193.22 1066.72 3699
1196.87 1062.11 3683
1205.67 1062.11 3683
1214.48 1062.11 3683
1223.29 1062.11 3683
1232.1 1062.11 3683
1235.51 1057.49 3667
1244.28 1057.49 3667
1253.05 1057.49 3667
1261.82 1057.49 3667
1267.47 1054.9 3658
1276.22 1054.9 3658
1284.96 1054.9 3658
1290.88 1052.59 3650
1299.61 1052.59 3650
1308.34 1052.59 3650
1317.07 1052.59 3650
1325.79 1052.59 3650
1334.52 1052.59 3650
1340.31 1050.28 3642
1346.42 1048.27 3635
1355.12 1048.27 3635
1363.81 1048.27 3635
1372.5 1048.27 3635
1378.15 1045.96 3627
1386.83 1045.96 3627
1389.34 1041.34 3611
1394.88 1039.04 3603
1397.65 1034.71 3588
1406.23 1034.71 3588
1408.51 1030.1 3572
1414.27 1028.08 3565
1419.6 1025.77 3557
1424.9 1023.46 3549
1433.38 1023.46 3549
1439.03 1021.45 3542
1444.23 1019.14 3534
1449.8 1017.12 3527
1458.23 1017.12 3527
1460.43 1012.79 3512
1465.9 1010.78 3505
1470.92 1008.47 3497
1479.28 1008.47 3497
1484.66 1006.45 3490
1496 1008.47 3497
1510.82 1012.79 3512
1528.73 1019.14 3534
1537.19 1019.14 3534
1552.2 1023.46 3549
1567.72 1028.08 3565
1603.66 1045.96 3627
1612.33 1045.96 3627
1631.28 1052.59 3650
1654.84 1062.11 3683
1701.14 1086.04 3766
1710.14 1086.04 3766
1722.8 1088.35 3774
1731.83 1088.35 3774
1781.44 1113.73 3862
1790.68 1113.73 3862
1829.28 1131.9 3925
1838.66 1131.9 3925
1861.23 1139.97 3953
1870.68 1139.97 3953
1880.14 1139.97 3953
1876.2 1131.9 3925
1868.3 1121.51 3889
1877.6 1121.51 3889
1860.7 1105.94 3835
1831.83 1083.45 3757
1812.4 1066.72 3699
1821.25 1066.72 3699
1818.22 1059.8 3675
1810.6 1050.28 3642
1788.34 1032.4 3580
1770.3 1017.12 3527
1778.73 1017.12 3527
1776.02 1010.78 3505
1769.63 1002.41 3476
1770.27 998.087 3461
1778.55 998.087 3461
1786.83 998.087 3461
1784.21 992.031 3440
1785.14 987.994 3426
1793.34 987.994 3426
1794.17 983.956 3412
1802.33 983.956 3412
1814.2 985.975 3419
1826.11 987.994 3426
1849.29 996.068 3454
1857.55 996.068 3454
1869.59 998.087 3461
1877.87 998.087 3461
1894.32 1002.41 3476
1902.63 1002.41 3476
1910.94 1002.41 3476
2212.11 1145.45 3972
2221.61 1145.45 3972
2247.4 1153.81 4001
2256.97 1153.81 4001
2310.72 1176.31 4079
2320.48 1176.31 4079
2330.23 1176.31 4079
2345.72 1179.19 4089
2355.5 1179.19 4089
2365.28 1179.19 4089
2369.7 1162.18 4030
2379.33 1162.18 4030
2388.97 1162.18 4030
2386.7 1156.41 4010
2390.91 1153.81 4001
2400.48 1153.81 4001
2410.05 1153.81 4001
2402.08 1145.45 3972
2350.26 1116.32 3871
2343.05 1108.54 3844
2336.34 1101.04 3818
2345.47 1101.04 3818
2343.5 1095.85 3800
2352.58 1095.85 3800
2340.54 1086.04 3766
2349.55 1086.04 3766
2358.55 1086.04 3766
2367.56 1086.04 3766
2387.29 1090.95 3783
2402.04 1093.54 3792
2411.11 1093.54 3792
2453.36 1108.54 3844
2462.55 1108.54 3844
2471.75 1108.54 3844
2492.55 1113.73 3862
2501.79 1113.73 3862
2511.03 1113.73 3862
-2352.49 913.62 3142
-2344.98 913.62 3142
-2328.54 910.131 3130
-2316.6 908.386 3124
-2304.7 906.641 3118
-2297.24 906.641 3118
-2289.79 906.641 3118
-2286.72 908.386 3124
-2283.63 910.131 3130
-2284.87 913.62 3142
-2277.36 913.62 3142
-2278.51 917.109 3154
-2283.93 922.343 3172
-2284.96 925.833 3184
-2277.34 925.833 3184
-2278.28 929.322 3196
-2296.93 940.081 3233
-2298.4 943.861 3246
-2290.64 943.861 3246
-2291.32 947.35 3258
-2305.96 956.655 3290
-2344.89 976.137 3357
-2336.86 976.137 3357
-2357.28 988.059 3398
-2363.67 994.165 3419
-2360.32 996.201 3426
-2361.73 1000.27 3440
-2358.3 1002.31 3447
-2350.05 1002.31 3447
-2341.81 1002.31 3447
-2333.57 1002.31 3447
-2330.05 1004.34 3454
-2326.49 1006.38 3461
-2318.22 1006.38 3461
-2309.94 1006.38 3461
-2301.67 1006.38 3461
-2303.33 1010.74 3476
-2299.64 1012.77 3483
-2291.31 1012.77 3483
-2287.57 1014.81 3490
-2289.02 1019.17 3505
-2290.4 1023.53 3520
-2281.98 1023.53 3520
-2282.61 1027.6 3534
-2283.81 1031.97 3549
-2275.32 1031.97 3549
-2266.83 1031.97 3549
-2258.35 1031.97 3549
-2249.86 1031.97 3549
-2241.37 1031.97 3549
-2232.89 1031.97 3549
-2229.41 1034.29 3557
-2220.91 1034.29 3557
-2212.4 1034.29 3557
-2203.9 1034.29 3557
-2195.39 1034.29 3557
-2191.8 1036.62 3565
-2187.57 1038.65 3572
-2179.02 1038.65 3572
-2175.34 1040.98 3580
-2166.78 1040.98 3580
-2158.22 1040.98 3580
-2149.66 1040.98 3580
-2141.1 1040.98 3580
-2127.77 1038.65 3572
-2119.23 1038.65 3572
-2110.69 1038.65 3572
-2098.03 1036.62 3565
-2080.13 1031.97 3549
-2071.64 1031.97 3549
-2063.15 1031.97 3549
-2054.67 1031.97 3549
-2046.18 1031.97 3549
-2037.69 1031.97 3549
-2029.2 1031.97 3549
-2020.72 1031.97 3549
-2012.23 1031.97 3549
-2003.74 1031.97 3549
-1995.26 1031.97 3549
-1986.77 1031.97 3549
-1974.38 1029.93 3542
-1965.91 1029.93 3542
-1949.15 1025.57 3527
-1936.87 1023.53 3520
-1932.28 1025.57 3527
-1927.67 1027.6 3534
-1919.22 1027.6 3534
-1918.88 1031.97 3549
-1922.77 1038.65 3572
-1914.23 1038.65 3572
-1905.69 1038.65 3572
-1901.4 1040.98 3580
-1900.77 1045.34 3595
-1892.17 1045.34 3595
-1883.57 1045.34 3595
-1883.32 1049.99 3611
-1874.68 1049.99 3611
-1882.07 1059.01 3642
-1873.36 1059.01 3642
-1868.75 1061.33 3650
-1864.1 1063.66 3658
-1855.35 1063.66 3658
-1846.6 1063.66 3658
-1837.85 1063.66 3658
-1833.61 1066.28 3667
-1836.78 1073.26 3691
-1827.95 1073.26 3691
-1819.13 1073.26 3691
-1810.3 1073.26 3691
-1801.48 1073.26 3691
-1792.65 1073.26 3691
-1767.87 1063.66 3658
-1751.43 1059.01 3642
-1742.72 1059.01 3642
-1730.68 1056.97 3635
-1714.41 1052.32 3619
-1687.37 1040.98 3580
-1668.03 1034.29 3557
-1659.52 1034.29 3557
-1651.02 1034.29 3557
-1638.82 1031.97 3549
-1613.33 1021.21 3512
-1604.93 1021.21 3512
-1589.72 1016.85 3497
-1575.02 1012.77 3483
-1566.69 1012.77 3483
-1558.36 1012.77 3483
-1546.92 1010.74 3476
-1535.07 1008.41 3468
-1520.61 1004.34 3454
-1512.35 1004.34 3454
-1501.04 1002.31 3447
-1492.8 1002.31 3447
-1478.53 998.236 3433
-1470.32 998.236 3433
-1462.11 998.236 3433
-1462.79 1004.34 3454
-1454.53 1004.34 3454
-1461.35 1014.81 3490
-1453 1014.81 3490
-1447.56 1016.85 3497
-1442.49 1019.17 3505
-1434.1 1019.17 3505
-1425.72 1019.17 3505
-1420.17 1021.21 3512
-1414.99 1023.53 3520
-1409.37 1025.57 3527
-1400.93 1025.57 3527
-1392.5 1025.57 3527
-1386.81 1027.6 3534
-1378.36 1027.6 3534
-1369.91 1027.6 3534
-1364.54 1029.93 3542
-1356.07 1029.93 3542
-1350.27 1031.97 3549
-1341.78 1031.97 3549
-1333.29 1031.97 3549
-1324.81 1031.97 3549
-1316.32 1031.97 3549
-1305.25 1029.93 3542
-1293.85 1027.6 3534
-1277.4 1021.21 3512
-1266.47 1019.17 3505
-1258.09 1019.17 3505
-1249.71 1019.17 3505
-1238.5 1016.85 3497
-1225.21 1012.77 3483
-1216.88 1012.77 3483
-1206.12 1010.74 3476
-1180.58 996.201 3426
-1162.81 988.059 3398
-1154.68 988.059 3398
-1130.36 974.102 3350
-588.172 521.653 1794
-583.882 521.653 1794
-582.177 523.979 1802
-577.868 523.979 1802
-573.559 523.979 1802
-569.249 523.979 1802
-563.059 522.235 1796
-554.409 518.164 1782
-547.986 516.128 1775
-543.742 516.128 1775
-538.282 514.965 1771
-531.634 512.639 1763
-526.521 511.767 1760
-522.312 511.767 1760
-515.748 509.441 1752
-508.931 506.824 1743
-503.894 505.951 1740
-499.733 505.951 1740
-493.864 504.207 1734
-488.305 502.753 1729
-484.17 502.753 1729
-480.036 502.753 1729
-475.351 502.171 1727
-471.767 502.753 1729
-467.632 502.753 1729
-463.498 502.753 1729
-459.363 502.753 1729
-455.228 502.753 1729
-451.877 503.625 1732
-447.735 503.625 1732
-444.618 504.788 1736
-440.466 504.788 1736
-437.572 506.242 1741
-433.906 506.824 1743
-430.231 507.405 1745
-426.058 507.405 1745
-423.578 509.441 1752
-421.303 511.767 1760
-419.702 514.965 1771
-415.467 514.965 1771
-411.696 515.547 1773
-408.835 517.292 1779
-404.581 517.292 1779
-400.327 517.292 1779
-395.627 516.71 1777
-391.378 516.71 1777
-387.129 516.71 1777
-381.587 514.965 1771
-376.499 513.802 1767
-371.431 512.639 1763
-367.215 512.639 1763
-362.382 511.767 1760
-357.359 510.604 1756
-352.154 509.15 1751
-347.967 509.15 1751
-342.602 507.405 1745
-337.653 506.242 1741
-332.532 504.788 1736
-328.381 504.788 1736
-323.296 503.334 1731
-318.419 502.171 1727
-312.651 499.554 1718
-308.543 499.554 1718
-304.081 498.973 1716
-299.802 498.682 1715
-295.874 498.973 1716
-291.77 498.973 1716
-288.672 500.717 1722
-284.555 500.717 1722
-280.437 500.717 1722
