ply
format ascii 1.0
comment File generated
element vertex 2250
property float x
property float y
property float z
end_header
431.948 572.876 3549
440.435 572.876 3549
445.253 568.195 3520
451.737 565.774 3505
457.231 562.223 3483
465.56 562.223 3483
469.943 557.542 3454
476.264 555.282 3440
483.504 554.152 3433
491.714 554.152 3433
498.904 553.022 3426
506.06 551.892 3419
514.236 551.892 3419
526.69 556.412 3447
534.933 556.412 3447
547.746 561.093 3476
561.817 566.904 3512
575.086 571.747 3542
583.556 571.747 3542
595.87 575.459 3565
606.938 577.88 3580
620.829 582.884 3611
629.464 582.884 3611
642.34 586.758 3635
655.152 590.471 3658
668.436 594.507 3683
677.244 594.507 3683
692.198 599.833 3716
702.593 601.125 3724
711.498 601.125 3724
723.499 603.708 3740
732.442 603.708 3740
741.386 603.708 3740
748.724 602.416 3732
757.649 602.416 3732
763.286 599.833 3716
772.173 599.833 3716
779.167 598.381 3707
788.031 598.381 3707
796.896 598.381 3707
805.761 598.381 3707
811.109 595.798 3691
823.49 598.381 3707
832.354 598.381 3707
841.219 598.381 3707
852.147 599.833 3716
861.033 599.833 3716
869.919 599.833 3716
878.806 599.833 3716
881.72 595.798 3691
890.546 595.798 3691
899.372 595.798 3691
908.198 595.798 3691
915.037 594.507 3683
921.838 593.215 3675
932.651 594.507 3683
941.459 594.507 3683
952.33 595.798 3691
963.24 597.089 3699
974.187 598.381 3707
983.052 598.381 3707
991.916 598.381 3707
1003.21 599.833 3716
1014.28 601.125 3724
1023.18 601.125 3724
1032.09 601.125 3724
1043.23 602.416 3732
1054.41 603.708 3740
1063.35 603.708 3740
1072.29 603.708 3740
1081.24 603.708 3740
1090.18 603.708 3740
1099.12 603.708 3740
1108.07 603.708 3740
1114.62 602.416 3732
1125.96 603.708 3740
1134.9 603.708 3740
1143.84 603.708 3740
1155.56 605.16 3749
1164.52 605.16 3749
1173.49 605.16 3749
1182.45 605.16 3749
1193.96 606.452 3757
1205.83 607.904 3766
1214.83 607.904 3766
1223.84 607.904 3766
1235.46 609.196 3774
1244.49 609.196 3774
1253.51 609.196 3774
1259.86 607.904 3766
1263.14 605.16 3749
1272.1 605.16 3749
1281.07 605.16 3749
1290.03 605.16 3749
1295.88 603.708 3740
1304.82 603.708 3740
1313.77 603.708 3740
1322.71 603.708 3740
1328.81 602.416 3732
1334.86 601.125 3724
1343.77 601.125 3724
1355.58 602.416 3732
1364.5 602.416 3732
1373.43 602.416 3732
1379.39 601.125 3724
1388.29 601.125 3724
1394.2 599.833 3716
1403.08 599.833 3716
1411.97 599.833 3716
1420.86 599.833 3716
1429.74 599.833 3716
1438.63 599.833 3716
1447.51 599.833 3716
1469.33 605.16 3749
1478.3 605.16 3749
1487.26 605.16 3749
1496.23 605.16 3749
1522.46 612.101 3792
1531.53 612.101 3792
1540.59 612.101 3792
1545.98 610.649 3783
1555.03 610.649 3783
1564.08 610.649 3783
1573.12 610.649 3783
1578.41 609.196 3774
1587.43 609.196 3774
1596.45 609.196 3774
1605.48 609.196 3774
1614.5 609.196 3774
1623.53 609.196 3774
1632.55 609.196 3774
1641.58 609.196 3774
1650.6 609.196 3774
1663.59 610.649 3783
1680.15 613.393 3800
1689.24 613.393 3800
1698.32 613.393 3800
1711.45 614.845 3809
1724.63 616.298 3818
1733.76 616.298 3818
1746.54 617.59 3826
1768.08 621.948 3853
1777.29 621.948 3853
1786.51 621.948 3853
1795.72 621.948 3853
1817.58 626.306 3880
1848.05 633.57 3925
1866.42 636.637 3944
1875.86 636.637 3944
1898.67 641.157 3972
1908.17 641.157 3972
1917.67 641.157 3972
1917.95 638.09 3953
1918.62 635.184 3935
1905.5 627.759 3889
1914.79 627.759 3889
1901.83 620.495 3844
1872.25 607.904 3766
1860.27 601.125 3724
1869.18 601.125 3724
1857.4 594.507 3683
1858.1 591.924 3667
1862.29 590.471 3658
1866.95 589.18 3650
1884.41 591.924 3667
1893.18 591.924 3667
1906.1 593.215 3675
1919.05 594.507 3683
1927.86 594.507 3683
1936.67 594.507 3683
1945.48 594.507 3683
1945.79 591.924 3667
1963.09 594.507 3683
1971.9 594.507 3683
1993.61 598.381 3707
2020.3 603.708 3740
2029.25 603.708 3740
2038.19 603.708 3740
2084.9 614.845 3809
2157.78 633.57 3925
2182.63 638.09 3953
2192.08 638.09 3953
2217.68 642.771 3982
2232.24 644.224 3991
2241.78 644.224 3991
2256.97 645.838 4001
2266.54 645.838 4001
2276.1 645.838 4001
2290.81 647.291 4010
2306.14 648.905 4020
2315.75 648.905 4020
2325.36 648.905 4020
2334.98 648.905 4020
2344.59 648.905 4020
2354.2 648.905 4020
2363.82 648.905 4020
2362.21 645.838 4001
2371.78 645.838 4001
2381.35 645.838 4001
2390.91 645.838 4001
2400.48 645.838 4001
2415.47 647.291 4010
2425.06 647.291 4010
2434.65 647.291 4010
2450.33 648.905 4020
2459.95 648.905 4020
2475.7 650.519 4030
2485.34 650.519 4030
2494.98 650.519 4030
2504.61 650.519 4030
2514.25 650.519 4030
2523.89 650.519 4030
2520.95 647.291 4010
2530.54 647.291 4010
2540.13 647.291 4010
2525.56 641.157 3972
2535.05 641.157 3972
2544.55 641.157 3972
2554.05 641.157 3972
2563.55 641.157 3972
2554.91 636.637 3944
2564.34 636.637 3944
2573.77 636.637 3944
2583.2 636.637 3944
530.347 119.773 742
532.121 119.773 742
533.895 119.773 742
535.67 119.773 742
534.547 119.127 738
536.312 119.127 738
538.076 119.127 738
539.841 119.127 738
541.606 119.127 738
542.634 118.966 737
544.397 118.966 737
546.159 118.966 737
547.178 118.804 736
548.938 118.804 736
550.698 118.804 736
552.458 118.804 736
554.218 118.804 736
555.978 118.804 736
557.738 118.804 736
559.498 118.804 736
561.258 118.804 736
563.018 118.804 736
-2352.49 514.706 3142
-2344.98 514.706 3142
-2337.47 514.706 3142
-2329.95 514.706 3142
-2313.57 512.74 3130
-2306.08 512.74 3130
-2298.6 512.74 3130
-2291.11 512.74 3130
-2279.25 511.757 3124
-2284.87 514.706 3142
-2277.36 514.706 3142
-2287.18 518.637 3166
-2305.53 524.534 3202
-2347.39 535.838 3271
-2339.57 535.838 3271
-2402.32 552.055 3370
-2490.18 574.17 3505
-2481.79 574.17 3505
-2515.75 583.999 3565
-2528.33 588.914 3595
-2547.77 595.466 3635
-2539.07 595.466 3635
-2546.39 599.234 3658
-2543.89 600.708 3667
-2535.12 600.708 3667
-2526.35 600.708 3667
-2517.58 600.708 3667
-2491.71 596.613 3642
-2483 596.613 3642
-2469.53 595.466 3635
-2460.84 595.466 3635
-2452.15 595.466 3635
-2443.46 595.466 3635
-2434.76 595.466 3635
-2420.73 594.156 3627
-2406.74 592.845 3619
-2398.09 592.845 3619
-2384.15 591.535 3611
-2370.25 590.224 3603
-2356.39 588.914 3595
-2347.8 588.914 3595
-2339.2 588.914 3595
-2335.79 590.224 3603
-2337.51 592.845 3619
-2328.85 592.845 3619
-2320.2 592.845 3619
-2311.54 592.845 3619
-2297.8 591.535 3611
-2294.24 592.845 3619
-2285.58 592.845 3619
-2296.43 597.923 3650
-2318.42 605.95 3699
-2309.57 605.95 3699
-2300.72 605.95 3699
-2312.33 611.356 3732
-2308.34 612.667 3740
-2315.38 616.926 3766
-2306.37 616.926 3766
-2297.37 616.926 3766
-2425.08 653.784 3991
-2415.54 653.784 3991
-2405.99 653.784 3991
-2402.46 655.422 4001
-2392.89 655.422 4001
-2383.32 655.422 4001
-2373.75 655.422 4001
-2352.96 652.31 3982
-2348.73 653.784 3991
-2345.05 655.422 4001
-2335.48 655.422 4001
-2348.01 661.647 4039
-2338.35 661.647 4039
-2328.69 661.647 4039
-2297.21 655.422 4001
-2304.23 660.173 4030
-2294.59 660.173 4030
-2284.95 660.173 4030
-2275.31 660.173 4030
-2265.68 660.173 4030
-2005.51 669.838 4089
-1995.73 669.838 4089
-1985.95 669.838 4089
-1976.17 669.838 4089
-1947.16 663.285 4049
-1937.48 663.285 4049
-1927.79 663.285 4049
-1904.37 658.535 4020
-1894.76 658.535 4020
-1885.15 658.535 4020
-1862 653.784 3991
-1830.64 646.085 3944
-1812.44 642.972 3925
-1807.65 644.611 3935
-1798.24 644.611 3935
-1788.83 644.611 3935
-1779.42 644.611 3935
-1770.01 644.611 3935
-1740.02 637.075 3889
-1718.7 632.652 3862
-1697.52 628.229 3835
-1704.19 634.126 3871
-1694.94 634.126 3871
-1685.68 634.126 3871
-1684.22 637.075 3889
-1674.92 637.075 3889
-1669.47 638.549 3898
-1660.15 638.549 3898
-1650.83 638.549 3898
-1652.88 642.972 3925
-1647.68 644.611 3935
-1638.27 644.611 3935
-1664.05 658.535 4020
-1658.55 660.173 4030
-1648.91 660.173 4030
-1639.28 660.173 4030
-1621.55 656.897 4010
-1611.96 656.897 4010
-1617.96 663.285 4049
-1608.27 663.285 4049
-1598.59 663.285 4049
-1588.91 663.285 4049
-1579.23 663.285 4049
-1562.18 660.173 4030
-1541.37 655.422 4001
-1531.8 655.422 4001
-1525.66 656.897 4010
-1516.07 656.897 4010
-1510.24 658.535 4020
-1500.63 658.535 4020
-1491.01 658.535 4020
-1477.71 656.897 4010
-1464.83 655.422 4001
-1444.71 650.672 3972
-1435.22 650.672 3972
-1412.44 644.611 3935
-1396.25 641.498 3916
-1377.33 637.075 3889
-1368.03 637.075 3889
-1358.73 637.075 3889
-1349.43 637.075 3889
-1340.13 637.075 3889
-1330.83 637.075 3889
-1321.53 637.075 3889
-1337.2 649.197 3963
-1327.72 649.197 3963
-1318.24 649.197 3963
-1308.77 649.197 3963
-1299.29 649.197 3963
-1277.45 642.972 3925
-1268.06 642.972 3925
-587.809 300.272 1833
-583.426 300.272 1833
-578.41 299.945 1831
-573.405 299.617 1829
-563.431 296.668 1811
-556.939 295.522 1804
-552.626 295.522 1804
-547.096 294.866 1800
-538.57 292.573 1786
-530.41 290.443 1773
-526.17 290.443 1773
-518.103 288.314 1760
-511.267 286.839 1751
-503.315 284.71 1738
-499.159 284.71 1738
-493.864 284.055 1734
-487.74 282.908 1727
-481.65 281.761 1720
-477.537 281.761 1720
-470.947 280.287 1711
-465.491 279.468 1706
-458.977 277.993 1697
-453.579 277.174 1692
-449.533 277.174 1692
-444.96 276.847 1690
-439.092 275.7 1683
-433.775 274.881 1678
-429.763 274.881 1678
-424.989 274.389 1675
-419.727 273.57 1670
-414.489 272.751 1665
-410.507 272.751 1665
-404.572 271.441 1657
-399.643 270.786 1653
-393.775 269.475 1645
-389.841 269.475 1645
-384.735 268.656 1640
-380.581 268.492 1639
-376.202 268.165 1637
-371.605 267.673 1634
-367.698 267.673 1634
-362.677 266.854 1629
-357.68 266.035 1624
-353.579 265.871 1623
-349.698 265.871 1623
-345.178 265.38 1620
-340.672 264.888 1617
-336.805 264.888 1617
-332.938 264.888 1617
-329.072 264.888 1617
-325.205 264.888 1617
-320.941 264.561 1615
-317.471 264.888 1617
-313.605 264.888 1617
-309.929 265.052 1618
-306.439 265.38 1620
-302.751 265.544 1621
-298.875 265.544 1621
-295.363 265.871 1623
-291.482 265.871 1623
-287.778 266.035 1624
-283.894 266.035 1624
-280.873 266.854 1629
-277.828 267.673 1634
-274.758 268.492 1639
-270.839 268.492 1639
-267.734 269.311 1644
-264.284 269.803 1647
-260.82 270.294 1650
-256.874 270.294 1650
-252.929 270.294 1650
-248.983 270.294 1650
-245.483 270.786 1653
-241.53 270.786 1653
-237.865 271.113 1655
-233.907 271.113 1655
-230.644 271.932 1660
-226.675 271.932 1660
-223.376 272.751 1665
-220.053 273.57 1670
-216.318 273.898 1672
-212.32 273.898 1672
-209.069 274.881 1678
-205.668 275.7 1683
-202.123 276.355 1687
-198.441 276.847 1690
-194.399 276.847 1690
-190.921 277.666 1695
-187.529 278.649 1701
-184.217 279.795 1708
-180.133 279.795 1708
-176.357 280.287 1711
-172.769 281.106 1716
-169.059 281.761 1720
-164.946 281.761 1720
-161.02 282.089 1722
-156.993 282.253 1723
-153.05 282.58 1725
-148.925 282.58 1725
-145.136 283.236 1729
-141.165 283.563 1731
-137.263 284.055 1734
-133.116 284.055 1734
-128.97 284.055 1734
-274.194 623.97 3809
-267.521 629.703 3844
-258.329 629.703 3844
-249.137 629.703 3844
-238.821 626.755 3826
-232.373 634.126 3871
-225.191 640.024 3907
-216.346 641.498 3916
-206.981 641.498 3916
-198.071 642.972 3925
-189.166 644.611 3935
-179.756 644.611 3935
-170.347 644.611 3935
-161.305 646.085 3944
-152.22 647.559 3953
-143.454 650.672 3972
-133.955 650.672 3972
-125.052 653.784 3991
-116.637 660.173 4030
-107.505 663.285 4049
-97.8226 663.285 4049
-88.1402 663.285 4049
165.218 669.838 4089
174.996 669.838 4089
184.774 669.838 4089
194.076 668.2 4079
202.831 664.924 4059
212.537 664.924 4059
222.244 664.924 4059
230.807 661.647 4039
235.941 649.197 3963
245.418 649.197 3963
250.714 638.549 3898
257.633 632.652 3862
266.247 631.178 3853
275.46 631.178 3853
282.088 625.444 3818
289.235 621.185 3792
297.595 619.711 3783
305.912 618.236 3774
314.936 618.236 3774
323.961 618.236 3774
333.78 619.711 3783
342.826 619.711 3783
351.873 619.711 3783
360.919 619.711 3783
369.965 619.711 3783
375.605 614.141 3749
384.57 614.141 3749
391.751 611.356 3732
394.555 602.019 3675
399.721 596.613 3642
408.431 596.613 3642
413.589 591.535 3611
420.353 588.914 3595
425.37 583.999 3565
430.122 578.921 3534
438.573 578.921 3534
445.253 576.628 3520
450.706 572.86 3497
455.262 568.109 3468
463.555 568.109 3468
469.943 565.816 3454
475.295 562.376 3433
482.519 561.229 3426
490.711 561.229 3426
497.884 560.082 3419
503.988 557.789 3405
513.183 558.935 3412
524.551 562.376 3433
532.761 562.376 3433
543.176 564.669 3447
558.298 571.713 3490
571.514 576.628 3520
579.931 576.628 3520
592.026 580.231 3542
600.496 580.231 3542
612.92 583.999 3565
621.445 583.999 3565
635.272 588.914 3595
645.301 590.224 3603
655.369 591.535 3611
666.946 594.156 3627
675.619 594.156 3627
687.123 596.613 3642
695.832 596.613 3642
709.377 600.708 3667
718.146 600.708 3667
726.915 600.708 3667
735.684 600.708 3667
744.453 600.708 3667
751.373 599.234 3658
756.796 596.613 3642
765.505 596.613 3642
774.214 596.613 3642
782.923 596.613 3642
790.111 595.466 3635
798.803 595.466 3635
809.05 596.613 3642
817.759 596.613 3642
826.469 596.613 3642
838.847 599.234 3658
847.594 599.234 3658
856.342 599.234 3658
865.089 599.234 3658
873.836 599.234 3658
882.584 599.234 3658
889.382 597.923 3650
898.11 597.923 3650
906.838 597.923 3650
917.573 599.234 3658
926.321 599.234 3658
935.068 599.234 3658
950.266 603.329 3683
959.073 603.329 3683
969.983 604.64 3691
978.809 604.64 3691
989.776 605.95 3699
998.621 605.95 3699
1012.1 608.735 3716
1020.98 608.735 3716
1029.87 608.735 3716
1040.99 610.046 3724
1049.9 610.046 3724
1058.8 610.046 3724
1070 611.356 3732
1078.92 611.356 3732
1087.85 611.356 3732
1096.77 611.356 3732
1105.7 611.356 3732
1114.62 611.356 3732
1123.55 611.356 3732
1134.9 612.667 3740
1143.84 612.667 3740
1152.79 612.667 3740
1161.73 612.667 3740
1170.67 612.667 3740
1179.62 612.667 3740
1188.56 612.667 3740
1200.38 614.141 3749
1211.93 615.452 3757
1220.91 615.452 3757
1229.9 615.452 3757
1236.24 614.141 3749
1245.21 614.141 3749
1254.17 614.141 3749
1263.14 614.141 3749
1260.91 608.735 3716
1269.79 608.735 3716
1278.68 608.735 3716
1287.57 608.735 3716
1296.45 608.735 3716
1305.34 608.735 3716
1314.22 608.735 3716
1323.11 608.735 3716
1328.77 607.261 3707
1337.63 607.261 3707
1349.77 608.735 3716
1358.65 608.735 3716
1367.54 608.735 3716
1373.09 607.261 3707
1381.96 607.261 3707
1387.82 605.95 3699
1396.67 605.95 3699
1405.51 605.95 3699
1420.86 608.735 3716
1429.74 608.735 3716
1438.63 608.735 3716
1444.01 607.261 3707
1452.87 607.261 3707
1461.74 607.261 3707
1477.35 610.046 3724
1496.23 614.141 3749
1505.19 614.141 3749
1514.16 614.141 3749
1523.12 614.141 3749
1528.41 612.667 3740
1537.35 612.667 3740
1546.3 612.667 3740
1555.24 612.667 3740
1564.19 612.667 3740
1580.28 615.452 3757
1589.26 615.452 3757
1598.25 615.452 3757
1607.23 615.452 3757
1616.22 615.452 3757
1625.2 615.452 3757
1630.7 614.141 3749
1647.1 616.926 3766
1659.63 618.236 3774
1672.63 619.711 3783
1681.68 619.711 3783
1698.32 622.496 3800
1707.41 622.496 3800
1720.56 623.97 3809
1729.67 623.97 3809
1746.54 626.755 3826
1768.08 631.178 3853
1777.29 631.178 3853
1786.51 631.178 3853
1795.72 631.178 3853
1800.72 629.703 3844
1848.05 642.972 3925
1862.17 644.611 3935
1871.58 644.611 3935
1885.29 646.085 3944
1894.72 646.085 3944
1904.15 646.085 3944
1913.58 646.085 3944
1913.75 642.972 3925
1905.5 637.075 3889
1914.79 637.075 3889
1897.38 628.229 3835
1872.25 616.926 3766
1860.27 610.046 3724
1869.18 610.046 3724
1857.4 603.329 3683
1853.54 599.234 3658
1854.15 596.613 3642
1859.27 595.466 3635
1875.67 597.923 3650
1884.4 597.923 3650
1901.95 600.708 3667
1910.72 600.708 3667
1919.49 600.708 3667
1928.26 600.708 3667
1937.02 600.708 3667
1941.02 599.234 3658
1958.83 602.019 3675
1967.61 602.019 3675
1985.01 604.64 3691
2011.66 610.046 3724
2029.25 612.667 3740
2038.19 612.667 3740
2079.97 622.496 3800
2152.83 641.498 3916
2167.17 642.972 3925
2176.55 642.972 3925
2217.68 652.31 3982
2232.24 653.784 3991
2241.78 653.784 3991
2256.97 655.422 4001
2266.54 655.422 4001
2276.1 655.422 4001
2285.67 655.422 4001
2300.4 656.897 4010
2309.99 656.897 4010
2319.58 656.897 4010
2334.98 658.535 4020
2344.59 658.535 4020
2354.2 658.535 4020
2357.94 656.897 4010
2362.21 655.422 4001
2371.78 655.422 4001
2375.39 653.784 3991
2384.94 653.784 3991
2394.48 653.784 3991
2410.05 655.422 4001
2419.62 655.422 4001
2429.18 655.422 4001
2444.24 656.897 4010
2459.95 658.535 4020
2475.7 660.173 4030
2485.34 660.173 4030
2494.98 660.173 4030
2504.61 660.173 4030
2514.25 660.173 4030
2523.89 660.173 4030
2527.24 658.535 4020
2530.54 656.897 4010
2540.13 656.897 4010
2525.56 650.672 3972
2535.05 650.672 3972
2544.55 650.672 3972
2554.05 650.672 3972
2545.48 646.085 3944
2554.91 646.085 3944
2570.19 647.559 3953
2579.65 647.559 3953
2589.1 647.559 3953
2550.56 635.601 3880
2536.09 629.703 3844
2522.11 623.97 3809
2531.22 623.97 3809
529.252 120.895 738
531.017 120.895 738
532.782 120.895 738
534.547 120.895 738
536.312 120.895 738
538.076 120.895 738
539.841 120.895 738
540.872 120.731 737
542.634 120.731 737
543.658 120.568 736
545.418 120.568 736
546.435 120.404 735
548.192 120.404 735
549.95 120.404 735
551.708 120.404 735
553.465 120.404 735
555.223 120.404 735
556.98 120.404 735
558.738 120.404 735
559.733 120.24 734
561.488 120.24 734
-2352.49 522.232 3142
-2344.98 522.232 3142
-2337.47 522.232 3142
-2329.95 522.232 3142
-2313.57 520.238 3130
-2306.08 520.238 3130
-2298.6 520.238 3130
-2291.11 520.238 3130
-2279.25 519.24 3124
-2284.87 522.232 3142
-2277.36 522.232 3142
-2287.18 526.221 3166
-2296.89 530.21 3190
-2343.09 542.676 3265
-2335.28 542.676 3265
-2388.06 556.804 3350
-2479.52 580.073 3490
-2471.17 580.073 3490
-2493.88 587.387 3534
-2512.15 593.703 3572
-2530.94 600.185 3611
-2522.31 600.185 3611
-2524.81 602.844 3627
-2521.69 604.174 3635
-2513 604.174 3635
-2504.3 604.174 3635
-2495.61 604.174 3635
-2486.92 604.174 3635
-2478.23 604.174 3635
-2458.66 601.514 3619
-2444.59 600.185 3611
-2441.36 601.514 3619
-2432.7 601.514 3619
-2424.05 601.514 3619
-2415.39 601.514 3619
-2401.42 600.185 3611
-2392.78 600.185 3611
-2378.87 598.855 3603
-2370.25 598.855 3603
-2356.39 597.525 3595
-2347.8 597.525 3595
-2339.2 597.525 3595
-2335.79 598.855 3603
-2337.51 601.514 3619
-2328.85 601.514 3619
-2320.2 601.514 3619
-2311.54 601.514 3619
-2297.8 600.185 3611
-2294.24 601.514 3619
-2285.58 601.514 3619
-2296.43 606.667 3650
-2298.36 609.493 3667
-2294.58 610.822 3675
-2285.8 610.822 3675
-2302.41 617.637 3716
-2303.4 620.296 3732
-2294.48 620.296 3732
-2285.55 620.296 3732
-2401.99 657.029 3953
-2415.54 663.345 3991
-2405.99 663.345 3991
-2396.45 663.345 3991
-2386.91 663.345 3991
-2377.36 663.345 3991
-2362.48 661.849 3982
-2352.96 661.849 3982
-2348.73 663.345 3991
-2345.05 665.007 4001
-2335.48 665.007 4001
-2348.01 671.323 4039
-2338.35 671.323 4039
-2328.69 671.323 4039
-2297.21 665.007 4001
-2304.23 669.827 4030
-2294.59 669.827 4030
-2284.95 669.827 4030
-2275.31 669.827 4030
-2005.51 679.633 4089
-1995.73 679.633 4089
-1985.95 679.633 4089
-1976.17 679.633 4089
-1956.78 676.309 4069
-1947.05 676.309 4069
-1937.32 676.309 4069
-1918.11 672.985 4049
-1903.72 671.323 4039
-1894.06 671.323 4039
-1875.53 668.165 4020
-1843.64 660.187 3972
-1829.99 658.691 3963
-1829.24 661.849 3982
-1819.72 661.849 3982
-1810.19 661.849 3982
-1796.15 660.187 3972
-1786.65 660.187 3972
-1760.6 654.037 3935
-1730.72 646.391 3889
-1717.43 644.895 3880
-1712.12 646.391 3889
-1702.82 646.391 3889
-1693.52 646.391 3889
-1692.01 649.383 3907
-1682.67 649.383 3907
-1673.33 649.383 3907
-1667.82 650.879 3916
-1662.27 652.375 3925
-1657.09 654.037 3935
-1655.22 657.029 3953
-1645.77 657.029 3953
-1668.19 669.827 4030
-1658.55 669.827 4030
-1648.91 669.827 4030
-1639.28 669.827 4030
-1625.6 668.165 4020
-1611.96 666.503 4010
-1617.96 672.985 4049
-1608.27 672.985 4049
-1598.59 672.985 4049
-1588.91 672.985 4049
-1579.23 672.985 4049
-1562.18 669.827 4030
-1541.37 665.007 4001
-1531.8 665.007 4001
-1525.66 666.503 4010
-1516.07 666.503 4010
-1510.24 668.165 4020
-1500.63 668.165 4020
-1491.01 668.165 4020
-1477.71 666.503 4010
-1464.83 665.007 4001
-1444.71 660.187 3972
-1435.22 660.187 3972
-1412.44 654.037 3935
-1396.25 650.879 3916
-1377.33 646.391 3889
-1368.03 646.391 3889
-1358.73 646.391 3889
-1349.43 646.391 3889
-1340.13 646.391 3889
-1330.83 646.391 3889
-1321.53 646.391 3889
-1337.2 658.691 3963
-1327.72 658.691 3963
-1318.24 658.691 3963
-1308.77 658.691 3963
-1299.29 658.691 3963
-1277.45 652.375 3925
-1268.06 652.375 3925
-587.809 304.663 1833
-583.426 304.663 1833
-578.41 304.331 1831
-573.405 303.998 1829
-564.053 301.339 1813
-559.718 301.339 1813
-552.932 300.009 1805
-547.096 299.178 1800
-538.57 296.851 1786
-530.41 294.691 1773
-526.17 294.691 1773
-518.103 292.53 1760
-511.267 291.034 1751
-503.894 289.206 1740
-499.733 289.206 1740
-493.864 288.208 1734
-487.74 287.045 1727
-481.65 285.881 1720
-477.537 285.881 1720
-470.947 284.386 1711
-465.491 283.555 1706
-459.518 282.391 1699
-453.579 281.228 1692
-449.533 281.228 1692
-444.96 280.895 1690
-439.614 280.064 1685
-433.775 278.901 1678
-429.763 278.901 1678
-425.496 278.734 1677
-419.727 277.571 1670
-414.489 276.74 1665
-410.507 276.74 1665
-404.817 275.576 1658
-399.643 274.745 1653
-393.775 273.416 1645
-389.841 273.416 1645
-384.735 272.585 1640
-380.581 272.418 1639
-376.661 272.418 1639
-372.287 272.086 1637
-368.373 272.086 1637
-362.677 270.756 1629
-358.561 270.59 1628
-353.797 269.925 1624
-349.913 269.925 1624
-345.391 269.427 1621
-341.304 269.26 1620
-337.43 269.26 1620
-333.556 269.26 1620
-329.275 268.928 1618
-325.406 268.928 1618
-321.537 268.928 1618
-317.668 268.928 1618
-313.798 268.928 1618
-310.504 269.427 1621
-306.628 269.427 1621
-303.125 269.759 1623
-299.244 269.759 1623
-295.545 269.925 1624
-292.02 270.258 1626
-288.487 270.59 1628
-284.594 270.59 1628
-280.873 270.756 1629
-278.168 271.92 1636
-274.926 272.585 1640
-271.004 272.585 1640
-267.897 273.416 1645
-264.284 273.748 1647
-260.82 274.247 1650
-256.874 274.247 1650
-252.929 274.247 1650
-249.285 274.579 1652
-245.78 275.078 1655
-241.822 275.078 1655
-237.865 275.078 1655
-234.19 275.41 1657
-231.061 276.407 1663
-227.084 276.407 1663
-223.644 277.072 1667
-220.317 277.903 1672
-216.448 278.07 1673
-212.447 278.07 1673
-209.319 279.233 1680
-205.668 279.732 1683
-202.123 280.397 1687
-198.441 280.895 1690
-194.399 280.895 1690
-190.921 281.726 1695
-187.529 282.723 1701
-184.217 283.887 1708
-180.133 283.887 1708
-176.357 284.386 1711
-172.769 285.217 1716
-169.059 285.881 1720
-164.946 285.881 1720
-161.02 286.214 1722
-156.993 286.38 1723
-153.05 286.712 1725
-148.925 286.712 1725
-145.304 287.71 1731
-141.246 287.876 1732
-137.263 288.208 1734
-133.116 288.208 1734
-128.97 288.208 1734
-278.009 641.904 3862
-270.026 644.895 3880
-260.748 644.895 3880
-251.47 644.895 3880
-238.821 635.92 3826
-232.373 643.399 3871
-225.191 649.383 3907
-216.346 650.879 3916
-206.981 650.879 3916
-198.071 652.375 3925
-189.166 654.037 3935
-179.756 654.037 3935
-170.347 654.037 3935
-161.305 655.533 3944
-152.22 657.029 3953
-143.454 660.187 3972
-133.955 660.187 3972
-125.052 663.345 3991
-116.637 669.827 4030
-107.505 672.985 4049
-97.8226 672.985 4049
-88.1402 672.985 4049
155.06 677.971 4079
165.218 679.633 4089
174.996 679.633 4089
184.774 679.633 4089
194.076 677.971 4079
202.831 674.647 4059
212.537 674.647 4059
222.244 674.647 4059
230.807 671.323 4039
235.941 658.691 3963
245.418 658.691 3963
250.714 647.887 3898
257.633 641.904 3862
266.247 640.408 3853
275.46 640.408 3853
282.088 634.59 3818
289.235 630.269 3792
297.595 628.773 3783
305.912 627.277 3774
314.936 627.277 3774
323.961 627.277 3774
333.78 628.773 3783
342.826 628.773 3783
351.873 628.773 3783
360.919 628.773 3783
369.965 628.773 3783
375.605 623.122 3749
384.57 623.122 3749
391.751 620.296 3732
393.696 609.493 3667
398.075 602.844 3627
406.748 602.844 3627
411.757 597.525 3595
418.599 595.032 3580
424.416 591.209 3557
429.27 586.223 3527
437.705 586.223 3527
442.344 581.237 3497
446.969 576.417 3468
453.424 574.09 3454
461.683 574.09 3454
466.133 569.436 3426
473.357 568.272 3419
481.533 568.272 3419
489.709 568.272 3419
494.826 564.782 3398
500.88 562.455 3384
511.078 564.782 3398
521.342 567.109 3412
529.502 567.109 3412
540.97 570.599 3433
553.658 575.253 3461
566.643 580.073 3490
574.989 580.073 3490
587.012 583.73 3512
596.766 585.06 3520
608.966 588.716 3542
621.445 592.539 3565
629.97 592.539 3565
639.749 593.703 3572
649.743 595.032 3580
659.775 596.362 3588
668.355 596.362 3588
678.255 597.525 3595
688.38 598.855 3603
700.092 601.514 3619
708.746 601.514 3619
717.4 601.514 3619
726.054 601.514 3619
734.708 601.514 3619
741.719 600.185 3611
748.692 598.855 3603
757.307 598.855 3603
765.923 598.855 3603
774.539 598.855 3603
781.416 597.525 3595
790.013 597.525 3595
803.941 601.514 3619
812.595 601.514 3619
821.249 601.514 3619
833.573 604.174 3635
843.887 605.337 3642
852.596 605.337 3642
861.305 605.337 3642
870.014 605.337 3642
878.723 605.337 3642
887.432 605.337 3642
896.142 605.337 3642
904.851 605.337 3642
913.56 605.337 3642
922.269 605.337 3642
930.978 605.337 3642
943.815 607.997 3658
956.99 610.822 3675
967.88 612.152 3683
976.687 612.152 3683
987.635 613.482 3691
996.461 613.482 3691
1007.47 614.811 3699
1016.31 614.811 3699
1029.87 617.637 3716
1038.76 617.637 3716
1049.9 618.967 3724
1058.8 618.967 3724
1067.71 618.967 3724
1076.61 618.967 3724
1085.52 618.967 3724
1094.42 618.967 3724
1103.33 618.967 3724
1112.23 618.967 3724
1123.55 620.296 3732
1132.47 620.296 3732
1141.4 620.296 3732
1150.32 620.296 3732
1159.24 620.296 3732
1168.17 620.296 3732
1177.09 620.296 3732
1186.02 620.296 3732
1200.38 623.122 3749
1209.35 623.122 3749
1218.31 623.122 3749
1227.28 623.122 3749
1233.28 621.626 3740
1242.22 621.626 3740
1248.49 620.296 3732
1252.02 617.637 3716
1260.91 617.637 3716
1269.79 617.637 3716
1275.58 616.141 3707
1281.67 614.811 3699
1290.52 614.811 3699
1299.37 614.811 3699
1308.21 614.811 3699
1317.06 614.811 3699
1325.9 614.811 3699
1337.63 616.141 3707
1346.5 616.141 3707
1355.36 616.141 3707
1364.23 616.141 3707
1367.17 613.482 3691
1375.99 613.482 3691
1384.82 613.482 3691
1393.64 613.482 3691
1402.47 613.482 3691
1414.36 614.811 3699
1423.2 614.811 3699
1432.05 614.811 3699
1437.78 613.482 3691
1449.74 614.811 3699
1458.58 614.811 3699
1470.6 616.141 3707
1483.06 617.637 3716
1495.16 618.967 3724
1504.06 618.967 3724
1512.97 618.967 3724
1518.6 617.637 3716
1527.49 617.637 3716
1536.38 617.637 3716
1545.26 617.637 3716
1554.15 617.637 3716
1569.76 620.296 3732
1578.69 620.296 3732
1587.61 620.296 3732
1596.54 620.296 3732
1605.46 620.296 3732
1617.85 621.626 3740
1626.79 621.626 3740
1639.67 623.122 3749
1648.63 623.122 3749
1668.65 627.277 3774
1677.68 627.277 3774
1690.72 628.773 3783
1707.41 631.599 3800
1716.5 631.599 3800
1725.58 631.599 3800
1746.54 635.92 3826
1768.08 640.408 3853
1777.29 640.408 3853
1786.51 640.408 3853
1795.72 640.408 3853
1800.72 638.912 3844
1848.05 652.375 3925
1862.17 654.037 3935
1871.58 654.037 3935
1885.29 655.533 3944
1894.72 655.533 3944
1904.15 655.533 3944
1909.21 654.037 3935
1913.75 652.375 3925
1905.5 646.391 3889
1914.79 646.391 3889
1897.38 637.416 3835
1880.7 628.773 3783
1868.26 621.626 3740
1877.21 621.626 3740
1857.4 612.152 3683
1853.54 607.997 3658
1850.58 604.174 3635
1859.27 604.174 3635
1871.56 605.337 3642
1880.27 605.337 3642
1897.28 607.997 3658
1910.72 609.493 3667
1919.49 609.493 3667
1928.26 609.493 3667
1937.02 609.493 3667
1936.77 606.667 3650
1954.56 609.493 3667
1963.33 609.493 3667
1985.01 613.482 3691
2002.48 616.141 3707
2024.91 620.296 3732
2033.83 620.296 3732
2070.67 628.773 3783
2128.09 643.399 3871
2162.2 650.879 3916
2171.56 650.879 3916
2201.53 657.029 3953
2227.21 661.849 3982
2241.78 663.345 3991
2251.33 663.345 3991
2260.87 663.345 3991
2270.41 663.345 3991
2285.67 665.007 4001
2295.24 665.007 4001
2304.81 665.007 4001
2314.37 665.007 4001
2323.94 665.007 4001
2333.51 665.007 4001
2343.08 665.007 4001
2346.76 663.345 3991
2350.99 661.849 3982
2360.52 661.849 3982
2364.09 660.187 3972
2373.58 660.187 3972
2383.08 660.187 3972
2398.6 661.849 3982
2413.57 663.345 3991
2423.11 663.345 3991
2438.75 665.007 4001
2453.83 666.503 4010
2475.7 669.827 4030
2485.34 669.827 4030
2494.98 669.827 4030
2504.61 669.827 4030
2514.25 669.827 4030
2523.89 669.827 4030
2527.24 668.165 4020
2530.54 666.503 4010
2540.13 666.503 4010
2525.56 660.187 3972
2535.05 660.187 3972
2538.79 658.691 3963
2548.26 658.691 3963
2557.74 658.691 3963
2567.22 658.691 3963
2576.69 658.691 3963
2586.17 658.691 3963
2595.65 658.691 3963
2568.31 649.383 3907
2547.97 641.904 3862
2522.11 633.094 3809
2531.22 633.094 3809
2516.98 627.277 3774
529.252 122.663 738
531.017 122.663 738
532.782 122.663 738
534.547 122.663 738
536.312 122.663 738
538.076 122.663 738
539.841 122.663 738
540.872 122.497 737
541.898 122.331 736
542.919 122.164 735
544.677 122.164 735
546.435 122.164 735
548.192 122.164 735
549.202 121.998 734
550.957 121.998 734
552.712 121.998 734
554.467 121.998 734
556.223 121.998 734
557.978 121.998 734
558.97 121.832 733
560.723 121.832 733
-2370.46 533.805 3166
-2362.89 533.805 3166
-2355.32 533.805 3166
-2338.85 531.782 3154
-2331.31 531.782 3154
-2323.77 531.782 3154
-2307.41 529.759 3142
-2299.9 529.759 3142
-2288.01 528.747 3136
-2284.87 529.759 3142
-2277.36 529.759 3142
-2287.18 533.805 3166
-2288.25 535.829 3178
-2315.82 544.09 3227
-2308.1 544.09 3227
-2354.56 556.904 3303
-2399.24 569.381 3377
-2391.16 569.381 3377
-2467.77 589.614 3497
-2495.98 598.381 3549
-2514.82 604.957 3588
-2506.24 604.957 3588
-2513.67 608.835 3611
-2510.59 610.184 3619
-2501.94 610.184 3619
-2493.28 610.184 3619
-2484.63 610.184 3619
-2475.97 610.184 3619
-2467.32 610.184 3619
-2453.23 608.835 3611
-2444.59 608.835 3611
-2435.96 608.835 3611
-2427.32 608.835 3611
-2418.69 608.835 3611
-2410.05 608.835 3611
-2401.42 608.835 3611
-2392.78 608.835 3611
-2378.87 607.486 3603
-2370.25 607.486 3603
-2356.39 606.137 3595
-2353.02 607.486 3603
-2344.4 607.486 3603
-2340.97 608.835 3611
-2337.51 610.184 3619
-2328.85 610.184 3619
-2320.2 610.184 3619
-2311.54 610.184 3619
-2297.8 608.835 3611
-2294.24 610.184 3619
-2285.58 610.184 3619
-2296.43 615.411 3650
-2298.36 618.277 3667
-2289.59 618.277 3667
-2280.82 618.277 3667
-2302.41 626.539 3716
-2303.4 629.236 3732
-2294.48 629.236 3732
-2285.55 629.236 3732
-2276.63 629.236 3732
-2401.99 666.498 3953
-2392.54 666.498 3953
-2383.09 666.498 3953
-2373.63 666.498 3953
-2364.18 666.498 3953
-2354.73 666.498 3953
-2345.27 666.498 3953
-2341.73 668.184 3963
-2337.55 669.702 3972
-2356.19 677.795 4020
-2346.57 677.795 4020
-2348.01 680.998 4039
-2338.35 680.998 4039
-2328.69 680.998 4039
-2297.21 674.591 4001
-2005.51 689.428 4089
-1995.73 689.428 4089
-1985.95 689.428 4089
-1976.17 689.428 4089
-1956.78 686.056 4069
-1947.05 686.056 4069
-1937.32 686.056 4069
-1918.11 682.684 4049
-1903.72 680.998 4039
-1894.06 680.998 4039
-1875.53 677.795 4020
-1843.64 669.702 3972
-1829.99 668.184 3963
-1829.24 671.388 3982
-1819.72 671.388 3982
-1810.19 671.388 3982
-1796.15 669.702 3972
-1786.65 669.702 3972
-1760.6 663.463 3935
-1730.72 655.707 3889
-1717.43 654.19 3880
-1712.12 655.707 3889
-1702.82 655.707 3889
-1693.52 655.707 3889
-1692.01 658.742 3907
-1682.67 658.742 3907
-1673.33 658.742 3907
-1667.82 660.26 3916
-1662.27 661.777 3925
-1657.09 663.463 3935
-1655.22 666.498 3953
-1645.77 666.498 3953
-1668.19 679.481 4030
-1658.55 679.481 4030
-1648.91 679.481 4030
-1639.28 679.481 4030
-1625.6 677.795 4020
-1611.96 676.109 4010
-1617.96 682.684 4049
-1608.27 682.684 4049
-1598.59 682.684 4049
-1588.91 682.684 4049
-1579.23 682.684 4049
-1562.18 679.481 4030
-1534.05 671.388 3982
-1531.8 674.591 4001
-1522.24 674.591 4001
-1512.67 674.591 4001
-1506.48 676.109 4010
-1496.89 676.109 4010
-1487.3 676.109 4010
-1477.71 676.109 4010
-1461.17 672.905 3991
-1441.44 668.184 3963
-1431.96 668.184 3963
-1405.62 660.26 3916
-1383.42 654.19 3880
-1377.33 655.707 3889
-1368.03 655.707 3889
-1358.73 655.707 3889
-1333.81 648.12 3844
-1324.62 648.12 3844
-1318.51 649.638 3853
-1309.29 649.638 3853
-1312.23 655.707 3889
-1311.97 660.26 3916
-1305.6 661.777 3925
-1296.22 661.777 3925
-1286.83 661.777 3925
-592.192 309.054 1833
-587.809 309.054 1833
-583.426 309.054 1833
-578.41 308.717 1831
-573.405 308.38 1829
-564.053 305.682 1813
-559.718 305.682 1813
-552.932 304.333 1805
-547.096 303.49 1800
-537.967 300.792 1784
-526.521 296.746 1760
-522.312 296.746 1760
-515.748 295.397 1752
-509.515 294.217 1745
-503.894 293.374 1740
-499.733 293.374 1740
-493.294 292.025 1732
-487.175 290.845 1725
-481.65 290.002 1720
-477.537 290.002 1720
-470.947 288.484 1711
-465.491 287.641 1706
-459.518 286.461 1699
-453.579 285.281 1692
-449.533 285.281 1692
-444.96 284.944 1690
-439.614 284.101 1685
-433.775 282.92 1678
-429.763 282.92 1678
-425.496 282.752 1677
-419.727 281.571 1670
-414.489 280.728 1665
-410.507 280.728 1665
-404.817 279.548 1658
-399.643 278.705 1653
-393.775 277.356 1645
-389.841 277.356 1645
-384.735 276.513 1640
-380.581 276.345 1639
-376.661 276.345 1639
-372.287 276.007 1637
-368.373 276.007 1637
-362.677 274.659 1629
-358.561 274.49 1628
-353.797 273.816 1624
-349.913 273.816 1624
-345.391 273.31 1621
-341.304 273.141 1620
-337.43 273.141 1620
-333.556 273.141 1620
-329.275 272.804 1618
-325.406 272.804 1618
-321.537 272.804 1618
-317.668 272.804 1618
-313.798 272.804 1618
-310.504 273.31 1621
-306.628 273.31 1621
-303.125 273.647 1623
-299.244 273.647 1623
-295.545 273.816 1624
-292.02 274.153 1626
-288.487 274.49 1628
-284.594 274.49 1628
-280.873 274.659 1629
-278.168 275.839 1636
-274.926 276.513 1640
-271.004 276.513 1640
-267.897 277.356 1645
-264.284 277.694 1647
-260.82 278.199 1650
-256.874 278.199 1650
-252.929 278.199 1650
-249.285 278.537 1652
-245.78 279.042 1655
-241.822 279.042 1655
-237.865 279.042 1655
-234.19 279.38 1657
-231.061 280.391 1663
-227.084 280.391 1663
-223.644 281.066 1667
-220.317 281.909 1672
-216.448 282.077 1673
-212.447 282.077 1673
-209.319 283.257 1680
-205.668 283.763 1683
-202.123 284.438 1687
-198.441 284.944 1690
-194.399 284.944 1690
-190.809 285.618 1694
-187.529 286.798 1701
-184.001 287.641 1706
-179.922 287.641 1706
-176.357 288.484 1711
-172.769 289.327 1716
-169.059 290.002 1720
-164.946 290.002 1720
-161.02 290.339 1722
-156.993 290.508 1723
-153.05 290.845 1725
-148.925 290.845 1725
-145.304 291.856 1731
-141.246 292.025 1732
-137.105 292.025 1732
-132.963 292.025 1732
-278.009 651.155 3862
-270.026 654.19 3880
-260.748 654.19 3880
-251.47 654.19 3880
-238.821 645.085 3826
-231.293 649.638 3853
-222.598 651.155 3862
-214.854 655.707 3889
-205.554 655.707 3889
-196.255 655.707 3889
-187.82 658.742 3907
-178.888 660.26 3916
-169.524 660.26 3916
-160.937 663.463 3935
-151.874 664.981 3944
-143.129 668.184 3963
-133.652 668.184 3963
-124.77 671.388 3982
-116.059 676.109 4010
-107.505 682.684 4049
-97.8226 682.684 4049
-88.1402 682.684 4049
134.555 682.684 4049
144.237 682.684 4049
155.06 687.742 4079
165.218 689.428 4089
174.996 689.428 4089
184.774 689.428 4089
194.076 687.742 4079
202.831 684.37 4059
212.537 684.37 4059
221.149 680.998 4039
227.55 671.388 3982
232.071 657.225 3898
241.392 657.225 3898
247.819 649.638 3853
254.698 643.736 3818
263.828 643.736 3818
272.958 643.736 3818
280.167 639.353 3792
287.252 634.969 3766
296.257 634.969 3766
305.263 634.969 3766
314.269 634.969 3766
323.274 634.969 3766
332.28 634.969 3766
341.286 634.969 3766
350.291 634.969 3766
358.438 633.451 3757
366.64 632.103 3749
373.902 629.236 3732
382.826 629.236 3732
388.287 623.672 3699
393.696 618.277 3667
398.075 611.533 3627
406.748 611.533 3627
411.757 606.137 3595
418.599 603.608 3580
424.416 599.73 3557
429.27 594.672 3527
437.705 594.672 3527
442.344 589.614 3497
446.969 584.724 3468
453.424 582.364 3454
461.683 582.364 3454
466.133 577.643 3426
473.357 576.463 3419
481.533 576.463 3419
489.709 576.463 3419
494.826 572.922 3398
500.88 570.562 3384
511.078 572.922 3398
521.342 575.282 3412
529.502 575.282 3412
540.97 578.823 3433
553.658 583.544 3461
566.643 588.434 3490
574.989 588.434 3490
587.012 592.143 3512
596.766 593.492 3520
608.966 597.201 3542
621.445 601.079 3565
629.97 601.079 3565
639.749 602.259 3572
649.743 603.608 3580
659.775 604.957 3588
668.355 604.957 3588
678.255 606.137 3595
688.38 607.486 3603
700.092 610.184 3619
708.746 610.184 3619
717.4 610.184 3619
726.054 610.184 3619
734.708 610.184 3619
741.719 608.835 3611
748.692 607.486 3603
757.307 607.486 3603
765.923 607.486 3603
774.539 607.486 3603
781.416 606.137 3595
790.013 606.137 3595
803.941 610.184 3619
812.595 610.184 3619
821.249 610.184 3619
833.573 612.882 3635
843.887 614.062 3642
852.596 614.062 3642
861.305 614.062 3642
870.014 614.062 3642
878.723 614.062 3642
887.432 614.062 3642
896.142 614.062 3642
904.851 614.062 3642
913.56 614.062 3642
922.269 614.062 3642
930.978 614.062 3642
943.815 616.759 3658
956.99 619.626 3675
967.88 620.975 3683
976.687 620.975 3683
987.635 622.323 3691
996.461 622.323 3691
1007.47 623.672 3699
1016.31 623.672 3699
1029.87 626.539 3716
1038.76 626.539 3716
1049.9 627.887 3724
1058.8 627.887 3724
1067.71 627.887 3724
1076.61 627.887 3724
1085.52 627.887 3724
1094.42 627.887 3724
1103.33 627.887 3724
1112.23 627.887 3724
1123.55 629.236 3732
1132.47 629.236 3732
1141.4 629.236 3732
1150.32 629.236 3732
1159.24 629.236 3732
1168.17 629.236 3732
1177.09 629.236 3732
1186.02 629.236 3732
1200.38 632.103 3749
1209.35 632.103 3749
1218.31 632.103 3749
1227.28 632.103 3749
1233.28 630.585 3740
1242.22 630.585 3740
1248.49 629.236 3732
1252.02 626.539 3716
1260.91 626.539 3716
1269.79 626.539 3716
1275.58 625.021 3707
1281.67 623.672 3699
1290.52 623.672 3699
1299.37 623.672 3699
1308.21 623.672 3699
1317.06 623.672 3699
1325.9 623.672 3699
1337.63 625.021 3707
1346.5 625.021 3707
1355.36 625.021 3707
1364.23 625.021 3707
1367.17 622.323 3691
1375.99 622.323 3691
1384.82 622.323 3691
1393.64 622.323 3691
1402.47 622.323 3691
1414.36 623.672 3699
1423.2 623.672 3699
1432.05 623.672 3699
1437.78 622.323 3691
1449.74 623.672 3699
1458.58 623.672 3699
1470.6 625.021 3707
1483.06 626.539 3716
1495.16 627.887 3724
1504.06 627.887 3724
1512.97 627.887 3724
1518.6 626.539 3716
1527.49 626.539 3716
1536.38 626.539 3716
1545.26 626.539 3716
1554.15 626.539 3716
1569.76 629.236 3732
1578.69 629.236 3732
1587.61 629.236 3732
1596.54 629.236 3732
1605.46 629.236 3732
1617.85 630.585 3740
1626.79 630.585 3740
1639.67 632.103 3749
1648.63 632.103 3749
1668.65 636.318 3774
1677.68 636.318 3774
1690.72 637.835 3783
1707.41 640.701 3800
1716.5 640.701 3800
1725.58 640.701 3800
1746.54 645.085 3826
1768.08 649.638 3853
1777.29 649.638 3853
1786.51 649.638 3853
1795.72 649.638 3853
1800.72 648.12 3844
1848.05 661.777 3925
1862.17 663.463 3935
1871.58 663.463 3935
1885.29 664.981 3944
1894.72 664.981 3944
1904.15 664.981 3944
1909.21 663.463 3935
1913.75 661.777 3925
1905.5 655.707 3889
1914.79 655.707 3889
1897.38 646.603 3835
1880.7 637.835 3783
1868.26 630.585 3740
1877.21 630.585 3740
1857.4 620.975 3683
1853.54 616.759 3658
1854.15 614.062 3642
1859.27 612.882 3635
1871.56 614.062 3642
1880.27 614.062 3642
1897.28 616.759 3658
1910.72 618.277 3667
1919.49 618.277 3667
1928.26 618.277 3667
1937.02 618.277 3667
1936.77 615.411 3650
1954.56 618.277 3667
1963.33 618.277 3667
1985.01 622.323 3691
2002.48 625.021 3707
2024.91 629.236 3732
2043.09 632.103 3749
2070.67 637.835 3783
2128.09 652.672 3871
2162.2 660.26 3916
2171.56 660.26 3916
2201.53 666.498 3953
2227.21 671.388 3982
2241.78 672.905 3991
2251.33 672.905 3991
2260.87 672.905 3991
2270.41 672.905 3991
2285.67 674.591 4001
2295.24 674.591 4001
2304.81 674.591 4001
2314.37 674.591 4001
2323.94 674.591 4001
2333.51 674.591 4001
2343.08 674.591 4001
2346.76 672.905 3991
2350.99 671.388 3982
2360.52 671.388 3982
2364.09 669.702 3972
2373.58 669.702 3972
2383.08 669.702 3972
2398.6 671.388 3982
2413.57 672.905 3991
2423.11 672.905 3991
2438.75 674.591 4001
2453.83 676.109 4010
2475.7 679.481 4030
2485.34 679.481 4030
2494.98 679.481 4030
2504.61 679.481 4030
2514.25 679.481 4030
2523.89 679.481 4030
2527.24 677.795 4020
2530.54 676.109 4010
2540.13 676.109 4010
2525.56 669.702 3972
2535.05 669.702 3972
2538.79 668.184 3963
2548.26 668.184 3963
2557.74 668.184 3963
2567.22 668.184 3963
2576.69 668.184 3963
2586.17 668.184 3963
2595.65 668.184 3963
2568.31 658.742 3907
2547.97 651.155 3862
2533.36 645.085 3826
2542.51 645.085 3826
2516.98 636.318 3774
2503.25 630.585 3740
2468.53 619.626 3675
2477.32 619.626 3675
529.252 124.431 738
531.017 124.431 738
532.782 124.431 738
534.547 124.431 738
536.312 124.431 738
538.076 124.431 738
539.841 124.431 738
540.872 124.262 737
541.898 124.094 736
542.919 123.925 735
544.677 123.925 735
546.435 123.925 735
548.192 123.925 735
549.202 123.757 734
550.957 123.757 734
552.712 123.757 734
554.467 123.757 734
556.223 123.757 734
557.978 123.757 734
558.97 123.588 733
560.723 123.588 733
-2370.46 541.39 3166
-2362.89 541.39 3166
-2355.32 541.39 3166
-2343.3 540.364 3160
-2331.31 539.338 3154
-2323.77 539.338 3154
-2311.82 538.312 3148
-2299.9 537.286 3142
-2288.01 536.26 3136
-2289.23 538.312 3148
-2281.71 538.312 3148
-2278.51 539.338 3154
-2279.61 541.39 3166
-2306.49 549.598 3214
-2298.8 549.598 3214
-2331.75 559.345 3271
-2399.24 577.471 3377
-2391.16 577.471 3377
-2442.36 591.835 3461
-2469.95 600.556 3512
-2514.82 613.552 3588
-2506.24 613.552 3588
-2508.11 616.117 3603
-2505.04 617.485 3611
-2496.4 617.485 3611
-2487.77 617.485 3611
-2479.13 617.485 3611
-2470.5 617.485 3611
-2461.86 617.485 3611
-2447.79 616.117 3603
-2439.18 616.117 3603
-2435.96 617.485 3611
-2427.32 617.485 3611
-2418.69 617.485 3611
-2410.05 617.485 3611
-2396.1 616.117 3603
-2387.48 616.117 3603
-2378.87 616.117 3603
-2364.99 614.749 3595
-2356.39 614.749 3595
-2353.02 616.117 3603
-2344.4 616.117 3603
-2340.97 617.485 3611
-2337.51 618.853 3619
-2328.85 618.853 3619
-2320.2 618.853 3619
-2311.54 618.853 3619
-2297.8 617.485 3611
-2294.24 618.853 3619
-2285.58 618.853 3619
-2296.43 624.154 3650
-2298.36 627.061 3667
-2289.59 627.061 3667
-2280.82 627.061 3667
-2296.84 633.901 3707
-2298.46 636.808 3724
-2294.48 638.176 3732
-2285.55 638.176 3732
-2276.63 638.176 3732
-2379.51 669.641 3916
-2392.54 675.968 3953
-2383.09 675.968 3953
-2373.63 675.968 3953
-2364.18 675.968 3953
-2354.73 675.968 3953
-2334.6 672.89 3935
-2330.5 674.429 3944
-2337.55 679.217 3972
-2367.32 690.674 4039
-2357.66 690.674 4039
-2377.07 699.224 4089
-2367.29 699.224 4089
-2357.52 699.224 4089
-2347.74 699.224 4089
-1961.59 697.514 4079
-1951.83 697.514 4079
-1942.08 697.514 4079
-1918.11 692.384 4049
-1903.72 690.674 4039
-1894.06 690.674 4039
-1880.2 689.135 4030
-1843.64 679.217 3972
-1834.14 679.217 3972
-1829.24 680.927 3982
-1819.72 680.927 3982
-1810.19 680.927 3982
-1796.15 679.217 3972
-1786.65 679.217 3972
-1764.63 674.429 3944
-1742.73 669.641 3916
-1725.4 666.562 3898
-1716.08 666.562 3898
-1706.76 666.562 3898
-1697.44 666.562 3898
-1695.91 669.641 3916
-1686.55 669.641 3916
-1677.18 669.641 3916
-1667.82 669.641 3916
-1662.27 671.18 3925
-1657.09 672.89 3935
-1655.22 675.968 3953
-1645.77 675.968 3953
-1671.91 690.674 4039
-1662.25 690.674 4039
-1652.6 690.674 4039
-1642.94 690.674 4039
-1629.64 689.135 4030
-1620 689.135 4030
-1617.96 692.384 4049
-1608.27 692.384 4049
-1598.59 692.384 4049
-1588.91 692.384 4049
-1579.23 692.384 4049
-1562.18 689.135 4030
-1534.05 680.927 3982
-1524.53 680.927 3982
-1522.24 684.176 4001
-1512.67 684.176 4001
-1503.1 684.176 4001
-1493.53 684.176 4001
-1483.97 684.176 4001
-1463.71 679.217 3972
-1450.92 677.678 3963
-1431.26 672.89 3935
-1421.85 672.89 3935
-1392.7 663.484 3880
-1373.79 658.867 3853
-1361.39 657.328 3844
-1352.2 657.328 3844
-1343 657.328 3844
-1333.81 657.328 3844
-1324.62 657.328 3844
-1318.51 658.867 3853
-1309.29 658.867 3853
-1312.23 665.023 3889
-1308.96 668.102 3907
-1302.61 669.641 3916
-1293.25 669.641 3916
-1283.88 669.641 3916
-590.9 312.761 1829
-586.526 312.761 1829
-582.152 312.761 1829
-577.779 312.761 1829
-572.778 312.419 1827
-564.053 310.025 1813
-559.718 310.025 1813
-552.932 308.657 1805
-547.704 308.144 1802
-537.364 304.724 1782
-527.418 301.475 1763
-523.202 301.475 1763
-516.926 300.278 1756
-511.267 299.423 1751
-505.342 298.397 1745
-501.169 298.397 1745
-495.003 297.2 1738
-488.87 296.003 1731
-483.05 294.977 1725
-478.925 294.977 1725
-471.497 292.925 1713
-466.037 292.07 1708
-459.518 290.531 1699
-454.383 289.847 1695
-450.33 289.847 1695
-445.487 289.334 1692
-440.136 288.479 1687
-434.809 287.624 1682
-430.787 287.624 1682
-425.75 286.94 1678
-420.23 285.914 1672
-415.236 285.23 1668
-411.247 285.23 1668
-405.305 283.862 1660
-399.643 282.665 1653
-394.972 282.152 1650
-391.026 282.152 1650
-385.673 281.126 1644
-380.813 280.442 1640
-376.661 280.271 1639
-372.287 279.929 1637
-368.373 279.929 1637
-363.79 279.416 1634
-358.782 278.561 1629
-354.233 278.048 1626
-350.344 278.048 1626
-346.03 277.706 1624
-341.514 277.193 1621
-337.43 277.022 1620
-333.556 277.022 1620
-329.682 277.022 1620
-325.808 277.022 1620
-321.934 277.022 1620
-318.257 277.193 1621
-314.38 277.193 1621
-310.504 277.193 1621
-307.006 277.535 1623
-303.685 278.048 1626
-299.797 278.048 1626
-295.909 278.048 1626
-292.38 278.39 1628
-288.664 278.561 1629
-284.768 278.561 1629
-281.39 279.074 1632
-278.168 279.758 1636
-275.261 280.784 1642
-271.335 280.784 1642
-268.223 281.639 1647
-264.766 282.152 1650
-261.136 282.494 1652
-257.186 282.494 1652
-253.235 282.494 1652
-249.436 282.665 1653
-245.78 283.007 1655
-241.822 283.007 1655
-238.152 283.349 1657
-234.331 283.52 1658
-231.339 284.717 1665
-227.357 284.717 1665
-223.778 285.23 1668
-220.448 286.085 1673
-216.965 286.769 1677
-212.955 286.769 1677
-209.319 287.282 1680
-205.668 287.795 1683
-202.362 288.821 1689
-198.676 289.334 1692
-194.629 289.334 1692
-190.921 289.847 1695
-187.309 290.531 1699
-183.785 291.386 1704
-179.711 291.386 1704
-176.048 292.07 1708
-172.467 292.925 1713
-168.862 293.78 1718
-164.754 293.78 1718
-161.02 294.464 1722
-156.993 294.635 1723
-153.228 295.319 1727
-149.098 295.319 1727
-145.304 296.003 1731
-141.572 296.858 1736
-137.421 296.858 1736
-133.27 296.858 1736
-280.6 666.562 3898
-271.279 666.562 3898
-261.958 666.562 3898
-251.47 663.484 3880
-237.198 649.804 3800
-228.111 649.804 3800
-221.041 655.789 3835
-212.865 658.867 3853
-203.652 658.867 3853
-194.892 660.406 3862
-185.657 660.406 3862
-178.066 666.562 3898
-168.745 666.562 3898
-159.792 668.102 3907
-151.142 671.18 3925
-142.442 674.429 3944
-133.011 674.429 3944
-124.175 677.678 3963
-115.248 680.927 3982
-106.469 685.715 4010
-96.8804 685.715 4010
-87.2912 685.715 4010
134.555 692.384 4049
144.237 692.384 4049
155.06 697.514 4079
164.814 697.514 4079
174.568 697.514 4079
184.322 697.514 4079
192.173 690.674 4039
201.832 690.674 4039
211.49 690.674 4039
219.068 684.176 4001
225.893 675.968 3953
230.999 663.484 3880
240.278 663.484 3880
245.568 652.882 3818
254.098 651.343 3809
262.584 649.804 3800
271.671 649.804 3800
278.246 643.99 3766
286.565 642.451 3757
295.549 642.451 3757
304.534 642.451 3757
313.518 642.451 3757
322.502 642.451 3757
330.78 641.083 3749
339.745 641.083 3749
348.71 641.083 3749
357.675 641.083 3749
364.978 638.176 3732
371.397 633.901 3707
380.262 633.901 3707
386.607 629.797 3683
391.012 622.786 3642
394.563 614.749 3595
403.16 614.749 3595
410.955 613.552 3588
415.91 608.251 3557
421.672 604.318 3534
425.619 597.991 3497
433.982 597.991 3497
439.688 594.4 3476
445.164 590.638 3454
451.586 588.244 3440
459.812 588.244 3440
465.181 584.653 3419
471.419 582.259 3405
478.575 581.062 3398
486.701 581.062 3398
492.788 578.668 3384
499.844 577.471 3377
508.972 578.668 3384
519.203 581.062 3398
527.329 581.062 3398
537.661 583.456 3412
550.299 588.244 3440
563.071 593.032 3468
573.836 595.597 3483
582.164 595.597 3483
594.223 599.359 3505
603.808 600.556 3512
617.436 605.686 3542
625.906 605.686 3542
637.062 608.251 3557
