ply
format ascii 1.0
comment File generated
element vertex 2255
property float x
property float y
property float z
end_header
-1714.75 1169.25 2524
-1718.87 1176.2 2539
-1712.79 1176.2 2539
-1706.72 1176.2 2539
-1700.65 1176.2 2539
-1694.58 1176.2 2539
-1688.51 1176.2 2539
-1677.8 1172.96 2532
-1673.72 1174.35 2535
-1667.66 1174.35 2535
-1661.6 1174.35 2535
-1650.97 1171.1 2528
-1634.51 1163.69 2512
-1638.88 1171.1 2528
-1632.83 1171.1 2528
-1626.79 1171.1 2528
-1620.74 1171.1 2528
-1609.59 1167.4 2520
-1603.56 1167.4 2520
-1597.53 1167.4 2520
-1591.51 1167.4 2520
-1593.03 1172.96 2532
-1586.98 1172.96 2532
-1580.92 1172.96 2532
-1574.87 1172.96 2532
-1566.33 1171.1 2528
-1560.29 1171.1 2528
-1551.78 1169.25 2524
-1554.94 1176.2 2539
-1558.62 1183.61 2555
-1552.51 1183.61 2555
-1546.4 1183.61 2555
-1540.29 1183.61 2555
-1520.37 1172.96 2532
-1514.32 1172.96 2532
-1505.88 1171.1 2528
-1499.84 1171.1 2528
-1493.79 1171.1 2528
-1487.75 1171.1 2528
-1481.7 1171.1 2528
-1201.98 1205.85 2603
-1195.76 1205.85 2603
-1189.53 1205.85 2603
-1185.13 1207.7 2607
-1180.7 1209.55 2611
-1174.46 1209.55 2611
-1171.79 1213.26 2619
-1167.31 1215.11 2623
-1162.81 1216.97 2627
-1156.53 1216.97 2627
-1159.44 1226.69 2648
-1177.49 1252.64 2704
-1182.29 1264.68 2730
-1175.76 1264.68 2730
-1171.37 1267 2735
-1164.83 1267 2735
-1158.29 1267 2735
-1147.96 1262.83 2726
-1133.91 1254.49 2708
-1116.61 1242.45 2682
-1110.19 1242.45 2682
-1103.78 1242.45 2682
-1104.32 1250.32 2699
-1097.87 1250.32 2699
-1091.41 1250.32 2699
-1074.51 1238.28 2673
-915.857 1197.97 2586
-909.673 1197.97 2586
-903.489 1197.97 2586
-895.917 1196.12 2582
-889.742 1196.12 2582
-883.568 1196.12 2582
-877.394 1196.12 2582
-871.219 1196.12 2582
-865.045 1196.12 2582
-857.54 1194.27 2578
-849.064 1191.02 2571
-845.211 1194.27 2578
-839.046 1194.27 2578
-832.881 1194.27 2578
-826.716 1194.27 2578
-819.278 1192.41 2574
-819.441 1201.68 2594
-813.238 1201.68 2594
-811.08 1207.7 2607
-807.315 1211.41 2615
-804.738 1216.97 2627
-798.456 1216.97 2627
-792.174 1216.97 2627
-783.499 1213.26 2619
-777.236 1213.26 2619
-770.973 1213.26 2619
-762.375 1209.55 2611
-748.891 1197.97 2586
-742.707 1197.97 2586
-726.555 1181.76 2551
-720.455 1181.76 2551
-707.914 1171.1 2528
-481.979 804.208 1736
-477.828 804.208 1736
-471.221 800.038 1727
-466.009 798.185 1723
-461.889 798.185 1723
-457.503 797.722 1722
-453.385 797.722 1722
-448.746 796.796 1720
-444.633 796.796 1720
-441.032 797.722 1722
-436.914 797.722 1722
-432.796 797.722 1722
-428.927 798.185 1723
-424.807 798.185 1723
-420.687 798.185 1723
-416.567 798.185 1723
-412.207 797.722 1722
-408.089 797.722 1722
-403.971 797.722 1722
-399.854 797.722 1722
-395.736 797.722 1722
-391.618 797.722 1722
-387.5 797.722 1722
-383.382 797.722 1722
-379.265 797.722 1722
-375.147 797.722 1722
-371.029 797.722 1722
-366.911 797.722 1722
-362.793 797.722 1722
-358.675 797.722 1722
-354.558 797.722 1722
-350.44 797.722 1722
-346.322 797.722 1722
-342.204 797.722 1722
-338.086 797.722 1722
-333.968 797.722 1722
-330.042 798.185 1723
-325.922 798.185 1723
-321.802 798.185 1723
-318.05 799.112 1725
-313.925 799.112 1725
-309.8 799.112 1725
-305.675 799.112 1725
-301.9 800.038 1727
-297.77 800.038 1727
-293.64 800.038 1727
-289.511 800.038 1727
-285.381 800.038 1727
-281.251 800.038 1727
-277.121 800.038 1727
-273.308 800.965 1729
-269.173 800.965 1729
-265.039 800.965 1729
-260.904 800.965 1729
-256.769 800.965 1729
-252.635 800.965 1729
-248.5 800.965 1729
-244.366 800.965 1729
-240.509 801.891 1731
-236.37 801.891 1731
-232.23 801.891 1731
-228.091 801.891 1731
-224.34 803.281 1734
-220.193 803.281 1734
-216.296 804.208 1736
-212.633 806.061 1740
-208.473 806.061 1740
-204.312 806.061 1740
-200.151 806.061 1740
-196.103 806.524 1741
-193.373 812.546 1754
-189.178 812.546 1754
-184.984 812.546 1754
-181.408 815.326 1760
-177.501 816.715 1763
-173.285 816.715 1763
-169.645 819.495 1769
-165.415 819.495 1769
-161.185 819.495 1769
-156.954 819.495 1769
-152.724 819.495 1769
-148.326 818.568 1767
-144.101 818.568 1767
-187.43 1167.4 2520
-190.042 1222.99 2640
-183.729 1222.99 2640
-177.416 1222.99 2640
-171.103 1222.99 2640
-164.79 1222.99 2640
-158.477 1222.99 2640
-148.36 1192.41 2574
-142.205 1192.41 2574
-135.891 1191.02 2571
-130.298 1196.12 2582
-124.124 1196.12 2582
-117.949 1196.12 2582
-111.775 1196.12 2582
-105.764 1197.97 2586
-99.5804 1197.97 2586
-93.866 1204 2599
-87.651 1204 2599
-81.5614 1205.85 2603
-75.3368 1205.85 2603
-69.5371 1213.26 2619
-63.4675 1216.97 2627
-57.3597 1220.67 2635
-51.0586 1220.67 2635
-45.3351 1236.42 2669
-39.084 1240.59 2678
-32.6801 1240.59 2678
-26.2762 1240.59 2678
-19.8723 1240.59 2678
-13.4684 1240.59 2678
-7.06447 1240.59 2678
-0.659326 1238.28 2673
5.72405 1236.42 2669
12.0701 1232.72 2661
18.3711 1228.55 2652
24.7128 1228.55 2652
31.0077 1226.69 2648
37.3963 1228.55 2652
43.738 1228.55 2652
50.0797 1228.55 2652
56.4215 1228.55 2652
62.6685 1226.69 2648
68.8965 1224.84 2644
75.2191 1224.84 2644
80.2772 1205.85 2603
86.2027 1201.68 2594
92.1208 1197.97 2586
98.3047 1197.97 2586
104.165 1194.27 2578
110.159 1192.41 2574
116.495 1194.27 2578
122.66 1194.27 2578
129.224 1197.97 2586
135.408 1197.97 2586
141.592 1197.97 2586
147.776 1197.97 2586
153.96 1197.97 2586
160.144 1197.97 2586
166.07 1196.12 2582
172.512 1197.97 2586
178.696 1197.97 2586
184.879 1197.97 2586
191.359 1199.83 2590
197.857 1201.68 2594
204.06 1201.68 2594
210.264 1201.68 2594
216.884 1204 2599
223.099 1204 2599
229.314 1204 2599
235.529 1204 2599
241.279 1201.68 2594
248.34 1205.85 2603
255.739 1211.41 2615
261.992 1211.41 2615
268.245 1211.41 2615
274.498 1211.41 2615
280.752 1211.41 2615
286.127 1207.7 2607
292.361 1207.7 2607
298.137 1205.85 2603
304.361 1205.85 2603
311.063 1207.7 2607
317.297 1207.7 2607
323.532 1207.7 2607
329.766 1207.7 2607
336 1207.7 2607
342.234 1207.7 2607
348.468 1207.7 2607
354.702 1207.7 2607
361.49 1209.55 2611
367.734 1209.55 2611
373.978 1209.55 2611
380.221 1209.55 2611
387.057 1211.41 2615
393.31 1211.41 2615
399.563 1211.41 2615
405.196 1209.55 2611
411.44 1209.55 2611
417.683 1209.55 2611
424.577 1211.41 2615
430.83 1211.41 2615
437.083 1211.41 2615
443.336 1211.41 2615
448.214 1207.7 2607
453.751 1205.85 2603
459.976 1205.85 2603
464.588 1201.68 2594
470.791 1201.68 2594
477.914 1204 2599
486.364 1209.55 2611
493.362 1211.41 2615
499.616 1211.41 2615
507.416 1215.11 2623
513.689 1215.11 2623
519.961 1215.11 2623
526.234 1215.11 2623
530.07 1209.55 2611
536.314 1209.55 2611
542.557 1209.55 2611
548.801 1209.55 2611
555.045 1209.55 2611
561.288 1209.55 2611
568.401 1211.41 2615
574.655 1211.41 2615
581.797 1213.26 2619
588.059 1213.26 2619
595.23 1215.11 2623
601.502 1215.11 2623
607.775 1215.11 2623
614.983 1216.97 2627
621.265 1216.97 2627
627.547 1216.97 2627
633.829 1216.97 2627
639.137 1215.11 2623
644.425 1213.26 2619
650.688 1213.26 2619
654.944 1209.55 2611
661.187 1209.55 2611
667.431 1209.55 2611
675.739 1213.26 2619
682.002 1213.26 2619
688.265 1213.26 2619
689.224 1204 2599
695.439 1204 2599
700.304 1201.68 2594
714.405 1215.11 2623
725.348 1222.99 2640
738.59 1234.57 2665
744.963 1234.57 2665
751.336 1234.57 2665
762.542 1242.45 2682
768.955 1242.45 2682
775.369 1242.45 2682
773.038 1228.55 2652
778.204 1226.69 2648
784.536 1226.69 2648
790.868 1226.69 2648
797.2 1226.69 2648
795.946 1215.11 2623
802.219 1215.11 2623
812.19 1220.67 2635
818.491 1220.67 2635
826.357 1222.99 2640
835.193 1226.69 2648
841.526 1226.69 2648
847.858 1226.69 2648
856.771 1230.4 2656
864.747 1232.72 2661
871.11 1232.72 2661
877.473 1232.72 2661
886.494 1236.42 2669
892.876 1236.42 2669
903.638 1242.45 2682
910.052 1242.45 2682
919.541 1246.61 2691
930.449 1252.64 2704
936.915 1252.64 2704
943.381 1252.64 2704
949.847 1252.64 2704
954.545 1250.32 2699
960.999 1250.32 2699
964.586 1246.61 2691
971.021 1246.61 2691
969.465 1236.42 2669
965.244 1222.99 2640
971.557 1222.99 2640
974.536 1218.82 2631
976.354 1213.26 2619
981.116 1211.41 2615
987.37 1211.41 2615
992.103 1209.55 2611
987.258 1196.12 2582
989.2 1191.02 2571
996.51 1192.41 2574
1002.66 1192.41 2574
1032.73 1220.67 2635
1039.03 1220.67 2635
1045.33 1220.67 2635
1048.44 1216.97 2627
1054.72 1216.97 2627
1061 1216.97 2627
1033.16 1178.05 2543
1039.24 1178.05 2543
1045.32 1178.05 2543
1053.05 1179.91 2547
1059.14 1179.91 2547
1065.24 1179.91 2547
1071.33 1179.91 2547
1075.72 1178.05 2543
1078.4 1174.35 2535
1084.46 1174.35 2535
1087.52 1171.1 2528
1093.56 1171.1 2528
1096.13 1167.4 2520
1102.15 1167.4 2520
1109.94 1169.25 2524
1115.97 1169.25 2524
1171.35 1220.67 2635
1177.65 1220.67 2635
1183.95 1220.67 2635
1190.25 1220.67 2635
1174.31 1197.97 2586
1178.66 1196.12 2582
1184.84 1196.12 2582
1191.01 1196.12 2582
1197.19 1196.12 2582
1199.63 1192.41 2574
1205.79 1192.41 2574
1206.76 1187.32 2563
1211 1185.46 2559
1217.12 1185.46 2559
1228.97 1191.02 2571
1235.12 1191.02 2571
1248.51 1197.97 2586
1261 1204 2599
1284.77 1220.67 2635
1291.07 1220.67 2635
1307.71 1230.4 2656
1316.54 1232.72 2661
1322.9 1232.72 2661
1329.26 1232.72 2661
1335.63 1232.72 2661
1326.86 1218.82 2631
1325.05 1211.41 2615
1333.34 1213.26 2619
1339.6 1213.26 2619
1354.08 1220.67 2635
1362.97 1222.99 2640
1369.28 1222.99 2640
1375.59 1222.99 2640
1381.9 1222.99 2640
1381.38 1216.97 2627
1387.66 1216.97 2627
1389.7 1213.26 2619
1453.67 1204 2599
1459.88 1204 2599
1466.1 1204 2599
1464.95 1197.97 2586
1471.13 1197.97 2586
1477.32 1197.97 2586
1481.21 1196.12 2582
1487.38 1196.12 2582
1493.55 1196.12 2582
1499.73 1196.12 2582
1499.49 1191.02 2571
1498.61 1185.46 2559
1504.73 1185.46 2559
1510.85 1185.46 2559
1516.97 1185.46 2559
1513.56 1178.05 2543
1517.25 1176.2 2539
1530.52 1181.76 2551
1536.62 1181.76 2551
1549.98 1187.32 2563
1560.97 1191.02 2571
1571.38 1194.27 2578
1577.55 1194.27 2578
1588.63 1197.97 2586
1597.28 1199.83 2590
1614 1207.7 2607
1622.72 1209.55 2611
1628.96 1209.55 2611
1645.22 1216.97 2627
1662.19 1224.84 2644
1698.18 1246.61 2691
1704.61 1246.61 2691
1725.03 1256.81 2713
1731.52 1256.81 2713
1738.01 1256.81 2713
1738.71 1252.64 2704
1711.61 1228.55 2652
1710.18 1222.99 2640
1716.5 1222.99 2640
1714.33 1216.97 2627
1704.89 1205.85 2603
1705.2 1201.68 2594
1714.7 1204 2599
1726.21 1207.7 2607
1732.44 1207.7 2607
1738.68 1207.7 2607
1736.21 1201.68 2594
1742.41 1201.68 2594
1745.92 1199.83 2590
1749.41 1197.97 2586
1747.45 1192.41 2574
1753.6 1192.41 2574
1744.03 1181.76 2551
1741.9 1176.2 2539
1745.22 1174.35 2535
1751.28 1174.35 2535
1755.26 1172.96 2532
1750.19 1165.55 2516
1748.52 1160.45 2505
1754.51 1160.45 2505
1760.51 1160.45 2505
1766.5 1160.45 2505
1756.92 1150.26 2483
1762.86 1150.26 2483
1773.78 1153.5 2490
1779.73 1153.5 2490
1793.58 1158.6 2501
1799.56 1158.6 2501
1805.54 1158.6 2501
1811.52 1158.6 2501
1812.41 1155.35 2494
1807.44 1148.4 2479
1813.37 1148.4 2479
1819.3 1148.4 2479
1825.22 1148.4 2479
1834.11 1150.26 2483
1845.23 1153.5 2490
1862.34 1160.45 2505
1868.33 1160.45 2505
1877.31 1162.3 2509
1888.57 1165.55 2516
1894.58 1165.55 2516
1900.6 1165.55 2516
1901.31 1162.3 2509
-1787.48 1191.6 2559
-1781.36 1191.6 2559
-1775.24 1191.6 2559
-1769.12 1191.6 2559
-1746.47 1180.42 2535
-1740.41 1180.42 2535
-1726.82 1175.3 2524
-1718.06 1173.43 2520
-1714.75 1175.3 2524
-1716.16 1180.42 2535
-1710.1 1180.42 2535
-1704.03 1180.42 2535
-1697.97 1180.42 2535
-1689.91 1179.02 2532
-1683.85 1179.02 2532
-1677.8 1179.02 2532
-1673.72 1180.42 2535
-1667.66 1180.42 2535
-1661.6 1180.42 2535
-1650.97 1177.16 2528
-1634.51 1169.71 2512
-1633.69 1173.43 2520
-1630.25 1175.3 2524
-1624.21 1175.3 2524
-1618.18 1175.3 2524
-1607.03 1171.57 2516
-1601.01 1171.57 2516
-1595 1171.57 2516
-1588.98 1171.57 2516
-1590.51 1177.16 2528
-1586.98 1179.02 2532
-1580.92 1179.02 2532
-1574.87 1179.02 2532
-1558.9 1171.57 2516
-1552.88 1171.57 2516
-1542.56 1168.31 2509
-1550.65 1179.02 2532
-1548.86 1182.28 2539
-1542.79 1182.28 2539
-1536.72 1182.28 2539
-1530.65 1182.28 2539
-1517.97 1177.16 2528
-1511.93 1177.16 2528
-1501.12 1173.43 2520
-1492.72 1171.57 2516
-1493.79 1177.16 2528
-1487.75 1177.16 2528
-1481.7 1177.16 2528
-1464.57 1168.31 2509
-1190.44 1200.44 2578
-1184.27 1200.44 2578
-1178.11 1200.44 2578
-1171.94 1200.44 2578
-1177.08 1212.08 2603
-1170.86 1212.08 2603
-1168.21 1215.81 2611
-1167.31 1221.4 2623
-1162.81 1223.26 2627
-1156.53 1223.26 2627
-1159.44 1233.04 2648
-1177.49 1259.11 2704
-1182.29 1271.22 2730
-1175.76 1271.22 2730
-1171.37 1273.55 2735
-1164.83 1273.55 2735
-1158.29 1273.55 2735
-1147.96 1269.36 2726
-1133.91 1260.98 2708
-1112.86 1244.68 2673
-1106.47 1244.68 2673
-1100.08 1244.68 2673
-1097.37 1248.87 2682
-1090.95 1248.87 2682
-1084.54 1248.87 2682
-1074.51 1244.68 2673
-903.461 1187.87 2551
-897.361 1187.87 2551
-895.453 1193.46 2563
-892.1 1197.18 2571
-885.952 1197.18 2571
-879.804 1197.18 2571
-873.656 1197.18 2571
-867.508 1197.18 2571
-861.36 1197.18 2571
-853.881 1195.32 2567
-847.743 1195.32 2567
-842.916 1197.18 2571
-836.768 1197.18 2571
-830.62 1197.18 2571
-824.472 1197.18 2571
-818.324 1197.18 2571
-813.123 1198.58 2574
-806.968 1198.58 2574
-807.035 1207.89 2594
-804.845 1213.95 2607
-798.611 1213.95 2607
-792.377 1213.95 2607
-786.143 1213.95 2607
-779.909 1213.95 2607
-773.675 1213.95 2607
-766.263 1212.08 2603
-758.871 1210.22 2599
-745.416 1198.58 2574
-739.261 1198.58 2574
-726.555 1187.87 2551
-715.089 1179.02 2532
-719.955 1197.18 2571
-713.807 1197.18 2571
-707.659 1197.18 2571
-470.675 803.244 1725
-465.739 801.847 1722
-461.621 801.847 1722
-456.972 800.916 1720
-452.859 800.916 1720
-448.746 800.916 1720
-444.633 800.916 1720
-441.032 801.847 1722
-436.914 801.847 1722
-432.796 801.847 1722
-428.927 802.313 1723
-424.807 802.313 1723
-420.687 802.313 1723
-416.567 802.313 1723
-412.207 801.847 1722
-408.089 801.847 1722
-403.971 801.847 1722
-399.854 801.847 1722
-395.736 801.847 1722
-391.618 801.847 1722
-387.5 801.847 1722
-383.382 801.847 1722
-379.265 801.847 1722
-375.147 801.847 1722
-371.029 801.847 1722
-366.911 801.847 1722
-362.793 801.847 1722
-358.675 801.847 1722
-354.558 801.847 1722
-350.44 801.847 1722
-346.322 801.847 1722
-342.204 801.847 1722
-338.086 801.847 1722
-333.968 801.847 1722
-330.042 802.313 1723
-325.922 802.313 1723
-321.802 802.313 1723
-318.05 803.244 1725
-313.925 803.244 1725
-309.8 803.244 1725
-305.675 803.244 1725
-301.9 804.175 1727
-297.77 804.175 1727
-293.64 804.175 1727
-289.511 804.175 1727
-285.381 804.175 1727
-281.251 804.175 1727
-277.121 804.175 1727
-273.308 805.107 1729
-269.173 805.107 1729
-265.039 805.107 1729
-260.904 805.107 1729
-256.769 805.107 1729
-252.635 805.107 1729
-248.5 805.107 1729
-244.366 805.107 1729
-240.509 806.038 1731
-236.37 806.038 1731
-232.23 806.038 1731
-228.091 806.038 1731
-224.34 807.435 1734
-220.193 807.435 1734
-216.296 808.366 1736
-212.633 810.229 1740
-208.473 810.229 1740
-204.312 810.229 1740
-200.151 810.229 1740
-196.103 810.694 1741
-193.152 815.817 1752
-188.962 815.817 1752
-184.984 816.748 1754
-181.202 818.61 1758
-177.199 819.542 1760
-172.991 819.542 1760
-169.07 820.939 1763
-165.228 822.801 1767
-161.002 822.801 1767
-156.777 822.801 1767
-152.551 822.801 1767
-148.326 822.801 1767
-144.101 822.801 1767
-187.43 1173.43 2520
-190.042 1229.31 2640
-183.729 1229.31 2640
-177.416 1229.31 2640
-166.826 1198.58 2574
-160.67 1198.58 2574
-154.515 1198.58 2574
-147.726 1193.46 2563
-141.597 1193.46 2563
-135.468 1193.46 2563
-129.339 1193.46 2563
-123.21 1193.46 2563
-117.081 1193.46 2563
-110.953 1193.46 2563
-105.151 1197.18 2571
-99.0028 1197.18 2571
-93.2521 1202.31 2582
-87.0777 1202.31 2582
-81.0287 1204.17 2586
-74.8448 1204.17 2586
-69.006 1210.22 2599
-62.8877 1212.08 2603
-56.9243 1217.67 2615
-50.6711 1217.67 2615
-44.7575 1226.98 2635
-38.6462 1233.04 2648
-32.314 1233.04 2648
-25.9818 1233.04 2648
-19.6497 1233.04 2648
-13.2974 1231.18 2644
-6.95104 1226.98 2635
-0.649953 1226.98 2635
5.65113 1226.98 2635
11.9522 1226.98 2635
18.3156 1231.18 2644
24.6755 1233.04 2648
31.0077 1233.04 2648
37.3963 1234.9 2652
43.738 1234.9 2652
50.0797 1234.9 2652
56.4215 1234.9 2652
62.6685 1233.04 2648
68.8965 1231.18 2644
75.2191 1231.18 2644
80.2772 1212.08 2603
86.2027 1207.89 2594
92.1208 1204.17 2586
98.3047 1204.17 2586
104.165 1200.44 2578
110.159 1198.58 2574
116.495 1200.44 2578
122.66 1200.44 2578
129.224 1204.17 2586
135.408 1204.17 2586
141.592 1204.17 2586
147.776 1204.17 2586
153.96 1204.17 2586
160.144 1204.17 2586
166.07 1202.31 2582
172.512 1204.17 2586
178.696 1204.17 2586
184.879 1204.17 2586
191.359 1206.03 2590
197.857 1207.89 2594
204.06 1207.89 2594
210.264 1207.89 2594
216.884 1210.22 2599
223.099 1210.22 2599
229.314 1210.22 2599
235.529 1210.22 2599
241.279 1207.89 2594
248.34 1212.08 2603
255.739 1217.67 2615
261.992 1217.67 2615
268.245 1217.67 2615
274.498 1217.67 2615
280.752 1217.67 2615
286.127 1213.95 2607
292.361 1213.95 2607
298.137 1212.08 2603
304.361 1212.08 2603
311.063 1213.95 2607
317.297 1213.95 2607
323.532 1213.95 2607
329.766 1213.95 2607
336 1213.95 2607
342.234 1213.95 2607
348.468 1213.95 2607
354.702 1213.95 2607
361.49 1215.81 2611
367.734 1215.81 2611
373.978 1215.81 2611
380.221 1215.81 2611
387.057 1217.67 2615
393.31 1217.67 2615
399.563 1217.67 2615
405.196 1215.81 2611
411.44 1215.81 2611
417.683 1215.81 2611
424.577 1217.67 2615
430.83 1217.67 2615
437.083 1217.67 2615
443.336 1217.67 2615
448.214 1213.95 2607
453.751 1212.08 2603
459.976 1212.08 2603
464.588 1207.89 2594
470.791 1207.89 2594
477.914 1210.22 2599
486.364 1215.81 2611
493.362 1217.67 2615
499.616 1217.67 2615
507.416 1221.4 2623
513.689 1221.4 2623
519.961 1221.4 2623
526.234 1221.4 2623
530.07 1215.81 2611
536.314 1215.81 2611
542.557 1215.81 2611
548.801 1215.81 2611
555.045 1215.81 2611
561.288 1215.81 2611
568.401 1217.67 2615
574.655 1217.67 2615
581.797 1219.53 2619
588.059 1219.53 2619
595.23 1221.4 2623
601.502 1221.4 2623
607.775 1221.4 2623
614.983 1223.26 2627
621.265 1223.26 2627
627.547 1223.26 2627
633.829 1223.26 2627
639.137 1221.4 2623
644.425 1219.53 2619
650.688 1219.53 2619
654.944 1215.81 2611
661.187 1215.81 2611
667.431 1215.81 2611
675.739 1219.53 2619
682.002 1219.53 2619
688.265 1219.53 2619
689.224 1210.22 2599
695.439 1210.22 2599
699.224 1206.03 2590
711.137 1215.81 2611
717.381 1215.81 2611
723.624 1215.81 2611
728.75 1213.95 2607
734.984 1213.95 2607
741.218 1213.95 2607
747.452 1213.95 2607
749.928 1207.89 2594
756.131 1207.89 2594
763.804 1210.22 2599
775.944 1219.53 2619
782.207 1219.53 2619
788.47 1219.53 2619
794.732 1219.53 2619
798.549 1215.81 2611
807.258 1219.53 2619
813.521 1219.53 2619
821.036 1221.4 2623
829.831 1225.12 2631
836.123 1225.12 2631
842.414 1225.12 2631
852.9 1231.18 2644
859.222 1231.18 2644
869.473 1236.76 2656
875.824 1236.76 2656
883.836 1239.09 2661
890.2 1239.09 2661
897.911 1240.95 2665
904.283 1240.95 2665
916.465 1248.87 2682
924.255 1250.73 2686
930.678 1250.73 2686
937.101 1250.73 2686
945.281 1253.06 2691
951.716 1253.06 2691
958.151 1253.06 2691
962.793 1250.73 2686
963.082 1242.82 2669
958.931 1229.31 2640
956.103 1217.67 2615
962.357 1217.67 2615
968.61 1217.67 2615
973.372 1215.81 2611
979.616 1215.81 2611
985.859 1215.81 2611
981.084 1202.31 2582
978.464 1191.6 2559
984.583 1191.6 2559
990.703 1191.6 2559
993.706 1187.87 2551
999.806 1187.87 2551
1001.17 1182.28 2539
1004.47 1179.02 2532
1010.52 1179.02 2532
1014.97 1177.16 2528
1022.63 1179.02 2532
1029.91 1180.42 2535
1039.24 1184.14 2543
1045.32 1184.14 2543
1051.4 1184.14 2543
1057.48 1184.14 2543
1063.56 1184.14 2543
1067.96 1182.28 2539
1071.07 1179.02 2532
1075.42 1177.16 2528
1081.47 1177.16 2528
1084.07 1173.43 2520
1090.1 1173.43 2520
1092.65 1169.71 2512
1098.65 1169.71 2512
1109.94 1175.3 2524
1115.97 1175.3 2524
1164.24 1219.53 2619
1170.5 1219.53 2619
1176.76 1219.53 2619
1183.03 1219.53 2619
1156.6 1186.01 2547
1166.34 1189.73 2555
1177.95 1195.32 2567
1184.09 1195.32 2567
1190.23 1195.32 2567
1192.64 1191.6 2559
1198.76 1191.6 2559
1204.88 1191.6 2559
1209.11 1189.73 2555
1215.22 1189.73 2555
1223.24 1191.6 2559
1233.2 1195.32 2567
1241.27 1197.18 2571
1254.7 1204.17 2586
1267.22 1210.22 2599
1291.07 1226.98 2635
1297.37 1226.98 2635
1310.11 1233.04 2648
1316.44 1233.04 2648
1322.77 1233.04 2648
1329.1 1233.04 2648
1318.79 1217.67 2615
1320.99 1213.95 2607
1327.23 1213.95 2607
1333.46 1213.95 2607
1349.97 1223.26 2627
1360.38 1226.98 2635
1366.69 1226.98 2635
1372.99 1226.98 2635
1379.29 1226.98 2635
1381.38 1223.26 2627
1387.66 1223.26 2627
1383.33 1213.95 2607
1446.4 1204.17 2586
1452.58 1204.17 2586
1458.76 1204.17 2586
1460.42 1200.44 2578
1466.58 1200.44 2578
1470.46 1198.58 2574
1472.6 1195.32 2567
1478.74 1195.32 2567
1484.88 1195.32 2567
1491.02 1195.32 2567
1492.49 1191.6 2559
1498.61 1191.6 2559
1504.73 1191.6 2559
1510.85 1191.6 2559
1516.97 1191.6 2559
1511.18 1182.28 2539
1517.25 1182.28 2539
1530.52 1187.87 2551
1536.62 1187.87 2551
1549.98 1193.46 2563
1560.97 1197.18 2571
1571.38 1200.44 2578
1577.55 1200.44 2578
1588.63 1204.17 2586
1597.28 1206.03 2590
1614 1213.95 2607
1622.72 1215.81 2611
1628.96 1215.81 2611
1645.22 1223.26 2627
1659.68 1229.31 2640
1698.18 1253.06 2691
1704.61 1253.06 2691
1725.03 1263.31 2713
1731.52 1263.31 2713
1738.01 1263.31 2713
1705.27 1234.9 2652
1711.61 1234.9 2652
1701.76 1223.26 2627
1708.04 1223.26 2627
1709.1 1219.53 2619
1704.89 1212.08 2603
1705.2 1207.89 2594
1711.4 1207.89 2594
1717.6 1207.89 2594
1723.81 1207.89 2594
1730.01 1207.89 2594
1733.53 1206.03 2590
1739.73 1206.03 2590
1745.92 1206.03 2590
1744 1200.44 2578
1716.22 1177.16 2528
1724.99 1179.02 2532
1731.04 1179.02 2532
1737.1 1179.02 2532
1740.4 1177.16 2528
1746.44 1177.16 2528
1749.72 1175.3 2524
1742.53 1166.45 2505
1748.52 1166.45 2505
1754.51 1166.45 2505
1760.51 1166.45 2505
1766.5 1166.45 2505
1754.09 1154.34 2479
1744.4 1144.1 2457
1760.25 1150.62 2471
1766.15 1150.62 2471
1788.56 1161.33 2494
1794.52 1161.33 2494
1800.49 1161.33 2494
1806.45 1161.33 2494
1806.6 1157.6 2486
1791.4 1144.1 2457
1805.32 1149.22 2468
1811.22 1149.22 2468
1817.13 1149.22 2468
1825.24 1150.62 2471
1840.05 1156.21 2483
1862.34 1166.45 2505
1868.33 1166.45 2505
1877.31 1168.31 2509
1883.31 1168.31 2509
1889.31 1168.31 2509
1895.31 1168.31 2509
1901.31 1168.31 2509
-1793.6 1197.73 2559
-1793.07 1201.47 2567
-1786.93 1201.47 2567
-1780.79 1201.47 2567
-1769.12 1197.73 2559
-1746.47 1186.49 2535
-1740.41 1186.49 2535
-1726.82 1181.34 2524
-1718.06 1179.47 2520
-1714.75 1181.34 2524
-1716.16 1186.49 2535
-1710.1 1186.49 2535
-1704.03 1186.49 2535
-1697.97 1186.49 2535
-1689.91 1185.09 2532
-1683.85 1185.09 2532
-1677.8 1185.09 2532
-1673.72 1186.49 2535
-1667.66 1186.49 2535
-1661.6 1186.49 2535
-1650.97 1183.22 2528
-1634.51 1175.73 2512
-1633.69 1179.47 2520
-1630.25 1181.34 2524
-1624.21 1181.34 2524
-1618.18 1181.34 2524
-1607.03 1177.6 2516
-1601.01 1177.6 2516
-1595 1177.6 2516
-1588.98 1177.6 2516
-1590.51 1183.22 2528
-1586.98 1185.09 2532
-1580.92 1185.09 2532
-1574.87 1185.09 2532
-1558.9 1177.6 2516
-1552.88 1177.6 2516
-1542.56 1174.32 2509
-1550.65 1185.09 2532
-1548.86 1188.36 2539
-1542.79 1188.36 2539
-1536.72 1188.36 2539
-1530.65 1188.36 2539
-1517.97 1183.22 2528
-1511.93 1183.22 2528
-1501.12 1179.47 2520
-1492.72 1177.6 2516
-1493.79 1183.22 2528
-1487.75 1183.22 2528
-1481.7 1183.22 2528
-1464.57 1174.32 2509
-1181.66 1197.73 2559
-1175.55 1197.73 2559
-1169.43 1197.73 2559
-1171.94 1206.62 2578
-1165.78 1206.62 2578
-1159.61 1206.62 2578
-1153.45 1206.62 2578
-1156.63 1216.45 2599
-1152.19 1218.32 2603
-1145.96 1218.32 2603
-1153.75 1233.3 2635
-1158.77 1245.47 2661
-1168.86 1263.25 2699
-1162.41 1263.25 2699
-1158.1 1265.59 2704
-1151.63 1265.59 2704
-1145.16 1265.59 2704
-1136.59 1263.25 2699
-1119.25 1251.08 2673
-1107.86 1245.47 2661
-1101.5 1245.47 2661
-1093.08 1243.13 2656
-1086.73 1243.13 2656
-1080.38 1243.13 2656
-1074.03 1243.13 2656
-1067.67 1243.13 2656
-899.934 1181.34 2524
-903.461 1193.98 2551
-897.361 1193.98 2551
-894.056 1197.73 2559
-889.324 1199.6 2563
-884.574 1201.47 2567
-878.435 1201.47 2567
-872.297 1201.47 2567
-866.158 1201.47 2567
-860.02 1201.47 2567
-852.551 1199.6 2563
-846.422 1199.6 2563
-840.293 1199.6 2563
-834.164 1199.6 2563
-828.035 1199.6 2563
-821.906 1199.6 2563
-815.777 1199.6 2563
-809.648 1199.6 2563
-801.011 1195.85 2555
-805.791 1212.23 2590
-800.832 1214.11 2594
-797.386 1218.32 2603
-791.161 1218.32 2603
-784.937 1218.32 2603
-778.712 1218.32 2603
-772.488 1218.32 2603
-765.086 1216.45 2599
-755.075 1210.36 2586
-745.416 1204.75 2574
-739.261 1204.75 2574
-726.555 1193.98 2551
-715.089 1185.09 2532
-719.955 1203.34 2571
-713.807 1203.34 2571
-707.659 1203.34 2571
-470.13 806.44 1723
-465.739 805.972 1722
-461.621 805.972 1722
-456.972 805.036 1720
-452.859 805.036 1720
-448.746 805.036 1720
-444.633 805.036 1720
-440.52 805.036 1720
-436.407 805.036 1720
-432.796 805.972 1722
-428.927 806.44 1723
-424.807 806.44 1723
-420.687 806.44 1723
-416.567 806.44 1723
-412.207 805.972 1722
-408.089 805.972 1722
-403.971 805.972 1722
-399.854 805.972 1722
-395.736 805.972 1722
-391.618 805.972 1722
-387.5 805.972 1722
-383.382 805.972 1722
-378.824 805.036 1720
-374.711 805.036 1720
-370.598 805.036 1720
-366.911 805.972 1722
-362.793 805.972 1722
-358.675 805.972 1722
-354.146 805.036 1720
-350.033 805.036 1720
-345.92 805.036 1720
-341.807 805.036 1720
-337.694 805.036 1720
-333.968 805.972 1722
-330.042 806.44 1723
-325.922 806.44 1723
-321.802 806.44 1723
-318.05 807.376 1725
-313.925 807.376 1725
-309.8 807.376 1725
-305.675 807.376 1725
-301.9 808.312 1727
-297.77 808.312 1727
-293.64 808.312 1727
-289.511 808.312 1727
-285.381 808.312 1727
-281.577 809.249 1729
-277.442 809.249 1729
-273.624 810.185 1731
-269.484 810.185 1731
-265.345 810.185 1731
-260.904 809.249 1729
-256.769 809.249 1729
-252.635 809.249 1729
-248.5 809.249 1729
-244.366 809.249 1729
-240.509 810.185 1731
-236.37 810.185 1731
-232.23 810.185 1731
-228.091 810.185 1731
-224.34 811.589 1734
-220.193 811.589 1734
-216.296 812.525 1736
-212.389 813.461 1738
-208.473 814.397 1740
-204.312 814.397 1740
-200.151 814.397 1740
-196.103 814.865 1741
-193.152 820.014 1752
-188.962 820.014 1752
-184.984 820.95 1754
-180.996 821.886 1756
-177.199 823.758 1760
-172.991 823.758 1760
-168.974 824.694 1762
-165.228 827.034 1767
-161.002 827.034 1767
-156.777 827.034 1767
-152.551 827.034 1767
-148.326 827.034 1767
-144.101 827.034 1767
-187.43 1179.47 2520
-181.404 1179.47 2520
-177.535 1193.98 2551
-171.435 1193.98 2551
-165.854 1197.73 2559
-159.734 1197.73 2559
-153.615 1197.73 2559
-147.495 1197.73 2559
-141.376 1197.73 2559
-135.045 1195.85 2555
-128.936 1195.85 2555
-122.826 1195.85 2555
-116.716 1195.85 2555
-110.433 1193.98 2551
-104.496 1195.85 2555
-98.3867 1195.85 2555
-92.8548 1203.34 2571
-86.7067 1203.34 2571
-80.9034 1208.49 2582
-74.729 1208.49 2582
-68.6609 1210.36 2586
-62.6702 1214.11 2594
-56.6631 1218.32 2603
-50.4386 1218.32 2603
-44.4858 1225.81 2619
-38.3981 1231.42 2631
-32.1066 1231.42 2631
-25.815 1231.42 2631
-19.5235 1231.42 2631
-13.1918 1227.68 2623
-6.89828 1223.94 2615
-0.64502 1223.94 2615
5.60824 1223.94 2615
11.8978 1227.68 2623
18.2533 1233.3 2635
24.6382 1237.51 2644
30.9609 1237.51 2644
37.2835 1237.51 2644
43.672 1239.38 2648
50.0042 1239.38 2648
56.3364 1239.38 2648
62.5739 1237.51 2644
68.4535 1229.55 2627
74.7355 1229.55 2627
80.1539 1216.45 2599
85.671 1206.62 2578
91.8358 1206.62 2578
98.0006 1206.62 2578
103.883 1203.34 2571
110.031 1203.34 2571
116.179 1203.34 2571
122.327 1203.34 2571
128.824 1206.62 2578
134.989 1206.62 2578
141.154 1206.62 2578
147.09 1204.75 2574
153.245 1204.75 2574
159.401 1204.75 2574
164.848 1199.6 2563
171.511 1203.34 2571
177.866 1204.75 2574
184.022 1204.75 2574
190.472 1206.62 2578
196.942 1208.49 2582
203.746 1212.23 2590
209.939 1212.23 2590
216.133 1212.23 2590
222.326 1212.23 2590
228.52 1212.23 2590
234.713 1212.23 2590
240.163 1208.49 2582
247.482 1214.11 2594
254.174 1216.45 2599
260.389 1216.45 2599
266.604 1216.45 2599
272.819 1216.45 2599
279.034 1216.45 2599
284.7 1214.11 2594
290.454 1212.23 2590
296.19 1210.36 2586
302.374 1210.36 2586
308.558 1210.36 2586
314.742 1210.36 2586
320.925 1210.36 2586
327.109 1210.36 2586
333.293 1210.36 2586
339.477 1210.36 2586
345.661 1210.36 2586
351.845 1210.36 2586
358.029 1210.36 2586
363.649 1208.49 2582
370.397 1210.36 2586
376.581 1210.36 2586
382.765 1210.36 2586
388.948 1210.36 2586
395.132 1210.36 2586
401.316 1210.36 2586
408.761 1214.11 2594
414.964 1214.11 2594
421.167 1214.11 2594
427.37 1214.11 2594
433.573 1214.11 2594
439.776 1214.11 2594
444.604 1210.36 2586
449.393 1206.62 2578
454.851 1204.75 2574
461.006 1204.75 2574
467.161 1204.75 2574
474.052 1206.62 2578
482.452 1212.23 2590
489.4 1214.11 2594
495.603 1214.11 2594
503.547 1218.32 2603
509.772 1218.32 2603
515.997 1218.32 2603
522.221 1218.32 2603
525.807 1212.23 2590
532 1212.23 2590
538.193 1212.23 2590
544.387 1212.23 2590
550.58 1212.23 2590
556.774 1212.23 2590
562.967 1212.23 2590
569.161 1212.23 2590
578.242 1218.32 2603
584.467 1218.32 2603
592.507 1222.06 2611
598.75 1222.06 2611
604.994 1222.06 2611
611.238 1222.06 2611
617.482 1222.06 2611
623.725 1222.06 2611
629.969 1222.06 2611
635.238 1220.19 2607
639.504 1216.45 2599
645.719 1216.45 2599
649.676 1212.23 2590
655.87 1212.23 2590
664.364 1216.45 2599
670.579 1216.45 2599
676.794 1216.45 2599
683.009 1216.45 2599
685.776 1210.36 2586
693.03 1212.23 2590
699.224 1212.23 2590
711.137 1222.06 2611
717.381 1222.06 2611
723.624 1222.06 2611
728.75 1220.19 2607
734.984 1220.19 2607
741.218 1220.19 2607
747.452 1220.19 2607
749.928 1214.11 2594
756.131 1214.11 2594
763.804 1216.45 2599
775.944 1225.81 2619
782.207 1225.81 2619
788.47 1225.81 2619
794.732 1225.81 2619
798.549 1222.06 2611
807.258 1225.81 2619
813.521 1225.81 2619
821.036 1227.68 2623
829.831 1231.42 2631
836.123 1231.42 2631
842.414 1231.42 2631
852.9 1237.51 2644
859.222 1237.51 2644
869.473 1243.13 2656
875.824 1243.13 2656
883.836 1245.47 2661
890.2 1245.47 2661
897.911 1247.34 2665
904.283 1247.34 2665
916.465 1255.29 2682
924.255 1257.17 2686
930.678 1257.17 2686
937.101 1257.17 2686
945.281 1259.51 2691
951.716 1259.51 2691
958.151 1259.51 2691
962.793 1257.17 2686
963.082 1249.21 2669
958.931 1235.64 2640
956.103 1223.94 2615
962.357 1223.94 2615
968.61 1223.94 2615
973.372 1222.06 2611
979.616 1222.06 2611
985.859 1222.06 2611
981.084 1208.49 2582
978.464 1197.73 2559
984.583 1197.73 2559
990.703 1197.73 2559
993.706 1193.98 2551
999.806 1193.98 2551
1001.17 1188.36 2539
1004.47 1185.09 2532
1010.52 1185.09 2532
1014.97 1183.22 2528
1022.63 1185.09 2532
1029.91 1186.49 2535
1039.24 1190.24 2543
1045.32 1190.24 2543
1051.4 1190.24 2543
1057.48 1190.24 2543
1063.56 1190.24 2543
1067.96 1188.36 2539
1071.07 1185.09 2532
1075.42 1183.22 2528
1081.47 1183.22 2528
1084.07 1179.47 2520
1090.1 1179.47 2520
1092.65 1175.73 2512
1098.65 1175.73 2512
1109.94 1181.34 2524
1115.97 1181.34 2524
1164.24 1225.81 2619
1170.5 1225.81 2619
1176.76 1225.81 2619
1183.03 1225.81 2619
1156.6 1192.11 2547
1166.34 1195.85 2555
1177.95 1201.47 2567
1184.09 1201.47 2567
1190.23 1201.47 2567
1192.64 1197.73 2559
1198.76 1197.73 2559
1204.88 1197.73 2559
1209.11 1195.85 2555
1215.22 1195.85 2555
1223.24 1197.73 2559
1233.2 1201.47 2567
1241.27 1203.34 2571
1254.7 1210.36 2586
1267.22 1216.45 2599
1291.07 1233.3 2635
1297.37 1233.3 2635
1310.11 1239.38 2648
1316.44 1239.38 2648
1322.77 1239.38 2648
1329.1 1239.38 2648
1318.79 1223.94 2615
1320.99 1220.19 2607
1327.23 1220.19 2607
1333.46 1220.19 2607
1345.86 1225.81 2619
1356.25 1229.55 2627
1362.54 1229.55 2627
1368.82 1229.55 2627
1375.1 1229.55 2627
1381.38 1229.55 2627
1387.66 1229.55 2627
1367.95 1206.62 2578
1438.01 1203.34 2571
1444.16 1203.34 2571
1450.3 1203.34 2571
1451.92 1199.6 2563
1458.05 1199.6 2563
1464.18 1199.6 2563
1463.42 1193.98 2551
1469.52 1193.98 2551
1473.31 1192.11 2547
1481.72 1193.98 2551
1487.82 1193.98 2551
1493.92 1193.98 2551
1500.02 1193.98 2551
1506.12 1193.98 2551
1507.48 1190.24 2543
1511.18 1188.36 2539
1513.07 1185.09 2532
1530.52 1193.98 2551
1536.62 1193.98 2551
1547.56 1197.73 2559
1560.97 1203.34 2571
1571.38 1206.62 2578
1577.55 1206.62 2578
1588.63 1210.36 2586
1594.81 1210.36 2586
1614 1220.19 2607
1620.23 1220.19 2607
1626.46 1220.19 2607
1635.2 1222.06 2611
1659.68 1235.64 2640
1665.99 1235.64 2640
1672.3 1235.64 2640
1678.62 1235.64 2640
1663.87 1220.19 2607
1670.1 1220.19 2607
1673.77 1218.32 2603
1677.41 1216.45 2599
1686.21 1218.32 2603
1692.44 1218.32 2603
1698.66 1218.32 2603
1698.99 1214.11 2594
1702.57 1212.23 2590
1708.76 1212.23 2590
1714.95 1212.23 2590
1721.15 1212.23 2590
1727.34 1212.23 2590
1725.5 1206.62 2578
1731.67 1206.62 2578
1737.83 1206.62 2578
1714.09 1177.6 2516
1720.1 1177.6 2516
1726.12 1177.6 2516
1732.14 1177.6 2516
1738.15 1177.6 2516
1744.17 1177.6 2516
1742.53 1172.45 2505
1751.32 1174.32 2509
1759.42 1175.73 2512
1765.42 1175.73 2512
1771.43 1175.73 2512
1775.32 1174.32 2509
1757.18 1158.41 2475
1781.62 1170.58 2501
1787.6 1170.58 2501
1793.58 1170.58 2501
1799.56 1170.58 2501
1805.54 1170.58 2501
1811.52 1170.58 2501
1809.51 1165.43 2490
1810.36 1162.15 2483
1816.29 1162.15 2483
1811.22 1155.13 2468
1817.13 1155.13 2468
1834.11 1162.15 2483
1845.23 1165.43 2490
1865.31 1174.32 2509
1871.31 1174.32 2509
1885.54 1179.47 2520
1891.57 1179.47 2520
1897.59 1179.47 2520
1903.62 1179.47 2520
1898.28 1172.45 2505
-1793.6 1203.86 2559
-1793.07 1207.62 2567
-1786.93 1207.62 2567
-1780.79 1207.62 2567
-1769.12 1203.86 2559
-1746.47 1192.56 2535
-1740.41 1192.56 2535
-1726.82 1187.39 2524
-1715.33 1183.63 2516
-1709.31 1183.63 2516
-1716.16 1192.56 2535
-1710.1 1192.56 2535
-1704.03 1192.56 2535
-1697.97 1192.56 2535
-1684.57 1187.39 2524
-1678.53 1187.39 2524
-1672.5 1187.39 2524
-1669.1 1189.27 2528
-1663.06 1189.27 2528
-1657.01 1189.27 2528
-1648.35 1187.39 2524
-1634.51 1181.74 2512
-1631.1 1183.63 2516
-1625.08 1183.63 2516
-1619.06 1183.63 2516
-1610.48 1181.74 2512
-1604.48 1181.74 2512
-1598.47 1181.74 2512
-1592.46 1181.74 2512
-1586.46 1181.74 2512
-1590.51 1189.27 2528
-1584.47 1189.27 2528
-1578.42 1189.27 2528
-1572.38 1189.27 2528
-1554.56 1180.33 2509
-1548.56 1180.33 2509
-1535.18 1174.69 2497
-1534.11 1178.45 2505
-1530.56 1180.33 2509
-1536.11 1189.27 2528
-1530.06 1189.27 2528
-1524.02 1189.27 2528
-1513.17 1185.51 2520
-1507.14 1185.51 2520
-1498.73 1183.63 2516
-1490.34 1181.74 2512
-1484.34 1181.74 2512
-1478.33 1181.74 2512
-1472.32 1181.74 2512
-1464.57 1180.33 2509
-1181.66 1203.86 2559
-1175.55 1203.86 2559
-1169.43 1203.86 2559
-1171.94 1212.79 2578
-1165.78 1212.79 2578
-1159.61 1212.79 2578
-1153.45 1212.79 2578
-1156.63 1222.67 2599
-1152.19 1224.55 2603
-1145.96 1224.55 2603
-1153.75 1239.61 2635
-1158.77 1251.84 2661
-1168.86 1269.72 2699
-1162.41 1269.72 2699
-1158.1 1272.07 2704
-1151.63 1272.07 2704
-1145.16 1272.07 2704
-1136.59 1269.72 2699
-1119.25 1257.49 2673
-1107.86 1251.84 2661
-1101.5 1251.84 2661
-1093.08 1249.49 2656
-1086.73 1249.49 2656
-1080.38 1249.49 2656
-1074.03 1249.49 2656
-1067.67 1249.49 2656
-899.934 1187.39 2524
-903.461 1200.09 2551
-897.361 1200.09 2551
-894.056 1203.86 2559
-889.324 1205.74 2563
-884.574 1207.62 2567
-878.435 1207.62 2567
-872.297 1207.62 2567
-866.158 1207.62 2567
-860.02 1207.62 2567
-852.551 1205.74 2563
-846.422 1205.74 2563
-840.293 1205.74 2563
-834.164 1205.74 2563
-828.035 1205.74 2563
-821.906 1205.74 2563
-815.777 1205.74 2563
-809.648 1205.74 2563
-801.011 1201.97 2555
-805.791 1218.44 2590
-800.832 1220.32 2594
-797.386 1224.55 2603
-791.161 1224.55 2603
-784.937 1224.55 2603
-778.712 1224.55 2603
-772.488 1224.55 2603
-765.086 1222.67 2599
-755.075 1216.56 2586
-745.416 1210.91 2574
-739.261 1210.91 2574
-726.555 1200.09 2551
-715.089 1191.15 2532
-719.955 1209.5 2571
-713.807 1209.5 2571
-707.659 1209.5 2571
-470.675 811.509 1725
-465.739 810.097 1722
-461.621 810.097 1722
-456.972 809.156 1720
-452.859 809.156 1720
-448.746 809.156 1720
-444.633 809.156 1720
-441.032 810.097 1722
-436.914 810.097 1722
-432.796 810.097 1722
-428.678 810.097 1722
-424.561 810.097 1722
-420.443 810.097 1722
-416.325 810.097 1722
-412.207 810.097 1722
-408.089 810.097 1722
-403.971 810.097 1722
-399.854 810.097 1722
-395.276 809.156 1720
-391.163 809.156 1720
-387.05 809.156 1720
-382.937 809.156 1720
-378.824 809.156 1720
-374.711 809.156 1720
-370.598 809.156 1720
-366.059 808.216 1718
-361.951 808.216 1718
-357.842 808.216 1718
-353.734 808.216 1718
-349.626 808.216 1718
-345.517 808.216 1718
-341.807 809.156 1720
-337.694 809.156 1720
-333.968 810.097 1722
-330.042 810.568 1723
-325.922 810.568 1723
-321.802 810.568 1723
-318.05 811.509 1725
-313.925 811.509 1725
-309.8 811.509 1725
-305.675 811.509 1725
-301.9 812.449 1727
-297.77 812.449 1727
-293.64 812.449 1727
-289.511 812.449 1727
-285.381 812.449 1727
-281.577 813.39 1729
-277.442 813.39 1729
-273.624 814.331 1731
-269.484 814.331 1731
-265.345 814.331 1731
-261.206 814.331 1731
-257.066 814.331 1731
-252.927 814.331 1731
-248.5 813.39 1729
-244.366 813.39 1729
-240.509 814.331 1731
-236.37 814.331 1731
-232.23 814.331 1731
-228.091 814.331 1731
-224.599 816.683 1736
-220.447 816.683 1736
-216.296 816.683 1736
-212.389 817.624 1738
-208.473 818.565 1740
-204.312 818.565 1740
-200.151 818.565 1740
-196.103 819.036 1741
-192.821 822.799 1749
-188.639 822.799 1749
-184.773 824.21 1752
-180.79 825.151 1754
-176.797 826.092 1756
-172.597 826.092 1756
-168.782 827.974 1760
-164.854 829.385 1763
-161.002 831.267 1767
-156.777 831.267 1767
-152.551 831.267 1767
-148.326 831.267 1767
-144.101 831.267 1767
-187.133 1183.63 2516
-181.116 1183.63 2516
-175.935 1189.27 2528
-169.89 1189.27 2528
-164.817 1196.33 2543
-159.235 1200.09 2551
-153.135 1200.09 2551
-147.034 1200.09 2551
-140.713 1198.21 2547
-134.623 1198.21 2547
-128.532 1198.21 2547
-122.441 1198.21 2547
-116.351 1198.21 2547
-110.087 1196.33 2543
-104.169 1198.21 2547
-98.0786 1198.21 2547
-92.2769 1201.97 2555
-86.4369 1205.74 2563
-80.5587 1209.5 2571
-74.4107 1209.5 2571
-68.6609 1216.56 2586
-62.477 1216.56 2586
-56.4672 1220.32 2594
-50.2642 1220.32 2594
-44.4858 1232.08 2619
-38.3397 1235.85 2627
-32.0577 1235.85 2627
-25.7758 1235.85 2627
-19.4642 1233.96 2623
-13.1515 1230.2 2615
-6.87717 1226.44 2607
-0.643047 1226.44 2607
5.5825 1224.55 2603
11.8252 1226.44 2607
18.1148 1230.2 2615
24.4053 1232.08 2619
30.6681 1232.08 2619
36.9873 1233.96 2623
43.3257 1235.85 2627
49.6076 1235.85 2627
55.8896 1235.85 2627
62.0769 1233.96 2623
67.9324 1226.44 2607
74.1665 1226.44 2607
79.8763 1218.44 2590
85.4384 1209.5 2571
91.0165 1201.97 2555
97.1263 1201.97 2555
103.236 1201.97 2555
109.003 1198.21 2547
115.636 1203.86 2559
121.946 1205.74 2563
128.275 1207.62 2567
134.413 1207.62 2567
140.552 1207.62 2567
146.69 1207.62 2567
152.829 1207.62 2567
158.719 1205.74 2563
164.591 1203.86 2559
170.977 1205.74 2563
177.106 1205.74 2563
183.235 1205.74 2563
190.177 1210.91 2574
196.637 1212.79 2578
203.746 1218.44 2590
209.939 1218.44 2590
216.133 1218.44 2590
222.326 1218.44 2590
228.52 1218.44 2590
234.713 1218.44 2590
240.163 1214.68 2582
247.1 1218.44 2590
253.685 1220.32 2594
259.888 1220.32 2594
266.091 1220.32 2594
272.294 1220.32 2594
278.497 1220.32 2594
284.7 1220.32 2594
290.454 1218.44 2590
296.19 1216.56 2586
302.374 1216.56 2586
308.558 1216.56 2586
314.742 1216.56 2586
320.925 1216.56 2586
327.109 1216.56 2586
333.293 1216.56 2586
339.477 1216.56 2586
345.661 1216.56 2586
351.301 1214.68 2582
357.475 1214.68 2582
363.086 1212.79 2578
368.678 1210.91 2574
374.833 1210.91 2574
380.988 1210.91 2574
387.144 1210.91 2574
392.84 1209.5 2571
399.454 1210.91 2574
406.24 1212.79 2578
412.404 1212.79 2578
418.569 1212.79 2578
424.734 1212.79 2578
430.899 1212.79 2578
437.063 1212.79 2578
442.541 1210.91 2574
447.475 1207.62 2567
452.907 1205.74 2563
459.036 1205.74 2563
465.165 1205.74 2563
473.317 1210.91 2574
480.217 1212.79 2578
488.646 1218.44 2590
494.839 1218.44 2590
501.033 1218.44 2590
507.226 1218.44 2590
513.42 1218.44 2590
519.613 1218.44 2590
524.994 1216.56 2586
531.178 1216.56 2586
537.362 1216.56 2586
543.546 1216.56 2586
549.73 1216.56 2586
555.914 1216.56 2586
562.098 1216.56 2586
568.282 1216.56 2586
575.354 1218.44 2590
581.548 1218.44 2590
587.741 1218.44 2590
593.935 1218.44 2590
600.128 1218.44 2590
606.322 1218.44 2590
612.515 1218.44 2590
618.709 1218.44 2590
624.902 1218.44 2590
630.121 1216.56 2586
632.614 1209.5 2571
638.762 1209.5 2571
642.903 1205.74 2563
649.032 1205.74 2563
655.161 1205.74 2563
661.29 1205.74 2563
667.419 1205.74 2563
673.548 1205.74 2563
680.738 1207.62 2567
686.876 1207.62 2567
693.015 1207.62 2567
705.417 1218.44 2590
711.611 1218.44 2590
717.804 1218.44 2590
723.998 1218.44 2590
729.063 1216.56 2586
731.836 1210.91 2574
737.991 1210.91 2574
744.146 1210.91 2574
750.301 1210.91 2574
757.632 1212.79 2578
764.982 1214.68 2582
771.156 1214.68 2582
777.331 1214.68 2582
785.932 1218.44 2590
792.126 1218.44 2590
798.319 1218.44 2590
804.513 1218.44 2590
810.706 1218.44 2590
815.638 1216.56 2586
823.093 1218.44 2590
829.287 1218.44 2590
835.48 1218.44 2590
842.974 1220.32 2594
852.123 1224.55 2603
858.347 1224.55 2603
865.901 1226.44 2607
872.135 1226.44 2607
878.369 1226.44 2607
884.603 1226.44 2607
889.47 1224.55 2603
897.071 1226.44 2607
906.077 1230.2 2615
912.331 1230.2 2615
918.584 1230.2 2615
933.679 1241.96 2640
939.992 1241.96 2640
946.305 1241.96 2640
952.618 1241.96 2640
955.662 1237.73 2631
956.103 1230.2 2615
962.357 1230.2 2615
962.683 1222.67 2599
956.969 1207.62 2567
963.107 1207.62 2567
969.246 1207.62 2567
970.825 1201.97 2555
970.817 1194.45 2539
969.578 1185.51 2520
974.055 1183.63 2516
980.072 1183.63 2516
986.088 1183.63 2516
992.105 1183.63 2516
996.535 1181.74 2512
1002.54 1181.74 2512
1008.55 1181.74 2512
1014.56 1181.74 2512
1027.06 1189.27 2528
1035.97 1192.56 2535
1042.03 1192.56 2535
1048.09 1192.56 2535
1054.15 1192.56 2535
1060.22 1192.56 2535
1065.02 1191.15 2532
1069.38 1189.27 2528
1070.32 1183.63 2516
1076.34 1183.63 2516
1080.63 1181.74 2512
1086.64 1181.74 2512
1092.65 1181.74 2512
1097.34 1180.33 2509
1103.34 1180.33 2509
1109.34 1180.33 2509
1118.45 1183.63 2516
1124.47 1183.63 2516
1130.48 1183.63 2516
1136.5 1183.63 2516
1144.33 1185.51 2520
1160.86 1196.33 2543
1166.94 1196.33 2543
1173.02 1196.33 2543
1179.1 1196.33 2543
1190.78 1201.97 2555
1196.89 1201.97 2555
1203 1201.97 2555
1209.11 1201.97 2555
1215.22 1201.97 2555
1221.33 1201.97 2555
1233.2 1207.62 2567
1239.34 1207.62 2567
1250.81 1212.79 2578
1260.88 1216.56 2586
1269.02 1218.44 2590
1275.22 1218.44 2590
1285.86 1222.67 2599
1292.08 1222.67 2599
1298.29 1222.67 2599
1304.51 1222.67 2599
1310.72 1222.67 2599
1312.38 1218.44 2590
1327.23 1226.44 2607
1333.46 1226.44 2607
1345.86 1232.08 2619
1356.25 1235.85 2627
1362.54 1235.85 2627
1368.82 1235.85 2627
1375.1 1235.85 2627
1381.38 1235.85 2627
1387.66 1235.85 2627
1374.31 1218.44 2590
1380.62 1166.22 2479
1438.01 1209.5 2571
1444.16 1209.5 2571
1450.3 1209.5 2571
1451.92 1205.74 2563
1458.05 1205.74 2563
1464.18 1205.74 2563
1463.42 1200.09 2551
1469.52 1200.09 2551
1473.31 1198.21 2547
1481.72 1200.09 2551
1487.82 1200.09 2551
1493.92 1200.09 2551
1500.02 1200.09 2551
1506.12 1200.09 2551
1507.48 1196.33 2543
1511.18 1194.45 2539
1513.07 1191.15 2532
1530.52 1200.09 2551
1536.62 1200.09 2551
1547.56 1203.86 2559
1560.97 1209.5 2571
1571.38 1212.79 2578
1577.55 1212.79 2578
1588.63 1216.56 2586
1594.81 1216.56 2586
1614 1226.44 2607
1620.23 1226.44 2607
1626.46 1226.44 2607
1635.2 1228.32 2611
1659.68 1241.96 2640
1665.99 1241.96 2640
1672.3 1241.96 2640
1678.62 1241.96 2640
1663.87 1226.44 2607
1670.1 1226.44 2607
1673.77 1224.55 2603
1677.41 1222.67 2599
1686.21 1224.55 2603
1692.44 1224.55 2603
1698.66 1224.55 2603
1698.99 1220.32 2594
1702.57 1218.44 2590
1708.76 1218.44 2590
1714.95 1218.44 2590
1721.15 1218.44 2590
1727.34 1218.44 2590
1725.5 1212.79 2578
1731.67 1212.79 2578
1737.83 1212.79 2578
1714.09 1183.63 2516
1720.1 1183.63 2516
1726.12 1183.63 2516
1732.14 1183.63 2516
1738.15 1183.63 2516
1744.17 1183.63 2516
1742.53 1178.45 2505
1751.32 1180.33 2509
1762.22 1183.63 2516
1768.24 1183.63 2516
1774.25 1183.63 2516
1775.32 1180.33 2509
1781.32 1180.33 2509
1787.32 1180.33 2509
1793.32 1180.33 2509
1810.07 1187.39 2524
1816.11 1187.39 2524
1822.14 1187.39 2524
1825.28 1185.51 2520
1812.41 1173.28 2494
1815.46 1171.4 2490
1821.42 1171.4 2490
1827.37 1171.4 2490
1833.32 1171.4 2490
1836.32 1169.51 2486
1845.23 1171.4 2490
1870.52 1183.63 2516
1876.53 1183.63 2516
1885.54 1185.51 2520
1891.57 1185.51 2520
1897.59 1185.51 2520
1903.62 1185.51 2520
1898.28 1178.45 2505
-1808.66 1211.88 2563
-1802.53 1211.88 2563
-1796.4 1211.88 2563
-1793.07 1213.77 2567
-1786.93 1213.77 2567
-1780.79 1213.77 2567
-1766.36 1208.09 2555
-1746.47 1198.64 2535
-1740.41 1198.64 2535
-1726.82 1193.44 2524
-1715.33 1189.65 2516
-1709.31 1189.65 2516
-1708.71 1193.44 2524
-1702.68 1193.44 2524
-1696.64 1193.44 2524
-1690.6 1193.44 2524
-1681.9 1191.54 2520
-1678.53 1193.44 2524
-1672.5 1193.44 2524
-1669.1 1195.33 2528
-1663.06 1195.33 2528
-1657.01 1195.33 2528
-1645.74 1191.54 2520
-1632.56 1186.34 2509
-1626.56 1186.34 2509
-1620.56 1186.34 2509
-1614.56 1186.34 2509
-1608.56 1186.34 2509
-1602.56 1186.34 2509
-1596.56 1186.34 2509
-1590.56 1186.34 2509
-1575.09 1179.25 2494
-1569.12 1179.25 2494
-1572.56 1186.34 2509
-1566.56 1186.34 2509
-1560.56 1186.34 2509
-1538.45 1174.05 2483
-1532.51 1174.05 2483
-1517.35 1166.96 2468
-1511.45 1166.96 2468
-1523.24 1180.67 2497
-1522.13 1184.45 2505
-1516.14 1184.45 2505
-1512.56 1186.34 2509
-1506.56 1186.34 2509
-1500.56 1186.34 2509
-1489.8 1182.56 2501
-1483.82 1182.56 2501
-1482.56 1186.34 2509
-1476.56 1186.34 2509
-1470.56 1186.34 2509
-1181.66 1209.99 2559
-1175.55 1209.99 2559
-1169.43 1209.99 2559
-1157.85 1204.31 2547
-1151.76 1204.31 2547
-1145.67 1204.31 2547
-1139.58 1204.31 2547
-1135.27 1206.2 2551
-1150.42 1228.9 2599
-1144.2 1228.9 2599
-1139.74 1230.79 2603
-1147.45 1245.92 2635
-1150.24 1255.85 2656
-1143.89 1255.85 2656
-1137.54 1255.85 2656
-1135.02 1260.11 2665
-1128.65 1260.11 2665
-1122.27 1260.11 2665
-1112.13 1255.85 2656
-1095.37 1244.03 2631
-1094.46 1250.18 2644
-1088.14 1250.18 2644
-1086.73 1255.85 2656
-1080.38 1255.85 2656
-1074.03 1255.85 2656
-1067.67 1255.85 2656
-899.934 1193.44 2524
-899.211 1200.53 2539
-893.14 1200.53 2539
-891.26 1206.2 2551
-887.936 1209.99 2559
-881.817 1209.99 2559
-875.698 1209.99 2559
-870.937 1211.88 2563
-864.808 1211.88 2563
-858.68 1211.88 2563
-851.22 1209.99 2559
-845.101 1209.99 2559
-840.293 1211.88 2563
-834.164 1211.88 2563
-828.035 1211.88 2563
-821.906 1211.88 2563
-814.504 1209.99 2559
-808.385 1209.99 2559
-801.011 1208.09 2555
-799.879 1215.66 2571
-799.597 1224.64 2590
-797.386 1230.79 2603
-791.161 1230.79 2603
-784.937 1230.79 2603
-778.712 1230.79 2603
-772.488 1230.79 2603
-763.614 1226.53 2594
-751.571 1217.08 2574
-745.416 1217.08 2574
-739.261 1217.08 2574
-726.555 1206.2 2551
-715.089 1197.22 2532
-719.955 1215.66 2571
-713.807 1215.66 2571
-707.659 1215.66 2571
-470.675 815.641 1725
-465.739 814.222 1722
-461.621 814.222 1722
-456.44 812.331 1718
-452.859 813.277 1720
-449.268 814.222 1722
-445.15 814.222 1722
-441.032 814.222 1722
-436.914 814.222 1722
-432.796 814.222 1722
-428.678 814.222 1722
-424.561 814.222 1722
-420.443 814.222 1722
-416.325 814.222 1722
-412.207 814.222 1722
-408.089 814.222 1722
-403.971 814.222 1722
-399.854 814.222 1722
-395.276 813.277 1720
-391.163 813.277 1720
-387.05 813.277 1720
-382.937 813.277 1720
-378.824 813.277 1720
-374.711 813.277 1720
-370.598 813.277 1720
-366.059 812.331 1718
-361.951 812.331 1718
-357.842 812.331 1718
-353.734 812.331 1718
-349.626 812.331 1718
-345.517 812.331 1718
-341.807 813.277 1720
-337.694 813.277 1720
-333.968 814.222 1722
-330.042 814.695 1723
-325.922 814.695 1723
-321.802 814.695 1723
-318.05 815.641 1725
-313.925 815.641 1725
