ply
format ascii 1.0
comment File generated
element vertex 2143
property float x
property float y
property float z
end_header
558.907 -325.944 3716
567.793 -325.944 3716
1108.24 -356.907 4069
1117.97 -356.907 4069
1127.7 -356.907 4069
1137.43 -356.907 4069
1152.8 -358.662 4089
1162.58 -358.662 4089
1172.36 -358.662 4089
1179.24 -357.785 4079
1189 -357.785 4079
1198.75 -357.785 4079
1199.62 -355.153 4049
1209.3 -355.153 4049
1218.98 -355.153 4049
1219.86 -352.609 4020
1229.48 -352.609 4020
1236.01 -351.732 4010
1245.6 -351.732 4010
1255.19 -351.732 4010
1261.94 -350.943 4001
1283.58 -354.276 4039
1299.64 -356.03 4059
1315.8 -357.785 4079
1325.55 -357.785 4079
1335.31 -357.785 4079
1348.36 -358.662 4089
1358.14 -358.662 4089
1367.92 -358.662 4089
1377.69 -358.662 4089
1768.82 -358.662 4089
1778.59 -358.662 4089
1788.37 -358.662 4089
1789.36 -356.907 4069
1799.09 -356.907 4069
1804.37 -356.03 4059
1805.14 -354.276 4039
1763.57 -344.277 3925
1772.96 -344.277 3925
1761.91 -340.33 3880
1750.65 -336.382 3835
1752.02 -334.891 3818
1761.15 -334.891 3818
1770.28 -334.891 3818
1775.21 -334.102 3809
1767.93 -331.032 3774
1768.95 -329.541 3757
1777.93 -329.541 3757
1778.83 -328.05 3740
2444.99 -356.03 4059
2454.69 -356.03 4059
2464.4 -356.03 4059
2461.91 -354.276 4039
2459.95 -352.609 4020
2469.56 -352.609 4020
2479.17 -352.609 4020
2453.5 -347.61 3963
2439.36 -344.277 3925
2448.74 -344.277 3925
2424.31 -339.54 3871
2433.57 -339.54 3871
2420.1 -336.382 3835
2429.28 -336.382 3835
2432.72 -335.593 3826
2436.77 -334.891 3818
2434.37 -333.312 3800
2438.31 -332.611 3792
2447.38 -332.611 3792
2444.78 -331.032 3774
2459.66 -331.821 3783
2468.71 -331.821 3783
2477.75 -331.821 3783
2486.8 -331.821 3783
2484.63 -330.33 3766
2487.68 -329.541 3757
2496.66 -329.541 3757
2505.64 -329.541 3757
2514.63 -329.541 3757
2523.61 -329.541 3757
2532.6 -329.541 3757
2541.58 -329.541 3757
2550.56 -329.541 3757
2559.55 -329.541 3757
2556.91 -328.05 3740
2565.85 -328.05 3740
2563.78 -326.646 3724
2567.16 -325.944 3716
2576.05 -325.944 3716
2584.93 -325.944 3716
2593.82 -325.944 3716
2602.71 -325.944 3716
2617.21 -326.646 3724
2626.12 -326.646 3724
2635.02 -326.646 3724
2661.68 -328.839 3749
2670.64 -328.839 3749
2679.61 -328.839 3749
2688.57 -328.839 3749
2697.54 -328.839 3749
2706.5 -328.839 3749
2715.47 -328.839 3749
2736.79 -330.33 3766
2745.79 -330.33 3766
2754.8 -330.33 3766
2795.36 -334.102 3809
2870 -341.908 3898
2879.32 -341.908 3898
2916.06 -345.154 3935
2932.16 -345.943 3944
2941.59 -345.943 3944
2951.02 -345.943 3944
2960.46 -345.943 3944
2969.89 -345.943 3944
2979.32 -345.943 3944
2981.93 -345.154 3935
2949.53 -340.33 3880
2938.22 -337.961 3853
2947.43 -337.961 3853
-2553.03 -301.515 3534
-2544.58 -301.515 3534
-2536.13 -301.515 3534
-2522.67 -300.918 3527
-2492.85 -298.358 3497
-2484.49 -298.358 3497
-2476.13 -298.358 3497
-2467.77 -298.358 3497
-2459.4 -298.358 3497
-2451.04 -298.358 3497
-2432.9 -297.164 3483
-2404.38 -294.689 3454
-2391.27 -294.092 3447
-2407.91 -297.164 3483
-2419.56 -299.638 3512
-2411.17 -299.638 3512
-2402.77 -299.638 3512
-2399.82 -300.32 3520
-2400.92 -301.515 3534
-2392.47 -301.515 3534
-2409.65 -304.757 3572
-2411.86 -306.122 3588
-2407.97 -306.719 3595
-2399.38 -306.719 3595
-2406.74 -308.767 3619
-2408.69 -310.132 3635
-2400 -310.132 3635
-2412.35 -312.862 3667
-2408.83 -313.545 3675
-2405.27 -314.227 3683
-2396.46 -314.227 3683
-2424.6 -319.09 3740
-2432.45 -321.309 3766
-2428.6 -321.991 3774
-2419.57 -321.991 3774
-2422.04 -323.527 3792
-2412.98 -323.527 3792
-2403.91 -323.527 3792
-2351.89 -317.725 3724
-2358.72 -319.858 3749
-2349.75 -319.858 3749
-2340.79 -319.858 3749
-1790.87 -317.725 3724
-1781.96 -317.725 3724
-1773.06 -317.725 3724
-1764.15 -317.725 3724
-1751.47 -317.043 3716
-1750.09 -318.408 3732
-1749.1 -319.858 3749
-1740.13 -319.858 3749
-1739.02 -321.309 3766
-1733.69 -321.991 3774
-1740.66 -324.977 3809
-1731.55 -324.977 3809
-1722.44 -324.977 3809
-1705.69 -323.527 3792
-1696.62 -323.527 3792
-1687.55 -323.527 3792
-1670.51 -321.991 3774
-1661.49 -321.991 3774
-1652.47 -321.991 3774
-1639.96 -321.309 3766
-1630.95 -321.309 3766
-1621.95 -321.309 3766
-1612.94 -321.309 3766
-690.126 -156.73 1837
-685.734 -156.73 1837
-682.083 -156.9 1839
-679.159 -157.242 1843
-674.752 -157.242 1843
-670.345 -157.242 1843
-665.938 -157.242 1843
-660.095 -156.9 1839
-655.697 -156.9 1839
-650.591 -156.73 1837
-644.088 -156.218 1831
-639.01 -156.047 1829
-634.637 -156.047 1829
-629.574 -155.877 1827
-623.152 -155.365 1821
-618.117 -155.194 1819
-613.768 -155.194 1819
-608.078 -154.853 1815
-601.742 -154.341 1809
-595.104 -153.744 1802
-590.795 -153.744 1802
-583.882 -153.061 1794
-577.654 -152.549 1788
-570.813 -151.867 1780
-563.692 -151.099 1771
-559.457 -151.099 1771
-552.714 -150.416 1763
-546.32 -149.819 1756
-538.725 -148.88 1745
-534.552 -148.88 1745
-529.163 -148.539 1741
-521.984 -147.686 1731
-516.649 -147.345 1727
-512.519 -147.345 1727
-507.8 -147.174 1725
-502.215 -146.747 1720
-496.944 -146.406 1716
-492.84 -146.406 1716
-488.452 -146.321 1715
-483.786 -146.15 1713
-479.13 -145.98 1711
-475.038 -145.98 1711
-470.947 -145.98 1711
-466.31 -145.809 1709
-461.952 -145.724 1708
-457.332 -145.553 1706
-453.252 -145.553 1706
-448.646 -145.382 1704
-444.571 -145.382 1704
-439.98 -145.212 1702
-435.91 -145.212 1702
-431.84 -145.212 1702
-427.518 -145.126 1701
-423.451 -145.126 1701
-419.383 -145.126 1701
-414.827 -144.956 1699
-410.281 -144.785 1697
-406.223 -144.785 1697
-402.165 -144.785 1697
-397.403 -144.529 1694
-392.888 -144.359 1692
-388.841 -144.359 1692
-384.795 -144.359 1692
-380.749 -144.359 1692
-376.035 -144.103 1689
-371.996 -144.103 1689
-367.958 -144.103 1689
-363.488 -143.932 1687
-359.454 -143.932 1687
-354.577 -143.591 1683
-350.552 -143.591 1683
-346.528 -143.591 1683
-341.892 -143.335 1680
-337.875 -143.335 1680
-333.46 -143.164 1678
-329.448 -143.164 1678
-325.435 -143.164 1678
-321.231 -143.079 1677
-317.221 -143.079 1677
-313.21 -143.079 1677
-309.2 -143.079 1677
-305.19 -143.079 1677
-300.461 -142.738 1673
-296.815 -142.908 1675
-292.81 -142.908 1675
-288.804 -142.908 1675
-284.799 -142.908 1675
-281.129 -143.079 1677
-277.118 -143.079 1677
-273.108 -143.079 1677
-269.259 -143.164 1678
-265.246 -143.164 1678
-261.233 -143.164 1678
-257.527 -143.335 1680
-253.812 -143.505 1682
-249.938 -143.591 1683
-245.913 -143.591 1683
-241.889 -143.591 1683
-237.864 -143.591 1683
-234.396 -143.932 1687
-230.361 -143.932 1687
-226.73 -144.188 1690
-223.347 -144.615 1695
-219.812 -144.956 1699
-215.749 -144.956 1699
-212.309 -145.382 1704
-208.723 -145.724 1708
-205.477 -146.321 1715
-201.376 -146.321 1715
-197.39 -146.406 1716
-193.962 -146.918 1722
-190.175 -147.174 1725
-186.05 -147.174 1725
-182.347 -147.515 1729
-178.419 -147.686 1731
-174.783 -148.113 1736
-171.025 -148.454 1740
-166.864 -148.454 1740
-162.797 -148.539 1741
-158.998 -148.88 1745
-155.002 -149.051 1747
-150.825 -149.051 1747
-146.815 -149.222 1749
-142.633 -149.222 1749
-138.45 -149.222 1749
-134.268 -149.222 1749
-130.085 -149.222 1749
-125.759 -149.051 1747
-121.582 -149.051 1747
-117.269 -148.88 1745
-112.837 -148.539 1741
-108.674 -148.539 1741
-104.511 -148.539 1741
-100.348 -148.539 1741
-96.1844 -148.539 1741
-92.0211 -148.539 1741
-87.8579 -148.539 1741
-83.6946 -148.539 1741
-79.6227 -148.71 1743
-75.4547 -148.71 1743
-71.2866 -148.71 1743
-67.1186 -148.71 1743
-63.0228 -148.88 1745
-58.85 -148.88 1745
-54.7398 -149.051 1747
-50.5622 -149.051 1747
-46.4377 -149.222 1749
-42.3761 -149.648 1754
-38.2253 -149.819 1756
-34.0262 -149.819 1756
-29.9289 -150.331 1762
-25.7593 -150.587 1765
-21.5874 -150.928 1769
-17.3572 -150.928 1769
-13.127 -150.928 1769
-8.88672 -150.757 1767
7.8644 -312.862 3667
16.6696 -313.545 3675
25.4576 -313.545 3675
34.3202 -314.227 3683
43.4084 -316.275 3707
52.3999 -317.043 3716
61.286 -317.043 3716
70.1721 -317.043 3716
79.0581 -317.043 3716
87.9442 -317.043 3716
96.5958 -316.275 3707
105.46 -316.275 3707
114.078 -315.592 3699
122.924 -315.592 3699
131.769 -315.592 3699
140.614 -315.592 3699
149.137 -314.91 3691
157.963 -314.91 3691
166.428 -314.227 3683
175.235 -314.227 3683
184.042 -314.227 3683
192.849 -314.227 3683
201.218 -313.545 3675
210.006 -313.545 3675
218.318 -312.862 3667
227.087 -312.862 3667
235.856 -312.862 3667
244.625 -312.862 3667
253.394 -312.862 3667
261.519 -312.094 3658
270.267 -312.094 3658
279.014 -312.094 3658
287.761 -312.094 3658
296.509 -312.094 3658
305.256 -312.094 3658
314.004 -312.094 3658
322.751 -312.094 3658
331.498 -312.094 3658
340.246 -312.094 3658
348.993 -312.094 3658
357.741 -312.094 3658
366.488 -312.094 3658
375.235 -312.094 3658
383.983 -312.094 3658
391.871 -311.412 3650
400.599 -311.412 3650
409.328 -311.412 3650
418.056 -311.412 3650
425.849 -310.729 3642
433.723 -310.132 3635
442.415 -310.132 3635
451.107 -310.132 3635
459.8 -310.132 3635
468.492 -310.132 3635
478.104 -310.729 3642
488.951 -312.094 3658
497.699 -312.094 3658
508.8 -313.545 3675
518.715 -314.227 3683
528.668 -314.91 3691
537.494 -314.91 3691
546.32 -314.91 3691
555.146 -314.91 3691
563.973 -314.91 3691
1091.46 -348.013 4079
1103.91 -348.866 4089
1113.69 -348.866 4089
1123.47 -348.866 4089
1130.47 -348.013 4079
1137.43 -347.16 4069
1147.16 -347.16 4069
1154.05 -346.307 4059
1163.75 -346.307 4059
1170.57 -345.454 4049
1180.25 -345.454 4049
1189.93 -345.454 4049
1193.99 -343.833 4030
1200.64 -342.98 4020
1210.25 -342.98 4020
1216.83 -342.126 4010
1226.42 -342.126 4010
1236.01 -342.126 4010
1245.6 -342.126 4010
1252.37 -341.358 4001
1255.94 -339.737 3982
1277.54 -342.98 4020
1293.24 -344.601 4039
1312.57 -347.16 4069
1322.31 -347.16 4069
1338.58 -348.866 4089
1348.36 -348.866 4089
1358.14 -348.866 4089
1367.92 -348.866 4089
1377.69 -348.866 4089
1784.96 -346.307 4059
1794.66 -346.307 4059
1804.37 -346.307 4059
1809.61 -345.454 4049
1793.23 -340.505 3991
1802.77 -340.505 3991
1782.35 -334.874 3925
1771.19 -331.035 3880
1759.82 -327.196 3835
1768.99 -327.196 3835
1778.16 -327.196 3835
1775.21 -324.977 3809
1767.93 -321.991 3774
2438.96 -345.454 4049
2448.65 -345.454 4049
2458.33 -345.454 4049
2461.91 -344.601 4039
2466.07 -343.833 4030
2475.7 -343.833 4030
2485.34 -343.833 4030
2447.31 -337.263 3953
2433.76 -334.106 3916
2443.13 -334.106 3916
2424.31 -330.267 3871
2422.25 -328.731 3853
2414.43 -326.428 3826
2423.57 -326.428 3826
2427.64 -325.745 3818
2431.02 -324.977 3809
2434.37 -324.21 3800
2438.31 -323.527 3792
2447.38 -323.527 3792
2444.78 -321.991 3774
2459.66 -322.759 3783
2468.71 -322.759 3783
2477.75 -322.759 3783
2486.8 -322.759 3783
2478.69 -320.541 3757
2487.68 -320.541 3757
2496.66 -320.541 3757
2505.64 -320.541 3757
2520.65 -321.309 3766
2529.66 -321.309 3766
2538.66 -321.309 3766
2547.67 -321.309 3766
2556.68 -321.309 3766
2554.1 -319.858 3749
2556.91 -319.09 3740
2565.85 -319.09 3740
2569.29 -318.408 3732
2578.21 -318.408 3732
2587.14 -318.408 3732
2596.06 -318.408 3732
2604.99 -318.408 3732
2608.31 -317.725 3724
2611.59 -317.043 3716
2620.48 -317.043 3716
2629.36 -317.043 3716
2649.61 -318.408 3732
2664.23 -319.09 3740
2679.61 -319.858 3749
2688.57 -319.858 3749
2697.54 -319.858 3749
2706.5 -319.858 3749
2715.47 -319.858 3749
2724.43 -319.858 3749
2733.4 -319.858 3749
2754.8 -321.309 3766
2776.28 -322.759 3783
2856.75 -331.035 3880
2866.02 -331.035 3880
2888.64 -332.571 3898
2911.34 -334.106 3916
2927.42 -334.874 3925
2936.81 -334.874 3925
2946.19 -334.874 3925
2955.58 -334.874 3925
2964.97 -334.874 3925
2960.71 -333.339 3907
2942.69 -330.267 3871
2904.66 -324.977 3809
2906.89 -324.21 3800
-2624.28 -290.644 3505
-2615.9 -290.644 3505
-2574.78 -286.996 3461
-2540.55 -284.093 3426
-2553.06 -286.415 3454
-2544.8 -286.415 3454
-2595.29 -293.049 3534
-2586.84 -293.049 3534
-2578.39 -293.049 3534
-2569.93 -293.049 3534
-2540.46 -290.644 3505
-2532.08 -290.644 3505
-2523.7 -290.644 3505
-2509.58 -289.981 3497
-2496.21 -289.401 3490
-2467.19 -286.996 3461
-2463.89 -287.576 3468
-2455.59 -287.576 3468
-2447.3 -287.576 3468
-2439.01 -287.576 3468
-2420.9 -286.415 3454
-2412.64 -286.415 3454
-2394.64 -285.254 3440
-2386.41 -285.254 3440
-2403.07 -288.24 3476
-2409.23 -289.981 3497
-2400.87 -289.981 3497
-2397.98 -290.644 3505
-2389.6 -290.644 3505
-2400.92 -293.049 3534
-2392.47 -293.049 3534
-2409.65 -296.2 3572
-2416.57 -298.107 3595
-2407.97 -298.107 3595
-2399.38 -298.107 3595
-2412.06 -300.761 3627
-2408.69 -301.424 3635
-2400 -301.424 3635
-2412.35 -304.078 3667
-2408.83 -304.741 3675
-2405.27 -305.405 3683
-2396.46 -305.405 3683
-2424.6 -310.131 3740
-2432.45 -312.287 3766
-2428.6 -312.951 3774
-2419.57 -312.951 3774
-2410.55 -312.951 3774
-2396.43 -312.287 3766
-2387.43 -312.287 3766
-2351.89 -308.804 3724
-2358.72 -310.878 3749
-2349.75 -310.878 3749
-2340.79 -310.878 3749
-2305.7 -307.395 3707
-1790.87 -308.804 3724
-1781.96 -308.804 3724
-1773.06 -308.804 3724
-1756.1 -307.395 3707
-1747.23 -307.395 3707
-1746.34 -308.804 3724
-1749.1 -310.878 3749
-1740.13 -310.878 3749
-1739.02 -312.287 3766
-1733.69 -312.951 3774
-1740.66 -315.853 3809
-1731.55 -315.853 3809
-1722.44 -315.853 3809
-1705.69 -314.443 3792
-1696.62 -314.443 3792
-1687.55 -314.443 3792
-1670.51 -312.951 3774
-1661.49 -312.951 3774
-1652.47 -312.951 3774
-1639.96 -312.287 3766
-1630.95 -312.287 3766
-1607.3 -309.468 3732
-1598.38 -309.468 3732
-690.126 -152.329 1837
-685.734 -152.329 1837
-683.566 -152.827 1843
-679.159 -152.827 1843
-674.752 -152.827 1843
-670.345 -152.827 1843
-665.938 -152.827 1843
-659.377 -152.329 1837
-654.984 -152.329 1837
-649.883 -152.163 1835
-643.384 -151.666 1829
-639.01 -151.666 1829
-634.637 -151.666 1829
-629.574 -151.5 1827
-623.152 -151.002 1821
-618.117 -150.837 1819
-613.768 -150.837 1819
-607.408 -150.339 1813
-601.076 -149.841 1807
-593.783 -149.095 1798
-586.861 -148.432 1790
-582.58 -148.432 1790
-577.008 -148.1 1786
-569.209 -147.188 1775
-562.418 -146.525 1767
-558.193 -146.525 1767
-550.519 -145.612 1756
-544.764 -145.198 1751
-538.107 -144.534 1743
-533.939 -144.534 1743
-528.859 -144.286 1740
-521.381 -143.373 1729
-516.649 -143.208 1727
-512.519 -143.208 1727
-507.211 -142.876 1723
-501.631 -142.461 1718
-496.654 -142.213 1715
-492.553 -142.213 1715
-488.452 -142.213 1715
-483.786 -142.047 1713
-479.13 -141.881 1711
-475.038 -141.881 1711
-470.947 -141.881 1711
-466.31 -141.715 1709
-461.411 -141.466 1706
-457.332 -141.466 1706
-453.252 -141.466 1706
-448.646 -141.3 1704
-444.571 -141.3 1704
-439.98 -141.135 1702
-435.91 -141.135 1702
-431.84 -141.135 1702
-427.518 -141.052 1701
-422.953 -140.886 1699
-418.89 -140.886 1699
-414.827 -140.886 1699
-410.281 -140.72 1697
-405.744 -140.554 1695
-401.691 -140.554 1695
-397.403 -140.471 1694
-392.888 -140.305 1692
-388.841 -140.305 1692
-384.795 -140.305 1692
-380.749 -140.305 1692
-376.035 -140.057 1689
-371.996 -140.057 1689
-367.958 -140.057 1689
-363.488 -139.891 1687
-359.454 -139.891 1687
-354.577 -139.559 1683
-350.552 -139.559 1683
-346.528 -139.559 1683
-341.892 -139.31 1680
-337.875 -139.31 1680
-333.46 -139.144 1678
-329.448 -139.144 1678
-325.435 -139.144 1678
-321.231 -139.062 1677
-317.221 -139.062 1677
-313.21 -139.062 1677
-309.2 -139.062 1677
-305.19 -139.062 1677
-300.461 -138.73 1673
-296.815 -138.896 1675
-292.81 -138.896 1675
-288.804 -138.896 1675
-285.139 -139.062 1677
-281.129 -139.062 1677
-277.118 -139.062 1677
-273.271 -139.144 1678
-269.579 -139.31 1680
-265.562 -139.31 1680
-261.545 -139.31 1680
-257.834 -139.476 1682
-253.812 -139.476 1682
-250.235 -139.725 1685
-246.206 -139.725 1685
-242.176 -139.725 1685
-238.147 -139.725 1685
-234.396 -139.891 1687
-230.361 -139.891 1687
-226.73 -140.139 1690
-223.347 -140.554 1695
-219.812 -140.886 1699
-215.749 -140.886 1699
-212.06 -141.135 1702
-208.723 -141.632 1708
-205.238 -142.047 1713
-201.141 -142.047 1713
-197.275 -142.213 1715
-193.737 -142.627 1720
-189.955 -142.876 1723
-185.835 -142.876 1723
-182.347 -143.373 1729
-178.419 -143.539 1731
-174.582 -143.788 1734
-171.025 -144.286 1740
-166.864 -144.286 1740
-162.797 -144.369 1741
-158.816 -144.534 1743
-155.002 -144.866 1747
-150.825 -144.866 1747
-146.815 -145.032 1749
-142.633 -145.032 1749
-138.45 -145.032 1749
-134.268 -145.032 1749
-130.085 -145.032 1749
-125.759 -144.866 1747
-121.582 -144.866 1747
-117.135 -144.534 1743
-112.837 -144.369 1741
-108.674 -144.369 1741
-104.511 -144.369 1741
-100.29 -144.286 1740
-96.1291 -144.286 1740
-91.9683 -144.286 1740
-87.8579 -144.369 1741
-83.6946 -144.369 1741
-79.6227 -144.534 1743
-75.4547 -144.534 1743
-71.2866 -144.534 1743
-67.1186 -144.534 1743
-63.0228 -144.7 1745
-58.85 -144.7 1745
-54.7398 -144.866 1747
-50.5622 -144.866 1747
-46.4377 -145.032 1749
-42.4244 -145.612 1756
-38.2688 -145.778 1758
-34.0649 -145.778 1758
-29.9459 -146.193 1763
-25.7884 -146.525 1767
-21.6118 -146.856 1771
-17.3768 -146.856 1771
-13.1418 -146.856 1771
-8.89677 -146.69 1769
16.6696 -304.741 3675
25.4576 -304.741 3675
34.3202 -305.405 3683
43.4084 -307.395 3707
52.3999 -308.141 3716
61.286 -308.141 3716
70.1721 -308.141 3716
79.0581 -308.141 3716
87.9442 -308.141 3716
96.5958 -307.395 3707
105.46 -307.395 3707
114.078 -306.731 3699
122.924 -306.731 3699
131.769 -306.731 3699
140.31 -306.068 3691
149.137 -306.068 3691
157.963 -306.068 3691
166.428 -305.405 3683
175.235 -305.405 3683
184.042 -305.405 3683
192.849 -305.405 3683
201.218 -304.741 3675
210.006 -304.741 3675
218.318 -304.078 3667
227.087 -304.078 3667
235.856 -304.078 3667
244.625 -304.078 3667
253.394 -304.078 3667
261.519 -303.332 3658
270.267 -303.332 3658
279.014 -303.332 3658
287.761 -303.332 3658
296.509 -303.332 3658
305.256 -303.332 3658
314.004 -303.332 3658
322.751 -303.332 3658
331.498 -303.332 3658
340.246 -303.332 3658
348.993 -303.332 3658
357.741 -303.332 3658
366.488 -303.332 3658
375.235 -303.332 3658
383.983 -303.332 3658
391.871 -302.668 3650
400.599 -302.668 3650
409.328 -302.668 3650
418.056 -302.668 3650
425.849 -302.005 3642
433.723 -301.424 3635
441.441 -300.761 3627
450.115 -300.761 3627
458.788 -300.761 3627
468.492 -301.424 3635
478.104 -302.005 3642
487.882 -302.668 3650
496.61 -302.668 3650
507.692 -304.078 3667
517.588 -304.741 3675
527.522 -305.405 3683
536.329 -305.405 3683
546.32 -306.068 3691
555.146 -306.068 3691
563.973 -306.068 3691
1091.46 -338.242 4079
1103.91 -339.071 4089
1113.69 -339.071 4089
1123.47 -339.071 4089
1130.47 -338.242 4079
1137.43 -337.413 4069
1147.16 -337.413 4069
1154.05 -336.584 4059
1158.02 -334.925 4039
1167.68 -334.925 4039
1177.34 -334.925 4039
1187 -334.925 4039
1191.03 -333.35 4020
1194.96 -331.774 4001
1204.53 -331.774 4001
1214.1 -331.774 4001
1223.67 -331.774 4001
1233.23 -331.774 4001
1242.8 -331.774 4001
1252.37 -331.774 4001
1261.94 -331.774 4001
1280.72 -334.179 4030
1299.64 -336.584 4059
1319.03 -339.071 4089
1328.8 -339.071 4089
1338.58 -339.071 4089
1348.36 -339.071 4089
1358.14 -339.071 4089
1367.92 -339.071 4089
1377.69 -339.071 4089
1794.66 -336.584 4059
1804.37 -336.584 4059
1814.08 -336.584 4059
1793.23 -330.945 3991
1802.77 -330.945 3991
1795.06 -327.794 3953
1796.3 -326.301 3935
1801.12 -325.472 3925
1810.5 -325.472 3925
1799.02 -321.74 3880
1799.91 -320.248 3862
2444.99 -336.584 4059
2454.69 -336.584 4059
2464.4 -336.584 4059
2468.01 -335.754 4049
2466.07 -334.179 4030
2475.7 -334.179 4030
2485.34 -334.179 4030
2447.31 -327.794 3953
2405.8 -320.994 3871
2415.05 -320.994 3871
2413.04 -319.501 3853
2410.93 -318.009 3835
2403.7 -315.853 3809
2412.81 -315.853 3809
2421.91 -315.853 3809
2420.17 -314.443 3792
2429.24 -314.443 3792
2426.73 -312.951 3774
2435.76 -312.951 3774
2444.78 -312.951 3774
2459.66 -313.697 3783
2468.71 -313.697 3783
2477.75 -313.697 3783
2486.8 -313.697 3783
2478.69 -311.541 3757
2493.64 -312.287 3766
2502.64 -312.287 3766
2511.65 -312.287 3766
2520.65 -312.287 3766
2529.66 -312.287 3766
2538.66 -312.287 3766
2547.67 -312.287 3766
2556.68 -312.287 3766
2565.68 -312.287 3766
2568.53 -311.541 3757
2577.52 -311.541 3757
2574.8 -310.131 3740
2583.74 -310.131 3740
2592.68 -310.131 3740
2601.63 -310.131 3740
2610.57 -310.131 3740
2619.52 -310.131 3740
2622.84 -309.468 3732
2631.76 -309.468 3732
2640.69 -309.468 3732
2655.29 -310.131 3740
2676.34 -311.541 3757
2691.76 -312.287 3766
2700.77 -312.287 3766
2709.77 -312.287 3766
2718.78 -312.287 3766
2715.47 -310.878 3749
2730.25 -311.541 3757
2739.23 -311.541 3757
2760.65 -312.951 3774
2821.05 -318.755 3844
2850.12 -320.994 3871
2859.38 -320.994 3871
2881.97 -322.487 3889
2891.27 -322.487 3889
2900.57 -322.487 3889
2909.87 -322.487 3889
2925.93 -323.233 3898
2935.25 -323.233 3898
2944.57 -323.233 3898
2940.25 -321.74 3880
2929 -319.501 3853
2904.66 -315.853 3809
2893.88 -313.697 3783
-2635.51 -283.456 3520
-2627.09 -283.456 3520
-2607.52 -282.248 3505
-2566.51 -278.705 3461
-2612.19 -284.583 3534
-2603.74 -284.583 3534
-2606.3 -285.791 3549
-2609.53 -287.08 3565
-2601 -287.08 3565
-2592.48 -287.08 3565
-2561.48 -284.583 3534
-2547.98 -284.02 3527
-2539.54 -284.02 3527
-2509.58 -281.604 3497
-2496.21 -281.04 3490
-2467.19 -278.705 3461
-2463.89 -279.269 3468
-2455.59 -279.269 3468
-2447.3 -279.269 3468
-2439.01 -279.269 3468
-2420.9 -278.141 3454
-2412.64 -278.141 3454
-2394.64 -277.014 3440
-2386.41 -277.014 3440
-2403.07 -279.913 3476
-2409.23 -281.604 3497
-2400.87 -281.604 3497
-2397.98 -282.248 3505
-2409.37 -284.583 3534
-2411.11 -285.791 3549
-2402.62 -285.791 3549
-2415.05 -288.288 3580
-2416.57 -289.496 3595
-2407.97 -289.496 3595
-2404.72 -290.14 3603
-2412.06 -292.072 3627
-2408.69 -292.717 3635
-2400 -292.717 3635
-2412.35 -295.294 3667
-2408.83 -295.938 3675
-2415.71 -297.87 3699
-2406.87 -297.87 3699
-2424.6 -301.172 3740
-2432.45 -303.266 3766
-2428.6 -303.91 3774
-2419.57 -303.91 3774
-2410.55 -303.91 3774
-2396.43 -303.266 3766
-2387.43 -303.266 3766
-2362 -301.172 3740
-2358.72 -301.897 3749
-2349.75 -301.897 3749
-2340.79 -301.897 3749
-2305.7 -298.515 3707
-1768.85 -293.28 3642
-1760.14 -293.28 3642
-1790.87 -299.884 3724
-1781.96 -299.884 3724
-1773.06 -299.884 3724
-1756.1 -298.515 3707
-1747.23 -298.515 3707
-1746.34 -299.884 3724
-1749.1 -301.897 3749
-1740.13 -301.897 3749
-1739.02 -303.266 3766
-1733.69 -303.91 3774
-1740.66 -306.728 3809
-1731.55 -306.728 3809
-1722.44 -306.728 3809
-1705.69 -305.359 3792
-1696.62 -305.359 3792
-1687.55 -305.359 3792
-1670.51 -303.91 3774
-1661.49 -303.91 3774
-1652.47 -303.91 3774
-1639.96 -303.266 3766
-1630.95 -303.266 3766
-1607.3 -300.528 3732
-1598.38 -300.528 3732
-1578.81 -298.515 3707
-1569.94 -298.515 3707
-1564.87 -299.239 3716
-1555.98 -299.239 3716
-1547.09 -299.239 3716
-1538.21 -299.239 3716
-1505.45 -294.569 3658
-1496.71 -294.569 3658
-1459.48 -288.932 3588
-1444.43 -287.643 3572
-692.381 -148.412 1843
-687.973 -148.412 1843
-684.308 -148.573 1845
-679.896 -148.573 1845
-675.484 -148.573 1845
-670.345 -148.412 1843
-665.938 -148.412 1843
-659.377 -147.929 1837
-654.984 -147.929 1837
-649.883 -147.768 1835
-643.384 -147.284 1829
-639.01 -147.284 1829
-634.637 -147.284 1829
-629.574 -147.123 1827
-623.152 -146.64 1821
-618.117 -146.479 1819
-613.768 -146.479 1819
-607.408 -145.996 1813
-601.076 -145.513 1807
-593.783 -144.788 1798
-586.861 -144.144 1790
-582.58 -144.144 1790
-577.008 -143.822 1786
-569.209 -142.936 1775
-562.418 -142.292 1767
-558.193 -142.292 1767
-550.519 -141.406 1756
-544.764 -141.003 1751
-538.107 -140.359 1743
-533.939 -140.359 1743
-528.859 -140.117 1740
-521.381 -139.232 1729
-516.649 -139.071 1727
-512.519 -139.071 1727
-507.211 -138.748 1723
-501.631 -138.346 1718
-496.654 -138.104 1715
-492.553 -138.104 1715
-488.452 -138.104 1715
-483.786 -137.943 1713
-479.13 -137.782 1711
-475.038 -137.782 1711
-470.947 -137.782 1711
-466.31 -137.621 1709
-461.411 -137.38 1706
-457.332 -137.38 1706
-453.252 -137.38 1706
-448.646 -137.218 1704
-444.571 -137.218 1704
-439.98 -137.057 1702
-435.91 -137.057 1702
-431.84 -137.057 1702
-427.518 -136.977 1701
-422.953 -136.816 1699
-418.89 -136.816 1699
-414.827 -136.816 1699
-410.281 -136.655 1697
-405.744 -136.494 1695
-401.691 -136.494 1695
-397.403 -136.413 1694
-392.888 -136.252 1692
-388.841 -136.252 1692
-384.795 -136.252 1692
-380.749 -136.252 1692
-376.035 -136.011 1689
-371.996 -136.011 1689
-367.958 -136.011 1689
-363.488 -135.85 1687
-359.454 -135.85 1687
-354.577 -135.527 1683
-350.552 -135.527 1683
-346.528 -135.527 1683
-341.892 -135.286 1680
-337.875 -135.286 1680
-333.46 -135.125 1678
-329.448 -135.125 1678
-325.435 -135.125 1678
-321.231 -135.044 1677
-317.221 -135.044 1677
-313.21 -135.044 1677
-309.2 -135.044 1677
-305.19 -135.044 1677
-300.461 -134.722 1673
-296.815 -134.883 1675
-292.81 -134.883 1675
-288.804 -134.883 1675
-285.139 -135.044 1677
-281.129 -135.044 1677
-277.118 -135.044 1677
-273.271 -135.125 1678
-269.579 -135.286 1680
-265.562 -135.286 1680
-261.545 -135.286 1680
-257.834 -135.447 1682
-253.812 -135.447 1682
-250.235 -135.688 1685
-246.206 -135.688 1685
-242.176 -135.688 1685
-238.147 -135.688 1685
-234.673 -136.011 1689
-230.635 -136.011 1689
-226.73 -136.091 1690
-223.347 -136.494 1695
-219.812 -136.816 1699
-215.749 -136.816 1699
-212.06 -137.057 1702
-208.723 -137.541 1708
-205.238 -137.943 1713
-201.141 -137.943 1713
-197.275 -138.104 1715
-193.737 -138.507 1720
-189.955 -138.748 1723
-185.835 -138.748 1723
-182.347 -139.232 1729
-178.419 -139.393 1731
-174.582 -139.634 1734
-171.025 -140.117 1740
-166.864 -140.117 1740
-162.797 -140.198 1741
-158.816 -140.359 1743
-155.002 -140.681 1747
-150.825 -140.681 1747
-146.815 -140.842 1749
-142.633 -140.842 1749
-138.45 -140.842 1749
-134.268 -140.842 1749
-130.085 -140.842 1749
-125.759 -140.681 1747
-121.582 -140.681 1747
-117.269 -140.52 1745
-112.837 -140.198 1741
-108.674 -140.198 1741
-104.511 -140.198 1741
-100.29 -140.117 1740
-96.1291 -140.117 1740
-91.9683 -140.117 1740
-87.8579 -140.198 1741
-83.6946 -140.198 1741
-79.6227 -140.359 1743
-75.4547 -140.359 1743
-71.2866 -140.359 1743
-67.1186 -140.359 1743
-63.0228 -140.52 1745
-58.9174 -140.681 1747
-54.8025 -140.842 1749
-50.6201 -140.842 1749
-46.4377 -140.842 1749
-42.4727 -141.567 1758
-38.3124 -141.728 1760
-34.1037 -141.728 1760
-29.9459 -141.97 1763
-25.7884 -142.292 1767
-21.6118 -142.614 1771
-17.3768 -142.614 1771
-13.1418 -142.614 1771
-8.89677 -142.453 1769
16.6696 -295.938 3675
25.4576 -295.938 3675
34.3202 -296.582 3683
43.4084 -298.515 3707
52.3999 -299.239 3716
61.286 -299.239 3716
70.1721 -299.239 3716
79.0581 -299.239 3716
87.9442 -299.239 3716
96.5958 -298.515 3707
105.46 -298.515 3707
114.078 -297.87 3699
122.924 -297.87 3699
131.769 -297.87 3699
140.31 -297.226 3691
149.137 -297.226 3691
157.963 -297.226 3691
166.428 -296.582 3683
175.235 -296.582 3683
184.042 -296.582 3683
192.849 -296.582 3683
201.218 -295.938 3675
210.006 -295.938 3675
218.794 -295.938 3675
227.087 -295.294 3667
235.856 -295.294 3667
244.625 -295.294 3667
253.394 -295.294 3667
262.163 -295.294 3667
270.932 -295.294 3667
279.014 -294.569 3658
287.761 -294.569 3658
296.509 -294.569 3658
305.256 -294.569 3658
314.004 -294.569 3658
322.751 -294.569 3658
331.498 -294.569 3658
340.246 -294.569 3658
348.993 -294.569 3658
357.741 -294.569 3658
366.488 -294.569 3658
375.235 -294.569 3658
383.983 -294.569 3658
392.73 -294.569 3658
400.599 -293.925 3650
409.328 -293.925 3650
418.056 -293.925 3650
425.849 -293.28 3642
433.723 -292.717 3635
441.441 -292.072 3627
450.115 -292.072 3627
458.788 -292.072 3627
468.492 -292.717 3635
479.154 -293.925 3650
488.951 -294.569 3658
497.699 -294.569 3658
507.692 -295.294 3667
517.588 -295.938 3675
527.522 -296.582 3683
536.329 -296.582 3683
546.32 -297.226 3691
555.146 -297.226 3691
563.973 -297.226 3691
1091.46 -328.471 4079
1103.91 -329.276 4089
1113.69 -329.276 4089
1123.47 -329.276 4089
1130.47 -328.471 4079
1137.43 -327.665 4069
1147.16 -327.665 4069
1154.05 -326.86 4059
1158.02 -325.25 4039
1167.68 -325.25 4039
1177.34 -325.25 4039
1187 -325.25 4039
1191.03 -323.72 4020
1194.96 -322.19 4001
1204.53 -322.19 4001
1214.1 -322.19 4001
1226.42 -322.914 4010
1236.01 -322.914 4010
1245.6 -322.914 4010
1255.19 -322.914 4010
1267.93 -323.72 4020
1286.76 -326.055 4049
1309.25 -329.276 4089
1319.03 -329.276 4089
1328.8 -329.276 4089
1338.58 -329.276 4089
1348.36 -329.276 4089
1358.14 -329.276 4089
1367.92 -329.276 4089
1377.69 -329.276 4089
1794.66 -326.86 4059
1804.37 -326.86 4059
1814.08 -326.86 4059
1801.77 -322.914 4010
1811.36 -322.914 4010
1808.23 -320.66 3982
1800.41 -317.6 3944
1805.71 -316.875 3935
1815.12 -316.875 3935
1819.89 -316.07 3925
1808.3 -312.446 3880
2457.03 -328.471 4079
2466.79 -328.471 4079
2476.54 -328.471 4079
2468.01 -326.055 4049
2466.07 -324.525 4030
2475.7 -324.525 4030
2485.34 -324.525 4030
2447.31 -318.324 3953
2405.8 -311.721 3871
2415.05 -311.721 3871
2413.04 -310.272 3853
2410.93 -308.822 3835
2403.7 -306.728 3809
2412.81 -306.728 3809
2421.91 -306.728 3809
2420.17 -305.359 3792
2429.24 -305.359 3792
2426.73 -303.91 3774
2435.76 -303.91 3774
2444.78 -303.91 3774
2459.66 -304.635 3783
2468.71 -304.635 3783
2477.75 -304.635 3783
2486.8 -304.635 3783
2484.63 -303.266 3766
2493.64 -303.266 3766
2502.64 -303.266 3766
2511.65 -303.266 3766
2520.65 -303.266 3766
2529.66 -303.266 3766
2538.66 -303.266 3766
2547.67 -303.266 3766
2556.68 -303.266 3766
2565.68 -303.266 3766
2568.53 -302.541 3757
2589.18 -303.91 3774
2598.21 -303.91 3774
2619.67 -305.359 3792
2628.73 -305.359 3792
2637.8 -305.359 3792
2646.87 -305.359 3792
2655.94 -305.359 3792
2658.68 -304.635 3783
2667.73 -304.635 3783
2676.77 -304.635 3783
2692.21 -305.359 3792
2706.97 -306.004 3800
2734.64 -308.097 3826
2743.79 -308.097 3826
2752.94 -308.097 3826
2756.32 -307.453 3818
2765.45 -307.453 3818
2774.58 -307.453 3818
2777.14 -306.728 3809
2786.25 -306.728 3809
2840.86 -311.721 3871
2850.12 -311.721 3871
2859.38 -311.721 3871
2881.97 -313.171 3889
2891.27 -313.171 3889
2900.57 -313.171 3889
2909.87 -313.171 3889
2925.93 -313.895 3898
2935.25 -313.895 3898
2944.57 -313.895 3898
2940.25 -312.446 3880
2929 -310.272 3853
2904.66 -306.728 3809
2893.88 -304.635 3783
-2635.51 -275.024 3520
-2627.09 -275.024 3520
-2607.52 -273.852 3505
-2566.51 -270.414 3461
-2612.19 -276.118 3534
-2603.74 -276.118 3534
-2606.3 -277.29 3549
-2609.53 -278.54 3565
-2601 -278.54 3565
-2592.48 -278.54 3565
-2561.48 -276.118 3534
-2547.98 -275.571 3527
-2539.54 -275.571 3527
-2509.58 -273.227 3497
-2475.47 -270.414 3461
-2452.22 -268.773 3440
-2453.94 -269.867 3454
-2445.68 -269.867 3454
-2437.42 -269.867 3454
-2429.16 -269.867 3454
-2420.9 -269.867 3454
-2412.64 -269.867 3454
-2389.77 -268.226 3433
-2376.7 -267.679 3426
-2397.54 -270.961 3468
-2409.23 -273.227 3497
-2400.87 -273.227 3497
-2397.98 -273.852 3505
-2409.37 -276.118 3534
-2411.11 -277.29 3549
-2402.62 -277.29 3549
-2415.05 -279.712 3580
-2416.57 -280.884 3595
-2407.97 -280.884 3595
-2404.72 -281.509 3603
-2412.06 -283.384 3627
-2408.69 -284.009 3635
-2400 -284.009 3635
-2406.43 -285.806 3658
-2403.59 -286.509 3667
-2415.71 -289.009 3699
-2406.87 -289.009 3699
-2414.23 -290.963 3724
-2426.64 -293.541 3757
-2423.45 -294.244 3766
-2414.44 -294.244 3766
-2405.44 -294.244 3766
-2396.43 -294.244 3766
-2387.43 -294.244 3766
-2362 -292.213 3740
-2337.96 -290.338 3716
-2329.07 -290.338 3716
-2314.56 -289.634 3707
-2305.7 -289.634 3707
-1768.85 -284.556 3642
-1760.14 -284.556 3642
-1775 -288.384 3691
-1766.17 -288.384 3691
-1757.34 -288.384 3691
-1748.52 -288.384 3691
-1739.69 -288.384 3691
-1738.37 -289.634 3707
-1744.9 -292.213 3740
-1735.96 -292.213 3740
-1731.17 -292.916 3749
-1725.88 -293.541 3757
-1740.66 -297.604 3809
-1731.55 -297.604 3809
-1722.44 -297.604 3809
-1705.69 -296.276 3792
-1696.62 -296.276 3792
-1687.55 -296.276 3792
-1670.51 -294.869 3774
-1661.49 -294.869 3774
-1652.47 -294.869 3774
-1639.96 -294.244 3766
-1630.95 -294.244 3766
-1607.3 -291.588 3732
-1598.38 -291.588 3732
-1578.81 -289.634 3707
-1569.94 -289.634 3707
-1564.87 -290.338 3716
-1555.98 -290.338 3716
-1547.09 -290.338 3716
-1538.21 -290.338 3716
-1505.45 -285.806 3658
-1496.71 -285.806 3658
-1459.48 -280.337 3588
-1444.43 -279.087 3572
-692.381 -143.997 1843
-687.973 -143.997 1843
-684.308 -144.153 1845
-679.896 -144.153 1845
-675.484 -144.153 1845
-670.345 -143.997 1843
-665.938 -143.997 1843
-658.659 -143.372 1835
-654.271 -143.372 1835
-649.883 -143.372 1835
-643.384 -142.903 1829
-638.312 -142.747 1827
-633.943 -142.747 1827
-628.885 -142.59 1825
-622.467 -142.122 1819
-616.758 -141.809 1815
-612.418 -141.809 1815
-606.068 -141.34 1809
-599.413 -140.793 1802
-592.462 -140.168 1794
-585.549 -139.543 1786
-581.279 -139.543 1786
-574.746 -138.996 1779
-566.644 -138.059 1767
-560.19 -137.512 1760
-555.982 -137.512 1760
-549.265 -136.887 1752
-542.898 -136.34 1745
-537.181 -135.949 1740
-533.02 -135.949 1740
-527.644 -135.637 1736
-520.778 -134.934 1727
-516.05 -134.777 1725
-511.925 -134.777 1725
-507.211 -134.621 1723
-501.047 -134.074 1716
-496.654 -133.996 1715
-492.553 -133.996 1715
-487.883 -133.84 1713
-483.221 -133.683 1711
-479.13 -133.683 1711
-475.038 -133.683 1711
-470.947 -133.683 1711
-466.037 -133.449 1708
-461.411 -133.293 1706
-457.332 -133.293 1706
-453.252 -133.293 1706
-448.12 -132.98 1702
-444.05 -132.98 1702
-439.98 -132.98 1702
-435.91 -132.98 1702
-431.586 -132.902 1701
-427.016 -132.746 1699
-422.953 -132.746 1699
-418.89 -132.746 1699
-414.339 -132.59 1697
-409.797 -132.433 1695
-405.744 -132.433 1695
-401.691 -132.433 1695
-397.403 -132.355 1694
-392.888 -132.199 1692
-388.841 -132.199 1692
-384.795 -132.199 1692
-380.074 -131.965 1689
-376.035 -131.965 1689
-371.996 -131.965 1689
-367.958 -131.965 1689
-363.488 -131.808 1687
-359.027 -131.652 1685
-354.577 -131.496 1683
-350.552 -131.496 1683
-346.528 -131.496 1683
-341.892 -131.261 1680
-337.473 -131.105 1678
-333.262 -131.027 1677
-329.251 -131.027 1677
-325.241 -131.027 1677
-321.231 -131.027 1677
-317.221 -131.027 1677
-313.21 -131.027 1677
-308.831 -130.871 1675
-304.826 -130.871 1675
-300.461 -130.714 1673
-296.815 -130.871 1675
-292.81 -130.871 1675
-288.804 -130.871 1675
-285.139 -131.027 1677
-281.129 -131.027 1677
-277.118 -131.027 1677
-273.271 -131.105 1678
-269.579 -131.261 1680
-265.562 -131.261 1680
-261.545 -131.261 1680
-257.834 -131.418 1682
-253.812 -131.418 1682
-250.235 -131.652 1685
-246.206 -131.652 1685
-242.176 -131.652 1685
-238.147 -131.652 1685
-234.673 -131.965 1689
-230.635 -131.965 1689
-226.73 -132.043 1690
-223.347 -132.433 1695
-219.553 -132.59 1697
-215.495 -132.59 1697
-212.06 -132.98 1702
-208.234 -133.137 1704
-204.998 -133.683 1711
-200.906 -133.683 1711
-197.275 -133.996 1715
-193.737 -134.387 1720
-189.955 -134.621 1723
-185.835 -134.621 1723
-182.347 -135.09 1729
-178.419 -135.246 1731
-174.582 -135.48 1734
-170.828 -135.793 1738
-166.672 -135.793 1738
-162.797 -136.027 1741
-158.816 -136.184 1743
-155.002 -136.496 1747
-150.825 -136.496 1747
-146.647 -136.496 1747
-142.633 -136.652 1749
-138.45 -136.652 1749
-134.268 -136.652 1749
-130.085 -136.652 1749
-125.759 -136.496 1747
-121.582 -136.496 1747
-117.269 -136.34 1745
-112.837 -136.027 1741
-108.612 -135.949 1740
-104.451 -135.949 1740
-100.29 -135.949 1740
-96.1291 -135.949 1740
-91.9683 -135.949 1740
-87.8579 -136.027 1741
-83.6946 -136.027 1741
-79.6227 -136.184 1743
-75.4547 -136.184 1743
-71.2866 -136.184 1743
-67.1186 -136.184 1743
-63.0228 -136.34 1745
-58.9174 -136.496 1747
-54.8025 -136.652 1749
-50.6201 -136.652 1749
-46.4377 -136.652 1749
-42.4727 -137.356 1758
-38.3124 -137.512 1760
-34.1037 -137.512 1760
-29.9459 -137.746 1763
-25.7884 -138.059 1767
-21.6118 -138.371 1771
-17.3768 -138.371 1771
-13.1418 -138.371 1771
-8.89677 -138.215 1769
16.6696 -287.134 3675
25.4576 -287.134 3675
34.2457 -287.134 3675
43.3148 -289.009 3699
52.273 -289.634 3707
61.1376 -289.634 3707
70.0021 -289.634 3707
78.8667 -289.634 3707
87.7312 -289.634 3707
96.5958 -289.634 3707
105.233 -289.009 3699
114.078 -289.009 3699
122.924 -289.009 3699
131.769 -289.009 3699
140.31 -288.384 3691
148.813 -287.759 3683
157.621 -287.759 3683
166.428 -287.759 3683
175.235 -287.759 3683
184.042 -287.759 3683
192.849 -287.759 3683
201.218 -287.134 3675
210.006 -287.134 3675
218.794 -287.134 3675
227.087 -286.509 3667
235.856 -286.509 3667
244.625 -286.509 3667
253.394 -286.509 3667
262.163 -286.509 3667
270.932 -286.509 3667
279.014 -285.806 3658
287.761 -285.806 3658
296.509 -285.806 3658
305.256 -285.806 3658
314.004 -285.806 3658
322.751 -285.806 3658
331.498 -285.806 3658
340.246 -285.806 3658
348.993 -285.806 3658
357.741 -285.806 3658
366.488 -285.806 3658
375.235 -285.806 3658
383.983 -285.806 3658
392.73 -285.806 3658
400.599 -285.181 3650
409.328 -285.181 3650
418.056 -285.181 3650
425.849 -284.556 3642
433.723 -284.009 3635
441.441 -283.384 3627
450.115 -283.384 3627
458.788 -283.384 3627
467.461 -283.384 3627
479.154 -285.181 3650
488.951 -285.806 3658
497.699 -285.806 3658
506.446 -285.806 3658
516.461 -286.509 3667
525.23 -286.509 3667
533.999 -286.509 3667
542.768 -286.509 3667
1101.21 -318.699 4079
1110.96 -318.699 4079
1120.72 -318.699 4079
1127.7 -317.918 4069
1134.64 -317.137 4059
1144.34 -317.137 4059
1151.21 -316.355 4049
1158.02 -315.574 4039
1167.68 -315.574 4039
1177.34 -315.574 4039
1187 -315.574 4039
1191.03 -314.09 4020
1194.96 -312.605 4001
1204.53 -312.605 4001
1214.1 -312.605 4001
1226.42 -313.308 4010
1236.01 -313.308 4010
1245.6 -313.308 4010
1255.19 -313.308 4010
1267.93 -314.09 4020
1286.76 -316.355 4049
1309.25 -319.481 4089
1319.03 -319.481 4089
1328.8 -319.481 4089
1338.58 -319.481 4089
1794.66 -317.137 4059
1804.37 -317.137 4059
1814.08 -317.137 4059
1801.77 -313.308 4010
1811.36 -313.308 4010
1808.23 -311.121 3982
1800.41 -308.152 3944
1805.71 -307.448 3935
1815.12 -307.448 3935
1819.89 -306.667 3925
1808.3 -303.151 3880
2457.03 -318.699 4079
2466.79 -318.699 4079
2476.54 -318.699 4079
2468.01 -316.355 4049
2466.07 -314.871 4030
2475.7 -314.871 4030
2479.17 -314.09 4020
2436.16 -307.448 3935
2394.61 -301.042 3853
2403.82 -301.042 3853
2401.76 -299.635 3835
2394.59 -297.604 3809
2392.97 -296.276 3792
2402.04 -296.276 3792
2405.38 -295.572 3783
2408.68 -294.869 3774
2417.71 -294.869 3774
2415.8 -293.541 3757
2435.76 -294.869 3774
2444.78 -294.869 3774
2453.81 -294.869 3774
2462.83 -294.869 3774
2471.86 -294.869 3774
2480.88 -294.869 3774
2484.63 -294.244 3766
2493.64 -294.244 3766
2502.64 -294.244 3766
2511.65 -294.244 3766
2520.65 -294.244 3766
2529.66 -294.244 3766
2538.66 -294.244 3766
2547.67 -294.244 3766
2556.68 -294.244 3766
2565.68 -294.244 3766
2568.53 -293.541 3757
2589.18 -294.869 3774
2598.21 -294.869 3774
2619.67 -296.276 3792
2628.73 -296.276 3792
2637.8 -296.276 3792
2646.87 -296.276 3792
2655.94 -296.276 3792
2658.68 -295.572 3783
2667.73 -295.572 3783
2676.77 -295.572 3783
2692.21 -296.276 3792
2706.97 -296.901 3800
2734.64 -298.932 3826
2743.79 -298.932 3826
2752.94 -298.932 3826
2756.32 -298.307 3818
2765.45 -298.307 3818
2774.58 -298.307 3818
2777.14 -297.604 3809
2786.25 -297.604 3809
2840.86 -302.448 3871
2850.12 -302.448 3871
2859.38 -302.448 3871
2875.3 -303.151 3880
2884.58 -303.151 3880
2893.86 -303.151 3880
2889.67 -301.745 3862
2898.9 -301.745 3862
2908.14 -301.745 3862
2917.37 -301.745 3862
2919.79 -301.042 3853
2915.32 -299.635 3835
2884.84 -295.572 3783
2887 -294.869 3774
-2651.98 -268.258 3542
-2643.51 -268.258 3542
-2618.68 -266.592 3520
-2610.26 -266.592 3520
-2669.1 -273.484 3611
-2660.47 -273.484 3611
-2651.83 -273.484 3611
-2643.2 -273.484 3611
-2634.56 -273.484 3611
-2592.48 -270 3565
-2583.95 -270 3565
-2558.81 -268.258 3542
-2550.34 -268.258 3542
-2520.34 -265.986 3512
-2501.22 -264.85 3497
-2472.18 -262.653 3468
-2474.54 -263.789 3483
-2466.22 -263.789 3483
-2457.89 -263.789 3483
-2449.56 -263.789 3483
-2430.72 -262.653 3468
-2422.42 -262.653 3468
-2404.38 -261.593 3454
-2381.56 -260.003 3433
-2397.54 -262.653 3468
-2404.41 -264.32 3490
-2396.06 -264.32 3490
-2397.98 -265.456 3505
-2409.37 -267.652 3534
-2416.54 -269.394 3557
-2408.04 -269.394 3557
-2415.05 -271.136 3580
-2416.57 -272.272 3595
-2407.97 -272.272 3595
-2404.72 -272.878 3603
-2417.38 -275.301 3635
-2423.93 -277.043 3658
-2415.18 -277.043 3658
-2422.88 -278.937 3683
-2424.56 -280.148 3699
-2432.04 -282.042 3724
-2423.14 -282.042 3724
-2441.46 -285.223 3766
-2506.09 -293.857 3880
-2496.81 -293.857 3880
-2487.53 -293.857 3880
-2478.25 -293.857 3880
-2446.07 -291.13 3844
-2436.87 -291.13 3844
-2416.31 -289.767 3826
-2402.13 -289.161 3818
-2354.77 -284.541 3757
-2345.78 -284.541 3757
-2321.25 -282.648 3732
-1780.99 -277.725 3667
-1772.22 -277.725 3667
-1763.46 -277.725 3667
-1750.38 -277.043 3658
-1741.63 -277.043 3658
-1729.1 -276.437 3650
-1728.38 -277.725 3667
-1727.11 -278.937 3683
-1729.5 -280.754 3707
-1720.64 -280.754 3707
-1731.17 -283.935 3749
-1733.69 -285.829 3774
-1724.66 -285.829 3774
-1735.64 -289.161 3818
-1726.51 -289.161 3818
-1717.38 -289.161 3818
-1708.25 -289.161 3818
-1699.12 -289.161 3818
-1666.97 -285.223 3766
-1657.97 -285.223 3766
-1648.96 -285.223 3766
-1632.55 -283.935 3749
-1623.59 -283.935 3749
-1614.62 -283.935 3749
-1605.66 -283.935 3749
-1589.45 -282.648 3732
-1573.75 -281.436 3716
-1568.24 -282.042 3724
-1559.33 -282.042 3724
-1550.43 -282.042 3724
-1541.52 -282.042 3724
-1522.33 -280.148 3699
-1513.48 -280.148 3699
-1478.6 -275.301 3635
-1444.43 -270.53 3572
-695.01 -140.112 1850
-690.586 -140.112 1850
-686.162 -140.112 1850
-681.739 -140.112 1850
-677.315 -140.112 1850
-671.072 -139.733 1845
-665.215 -139.43 1841
-658.659 -138.976 1835
-654.271 -138.976 1835
-649.174 -138.825 1833
-642.681 -138.37 1827
-638.312 -138.37 1827
-633.943 -138.37 1827
-628.885 -138.219 1825
-622.467 -137.764 1819
-617.438 -137.613 1817
-613.093 -137.613 1817
-606.738 -137.158 1811
-600.079 -136.628 1804
-593.123 -136.022 1796
-585.549 -135.265 1786
-581.279 -135.265 1786
-574.1 -134.583 1777
-566.644 -133.826 1767
-559.554 -133.144 1758
-555.35 -133.144 1758
-548.951 -132.614 1751
-542.275 -132.008 1743
-537.181 -131.781 1740
-533.02 -131.781 1740
-527.644 -131.478 1736
-520.778 -130.797 1727
-516.05 -130.645 1725
-511.925 -130.645 1725
-507.211 -130.494 1723
-501.047 -129.963 1716
-496.654 -129.888 1715
-492.553 -129.888 1715
-487.883 -129.736 1713
-483.221 -129.585 1711
-479.13 -129.585 1711
-475.038 -129.585 1711
-470.947 -129.585 1711
-466.037 -129.358 1708
-461.411 -129.206 1706
-457.332 -129.206 1706
-453.252 -129.206 1706
-448.12 -128.903 1702
-444.05 -128.903 1702
-439.721 -128.827 1701
-435.653 -128.827 1701
-431.078 -128.676 1699
-427.016 -128.676 1699
-422.455 -128.524 1697
-418.397 -128.524 1697
-413.85 -128.373 1695
-409.797 -128.373 1695
-405.505 -128.297 1694
-401.454 -128.297 1694
-396.934 -128.146 1692
-392.423 -127.994 1690
-388.382 -127.994 1690
-384.341 -127.994 1690
-380.074 -127.919 1689
-376.035 -127.919 1689
-371.556 -127.767 1687
-367.522 -127.767 1687
-363.057 -127.616 1685
-359.027 -127.616 1685
-354.577 -127.464 1683
-349.927 -127.237 1680
-345.91 -127.237 1680
-341.485 -127.085 1678
-337.473 -127.085 1678
-333.262 -127.01 1677
-329.251 -127.01 1677
-325.241 -127.01 1677
-320.848 -126.858 1675
-316.842 -126.858 1675
-312.837 -126.858 1675
-308.831 -126.858 1675
-304.826 -126.858 1675
-300.461 -126.707 1673
-296.461 -126.707 1673
-292.46 -126.707 1673
-288.804 -126.858 1675
-284.799 -126.858 1675
-281.129 -127.01 1677
-277.118 -127.01 1677
-273.271 -127.085 1678
-269.579 -127.237 1680
-265.562 -127.237 1680
-261.545 -127.237 1680
-257.834 -127.388 1682
-253.963 -127.464 1683
-250.235 -127.616 1685
-246.206 -127.616 1685
-242.176 -127.616 1685
-238.147 -127.616 1685
-234.673 -127.919 1689
-230.635 -127.919 1689
-226.998 -128.146 1692
-223.347 -128.373 1695
-219.812 -128.676 1699
-215.749 -128.676 1699
-212.06 -128.903 1702
-208.234 -129.055 1704
-204.998 -129.585 1711
-200.906 -129.585 1711
-197.275 -129.888 1715
-193.512 -130.115 1718
-189.955 -130.494 1723
-185.835 -130.494 1723
-182.136 -130.797 1727
-178.419 -131.099 1731
-174.582 -131.327 1734
-170.828 -131.63 1738
-166.672 -131.63 1738
-162.797 -131.857 1741
-158.816 -132.008 1743
-155.002 -132.311 1747
-150.825 -132.311 1747
-146.647 -132.311 1747
-142.633 -132.463 1749
-138.45 -132.463 1749
-134.268 -132.463 1749
-130.085 -132.463 1749
-125.759 -132.311 1747
-121.582 -132.311 1747
-117.269 -132.16 1745
-112.837 -131.857 1741
-108.674 -131.857 1741
-104.511 -131.857 1741
-100.29 -131.781 1740
-96.1291 -131.781 1740
-91.9683 -131.781 1740
-87.8579 -131.857 1741
-83.6946 -131.857 1741
-79.6227 -132.008 1743
-75.4547 -132.008 1743
-71.2866 -132.008 1743
-67.1186 -132.008 1743
-63.095 -132.311 1747
-58.9174 -132.311 1747
-54.8025 -132.463 1749
-50.6201 -132.463 1749
-46.4377 -132.463 1749
-42.4727 -133.144 1758
-38.3124 -133.296 1760
-34.1037 -133.296 1760
-29.9459 -133.523 1763
-25.7884 -133.826 1767
-21.6118 -134.129 1771
-17.3768 -134.129 1771
-13.1418 -134.129 1771
-8.89677 -133.977 1769
-4.66656 -133.977 1769
-0.436344 -133.977 1769
16.6333 -277.725 3667
25.4022 -277.725 3667
34.2457 -278.331 3675
43.3148 -280.148 3699
52.273 -280.754 3707
61.1376 -280.754 3707
70.0021 -280.754 3707
78.8667 -280.754 3707
87.7312 -280.754 3707
96.3873 -280.148 3699
105.233 -280.148 3699
114.078 -280.148 3699
122.924 -280.148 3699
131.484 -279.543 3691
140.31 -279.543 3691
148.813 -278.937 3683
157.621 -278.937 3683
166.428 -278.937 3683
175.235 -278.937 3683
184.042 -278.937 3683
192.849 -278.937 3683
201.218 -278.331 3675
210.006 -278.331 3675
218.794 -278.331 3675
227.087 -277.725 3667
235.856 -277.725 3667
244.625 -277.725 3667
253.394 -277.725 3667
262.163 -277.725 3667
270.932 -277.725 3667
279.014 -277.043 3658
287.761 -277.043 3658
297.238 -277.725 3667
306.007 -277.725 3667
314.776 -277.725 3667
323.545 -277.725 3667
331.498 -277.043 3658
340.246 -277.043 3658
348.993 -277.043 3658
357.741 -277.043 3658
366.488 -277.043 3658
375.235 -277.043 3658
383.983 -277.043 3658
392.73 -277.043 3658
400.599 -276.437 3650
409.328 -276.437 3650
418.056 -276.437 3650
425.849 -275.831 3642
434.558 -275.831 3642
443.267 -275.831 3642
451.976 -275.831 3642
459.8 -275.301 3635
469.394 -275.831 3642
479.154 -276.437 3650
488.951 -277.043 3658
497.699 -277.043 3658
507.692 -277.725 3667
518.715 -278.937 3683
528.668 -279.543 3691
537.494 -279.543 3691
548.688 -280.754 3707
557.553 -280.754 3707
566.417 -280.754 3707
1095.81 -307.413 4059
1105.52 -307.413 4059
1115.22 -307.413 4059
1124.93 -307.413 4059
1134.64 -307.413 4059
1144.34 -307.413 4059
1151.21 -306.656 4049
1158.02 -305.899 4039
1167.68 -305.899 4039
1177.34 -305.899 4039
1187 -305.899 4039
1191.03 -304.46 4020
1194.96 -303.021 4001
1207.24 -303.702 4010
1216.83 -303.702 4010
1229.48 -304.46 4020
1239.09 -304.46 4020
1248.7 -304.46 4020
1258.32 -304.46 4020
1267.93 -304.46 4020
1286.76 -306.656 4049
1309.25 -309.686 4089
1319.03 -309.686 4089
1328.8 -309.686 4089
1789.36 -308.171 4069
1799.09 -308.171 4069
1808.82 -308.171 4069
1814.08 -307.413 4059
1806.26 -304.46 4020
1815.87 -304.46 4020
1808.23 -301.582 3982
1800.41 -298.704 3944
1805.71 -298.022 3935
1815.12 -298.022 3935
1819.89 -297.265 3925
1808.3 -293.857 3880
2457.03 -308.928 4079
2466.79 -308.928 4079
2476.54 -308.928 4079
2461.91 -305.899 4039
2459.95 -304.46 4020
2469.56 -304.46 4020
2426.75 -298.022 3935
2424.4 -296.583 3916
2394.61 -291.812 3853
2403.82 -291.812 3853
2413.04 -291.812 3853
2410.93 -290.449 3835
2403.7 -288.479 3809
2412.81 -288.479 3809
2421.91 -288.479 3809
2425.28 -287.798 3800
2429.24 -287.192 3792
2432.52 -286.51 3783
2441.57 -286.51 3783
2444.78 -285.829 3774
2459.66 -286.51 3783
2474.58 -287.192 3792
2483.65 -287.192 3792
2492.72 -287.192 3792
2495.85 -286.51 3783
2510.85 -287.192 3792
2531.22 -288.479 3809
2540.32 -288.479 3809
2549.43 -288.479 3809
2529.66 -285.223 3766
2538.66 -285.223 3766
2547.67 -285.223 3766
2556.68 -285.223 3766
2565.68 -285.223 3766
2563.06 -283.935 3749
2589.18 -285.829 3774
2598.21 -285.829 3774
2619.67 -287.192 3792
2628.73 -287.192 3792
2637.8 -287.192 3792
2646.87 -287.192 3792
2655.94 -287.192 3792
2658.68 -286.51 3783
2667.73 -286.51 3783
2676.77 -286.51 3783
2692.21 -287.192 3792
2713.39 -288.479 3809
