ply
format ascii 1.0
comment File generated
element vertex 2251
property float x
property float y
property float z
end_header
-1350.29 221.527 3505
-1347.65 222.475 3520
-1339.23 222.475 3520
-1330.82 222.475 3520
-1316.76 221.527 3505
-1305.39 221.022 3497
-1289.24 219.695 3476
-1280.93 219.695 3476
-1269.69 219.189 3468
-1256.31 218.304 3454
-1237.93 216.534 3426
-1229.74 216.534 3426
-1216.55 215.65 3412
-1203.43 214.765 3398
-1187.92 213.437 3377
-1179.85 213.437 3377
-1171.77 213.437 3377
-1161.28 212.995 3370
-1153.22 212.995 3370
-1145.17 212.995 3370
-1119.22 209.645 3317
-1106.6 208.76 3303
-554.814 106.181 1680
-550.797 106.181 1680
-546.779 106.181 1680
-542.762 106.181 1680
-538.103 106.055 1678
-533.772 105.992 1677
-531.342 106.308 1682
-527.319 106.308 1682
-523.297 106.308 1682
-519.275 106.308 1682
-515.253 106.308 1682
-510.623 106.181 1680
-506.605 106.181 1680
-502.588 106.181 1680
-499.164 106.308 1682
-495.142 106.308 1682
-491.12 106.308 1682
-487.098 106.308 1682
-482.501 106.181 1680
-478.484 106.181 1680
-473.901 106.055 1678
-469.049 105.865 1675
-464.488 105.739 1673
-460.487 105.739 1673
-456.214 105.676 1672
-451.675 105.549 1670
-446.877 105.36 1667
-442.891 105.36 1667
-438.378 105.233 1665
-433.614 105.044 1662
-427.83 104.601 1655
-423.872 104.601 1655
-419.153 104.412 1652
-414.7 104.285 1650
-410.257 104.159 1648
-406.316 104.159 1648
-401.643 103.969 1645
-396.5 103.653 1640
-392.339 103.59 1639
-388.419 103.59 1639
-383.796 103.401 1636
-379.42 103.274 1634
-375.053 103.148 1632
-370.923 103.085 1631
-367.023 103.085 1631
-362.677 102.958 1629
-358.561 102.895 1628
-354.233 102.768 1626
-350.344 102.768 1626
-346.456 102.768 1626
-342.146 102.642 1624
-338.055 102.579 1623
-334.174 102.579 1623
-329.682 102.389 1620
-325.808 102.389 1620
-321.537 102.263 1618
-317.668 102.263 1618
-313.798 102.263 1618
-309.929 102.263 1618
-305.871 102.2 1617
-302.004 102.2 1617
-297.769 102.073 1615
-293.543 101.947 1613
-289.506 101.884 1612
-285.651 101.884 1612
-281.797 101.884 1612
-277.597 101.757 1610
-273.577 101.694 1609
-269.729 101.694 1609
-265.551 101.568 1607
-261.546 101.504 1606
-257.705 101.504 1606
-253.865 101.504 1606
-250.024 101.504 1606
-246.184 101.504 1606
-242.494 101.568 1607
-238.651 101.568 1607
-235.101 101.694 1609
-231.253 101.694 1609
-227.406 101.694 1609
-223.697 101.757 1610
-220.257 101.947 1613
-216.399 101.947 1613
-213.069 102.2 1617
-209.591 102.389 1620
-206.225 102.642 1624
-202.341 102.642 1624
-198.702 102.768 1626
-195.413 103.085 1631
-192.217 103.464 1637
-188.303 103.464 1637
-184.388 103.464 1637
-181.356 103.969 1645
-178.285 104.475 1653
-174.332 104.475 1653
-171.616 105.233 1665
-168.641 105.865 1675
-165.324 106.308 1682
-161.302 106.308 1682
-157.747 106.624 1687
-154.442 107.13 1695
-151.01 107.572 1702
-146.94 107.572 1702
-143.373 107.951 1708
-139.534 108.141 1711
-135.838 108.457 1716
-131.735 108.457 1716
-128.077 108.836 1722
-123.959 108.836 1722
-119.842 108.836 1722
-115.724 108.836 1722
-203.289 222.918 3527
-195.684 223.866 3542
-187.214 223.866 3542
-178.744 223.866 3542
-170.274 223.866 3542
-161.804 223.866 3542
-153.334 223.866 3542
-144.25 222.918 3527
-135.816 222.918 3527
-127.382 222.918 3527
-118.948 222.918 3527
-110.733 223.36 3534
-102.716 224.308 3549
-94.2295 224.308 3549
-85.936 224.814 3557
-77.4302 224.814 3557
-68.9243 224.814 3557
-60.2825 224.308 3549
-51.7958 224.308 3549
-43.2237 223.866 3542
-34.7537 223.866 3542
-26.2837 223.866 3542
-17.8137 223.866 3542
-9.34367 223.866 3542
-0.873675 223.866 3542
7.59632 223.866 3542
16.0663 223.866 3542
24.5363 223.866 3542
33.0715 224.308 3549
41.5583 224.308 3549
50.045 224.308 3549
58.4163 223.866 3542
66.8863 223.866 3542
75.5052 224.308 3549
83.9919 224.308 3549
92.4787 224.308 3549
100.965 224.308 3549
109.452 224.308 3549
117.939 224.308 3549
125.108 221.97 3512
134.646 223.866 3542
143.399 224.308 3549
151.886 224.308 3549
160.373 224.308 3549
168.859 224.308 3549
170.85 216.092 3419
255.943 226.268 3580
264.504 226.268 3580
273.065 226.268 3580
281.625 226.268 3580
292.051 227.721 3603
300.667 227.721 3603
309.282 227.721 3603
317.898 227.721 3603
326.514 227.721 3603
335.13 227.721 3603
340.788 225.762 3572
348.645 225.32 3565
353.363 222.918 3527
361.797 222.918 3527
369.497 222.475 3520
377.055 221.97 3512
381.502 219.695 3476
387.347 218.304 3454
395.607 218.304 3454
398.956 215.65 3412
403.774 213.88 3384
407.728 211.731 3350
415.739 211.731 3350
422.105 210.909 3337
428.281 210.024 3323
434.52 209.203 3310
442.435 209.203 3310
449.398 208.76 3303
457.297 208.76 3303
465.195 208.76 3303
473.094 208.76 3303
480.992 208.76 3303
485.19 207.18 3278
491.976 206.738 3271
501.784 207.559 3284
517.862 210.909 3337
525.842 210.909 3337
541.341 213.88 3384
561.935 218.746 3461
571.364 219.189 3468
590.689 223.36 3534
600.496 223.866 3542
616.875 226.773 3588
625.455 226.773 3588
634.035 226.773 3588
642.615 226.773 3588
651.195 226.773 3588
659.775 226.773 3588
668.355 226.773 3588
676.935 226.773 3588
683.986 226.268 3580
692.547 226.268 3580
701.108 226.268 3580
709.669 226.268 3580
718.23 226.268 3580
726.79 226.268 3580
733.708 225.762 3572
742.25 225.762 3572
749.32 225.32 3565
757.845 225.32 3565
766.37 225.32 3565
773.156 224.814 3557
779.904 224.308 3549
788.391 224.308 3549
796.878 224.308 3549
805.364 224.308 3549
815.686 224.814 3557
826.045 225.32 3565
838.082 226.268 3580
846.643 226.268 3580
858.787 227.216 3595
871.244 228.227 3611
881.828 228.733 3619
890.482 228.733 3619
899.136 228.733 3619
907.791 228.733 3619
916.445 228.733 3619
923.054 228.227 3611
939.687 230.186 3642
952.563 231.198 3658
961.31 231.198 3658
970.058 231.198 3658
976.664 230.692 3650
985.393 230.692 3650
996.3 231.198 3658
1005.05 231.198 3658
1013.79 231.198 3658
1025.06 231.766 3667
1033.83 231.766 3667
1042.6 231.766 3667
1051.36 231.766 3667
1060.13 231.766 3667
1068.9 231.766 3667
1077.67 231.766 3667
1083.77 231.198 3658
1092.52 231.198 3658
1103.98 231.766 3667
1112.75 231.766 3667
1121.52 231.766 3667
1127.51 231.198 3658
1136.26 231.198 3658
1145.01 231.198 3658
1153.75 231.198 3658
1162.5 231.198 3658
1171.25 231.198 3658
1179.99 231.198 3658
1188.74 231.198 3658
1197.49 231.198 3658
1206.24 231.198 3658
1214.98 231.198 3658
1223.73 231.198 3658
1232.48 231.198 3658
1244.28 231.766 3667
1253.05 231.766 3667
1261.82 231.766 3667
1270.59 231.766 3667
1276.22 231.198 3658
1284.96 231.198 3658
1293.71 231.198 3658
1299.61 230.692 3650
1305.47 230.186 3642
1314.18 230.186 3642
1328.7 231.198 3658
1337.45 231.198 3658
1346.2 231.198 3658
1358.28 231.766 3667
1367.05 231.766 3667
1375.81 231.766 3667
1384.58 231.766 3667
1396.39 232.272 3675
1408.24 232.778 3683
1417.05 232.778 3683
1425.85 232.778 3683
1434.66 232.778 3683
1443.47 232.778 3683
1442.42 231.198 3658
1442.04 229.744 3635
1447.54 229.238 3627
1453 228.733 3619
1461.65 228.733 3619
1470.31 228.733 3619
1478.96 228.733 3619
1487.62 228.733 3619
1496.27 228.733 3619
1504.93 228.733 3619
1513.58 228.733 3619
1518.87 228.227 3611
1527.5 228.227 3611
1536.14 228.227 3611
1544.77 228.227 3611
1549.97 227.721 3603
1558.58 227.721 3603
1567.2 227.721 3603
1575.81 227.721 3603
1584.43 227.721 3603
1593.05 227.721 3603
1615.89 229.744 3635
1624.58 229.744 3635
1647.65 231.766 3667
1660.03 232.272 3675
1672.45 232.778 3683
1681.26 232.778 3683
1690.07 232.778 3683
1698.88 232.778 3683
1707.68 232.778 3683
1712.76 232.272 3675
1721.55 232.272 3675
1726.57 231.766 3667
1735.34 231.766 3667
1736.02 230.692 3650
1729.93 228.733 3619
1734.74 228.227 3611
1743.38 228.227 3611
1748.13 227.721 3603
1749.43 226.773 3588
1746.74 225.32 3565
1751.33 224.814 3557
1759.84 224.814 3557
1760.89 223.866 3542
1769.36 223.866 3542
1766.78 222.475 3520
1775.2 222.475 3520
1771.96 221.022 3497
1765.56 219.189 3468
1759.53 217.419 3440
1767.76 217.419 3440
1772.37 216.977 3433
1787.84 217.862 3447
1796.08 217.862 3447
1815.32 219.189 3468
1831.5 220.137 3483
1839.83 220.137 3483
1855.59 221.022 3497
1876.21 222.475 3520
1888.37 222.918 3527
1896.81 222.918 3527
1905.24 222.918 3527
1913.68 222.918 3527
1930.29 223.866 3542
1938.76 223.866 3542
1955.47 224.814 3557
1972.26 225.762 3572
1989.67 226.773 3588
1998.25 226.773 3588
2010.75 227.216 3595
2037.32 229.238 3627
2082.1 233.283 3691
2090.92 233.283 3691
2108.85 234.294 3707
2117.72 234.294 3707
2126.58 234.294 3707
2135.44 234.294 3707
2139.68 233.789 3699
2158.4 234.863 3716
2167.29 234.863 3716
2176.17 234.863 3716
2189.76 235.369 3724
2198.67 235.369 3724
2207.57 235.369 3724
2216.48 235.369 3724
2225.38 235.369 3724
2234.29 235.369 3724
2228.14 233.789 3699
2236.98 233.789 3699
2245.83 233.789 3699
2254.67 233.789 3699
2273.92 234.863 3716
2282.81 234.863 3716
2291.69 234.863 3716
2300.58 234.863 3716
2309.46 234.863 3716
2318.35 234.863 3716
2321.6 234.294 3707
2330.47 234.294 3707
2334.28 233.789 3699
2343.13 233.789 3699
2351.97 233.789 3699
2350.61 232.778 3683
2359.41 232.778 3683
2373.36 233.283 3691
2387.35 233.789 3699
2396.2 233.789 3699
2416.1 234.863 3716
2424.98 234.863 3716
2433.87 234.863 3716
2442.76 234.863 3716
2451.64 234.863 3716
2449.27 233.789 3699
2458.12 233.789 3699
2466.96 233.789 3699
2470.45 233.283 3691
2479.28 233.283 3691
2488.11 233.283 3691
2502.34 233.789 3699
2511.19 233.789 3699
2525.49 234.294 3707
2551.44 235.875 3732
2560.37 235.875 3732
2569.29 235.875 3732
2578.21 235.875 3732
2587.14 235.875 3732
2596.06 235.875 3732
2587.54 234.294 3707
1984.05 177.222 2804
1990.76 177.222 2804
1997.46 177.222 2804
1994.16 176.337 2790
1990.79 175.452 2776
1997.43 175.452 2776
1993.96 174.567 2762
2000.57 174.567 2762
2013.71 175.136 2771
2034.19 176.337 2790
2043.79 176.59 2794
2050.47 176.59 2794
2060.83 176.906 2799
2074.91 177.538 2809
2084.59 177.791 2813
2091.32 177.791 2813
2101.78 178.107 2818
2112.26 178.423 2823
2119.01 178.423 2823
2125.76 178.423 2823
2136.29 178.739 2828
2146.08 178.992 2832
2160.45 179.624 2842
2167.25 179.624 2842
2174.05 179.624 2842
-2330.03 204.143 3112
-2322.59 204.143 3112
-2315.15 204.143 3112
-2307.71 204.143 3112
-2304.7 204.537 3118
-2306.08 205.324 3130
-2298.6 205.324 3130
-2295.51 205.718 3136
-2292.38 206.111 3142
-2289.23 206.505 3148
-2281.71 206.505 3148
-2287.18 207.686 3166
-2283.93 208.079 3172
-2280.65 208.473 3178
-2273.05 208.473 3178
-2269.73 208.866 3184
-2262.12 208.866 3184
-2254.5 208.866 3184
-2246.89 208.866 3184
-2235.05 208.473 3178
-2231.66 208.866 3184
-2224.05 208.866 3184
-2216.43 208.866 3184
-2212.98 209.26 3190
-2205.35 209.26 3190
-2210.13 210.441 3208
-2202.45 210.441 3208
-2203.68 211.294 3221
-2195.97 211.294 3221
-2188.27 211.294 3221
-2180.57 211.294 3221
-2176.92 211.687 3227
-2186 213.327 3252
-2182.25 213.721 3258
-2174.46 213.721 3258
-2171.32 214.18 3265
-2176.1 215.426 3284
-2168.25 215.426 3284
-2160.4 215.426 3284
-2152.54 215.426 3284
-2140.77 215.033 3278
-2140.74 215.82 3290
-2132.87 215.82 3290
-2150.84 218.444 3330
-2147.38 218.903 3337
-2143.25 219.297 3343
-2135.26 219.297 3343
-2127.26 219.297 3343
-2123.71 219.756 3350
-2115.69 219.756 3350
-2107.68 219.756 3350
-2095.29 219.297 3343
-2087.29 219.297 3343
-2079.3 219.297 3343
-2067.59 218.903 3337
-2055.29 218.444 3330
-2035.03 217.132 3310
-2035.07 217.985 3323
-2027.13 217.985 3323
-2027.69 218.903 3337
-2027.58 219.756 3350
-2019.56 219.756 3350
-2011.55 219.756 3350
-2023.88 221.986 3384
-2032.46 223.823 3412
-2024.3 223.823 3412
-2016.15 223.823 3412
-1983.27 221.068 3370
-1971.11 220.609 3363
-1963.07 220.609 3363
-1951.54 220.215 3357
-1943.51 220.215 3357
-1942.98 221.068 3370
-1934.92 221.068 3370
-1926.86 221.068 3370
-1918.8 221.068 3370
-1910.74 221.068 3370
-1902.68 221.068 3370
-1872.14 218.444 3330
-1864.17 218.444 3330
-1856.21 218.444 3330
-1848.25 218.444 3330
-1840.28 218.444 3330
-1832.32 218.444 3330
-1817.24 217.591 3317
-1801.67 216.673 3303
-1793.77 216.673 3303
-1782.63 216.279 3297
-1785.51 217.591 3317
-1780.79 217.985 3323
-1776.58 218.444 3330
-1768.62 218.444 3330
-1760.65 218.444 3330
-1759.53 219.297 3343
-1751.54 219.297 3343
-1743.54 219.297 3343
-1742.82 220.215 3357
-1741.51 221.068 3370
-1733.45 221.068 3370
-1725.39 221.068 3370
-1728.03 222.445 3391
-1719.93 222.445 3391
-1711.82 222.445 3391
-1703.71 222.445 3391
-1699.1 222.905 3398
-1704.91 224.741 3426
-1710.58 226.578 3454
-1702.32 226.578 3454
-1697.5 227.037 3461
-1689.22 227.037 3461
-1680.94 227.037 3461
-1672.67 227.037 3461
-1654.29 225.66 3440
-1646.07 225.66 3440
-1644.5 226.578 3454
-1636.24 226.578 3454
-1631.28 227.037 3461
-1626.29 227.497 3468
-1618 227.497 3468
-1609.7 227.497 3468
-1598.18 227.037 3461
-1593.12 227.497 3468
-1584.83 227.497 3468
-1576.53 227.497 3468
-1571.86 228.021 3476
-1563.55 228.021 3476
-1564.63 229.399 3497
-1556.27 229.399 3497
-1547.9 229.399 3497
-1526.77 227.497 3468
-1518.48 227.497 3468
-1507.14 227.037 3461
-1498.86 227.037 3461
-1497.05 228.021 3476
-1491.73 228.48 3483
-1483.4 228.48 3483
-1475.08 228.48 3483
-1463.8 228.021 3476
-1461.35 228.94 3490
-1453 228.94 3490
-1450.87 229.924 3505
-1448.66 230.908 3520
-1440.24 230.908 3520
-1431.82 230.908 3520
-1423.41 230.908 3520
-1414.99 230.908 3520
-1406.57 230.908 3520
-1398.15 230.908 3520
-1386.58 230.383 3512
-1378.18 230.383 3512
-1375.63 231.367 3527
-1367.2 231.367 3527
-1358.76 231.367 3527
-1353.01 231.826 3534
-1344.56 231.826 3534
-1336.11 231.826 3534
-1325.03 231.367 3527
-1316.59 231.367 3527
-1297.03 229.399 3497
-1288.67 229.399 3497
-1275.18 228.48 3483
-1264.31 228.021 3476
-1248.05 226.578 3454
-1239.79 226.578 3454
-1221.54 224.741 3426
-1208.39 223.823 3412
-1195.31 222.905 3398
-1187.18 222.905 3398
-1179.06 222.905 3398
-1166.11 221.986 3384
-1153.22 221.068 3370
-1145.17 221.068 3370
-1132.72 220.215 3357
-1102.25 215.82 3290
-554.814 110.206 1680
-550.797 110.206 1680
-546.779 110.206 1680
-541.793 110.009 1677
-537.782 110.009 1677
-533.136 109.878 1675
-531.342 110.337 1682
-527.319 110.337 1682
-523.297 110.337 1682
-519.275 110.337 1682
-515.253 110.337 1682
-510.015 110.075 1678
-506.002 110.075 1678
-501.99 110.075 1678
-498.571 110.206 1680
-494.553 110.206 1680
-490.536 110.206 1680
-485.939 110.075 1678
-481.927 110.075 1678
-477.914 110.075 1678
-473.901 110.075 1678
-468.489 109.747 1673
-464.488 109.747 1673
-460.487 109.747 1673
-456.214 109.681 1672
-451.675 109.55 1670
-446.877 109.353 1667
-442.891 109.353 1667
-438.378 109.222 1665
-433.614 109.025 1662
-427.83 108.566 1655
-423.872 108.566 1655
-419.153 108.369 1652
-414.7 108.238 1650
-410.257 108.107 1648
-406.316 108.107 1648
-401.643 107.91 1645
-396.5 107.582 1640
-391.86 107.385 1637
-387.946 107.385 1637
-383.796 107.32 1636
-379.42 107.188 1634
-375.053 107.057 1632
-370.468 106.86 1629
-366.572 106.86 1629
-362.677 106.86 1629
-358.561 106.795 1628
-354.668 106.795 1628
-350.775 106.795 1628
-346.456 106.664 1626
-342.146 106.532 1624
-338.055 106.467 1623
-334.174 106.467 1623
-329.682 106.27 1620
-325.808 106.27 1620
-321.537 106.139 1618
-317.668 106.139 1618
-313.798 106.139 1618
-309.929 106.139 1618
-306.06 106.139 1618
-302.191 106.139 1618
-298.138 106.073 1617
-293.907 105.942 1615
-289.686 105.811 1613
-285.829 105.811 1613
-281.797 105.745 1612
-277.942 105.745 1612
-273.747 105.614 1610
-269.897 105.614 1610
-265.551 105.417 1607
-261.708 105.417 1607
-257.866 105.417 1607
-253.865 105.352 1606
-250.491 105.548 1609
-246.644 105.548 1609
-242.796 105.548 1609
-239.097 105.614 1610
-235.539 105.745 1612
-231.684 105.745 1612
-227.83 105.745 1612
-224.114 105.811 1613
-220.803 106.073 1617
-216.936 106.073 1617
-213.465 106.27 1620
-210.108 106.532 1624
-206.733 106.795 1628
-202.84 106.795 1628
-199.313 106.992 1631
-196.132 107.385 1637
-192.57 107.582 1640
-188.648 107.582 1640
-185.289 107.91 1645
-182.127 108.369 1652
-179.363 109.091 1663
-175.387 109.091 1663
-172.131 109.55 1670
-169.145 110.206 1680
-165.815 110.665 1687
-161.781 110.665 1687
-157.934 110.796 1689
-154.442 111.19 1695
-151.187 111.78 1704
-147.112 111.78 1704
-143.373 112.043 1708
-139.534 112.239 1711
-135.996 112.699 1718
-131.888 112.699 1718
-128.077 112.961 1722
-123.959 112.961 1722
-119.842 112.961 1722
-115.724 112.961 1722
-205.883 234.319 3572
-197.783 234.844 3580
-189.222 234.844 3580
-180.661 234.844 3580
-172.1 234.844 3580
-163.539 234.844 3580
-154.979 234.844 3580
-146.091 234.319 3572
-137.549 234.319 3572
-129.007 234.319 3572
-120.229 233.86 3565
-111.704 233.86 3565
-103.845 235.368 3588
-95.265 235.368 3588
-86.685 235.368 3588
-78.105 235.368 3588
-69.525 235.368 3588
-60.945 235.368 3588
-52.365 235.368 3588
-43.5897 234.319 3572
-35.048 234.319 3572
-26.5656 234.844 3580
-18.0048 234.844 3580
-9.44391 234.844 3580
-0.883048 234.844 3580
7.67782 234.844 3580
16.2387 234.844 3580
24.7995 234.844 3580
33.2859 234.319 3572
41.8276 234.319 3572
50.3693 234.319 3572
58.9111 234.319 3572
67.6039 234.844 3580
76.3349 235.368 3588
85.4593 236.877 3611
94.0943 236.877 3611
102.729 236.877 3611
110.871 235.828 3595
119.468 235.828 3595
128.064 235.828 3595
136.661 235.828 3595
143.399 232.81 3549
151.886 232.81 3549
160.373 232.81 3549
168.859 232.81 3549
271.523 241.075 3675
280.311 241.075 3675
289.099 241.075 3675
295.212 238.911 3642
303.921 238.911 3642
312.63 238.911 3642
320.722 238.452 3635
329.414 238.452 3635
338.106 238.452 3635
345.272 237.402 3619
350.112 234.844 3580
357.17 233.86 3565
365.695 233.86 3565
373.381 233.335 3557
378.666 231.367 3527
386.332 230.908 3520
391.385 228.94 3490
399.73 228.94 3490
403.867 226.578 3454
407.115 223.823 3412
410.162 221.068 3370
418.221 221.068 3370
423.75 219.756 3350
429.183 218.444 3330
434.52 217.132 3310
442.435 217.132 3310
449.398 216.673 3303
457.297 216.673 3303
465.195 216.673 3303
473.094 216.673 3303
480.118 216.279 3297
485.19 215.033 3278
493.931 215.426 3284
503.771 216.279 3297
517.862 218.903 3337
525.842 218.903 3337
546.94 224.282 3419
563.071 227.497 3468
571.364 227.497 3468
592.026 232.351 3542
609.481 235.828 3595
620.829 236.877 3611
629.464 236.877 3611
640.926 237.927 3627
649.6 237.927 3627
658.273 237.927 3627
666.946 237.927 3627
675.619 237.927 3627
678.255 235.828 3595
685.515 235.368 3588
696.996 236.352 3603
705.612 236.352 3603
714.228 236.352 3603
722.844 236.352 3603
731.46 236.352 3603
740.076 236.352 3603
747.029 235.828 3595
752.473 234.844 3580
761.034 234.844 3580
769.595 234.844 3580
776.417 234.319 3572
784.958 234.319 3572
793.5 234.319 3572
798.674 233.335 3557
810.584 234.319 3572
820.96 234.844 3580
829.521 234.844 3580
845.339 236.877 3611
853.974 236.877 3611
866.431 237.927 3627
878.723 238.911 3642
889.382 239.436 3650
898.11 239.436 3650
906.838 239.436 3650
915.567 239.436 3650
930.626 241.075 3675
939.414 241.075 3675
950.266 241.6 3683
959.073 241.6 3683
967.88 241.6 3683
976.687 241.6 3683
983.354 241.075 3675
992.142 241.075 3675
1000.93 241.075 3675
1009.72 241.075 3675
1018.51 241.075 3675
1027.29 241.075 3675
1036.08 241.075 3675
1044.87 241.075 3675
1053.66 241.075 3675
1062.45 241.075 3675
1071.23 241.075 3675
1077.67 240.551 3667
1086.44 240.551 3667
1095.21 240.551 3667
1103.98 240.551 3667
1112.75 240.551 3667
1121.52 240.551 3667
1130.28 240.551 3667
1136.26 239.96 3658
1145.01 239.96 3658
1153.75 239.96 3658
1162.5 239.96 3658
1174.13 240.551 3667
1182.9 240.551 3667
1191.67 240.551 3667
1200.44 240.551 3667
1209.2 240.551 3667
1217.97 240.551 3667
1226.74 240.551 3667
1243.6 242.125 3691
1252.42 242.125 3691
1261.25 242.125 3691
1270.08 242.125 3691
1278.9 242.125 3691
1279.36 240.551 3667
1288.12 240.551 3667
1293.71 239.96 3658
1299.61 239.436 3650
1311.21 239.96 3658
1319.95 239.96 3658
1328.7 239.96 3658
1337.45 239.96 3658
1352.45 241.075 3675
1361.24 241.075 3675
1370.03 241.075 3675
1378.82 241.075 3675
1390.62 241.6 3683
1402.47 242.125 3691
1411.3 242.125 3691
1420.12 242.125 3691
1428.95 242.125 3691
1437.78 242.125 3691
1446.6 242.125 3691
1445.97 240.551 3667
1447.99 239.436 3650
1453.53 238.911 3642
1459.42 238.452 3635
1468.12 238.452 3635
1473.56 237.927 3627
1478.96 237.402 3619
1487.62 237.402 3619
1499.58 237.927 3627
1508.25 237.927 3627
1516.93 237.927 3627
1525.6 237.927 3627
1534.27 237.927 3627
1542.94 237.927 3627
1551.62 237.927 3627
1556.85 237.402 3619
1565.5 237.402 3619
1574.16 237.402 3619
1579.31 236.877 3611
1587.95 236.877 3611
1603.66 237.927 3627
1615.89 238.452 3635
1624.58 238.452 3635
1651.24 241.075 3675
1667.26 242.125 3691
1676.09 242.125 3691
1684.91 242.125 3691
1693.74 242.125 3691
1702.57 242.125 3691
1711.39 242.125 3691
1720.22 242.125 3691
1729.04 242.125 3691
1734.1 241.6 3683
1742.91 241.6 3683
1736.02 239.436 3650
1737.58 238.452 3635
1734.74 236.877 3611
1743.38 236.877 3611
1748.13 236.352 3603
1749.43 235.368 3588
1746.74 233.86 3565
1751.33 233.335 3557
1759.84 233.335 3557
1760.89 232.351 3542
1769.36 232.351 3542
1759.25 229.924 3505
1767.64 229.924 3505
1768.42 228.94 3490
1765.56 227.497 3468
1755.95 225.201 3433
1764.16 225.201 3433
1765.14 224.282 3419
1780.58 225.201 3433
1796.08 226.119 3447
1811.66 227.037 3461
1831.5 228.48 3483
1839.83 228.48 3483
1855.59 229.399 3497
1868.21 229.924 3505
1888.37 231.367 3527
1896.81 231.367 3527
1905.24 231.367 3527
1913.68 231.367 3527
1922.11 231.367 3527
1930.54 231.367 3527
1955.47 233.335 3557
1981.09 235.368 3588
1993.56 235.828 3595
2002.15 235.828 3595
2024.17 237.402 3619
2045.75 238.911 3642
2091.12 243.175 3707
2099.99 243.175 3707
2137.3 246.455 3757
2146.28 246.455 3757
2155.26 246.455 3757
2159.64 245.93 3749
2163.4 245.339 3740
2187.44 247.045 3766
2211.61 248.751 3792
2220.68 248.751 3792
2229.75 248.751 3792
2228.19 247.57 3774
2237.21 247.57 3774
2246.24 247.57 3774
2255.26 247.57 3774
2264.29 247.57 3774
2258.25 245.93 3749
2267.22 245.93 3749
2270.72 245.339 3740
2279.66 245.339 3740
2299.01 246.455 3757
2307.99 246.455 3757
2316.98 246.455 3757
2325.96 246.455 3757
2334.95 246.455 3757
2343.93 246.455 3757
2352.91 246.455 3757
2361.9 246.455 3757
2370.88 246.455 3757
2379.87 246.455 3757
2388.85 246.455 3757
2371.67 243.765 3716
2385.68 244.29 3724
2394.58 244.29 3724
2413.82 245.339 3740
2422.76 245.339 3740
2448.61 247.045 3766
2457.61 247.045 3766
2466.62 247.045 3766
2475.62 247.045 3766
2484.63 247.045 3766
2493.64 247.045 3766
2502.64 247.045 3766
2511.65 247.045 3766
2492.54 244.29 3724
2501.45 244.29 3724
2532.6 246.455 3757
2547.67 247.045 3766
2556.68 247.045 3766
2577.26 248.16 3783
2597.93 249.275 3800
2619.37 250.456 3818
2628.5 250.456 3818
2661.81 252.752 3853
2671.02 252.752 3853
2680.23 252.752 3853
2676.88 251.571 3835
1967.07 182.365 2780
1973.72 182.365 2780
1980.37 182.365 2780
1977.72 181.512 2767
1977.17 180.856 2757
1983.76 180.856 2757
1980.97 180.003 2744
1987.53 180.003 2744
2007.17 181.184 2762
2026.9 182.365 2780
2043.79 183.283 2794
2050.47 183.283 2794
2057.15 183.283 2794
2077.87 184.529 2813
2088.3 184.857 2818
2095.04 184.857 2818
2101.78 184.857 2818
2112.26 185.185 2823
2119.01 185.185 2823
2125.76 185.185 2823
2132.51 185.185 2823
2139.26 185.185 2823
2160.45 186.432 2842
2167.25 186.432 2842
2174.05 186.432 2842
-2330.03 211.598 3112
-2322.59 211.598 3112
-2315.15 211.598 3112
-2307.71 211.598 3112
-2304.7 212.006 3118
-2306.08 212.822 3130
-2298.6 212.822 3130
-2291.11 212.822 3130
-2292.38 213.638 3142
-2289.23 214.046 3148
-2281.71 214.046 3148
-2278.51 214.454 3154
-2279.61 215.27 3166
-2276.35 215.678 3172
-2268.76 215.678 3172
-2261.18 215.678 3172
-2257.85 216.086 3178
-2250.25 216.086 3178
-2242.65 216.086 3178
-2235.05 216.086 3178
-2227.46 216.086 3178
-2224.05 216.494 3184
-2216.43 216.494 3184
-2208.82 216.494 3184
-2205.35 216.902 3190
-2210.13 218.126 3208
-2202.45 218.126 3208
-2203.68 219.01 3221
-2195.97 219.01 3221
-2188.27 219.01 3221
-2180.57 219.01 3221
-2176.92 219.418 3227
-2186 221.117 3252
-2182.25 221.525 3258
-2174.46 221.525 3258
-2171.32 222.001 3265
-2176.1 223.293 3284
-2168.25 223.293 3284
-2160.4 223.293 3284
-2152.54 223.293 3284
-2140.77 222.885 3278
-2140.74 223.701 3290
-2132.87 223.701 3290
-2150.84 226.421 3330
-2147.38 226.897 3337
-2143.25 227.305 3343
-2135.26 227.305 3343
-2127.26 227.305 3343
-2123.71 227.781 3350
-2115.69 227.781 3350
-2107.68 227.781 3350
-2095.29 227.305 3343
-2087.29 227.305 3343
-2079.3 227.305 3343
-2067.59 226.897 3337
-2055.29 226.421 3330
-2035.03 225.061 3310
-2035.07 225.945 3323
-2027.13 225.945 3323
-2027.69 226.897 3337
-2027.58 227.781 3350
-2019.56 227.781 3350
-2011.55 227.781 3350
-2023.88 230.093 3384
-2032.46 231.996 3412
-2024.3 231.996 3412
-2016.15 231.996 3412
-1983.27 229.141 3370
-1971.11 228.665 3363
-1963.07 228.665 3363
-1951.54 228.257 3357
-1943.51 228.257 3357
-1942.98 229.141 3370
-1934.92 229.141 3370
-1926.86 229.141 3370
-1918.8 229.141 3370
-1910.74 229.141 3370
-1902.68 229.141 3370
-1872.14 226.421 3330
-1864.17 226.421 3330
-1856.21 226.421 3330
-1848.25 226.421 3330
-1840.28 226.421 3330
-1832.32 226.421 3330
-1817.24 225.537 3317
-1801.67 224.585 3303
-1793.77 224.585 3303
-1782.63 224.177 3297
-1821.57 230.093 3384
-1828.49 231.996 3412
-1820.33 231.996 3412
-1815.89 232.472 3419
-1807.71 232.472 3419
-1799.53 232.472 3419
-1791.36 232.472 3419
-1783.18 232.472 3419
-1775.01 232.472 3419
-1770.45 232.948 3426
-1762.26 232.948 3426
-1754.06 232.948 3426
-1745.87 232.948 3426
-1741.23 233.424 3433
-1733.02 233.424 3433
-1724.81 233.424 3433
-1716.6 233.424 3433
-1715.36 234.376 3447
-1721.48 236.348 3476
-1713.16 236.348 3476
-1704.85 236.348 3476
-1696.54 236.348 3476
-1688.23 236.348 3476
-1672.67 235.328 3461
-1661.02 234.852 3454
-1652.76 234.852 3454
-1644.5 234.852 3454
-1636.24 234.852 3454
-1634.58 235.804 3468
-1630.04 236.348 3476
-1621.73 236.348 3476
-1613.42 236.348 3476
-1611.57 237.3 3490
-1603.23 237.3 3490
-1594.88 237.3 3490
-1586.53 237.3 3490
-1581.35 237.776 3497
-1583.34 239.34 3520
-1574.92 239.34 3520
-1566.5 239.34 3520
-1558.08 239.34 3520
-1546.15 238.796 3512
-1537.75 238.796 3512
-1522.82 237.776 3497
-1514.45 237.776 3497
-1506.09 237.776 3497
-1497.73 237.776 3497
-1489.37 237.776 3497
-1481.01 237.776 3497
-1472.64 237.776 3497
-1467.63 238.32 3505
-1459.25 238.32 3505
-1459.97 239.816 3527
-1454.42 240.292 3534
-1445.97 240.292 3534
-1437.52 240.292 3534
-1429.07 240.292 3534
-1423.83 240.836 3542
-1415.36 240.836 3542
-1406.89 240.836 3542
-1398.42 240.836 3542
-1389.95 240.836 3542
-1381.48 240.836 3542
-1373.01 240.836 3542
-1373.4 242.4 3565
-1370.62 243.42 3580
-1362.06 243.42 3580
-1353.5 243.42 3580
-1339.3 242.4 3565
-1322.19 240.836 3542
-1310.76 240.292 3534
-1302.3 240.292 3534
-1291.29 239.816 3527
-1277.4 238.796 3512
-1261.05 237.3 3490
-1252.71 237.3 3490
-1239.37 236.348 3476
-1218.31 233.9 3440
-1210.08 233.9 3440
-1201.86 233.9 3440
-1193.63 233.9 3440
-1173.34 231.521 3405
-1165.2 231.521 3405
-1157.06 231.521 3405
-1132.72 228.257 3357
-1102.25 223.701 3290
-554.84 113.414 1668
-554.814 114.23 1680
-550.797 114.23 1680
-546.779 114.23 1680
-541.793 114.026 1677
-537.782 114.026 1677
-533.136 113.89 1675
-531.342 114.366 1682
-527.319 114.366 1682
-523.297 114.366 1682
-519.275 114.366 1682
-515.253 114.366 1682
-510.015 114.094 1678
-506.002 114.094 1678
-501.99 114.094 1678
-498.571 114.23 1680
-494.553 114.23 1680
-490.536 114.23 1680
-485.939 114.094 1678
-481.927 114.094 1678
-477.914 114.094 1678
-473.901 114.094 1678
-468.489 113.754 1673
-464.488 113.754 1673
-460.487 113.754 1673
-456.214 113.686 1672
-451.675 113.55 1670
-446.877 113.346 1667
-442.891 113.346 1667
-438.378 113.21 1665
-433.614 113.006 1662
-427.83 112.531 1655
-423.872 112.531 1655
-419.153 112.327 1652
-414.7 112.191 1650
-410.257 112.055 1648
-406.316 112.055 1648
-401.643 111.851 1645
-396.5 111.511 1640
-391.86 111.307 1637
-387.946 111.307 1637
-383.796 111.239 1636
-379.42 111.103 1634
-375.053 110.967 1632
-370.468 110.763 1629
-366.572 110.763 1629
-362.677 110.763 1629
-358.561 110.695 1628
-354.668 110.695 1628
-350.775 110.695 1628
-346.456 110.559 1626
-342.568 110.559 1626
-338.055 110.355 1623
-334.174 110.355 1623
-329.886 110.219 1621
-325.808 110.151 1620
-321.537 110.015 1618
-318.06 110.151 1620
-314.186 110.151 1620
-310.312 110.151 1620
-306.06 110.015 1618
-302.191 110.015 1618
-298.138 109.947 1617
-293.907 109.811 1615
-290.045 109.811 1615
-286.183 109.811 1615
-281.971 109.675 1613
-277.942 109.607 1612
-273.747 109.471 1610
-269.897 109.471 1610
-265.551 109.267 1607
-261.708 109.267 1607
-257.866 109.267 1607
-254.339 109.403 1609
-250.491 109.403 1609
-246.644 109.403 1609
-242.947 109.471 1610
-239.394 109.607 1612
-235.685 109.675 1613
-231.828 109.675 1613
-228.254 109.811 1615
-224.67 109.947 1617
-221.213 110.151 1620
-217.339 110.151 1620
-213.992 110.423 1624
-210.626 110.695 1628
-207.241 110.967 1632
-203.338 110.967 1632
-199.924 111.239 1636
-196.491 111.511 1640
-193.157 111.851 1645
-189.223 111.851 1645
-186.078 112.327 1652
-182.679 112.667 1657
-179.795 113.346 1667
-175.808 113.346 1667
-172.441 113.754 1673
-169.346 114.366 1682
-165.815 114.706 1687
-161.781 114.706 1687
-158.028 114.91 1690
-154.442 115.25 1695
-151.365 115.998 1706
-147.285 115.998 1706
-143.625 116.338 1711
-139.86 116.61 1715
-135.996 116.814 1718
-131.888 116.814 1718
-128.077 117.086 1722
-123.959 117.086 1722
-119.842 117.086 1722
-115.724 117.086 1722
-208.131 245.527 3611
-199.496 245.527 3611
-190.861 245.527 3611
-182.226 245.527 3611
-173.206 244.983 3603
-164.59 244.983 3603
-155.974 244.983 3603
-147.358 244.983 3603
-138.435 244.439 3595
-129.838 244.439 3595
-121.005 243.963 3588
-112.425 243.963 3588
-104.742 246.071 3619
-96.0881 246.071 3619
-87.4339 246.071 3619
-78.7798 246.071 3619
-70.1257 246.071 3619
-61.4715 246.071 3619
-52.8174 246.071 3619
-44.1633 246.071 3619
-35.5092 246.071 3619
-26.9144 246.615 3627
-18.2412 246.615 3627
-9.5679 246.615 3627
-0.894641 246.615 3627
7.76146 246.071 3619
16.4156 246.071 3619
25.0697 246.071 3619
33.435 243.963 3588
42.015 243.963 3588
50.8065 244.983 3603
59.4223 244.983 3603
68.1893 245.527 3611
76.9945 246.071 3619
86.9739 249.879 3675
95.7619 249.879 3675
104.55 249.879 3675
113.831 250.967 3691
122.658 250.967 3691
131.484 250.967 3691
140.31 250.967 3691
143.399 241.312 3549
151.886 241.312 3549
160.373 241.312 3549
168.859 241.312 3549
271.523 249.879 3675
280.311 249.879 3675
289.099 249.879 3675
295.212 247.635 3642
303.921 247.635 3642
312.63 247.635 3642
320.722 247.159 3635
331.498 248.723 3658
340.246 248.723 3658
348.993 248.723 3658
354.709 246.615 3627
361.779 245.527 3611
370.414 245.527 3611
375.795 243.42 3580
382.745 242.4 3565
388.746 240.836 3542
397.216 240.836 3542
403.166 239.34 3520
408.076 237.3 3490
410.456 233.9 3440
415.274 231.996 3412
423.433 231.996 3412
425.394 228.665 3363
430.085 226.897 3337
434.52 225.061 3310
442.435 225.061 3310
450.351 225.061 3310
458.266 225.061 3310
466.181 225.061 3310
474.096 225.061 3310
480.118 224.177 3297
486.966 223.701 3290
495.887 224.177 3297
507.744 225.945 3323
522.984 229.141 3370
531.042 229.141 3370
550.299 233.9 3440
566.643 237.3 3490
574.989 237.3 3490
594.533 241.856 3557
612.194 245.527 3611
624.955 247.159 3635
633.648 247.159 3635
646.404 248.723 3658
655.152 248.723 3658
663.899 248.723 3658
672.646 248.723 3658
681.394 248.723 3658
687.123 247.635 3642
695.832 247.635 3642
706.088 248.179 3650
714.817 248.179 3650
723.545 248.179 3650
732.273 248.179 3650
741.001 248.179 3650
749.73 248.179 3650
756.796 247.635 3642
765.505 247.635 3642
774.214 247.635 3642
782.923 247.635 3642
790.111 247.159 3635
793.529 245.527 3611
805.718 246.615 3627
814.391 246.615 3627
826.469 247.635 3642
835.178 247.635 3642
843.887 247.635 3642
852.596 247.635 3642
867.217 249.335 3667
881.72 250.967 3691
890.546 250.967 3691
901.321 251.511 3699
910.167 251.511 3699
919.012 251.511 3699
925.851 250.967 3691
936.703 251.511 3699
945.549 251.511 3699
958.78 252.667 3716
967.666 252.667 3716
976.552 252.667 3716
985.439 252.667 3716
987.635 250.967 3691
996.461 250.967 3691
1005.29 250.967 3691
1014.11 250.967 3691
1020.72 250.423 3683
1029.53 250.423 3683
1038.34 250.423 3683
1047.14 250.423 3683
1055.95 250.423 3683
1062.45 249.879 3675
1071.23 249.879 3675
1080.02 249.879 3675
1088.81 249.879 3675
1097.6 249.879 3675
1106.39 249.879 3675
1115.17 249.879 3675
1123.96 249.879 3675
1132.75 249.879 3675
1141.54 249.879 3675
1150.33 249.879 3675
1156.59 249.335 3667
1167.9 249.879 3675
1176.69 249.879 3675
1190.64 250.967 3691
1199.47 250.967 3691
1208.29 250.967 3691
1217.12 250.967 3691
1225.95 250.967 3691
1234.77 250.967 3691
1246.29 251.511 3699
1257.85 252.055 3707
1266.72 252.055 3707
1275.58 252.055 3707
1284.45 252.055 3707
1290.52 251.511 3699
1299.37 251.511 3699
1308.21 251.511 3699
1314.21 250.967 3691
1320.17 250.423 3683
1331.86 250.967 3691
1340.69 250.967 3691
1349.51 250.967 3691
1364.23 252.055 3707
1373.09 252.055 3707
1381.96 252.055 3707
1390.82 252.055 3707
1399.69 252.055 3707
1408.55 252.055 3707
1417.42 252.055 3707
1426.28 252.055 3707
1435.14 252.055 3707
1444.01 252.055 3707
1452.87 252.055 3707
1452.27 250.423 3683
1457.91 249.879 3675
1456.72 248.179 3650
1465.45 248.179 3650
1474.18 248.179 3650
1482.9 248.179 3650
1491.63 248.179 3650
1500.36 248.179 3650
1509.09 248.179 3650
1517.82 248.179 3650
1526.54 248.179 3650
1531.91 247.635 3642
1544 248.179 3650
1552.73 248.179 3650
1564.88 248.723 3658
1573.63 248.723 3658
1582.37 248.723 3658
1591.12 248.723 3658
1596.37 248.179 3650
1598.5 247.159 3635
1607.19 247.159 3635
1615.89 247.159 3635
1646.03 250.423 3683
1665.62 252.055 3707
1678.55 252.667 3716
1687.44 252.667 3716
1696.33 252.667 3716
1705.21 252.667 3716
1714.1 252.667 3716
1722.98 252.667 3716
1727.67 252.055 3707
1736.54 252.055 3707
1737.87 250.967 3691
1746.7 250.967 3691
1751.72 250.423 3683
1744.75 248.179 3650
1734.74 245.527 3611
1743.38 245.527 3611
1748.13 244.983 3603
1749.43 243.963 3588
1746.74 242.4 3565
1755.27 242.4 3565
1763.79 242.4 3565
1764.37 241.312 3549
1772.85 241.312 3549
1766.78 239.34 3520
1775.2 239.34 3520
1771.96 237.776 3497
1765.56 235.804 3468
1763.11 234.376 3447
1771.36 234.376 3447
1768.76 232.948 3426
1780.58 233.424 3433
1796.08 234.376 3447
1811.66 235.328 3461
1831.5 236.824 3483
1839.83 236.824 3483
1855.59 237.776 3497
1871.94 238.796 3512
1892.12 240.292 3534
1900.57 240.292 3534
1909.02 240.292 3534
1917.47 240.292 3534
1925.93 240.292 3534
1934.38 240.292 3534
1963.72 242.876 3572
1989.38 244.983 3603
2006.86 246.071 3619
2015.52 246.071 3619
2037.04 247.635 3642
2073.27 250.967 3691
2119.33 255.454 3757
2128.31 255.454 3757
2157.21 257.834 3792
2166.27 257.834 3792
2175.34 257.834 3792
2184.41 257.834 3792
2198.1 258.378 3800
2232.75 261.37 3844
2241.94 261.37 3844
2251.13 261.37 3844
2260.33 261.37 3844
2254.17 259.602 3818
2263.3 259.602 3818
2272.43 259.602 3818
2281.56 259.602 3818
2290.69 259.602 3818
2273.31 256.61 3774
2282.34 256.61 3774
2286.51 256.066 3766
2295.51 256.066 3766
2314.92 257.222 3783
2334.41 258.378 3800
2343.5 258.378 3800
2352.58 258.378 3800
2361.67 258.378 3800
2370.76 258.378 3800
2379.84 258.378 3800
2400.25 259.602 3818
2409.38 259.602 3818
2418.51 259.602 3818
2427.64 259.602 3818
2403.58 256.066 3766
2412.58 256.066 3766
2426.73 256.61 3774
2447.38 257.834 3792
2456.44 257.834 3792
2465.51 257.834 3792
2474.58 257.834 3792
2483.65 257.834 3792
2486.8 257.222 3783
2495.85 257.222 3783
2504.89 257.222 3783
2513.94 257.222 3783
2522.98 257.222 3783
2520.65 256.066 3766
2518.24 254.911 3749
2532.6 255.454 3757
2559.17 257.222 3783
2568.22 257.222 3783
2588.84 258.378 3800
2621.86 260.758 3835
2661.9 263.818 3880
2671.18 263.818 3880
2705.33 266.266 3916
2714.69 266.266 3916
2724.06 266.266 3916
2733.42 266.266 3916
1948.16 186.576 2744
1954.72 186.576 2744
1961.28 186.576 2744
1964.26 186.236 2739
1970.81 186.236 2739
1980.97 186.576 2744
1987.53 186.576 2744
1994.09 186.576 2744
2026.9 189.024 2780
2043.79 189.976 2794
2050.47 189.976 2794
2057.15 189.976 2794
2077.87 191.268 2813
2088.3 191.608 2818
2095.04 191.608 2818
2101.78 191.608 2818
2112.26 191.948 2823
2119.01 191.948 2823
2125.76 191.948 2823
2132.51 191.948 2823
2139.26 191.948 2823
2160.45 193.24 2842
2167.25 193.24 2842
2174.05 193.24 2842
-2330.03 219.053 3112
-2322.59 219.053 3112
-2315.15 219.053 3112
-2307.71 219.053 3112
-2304.7 219.475 3118
-2306.08 220.32 3130
-2298.6 220.32 3130
-2299.9 221.165 3142
-2292.38 221.165 3142
-2289.23 221.587 3148
-2281.71 221.587 3148
-2287.18 222.854 3166
-2283.93 223.276 3172
-2280.65 223.699 3178
-2273.05 223.699 3178
-2265.45 223.699 3178
-2262.12 224.121 3184
-2254.5 224.121 3184
-2246.89 224.121 3184
-2239.27 224.121 3184
-2231.66 224.121 3184
-2228.24 224.543 3190
-2220.61 224.543 3190
-2212.98 224.543 3190
-2205.35 224.543 3190
-2219.08 226.725 3221
-2211.38 226.725 3221
-2211.89 227.57 3233
-2204.16 227.57 3233
-2196.43 227.57 3233
-2188.69 227.57 3233
-2193.78 228.908 3252
-2198.78 230.245 3271
-2190.95 230.245 3271
-2183.13 230.245 3271
-2187.95 231.582 3290
-2188.69 232.497 3303
-2180.79 232.497 3303
-2172.9 232.497 3303
-2165 232.497 3303
-2166.24 233.483 3317
-2171.32 234.891 3337
-2163.34 234.891 3337
-2172.16 236.721 3363
-2173.12 237.706 3377
-2165.05 237.706 3377
-2156.97 237.706 3377
-2148.9 237.706 3377
-2154.13 239.184 3398
-2146.01 239.184 3398
-2137.88 239.184 3398
-2129.76 239.184 3398
-2121.63 239.184 3398
-2113.51 239.184 3398
-2101.04 238.692 3391
-2084.29 237.706 3377
-2051.63 234.891 3337
-2051.61 235.806 3350
-2043.6 235.806 3350
-2035.59 235.806 3350
-2048.15 238.199 3384
-2065.38 241.155 3426
-2057.19 241.155 3426
-2057.37 242.141 3440
-2049.14 242.141 3440
-2040.92 242.141 3440
-2032.69 242.141 3440
-2007.99 240.17 3412
-1999.83 240.17 3412
-1995.75 240.663 3419
-1987.58 240.663 3419
-1979.4 240.663 3419
-1975.26 241.155 3426
-1967.07 241.155 3426
-1958.88 241.155 3426
-1950.68 241.155 3426
-1922.65 238.692 3391
-1934.3 241.155 3426
-1926.11 241.155 3426
-1921.83 241.648 3433
-1913.62 241.648 3433
-1905.41 241.648 3433
-1889.47 240.663 3419
-1881.29 240.663 3419
-1869.28 240.17 3412
-1861.12 240.17 3412
-1826.35 236.721 3363
-1818.31 236.721 3363
-1821.57 238.199 3384
-1828.49 240.17 3412
-1820.33 240.17 3412
-1815.89 240.663 3419
-1807.71 240.663 3419
-1799.53 240.663 3419
-1791.36 240.663 3419
-1783.18 240.663 3419
-1775.01 240.663 3419
-1770.45 241.155 3426
-1762.26 241.155 3426
-1754.06 241.155 3426
-1745.87 241.155 3426
-1741.23 241.648 3433
-1733.02 241.648 3433
-1724.81 241.648 3433
-1716.6 241.648 3433
-1715.36 242.634 3447
-1721.48 244.675 3476
-1713.16 244.675 3476
-1704.85 244.675 3476
-1696.54 244.675 3476
-1688.23 244.675 3476
-1672.67 243.619 3461
-1661.02 243.126 3454
-1652.76 243.126 3454
-1644.5 243.126 3454
-1636.24 243.126 3454
-1634.58 244.112 3468
-1630.04 244.675 3476
-1621.73 244.675 3476
-1613.42 244.675 3476
-1611.57 245.66 3490
-1603.23 245.66 3490
-1594.88 245.66 3490
-1586.53 245.66 3490
-1581.35 246.153 3497
-1583.34 247.772 3520
-1574.92 247.772 3520
-1566.5 247.772 3520
-1558.08 247.772 3520
-1546.15 247.209 3512
-1537.75 247.209 3512
-1522.82 246.153 3497
-1514.45 246.153 3497
-1506.09 246.153 3497
-1497.73 246.153 3497
-1489.37 246.153 3497
-1481.01 246.153 3497
-1472.64 246.153 3497
-1467.63 246.716 3505
-1459.25 246.716 3505
-1459.97 248.265 3527
-1454.42 248.757 3534
-1445.97 248.757 3534
-1437.52 248.757 3534
-1429.07 248.757 3534
-1423.83 249.321 3542
-1415.36 249.321 3542
-1406.89 249.321 3542
-1398.42 249.321 3542
-1389.95 249.321 3542
-1381.48 249.321 3542
-1373.01 249.321 3542
-1373.4 250.94 3565
-1370.62 251.995 3580
-1362.06 251.995 3580
-1353.5 251.995 3580
-1339.3 250.94 3565
-1322.19 249.321 3542
-1310.76 248.757 3534
-1302.3 248.757 3534
-1291.29 248.265 3527
-1277.4 247.209 3512
-1261.05 245.66 3490
-1252.71 245.66 3490
-1239.37 244.675 3476
-1218.31 242.141 3440
-1210.08 242.141 3440
-1201.86 242.141 3440
-1193.63 242.141 3440
-1173.34 239.677 3405
-1165.2 239.677 3405
-1157.06 239.677 3405
-1132.72 236.299 3357
-558.829 117.41 1668
-554.84 117.41 1668
-552.502 117.762 1673
-549.813 118.044 1677
-545.803 118.044 1677
-541.793 118.044 1677
-537.782 118.044 1677
-533.136 117.903 1675
-530.71 118.255 1680
-526.692 118.255 1680
-522.675 118.255 1680
-518.658 118.255 1680
-514.64 118.255 1680
-509.711 118.044 1677
-505.701 118.044 1677
-501.99 118.114 1678
-497.977 118.114 1678
-493.965 118.114 1678
-489.952 118.114 1678
-485.939 118.114 1678
-481.927 118.114 1678
-477.914 118.114 1678
-473.619 118.044 1677
-468.489 117.762 1673
-464.488 117.762 1673
-460.487 117.762 1673
-456.214 117.692 1672
-451.675 117.551 1670
-446.877 117.34 1667
-442.891 117.34 1667
-437.851 117.058 1663
-433.092 116.847 1660
-427.054 116.284 1652
-423.104 116.284 1652
-418.646 116.143 1650
-414.198 116.002 1648
-409.51 115.791 1645
-405.576 115.791 1645
-401.398 115.721 1644
-395.775 115.228 1637
-391.621 115.158 1636
-387.709 115.158 1636
-383.327 115.017 1634
-378.955 114.876 1632
-374.823 114.806 1631
-370.468 114.665 1629
-366.572 114.665 1629
-362.677 114.665 1629
-358.561 114.595 1628
-354.668 114.595 1628
-350.775 114.595 1628
-346.456 114.454 1626
-342.568 114.454 1626
-338.055 114.243 1623
-334.174 114.243 1623
-329.886 114.102 1621
-325.808 114.031 1620
-321.537 113.891 1618
-318.06 114.031 1620
-314.186 114.031 1620
-310.312 114.031 1620
-306.06 113.891 1618
-302.191 113.891 1618
-298.138 113.82 1617
-293.907 113.68 1615
-290.045 113.68 1615
-286.183 113.68 1615
-281.971 113.539 1613
-277.942 113.468 1612
-273.747 113.328 1610
-269.897 113.328 1610
-265.551 113.116 1607
-261.708 113.116 1607
-257.866 113.116 1607
-254.339 113.257 1609
-250.491 113.257 1609
-246.644 113.257 1609
-242.947 113.328 1610
-239.394 113.468 1612
-235.685 113.539 1613
-231.828 113.539 1613
-228.254 113.68 1615
-224.67 113.82 1617
-221.213 114.031 1620
-217.339 114.031 1620
-213.992 114.313 1624
-210.626 114.595 1628
-207.241 114.876 1632
-203.338 114.876 1632
-199.924 115.158 1636
-196.491 115.439 1640
-193.157 115.791 1645
-189.223 115.791 1645
-186.078 116.284 1652
-182.679 116.636 1657
-179.795 117.34 1667
-175.808 117.34 1667
-172.441 117.762 1673
-169.346 118.396 1682
-165.815 118.748 1687
-161.781 118.748 1687
-158.028 118.959 1690
-154.442 119.311 1695
-151.365 120.085 1706
-147.285 120.085 1706
-143.625 120.437 1711
-139.86 120.718 1715
-135.996 120.93 1718
-131.888 120.93 1718
-128.077 121.211 1722
-123.959 121.211 1722
-119.842 121.211 1722
-115.724 121.211 1722
-208.131 254.178 3611
-199.496 254.178 3611
-190.861 254.178 3611
-182.226 254.178 3611
-173.206 253.614 3603
-164.59 253.614 3603
-155.974 253.614 3603
-147.358 253.614 3603
-138.435 253.051 3595
-129.838 253.051 3595
-121.005 252.559 3588
-112.425 252.559 3588
-104.742 254.741 3619
-96.0881 254.741 3619
-87.4339 254.741 3619
-78.7798 254.741 3619
-70.1257 254.741 3619
-61.4715 254.741 3619
-52.8174 254.741 3619
-44.1633 254.741 3619
-35.5092 254.741 3619
-26.9144 255.304 3627
-18.2412 255.304 3627
-9.5679 255.304 3627
-0.894641 255.304 3627
7.76146 254.741 3619
16.4156 254.741 3619
25.0697 254.741 3619
33.435 252.559 3588
42.015 252.559 3588
50.8065 253.614 3603
59.4223 253.614 3603
68.1893 254.178 3611
76.9945 254.741 3619
86.9739 258.682 3675
95.7619 258.682 3675
104.55 258.682 3675
113.831 259.809 3691
122.658 259.809 3691
131.484 259.809 3691
140.31 259.809 3691
271.523 258.682 3675
280.311 258.682 3675
289.099 258.682 3675
295.212 256.36 3642
303.921 256.36 3642
312.63 256.36 3642
320.722 255.867 3635
331.498 257.486 3658
340.246 257.486 3658
348.993 257.486 3658
354.709 255.304 3627
361.779 254.178 3611
370.414 254.178 3611
375.795 251.995 3580
382.745 250.94 3565
388.746 249.321 3542
397.216 249.321 3542
403.166 247.772 3520
408.076 245.66 3490
410.456 242.141 3440
415.274 240.17 3412
423.433 240.17 3412
425.394 236.721 3363
430.085 234.891 3337
434.52 232.99 3310
442.435 232.99 3310
450.351 232.99 3310
458.266 232.99 3310
466.181 232.99 3310
474.096 232.99 3310
480.118 232.075 3297
486.966 231.582 3290
495.887 232.075 3297
507.744 233.905 3323
522.984 237.214 3370
531.042 237.214 3370
550.299 242.141 3440
566.643 245.66 3490
574.989 245.66 3490
594.533 250.376 3557
612.194 254.178 3611
624.955 255.867 3635
633.648 255.867 3635
646.404 257.486 3658
655.152 257.486 3658
663.899 257.486 3658
672.646 257.486 3658
681.394 257.486 3658
687.123 256.36 3642
695.832 256.36 3642
706.088 256.923 3650
714.817 256.923 3650
723.545 256.923 3650
732.273 256.923 3650
741.001 256.923 3650
749.73 256.923 3650
756.796 256.36 3642
765.505 256.36 3642
774.214 256.36 3642
782.923 256.36 3642
790.111 255.867 3635
793.529 254.178 3611
805.718 255.304 3627
814.391 255.304 3627
826.469 256.36 3642
835.178 256.36 3642
843.887 256.36 3642
852.596 256.36 3642
867.217 258.119 3667
881.72 259.809 3691
890.546 259.809 3691
901.321 260.372 3699
910.167 260.372 3699
919.012 260.372 3699
925.851 259.809 3691
936.703 260.372 3699
945.549 260.372 3699
958.78 261.568 3716
967.666 261.568 3716
976.552 261.568 3716
985.439 261.568 3716
987.635 259.809 3691
996.461 259.809 3691
1005.29 259.809 3691
1014.11 259.809 3691
1020.72 259.246 3683
1029.53 259.246 3683
1038.34 259.246 3683
1047.14 259.246 3683
1055.95 259.246 3683
1062.45 258.682 3675
1071.23 258.682 3675
1080.02 258.682 3675
1088.81 258.682 3675
1097.6 258.682 3675
1106.39 258.682 3675
1115.17 258.682 3675
1123.96 258.682 3675
1132.75 258.682 3675
1141.54 258.682 3675
1150.33 258.682 3675
1156.59 258.119 3667
1167.9 258.682 3675
1176.69 258.682 3675
1190.64 259.809 3691
1199.47 259.809 3691
1208.29 259.809 3691
1217.12 259.809 3691
1225.95 259.809 3691
1234.77 259.809 3691
1246.29 260.372 3699
1257.85 260.935 3707
1266.72 260.935 3707
1275.58 260.935 3707
1284.45 260.935 3707
1290.52 260.372 3699
1299.37 260.372 3699
1308.21 260.372 3699
1314.21 259.809 3691
1320.17 259.246 3683
1331.86 259.809 3691
1340.69 259.809 3691
1349.51 259.809 3691
1364.23 260.935 3707
1373.09 260.935 3707
1381.96 260.935 3707
1390.82 260.935 3707
1399.69 260.935 3707
1421.09 263.258 3740
1430.03 263.258 3740
1438.98 263.258 3740
1447.92 263.258 3740
1450.63 262.132 3724
1459.54 262.132 3724
1465.29 261.568 3716
1464.26 259.809 3691
1476.27 260.372 3699
1485.12 260.372 3699
1493.97 260.372 3699
1502.81 260.372 3699
1514.93 260.935 3707
1527.49 261.568 3716
1536.38 261.568 3716
1545.26 261.568 3716
1554.15 261.568 3716
1563.03 261.568 3716
1578.69 262.695 3732
1587.61 262.695 3732
1599.96 263.258 3740
1608.9 263.258 3740
1617.85 263.258 3740
1626.79 263.258 3740
1628.74 262.132 3724
1630.16 260.935 3707
1639.03 260.935 3707
1644.34 260.372 3699
1667.93 262.695 3732
1688.09 264.454 3757
1701.14 265.088 3766
1710.14 265.088 3766
1719.15 265.088 3766
1720.35 263.891 3749
1729.32 263.891 3749
1738.28 263.891 3749
1747.25 263.891 3749
1756.21 263.891 3749
1745.4 260.935 3707
1754.27 260.935 3707
1751.72 259.246 3683
1744.75 256.923 3650
1749.64 256.36 3642
1758.35 256.36 3642
1752.01 254.178 3611
1752.85 253.051 3595
1746.74 250.94 3565
1755.27 250.94 3565
1763.79 250.94 3565
1772.32 250.94 3565
1772.85 249.813 3549
1766.78 247.772 3520
1775.2 247.772 3520
1771.96 246.153 3497
1765.56 244.112 3468
1766.69 243.126 3454
1774.95 243.126 3454
1772.37 241.648 3433
1780.58 241.648 3433
1792.44 242.141 3440
1815.32 244.112 3468
1831.5 245.168 3483
1839.83 245.168 3483
1855.59 246.153 3497
1876.21 247.772 3520
1892.12 248.757 3534
1900.57 248.757 3534
1909.02 248.757 3534
1917.47 248.757 3534
1934.1 249.813 3549
1942.59 249.813 3549
1980.76 253.614 3603
1998.21 254.741 3619
2015.74 255.867 3635
2024.43 255.867 3635
2045.99 257.486 3658
2100.79 263.258 3740
2139.07 266.918 3792
2148.14 266.918 3792
2157.21 266.918 3792
2166.27 266.918 3792
2175.34 266.918 3792
2184.41 266.918 3792
2198.1 267.481 3800
2232.75 270.578 3844
2241.94 270.578 3844
2251.13 270.578 3844
2260.33 270.578 3844
2254.17 268.748 3818
2263.3 268.748 3818
2272.43 268.748 3818
2281.56 268.748 3818
2290.69 268.748 3818
2273.31 265.651 3774
2282.34 265.651 3774
