ply
format ascii 1.0
comment File generated
element vertex 2146
property float x
property float y
property float z
end_header
-2423.79 -434.471 3809
-2414.69 -434.471 3809
-2378.42 -429.567 3766
-2418.49 -438.464 3844
-2431.86 -442.57 3880
-2422.58 -442.57 3880
-2413.3 -442.57 3880
-2387.3 -439.49 3853
-1296.07 -379.036 3323
-1288.12 -379.036 3323
-1280.17 -379.036 3323
-1272.23 -379.036 3323
-1262 -378.352 3317
-1254.07 -378.352 3317
-1231.48 -373.903 3278
-1218.79 -372.42 3265
-1203.94 -370.253 3246
-1196.17 -370.253 3246
-1185.85 -369.455 3239
-1175.92 -368.77 3233
-1163.85 -367.401 3221
-1156.15 -367.401 3221
-1148.45 -367.401 3221
-1138.27 -366.603 3214
-1130.58 -366.603 3214
-1122.9 -366.603 3214
-1113.13 -365.919 3208
-1103.39 -365.234 3202
-1095.73 -365.234 3202
-1088.08 -365.234 3202
-1080.42 -365.234 3202
-1068.74 -363.865 3190
-1059.12 -363.181 3184
-1045.56 -361.128 3166
-1037.99 -361.128 3166
-1028.47 -360.443 3160
-1018.97 -359.759 3154
-557.344 -198.244 1738
-553.825 -198.472 1740
-550.611 -198.814 1743
-546.443 -198.814 1743
-543.52 -199.27 1747
-539.342 -199.27 1747
-535.165 -199.27 1747
-530.379 -199.042 1745
-524.095 -198.244 1738
-519.939 -198.244 1738
-515.783 -198.244 1738
-511.627 -198.244 1738
-506.303 -197.788 1734
-500.709 -197.217 1729
-496.574 -197.217 1729
-491.3 -196.761 1725
-486.328 -196.419 1722
-480.53 -195.734 1716
-475.594 -195.392 1713
-471.497 -195.392 1713
-466.31 -194.936 1709
-461.411 -194.594 1706
-456.796 -194.366 1704
-452.721 -194.366 1704
-447.33 -193.795 1699
-442.745 -193.567 1697
-437.395 -192.997 1692
-433.348 -192.997 1692
-428.034 -192.427 1687
-421.738 -191.4 1678
-417.476 -191.286 1677
-413.466 -191.286 1677
-408.479 -190.83 1673
-403.269 -190.259 1668
-398.563 -189.917 1665
-394.581 -189.917 1665
-390.13 -189.689 1663
-385.921 -189.575 1662
-381.488 -189.347 1660
-377.518 -189.347 1660
-373.098 -189.119 1658
-368.02 -188.548 1653
-364.068 -188.548 1653
-359.897 -188.434 1652
-355.946 -188.434 1652
-351.57 -188.206 1650
-347.624 -188.206 1650
-343.679 -188.206 1650
-340.145 -188.434 1652
-336.194 -188.434 1652
-332.244 -188.434 1652
-328.492 -188.548 1653
-324.539 -188.548 1653
-320.586 -188.548 1653
-317.017 -188.777 1655
-313.437 -189.005 1657
-309.662 -189.119 1658
-305.697 -189.119 1658
-301.732 -189.119 1658
-298.127 -189.347 1660
-294.512 -189.575 1662
-290.537 -189.575 1662
-286.563 -189.575 1662
-282.589 -189.575 1662
-278.614 -189.575 1662
-274.64 -189.575 1662
-270.828 -189.689 1663
-266.852 -189.689 1663
-262.875 -189.689 1663
-258.898 -189.689 1663
-254.921 -189.689 1663
-250.794 -189.575 1662
-246.819 -189.575 1662
-242.845 -189.575 1662
-238.296 -189.119 1658
-234.19 -189.005 1657
-229.949 -188.777 1655
-225.992 -188.777 1655
-221.766 -188.548 1653
-217.681 -188.434 1652
-213.084 -187.864 1647
-209.145 -187.864 1647
-204.584 -187.294 1642
-200.658 -187.294 1642
-196.132 -186.723 1637
-192.217 -186.723 1637
-188.188 -186.609 1636
-183.825 -186.153 1632
-179.812 -186.039 1631
-175.912 -186.039 1631
-172.012 -186.039 1631
-167.905 -185.811 1629
-164.01 -185.811 1629
-160.115 -185.811 1629
-156.123 -185.697 1628
-152.043 -185.469 1626
-148.155 -185.469 1626
-144.267 -185.469 1626
-140.378 -185.469 1626
-136.49 -185.469 1626
-132.602 -185.469 1626
-128.951 -185.811 1629
-125.209 -186.039 1631
-121.309 -186.039 1631
-117.481 -186.153 1632
-113.857 -186.609 1636
-110.146 -186.952 1639
-106.227 -186.952 1639
-102.495 -187.294 1642
-98.7481 -187.636 1645
-94.9297 -187.864 1647
-90.9912 -187.864 1647
-87.1056 -187.978 1648
-83.2656 -188.206 1650
-79.32 -188.206 1650
-75.3743 -188.206 1650
-150.303 -419.187 3675
-142.131 -421.012 3691
-133.594 -421.924 3699
-124.748 -421.924 3699
-116.154 -422.837 3707
-107.289 -422.837 3707
-99.0883 -425.688 3732
-90.164 -425.688 3732
-81.2396 -425.688 3732
-72.4703 -426.601 3740
-63.8156 -428.54 3757
-54.8315 -428.54 3757
-45.9572 -429.567 3766
-36.9515 -429.567 3766
-27.9459 -429.567 3766
-18.9402 -429.567 3766
-9.93458 -429.567 3766
-0.928927 -429.567 3766
8.05742 -428.54 3757
17.0415 -428.54 3757
26.0257 -428.54 3757
34.9352 -427.627 3749
43.9002 -427.627 3749
52.8652 -427.627 3749
61.6818 -426.601 3740
70.6253 -426.601 3740
79.3985 -425.688 3732
88.3229 -425.688 3732
97.0388 -424.776 3724
105.716 -423.863 3716
114.325 -422.837 3707
123.189 -422.837 3707
132.054 -422.837 3707
140.919 -422.837 3707
149.46 -421.924 3699
158.305 -421.924 3699
166.789 -421.012 3691
175.235 -420.099 3683
183.642 -419.187 3675
192.43 -419.187 3675
200.78 -418.274 3667
209.549 -418.274 3667
218.318 -418.274 3667
227.087 -418.274 3667
235.856 -418.274 3667
244.625 -418.274 3667
253.947 -419.187 3675
262.735 -419.187 3675
271.523 -419.187 3675
280.311 -419.187 3675
289.099 -419.187 3675
297.887 -419.187 3675
306.675 -419.187 3675
315.463 -419.187 3675
324.251 -419.187 3675
332.314 -418.274 3667
341.083 -418.274 3667
349.852 -418.274 3667
358.621 -418.274 3667
367.39 -418.274 3667
376.159 -418.274 3667
383.983 -417.248 3658
391.871 -416.335 3650
399.721 -415.423 3642
408.431 -415.423 3642
417.14 -415.423 3642
425.849 -415.423 3642
434.558 -415.423 3642
443.267 -415.423 3642
451.976 -415.423 3642
460.685 -415.423 3642
469.394 -415.423 3642
478.104 -415.423 3642
487.882 -416.335 3650
496.61 -416.335 3650
505.339 -416.335 3650
514.067 -416.335 3650
522.795 -416.335 3650
531.523 -416.335 3650
538.031 -414.624 3635
1081.7 -465.269 4079
1091.46 -465.269 4079
1101.21 -465.269 4079
1105.52 -462.987 4059
1104.51 -458.539 4020
1108.86 -456.372 4001
1131.84 -461.847 4049
1144.34 -462.987 4059
1154.05 -462.987 4059
1163.75 -462.987 4059
1170.57 -461.847 4049
1180.25 -461.847 4049
1181.41 -458.539 4020
1196.65 -460.706 4039
1212.29 -462.987 4059
1221.99 -462.987 4059
1231.7 -462.987 4059
1247.52 -465.269 4079
1257.28 -465.269 4079
1267.03 -465.269 4079
1276.78 -465.269 4079
1423.1 -465.269 4079
1432.85 -465.269 4079
1442.6 -465.269 4079
1455.92 -466.409 4089
1465.7 -466.409 4089
1475.48 -466.409 4089
1477.99 -464.128 4069
1484.06 -462.987 4059
1475.74 -457.398 4010
1485.33 -457.398 4010
1513.18 -462.987 4059
1522.89 -462.987 4059
1540.15 -465.269 4079
1553.7 -466.409 4089
1563.48 -466.409 4089
1573.26 -466.409 4089
1579.16 -465.269 4079
2405.88 -457.398 4010
2415.47 -457.398 4010
2437.15 -459.68 4030
2446.79 -459.68 4030
2461.91 -460.706 4039
2471.57 -460.706 4039
2487.37 -461.847 4049
2497.06 -461.847 4049
2506.74 -461.847 4049
2498.4 -458.539 4020
2508.01 -458.539 4020
2517.62 -458.539 4020
2533.52 -459.68 4030
2543.16 -459.68 4030
2552.8 -459.68 4030
2556.08 -458.539 4020
2553.56 -456.372 4001
2550.96 -454.204 3982
2560.48 -454.204 3982
2563.55 -453.064 3972
2573.05 -453.064 3972
2594.9 -455.231 3991
2604.44 -455.231 3991
2620.54 -456.372 4001
2630.1 -456.372 4001
2639.67 -456.372 4001
2661.82 -458.539 4020
2678.08 -459.68 4030
2687.72 -459.68 4030
2697.35 -459.68 4030
2706.99 -459.68 4030
2716.63 -459.68 4030
2712.73 -457.398 4010
2696.52 -453.064 3972
2699.89 -452.037 3963
2709.37 -452.037 3963
2686.6 -446.676 3916
2695.96 -446.676 3916
2692.89 -444.623 3898
2727.86 -448.843 3935
2737.27 -448.843 3935
2746.68 -448.843 3935
2711.27 -441.543 3871
2676.95 -434.471 3809
2698.05 -436.41 3826
2707.2 -436.41 3826
2716.35 -436.41 3826
2731.91 -437.437 3835
2741.08 -437.437 3835
2750.25 -437.437 3835
2740.71 -434.471 3809
2801.08 -442.57 3880
2816.87 -443.596 3889
2826.17 -443.596 3889
2835.47 -443.596 3889
2844.77 -443.596 3889
2894.44 -449.87 3944
2917.86 -452.037 3963
2927.33 -452.037 3963
2943.48 -453.064 3972
2952.98 -453.064 3972
2962.48 -453.064 3972
2957.76 -450.897 3953
2953.7 -448.843 3935
2969.89 -449.87 3944
3014.82 -455.231 3991
3024.37 -455.231 3991
3033.91 -455.231 3991
3043.45 -455.231 3991
3053 -455.231 3991
-2296.72 -374.872 3357
-2297.56 -376.324 3370
-2327.54 -382.578 3426
-2319.35 -382.578 3426
-2325.33 -384.923 3447
-2331.2 -387.268 3468
-2322.91 -387.268 3468
-2314.61 -387.268 3468
-2316.3 -388.943 3483
-2337.12 -393.856 3527
-2348.5 -397.206 3557
-2339.99 -397.206 3557
-2341.32 -398.881 3572
-2347.8 -401.45 3595
-2369.78 -406.698 3642
-2361.07 -406.698 3642
-2460.23 -425.347 3809
-2451.12 -425.347 3809
-2442.01 -425.347 3809
-2432.9 -425.347 3809
-2418.07 -424.342 3800
-2408.98 -424.342 3800
-2378.42 -420.545 3766
-2424.15 -430.26 3853
-2431.86 -433.275 3880
-2422.58 -433.275 3880
-2413.3 -433.275 3880
-2381.72 -429.255 3844
-1298.8 -371.857 3330
-1290.83 -371.857 3330
-1282.87 -371.857 3330
-1272.23 -371.076 3323
-1262 -370.406 3317
-1254.07 -370.406 3317
-1231.48 -366.051 3278
-1218.79 -364.599 3265
-1203.94 -362.477 3246
-1196.17 -362.477 3246
-1185.85 -361.696 3239
-1175.92 -361.026 3233
-1163.85 -359.685 3221
-1156.15 -359.685 3221
-1148.45 -359.685 3221
-1138.27 -358.904 3214
-1130.58 -358.904 3214
-1122.9 -358.904 3214
-1113.13 -358.234 3208
-1103.39 -357.564 3202
-1095.73 -357.564 3202
-1088.08 -357.564 3202
-1080.42 -357.564 3202
-1068.74 -356.224 3190
-1061.11 -356.224 3190
-1049.52 -354.884 3178
-1041.92 -354.884 3178
-1028.47 -352.874 3160
-1020.91 -352.874 3160
-557.985 -194.304 1740
-554.143 -194.416 1741
-551.243 -194.862 1745
-547.07 -194.862 1745
-544.142 -195.309 1749
-539.96 -195.309 1749
-535.777 -195.309 1749
-530.987 -195.086 1747
-524.698 -194.304 1740
-520.538 -194.304 1740
-516.377 -194.304 1740
-511.627 -194.081 1738
-506.303 -193.634 1734
-500.709 -193.076 1729
-496.574 -193.076 1729
-491.3 -192.629 1725
-486.328 -192.294 1722
-480.53 -191.624 1716
-475.594 -191.289 1713
-471.497 -191.289 1713
-466.31 -190.842 1709
-461.411 -190.507 1706
-456.796 -190.284 1704
-452.721 -190.284 1704
-447.33 -189.725 1699
-442.745 -189.502 1697
-437.395 -188.944 1692
-433.348 -188.944 1692
-428.034 -188.385 1687
-421.738 -187.38 1678
-417.476 -187.269 1677
-413.466 -187.269 1677
-408.479 -186.822 1673
-403.269 -186.264 1668
-399.041 -186.152 1667
-395.055 -186.152 1667
-390.13 -185.705 1663
-385.921 -185.594 1662
-381.488 -185.37 1660
-377.518 -185.37 1660
-373.548 -185.37 1660
-368.466 -184.812 1655
-364.068 -184.589 1653
-359.897 -184.477 1652
-355.946 -184.477 1652
-351.57 -184.254 1650
-347.624 -184.254 1650
-343.679 -184.254 1650
-340.145 -184.477 1652
-336.194 -184.477 1652
-332.244 -184.477 1652
-328.492 -184.589 1653
-324.539 -184.589 1653
-320.586 -184.589 1653
-317.017 -184.812 1655
-313.437 -185.035 1657
-309.662 -185.147 1658
-305.697 -185.147 1658
-301.732 -185.147 1658
-298.486 -185.594 1662
-294.512 -185.594 1662
-290.537 -185.594 1662
-286.563 -185.594 1662
-282.589 -185.594 1662
-278.782 -185.705 1663
-274.805 -185.705 1663
-270.828 -185.705 1663
-266.852 -185.705 1663
-262.875 -185.705 1663
-258.898 -185.705 1663
-254.921 -185.705 1663
-250.794 -185.594 1662
-246.819 -185.594 1662
-242.845 -185.594 1662
-238.296 -185.147 1658
-234.19 -185.035 1657
-229.949 -184.812 1655
-225.992 -184.812 1655
-222.034 -184.812 1655
-217.681 -184.477 1652
-213.084 -183.919 1647
-209.145 -183.919 1647
-204.584 -183.36 1642
-200.658 -183.36 1642
-196.132 -182.802 1637
-192.217 -182.802 1637
-188.188 -182.69 1636
-183.825 -182.244 1632
-179.812 -182.132 1631
-175.912 -182.132 1631
-172.012 -182.132 1631
-167.905 -181.909 1629
-164.01 -181.909 1629
-160.115 -181.909 1629
-156.123 -181.797 1628
-152.043 -181.574 1626
-148.155 -181.574 1626
-144.267 -181.574 1626
-140.378 -181.574 1626
-136.49 -181.574 1626
-132.602 -181.574 1626
-128.951 -181.909 1629
-125.209 -182.132 1631
-121.309 -182.132 1631
-117.481 -182.244 1632
-113.857 -182.69 1636
-110.146 -183.025 1639
-106.227 -183.025 1639
-102.495 -183.36 1642
-98.7481 -183.695 1645
-94.9297 -183.919 1647
-90.9912 -183.919 1647
-87.1056 -184.03 1648
-83.2656 -184.254 1650
-79.32 -184.254 1650
-75.3743 -184.254 1650
-150.63 -411.277 3683
-142.131 -412.17 3691
-133.594 -413.063 3699
-124.748 -413.063 3699
-116.154 -413.957 3707
-107.289 -413.957 3707
-99.0883 -416.748 3732
-90.164 -416.748 3732
-81.2396 -416.748 3732
-72.4703 -417.642 3740
-63.8156 -419.54 3757
-54.8315 -419.54 3757
-45.9572 -420.545 3766
-36.9515 -420.545 3766
-27.9459 -420.545 3766
-18.9402 -420.545 3766
-9.93458 -420.545 3766
-0.928927 -420.545 3766
8.05742 -419.54 3757
17.0415 -419.54 3757
26.0257 -419.54 3757
34.9352 -418.647 3749
43.9002 -418.647 3749
52.8652 -418.647 3749
61.6818 -417.642 3740
70.6253 -417.642 3740
79.3985 -416.748 3732
88.3229 -416.748 3732
97.0388 -415.855 3724
105.716 -414.962 3716
114.325 -413.957 3707
123.189 -413.957 3707
132.054 -413.957 3707
140.919 -413.957 3707
149.46 -413.063 3699
158.305 -413.063 3699
166.789 -412.17 3691
175.235 -411.277 3683
184.042 -411.277 3683
192.849 -411.277 3683
201.218 -410.383 3675
209.549 -409.49 3667
218.318 -409.49 3667
227.087 -409.49 3667
235.856 -409.49 3667
244.625 -409.49 3667
253.947 -410.383 3675
262.735 -410.383 3675
271.523 -410.383 3675
280.311 -410.383 3675
289.099 -410.383 3675
297.887 -410.383 3675
306.675 -410.383 3675
315.463 -410.383 3675
324.251 -410.383 3675
332.314 -409.49 3667
341.083 -409.49 3667
349.852 -409.49 3667
358.621 -409.49 3667
367.39 -409.49 3667
376.159 -409.49 3667
383.983 -408.485 3658
391.871 -407.591 3650
399.721 -406.698 3642
408.431 -406.698 3642
417.14 -406.698 3642
425.849 -406.698 3642
434.558 -406.698 3642
443.267 -406.698 3642
451.976 -406.698 3642
460.685 -406.698 3642
469.394 -406.698 3642
478.104 -406.698 3642
487.882 -407.591 3650
496.61 -407.591 3650
505.339 -407.591 3650
514.067 -407.591 3650
522.795 -407.591 3650
531.523 -407.591 3650
538.031 -405.916 3635
1081.7 -455.497 4079
1091.46 -455.497 4079
1101.21 -455.497 4079
1105.52 -453.264 4059
1104.51 -448.909 4020
1108.86 -446.787 4001
1131.84 -452.147 4049
1144.34 -453.264 4059
1154.05 -453.264 4059
1163.75 -453.264 4059
1170.57 -452.147 4049
1180.25 -452.147 4049
1181.41 -448.909 4020
1199.62 -452.147 4049
1212.29 -453.264 4059
1225 -454.381 4069
1234.73 -454.381 4069
1250.58 -456.614 4089
1260.36 -456.614 4089
1270.14 -456.614 4089
1276.78 -455.497 4079
1423.1 -455.497 4079
1432.85 -455.497 4079
1442.6 -455.497 4079
1455.92 -456.614 4089
1465.7 -456.614 4089
1475.48 -456.614 4089
1477.99 -454.381 4069
1484.06 -453.264 4059
1475.74 -447.792 4010
1485.33 -447.792 4010
1513.18 -453.264 4059
1522.89 -453.264 4059
1540.15 -455.497 4079
1553.7 -456.614 4089
1563.48 -456.614 4089
1573.26 -456.614 4089
1579.16 -455.497 4079
2435.28 -453.264 4059
2444.99 -453.264 4059
2454.69 -453.264 4059
2446.79 -450.026 4030
2461.91 -451.031 4039
2471.57 -451.031 4039
2487.37 -452.147 4049
2497.06 -452.147 4049
2506.74 -452.147 4049
2498.4 -448.909 4020
2508.01 -448.909 4020
2517.62 -448.909 4020
2533.52 -450.026 4030
2543.16 -450.026 4030
2552.8 -450.026 4030
2556.08 -448.909 4020
2553.56 -446.787 4001
2550.96 -444.665 3982
2560.48 -444.665 3982
2563.55 -443.549 3972
2573.05 -443.549 3972
2594.9 -445.671 3991
2604.44 -445.671 3991
2620.54 -446.787 4001
2630.1 -446.787 4001
2639.67 -446.787 4001
2661.82 -448.909 4020
2678.08 -450.026 4030
2687.72 -450.026 4030
2697.35 -450.026 4030
2706.99 -450.026 4030
2716.63 -450.026 4030
2712.73 -447.792 4010
2709.42 -445.671 3991
2712.84 -444.665 3982
2722.36 -444.665 3982
2692.77 -438.3 3925
2702.16 -438.3 3925
2711.55 -438.3 3925
2727.86 -439.417 3935
2737.27 -439.417 3935
2746.68 -439.417 3935
2736.48 -436.29 3907
2676.95 -425.347 3809
2698.05 -427.245 3826
2707.2 -427.245 3826
2716.35 -427.245 3826
2731.91 -428.25 3835
2741.08 -428.25 3835
2750.25 -428.25 3835
2740.71 -425.347 3809
2801.08 -433.275 3880
2816.87 -434.28 3889
2826.17 -434.28 3889
2835.47 -434.28 3889
2844.77 -434.28 3889
2894.44 -440.422 3944
2924.48 -443.549 3972
2933.98 -443.549 3972
2943.48 -443.549 3972
2952.98 -443.549 3972
2962.48 -443.549 3972
2971.97 -443.549 3972
2960.46 -440.422 3944
3005.28 -445.671 3991
3014.82 -445.671 3991
3024.37 -445.671 3991
3033.91 -445.671 3991
3043.45 -445.671 3991
3053 -445.671 3991
-2331.38 -369.781 3384
-2323.29 -369.781 3384
-2315.2 -369.781 3384
-2316.65 -371.311 3398
-2332.3 -375.135 3433
-2324.09 -375.135 3433
-2339.49 -378.96 3468
-2336.58 -379.834 3476
-2332.95 -380.599 3483
-2324.62 -380.599 3483
-2335.58 -383.768 3512
-2337.12 -385.407 3527
-2358.4 -390.324 3572
-2349.86 -390.324 3572
-2356.39 -392.838 3595
-2358.24 -394.586 3611
-2369.78 -397.974 3642
-2387.65 -402.454 3683
-2460.23 -416.222 3809
-2451.12 -416.222 3809
-2442.01 -416.222 3809
-2432.9 -416.222 3809
-2418.07 -415.239 3800
-2408.98 -415.239 3800
-2378.42 -411.524 3766
-2424.15 -421.03 3853
-2431.86 -423.981 3880
-2422.58 -423.981 3880
-2413.3 -423.981 3880
-2381.72 -420.047 3844
-1298.8 -363.88 3330
-1290.83 -363.88 3330
-1282.87 -363.88 3330
-1272.23 -363.115 3323
-1262 -362.46 3317
-1254.07 -362.46 3317
-1231.48 -358.198 3278
-1218.79 -356.778 3265
-1203.94 -354.701 3246
-1196.17 -354.701 3246
-1185.85 -353.936 3239
-1175.92 -353.281 3233
-1163.85 -351.97 3221
-1156.15 -351.97 3221
-1148.45 -351.97 3221
-1138.27 -351.205 3214
-1130.58 -351.205 3214
-1122.9 -351.205 3214
-1113.13 -350.549 3208
-1103.39 -349.893 3202
-1095.73 -349.893 3202
-1088.08 -349.893 3202
-1080.42 -349.893 3202
-1072.76 -349.893 3202
-1061.11 -348.582 3190
-1053.49 -348.582 3190
-1045.86 -348.582 3190
-1034.32 -347.271 3178
-1020.91 -345.304 3160
-557.985 -190.136 1740
-554.143 -190.245 1741
-551.243 -190.682 1745
-547.07 -190.682 1745
-544.142 -191.119 1749
-539.96 -191.119 1749
-535.777 -191.119 1749
-531.595 -191.119 1749
-525 -190.245 1741
-520.538 -190.136 1740
-516.377 -190.136 1740
-511.627 -189.917 1738
-506.303 -189.48 1734
-500.709 -188.934 1729
-496.574 -188.934 1729
-491.3 -188.497 1725
-486.328 -188.169 1722
-480.53 -187.513 1716
-475.594 -187.185 1713
-471.497 -187.185 1713
-466.31 -186.748 1709
-461.411 -186.42 1706
-456.796 -186.202 1704
-452.721 -186.202 1704
-447.33 -185.655 1699
-442.745 -185.437 1697
-437.395 -184.891 1692
-433.348 -184.891 1692
-428.034 -184.344 1687
-421.738 -183.361 1678
-417.476 -183.251 1677
-413.466 -183.251 1677
-408.479 -182.814 1673
-403.269 -182.268 1668
-399.041 -182.159 1667
-395.055 -182.159 1667
-390.13 -181.722 1663
-385.921 -181.612 1662
-381.488 -181.394 1660
-377.518 -181.394 1660
-373.548 -181.394 1660
-368.466 -180.847 1655
-364.068 -180.629 1653
-359.897 -180.52 1652
-355.946 -180.52 1652
-351.57 -180.301 1650
-347.624 -180.301 1650
-343.679 -180.301 1650
-339.733 -180.301 1650
-335.787 -180.301 1650
-332.244 -180.52 1652
-328.492 -180.629 1653
-324.539 -180.629 1653
-320.586 -180.629 1653
-316.634 -180.629 1653
-313.437 -181.066 1657
-309.662 -181.175 1658
-305.697 -181.175 1658
-301.732 -181.175 1658
-298.486 -181.612 1662
-294.512 -181.612 1662
-290.537 -181.612 1662
-286.563 -181.612 1662
-282.589 -181.612 1662
-278.782 -181.722 1663
-274.805 -181.722 1663
-270.828 -181.722 1663
-266.852 -181.722 1663
-262.875 -181.722 1663
-258.898 -181.722 1663
-254.921 -181.722 1663
-250.945 -181.722 1663
-246.968 -181.722 1663
-242.845 -181.612 1662
-238.296 -181.175 1658
-234.331 -181.175 1658
-230.227 -181.066 1657
-226.265 -181.066 1657
-222.034 -180.847 1655
-217.681 -180.52 1652
-213.084 -179.973 1647
-209.145 -179.973 1647
-204.584 -179.427 1642
-200.658 -179.427 1642
-196.132 -178.881 1637
-192.217 -178.881 1637
-188.188 -178.771 1636
-183.825 -178.334 1632
-179.812 -178.225 1631
-175.912 -178.225 1631
-171.801 -178.006 1629
-167.905 -178.006 1629
-164.01 -178.006 1629
-160.115 -178.006 1629
-156.123 -177.897 1628
-152.043 -177.679 1626
-148.155 -177.679 1626
-144.267 -177.679 1626
-140.378 -177.679 1626
-136.49 -177.679 1626
-132.602 -177.679 1626
-128.951 -178.006 1629
-125.209 -178.225 1631
-121.309 -178.225 1631
-117.409 -178.225 1631
-113.578 -178.334 1632
-110.012 -178.881 1637
-106.097 -178.881 1637
-102.307 -179.099 1639
-98.568 -179.427 1642
-94.6415 -179.427 1642
-90.715 -179.427 1642
-86.8942 -179.645 1644
-83.1647 -180.083 1648
-79.2238 -180.083 1648
-75.283 -180.083 1648
-150.63 -402.454 3683
-142.131 -403.328 3691
-133.594 -404.202 3699
-124.748 -404.202 3699
-115.903 -404.202 3699
-107.289 -405.076 3707
-98.4245 -405.076 3707
-89.56 -405.076 3707
-81.2396 -407.808 3732
-72.3153 -407.808 3732
-63.5268 -408.682 3740
-54.5834 -408.682 3740
-45.7497 -409.666 3749
-36.8632 -410.54 3757
-27.8791 -410.54 3757
-18.895 -410.54 3757
-9.88973 -409.666 3749
-0.924734 -409.666 3749
8.04026 -409.666 3749
17.0053 -409.666 3749
25.9703 -409.666 3749
34.8514 -408.682 3740
43.7949 -408.682 3740
52.7383 -408.682 3740
61.6818 -408.682 3740
70.4742 -407.808 3732
79.2283 -406.934 3724
88.1336 -406.934 3724
96.8303 -406.06 3716
105.46 -405.076 3707
114.078 -404.202 3699
122.924 -404.202 3699
131.769 -404.202 3699
140.614 -404.202 3699
149.46 -404.202 3699
158.305 -404.202 3699
166.789 -403.328 3691
175.235 -402.454 3683
184.042 -402.454 3683
192.849 -402.454 3683
201.218 -401.58 3675
210.006 -401.58 3675
218.318 -400.705 3667
227.087 -400.705 3667
235.856 -400.705 3667
244.625 -400.705 3667
253.947 -401.58 3675
262.735 -401.58 3675
271.523 -401.58 3675
280.311 -401.58 3675
289.099 -401.58 3675
297.887 -401.58 3675
306.675 -401.58 3675
315.463 -401.58 3675
324.251 -401.58 3675
332.314 -400.705 3667
341.083 -400.705 3667
349.852 -400.705 3667
357.741 -399.722 3658
366.488 -399.722 3658
375.235 -399.722 3658
383.143 -398.848 3650
391.012 -397.974 3642
398.953 -397.209 3635
407.646 -397.209 3635
416.338 -397.209 3635
425.03 -397.209 3635
434.558 -397.974 3642
443.267 -397.974 3642
451.976 -397.974 3642
459.8 -397.209 3635
468.492 -397.209 3635
477.185 -397.209 3635
485.877 -397.209 3635
494.569 -397.209 3635
503.262 -397.209 3635
511.954 -397.209 3635
520.647 -397.209 3635
529.339 -397.209 3635
538.031 -397.209 3635
1081.7 -445.726 4079
1091.46 -445.726 4079
1101.21 -445.726 4079
1105.52 -443.541 4059
1115.22 -443.541 4059
1119.39 -441.355 4039
1131.84 -442.448 4049
1144.34 -443.541 4059
1154.05 -443.541 4059
1163.75 -443.541 4059
1170.57 -442.448 4049
1180.25 -442.448 4049
1189.93 -442.448 4049
1199.62 -442.448 4049
1215.27 -444.633 4069
1228.01 -445.726 4079
1237.77 -445.726 4079
1250.58 -446.819 4089
1260.36 -446.819 4089
1270.14 -446.819 4089
1423.1 -445.726 4079
1432.85 -445.726 4079
1442.6 -445.726 4079
1452.36 -445.726 4079
1458.53 -444.633 4069
1468.26 -444.633 4069
1474.36 -443.541 4059
1469.8 -439.279 4020
1475.74 -438.186 4010
1485.33 -438.186 4010
1505.73 -441.355 4039
1515.38 -441.355 4039
1536.37 -444.633 4069
1549.9 -445.726 4079
1559.65 -445.726 4079
1569.41 -445.726 4079
1575.29 -444.633 4069
2435.28 -443.541 4059
2444.99 -443.541 4059
2454.69 -443.541 4059
2446.79 -440.372 4030
2444.24 -438.186 4010
2453.83 -438.186 4010
2463.42 -438.186 4010
2473.01 -438.186 4010
2470.83 -436.11 3991
2486.59 -437.203 4001
2496.16 -437.203 4001
2505.73 -437.203 4001
2527.24 -439.279 4020
2536.85 -439.279 4020
2546.46 -439.279 4020
2544 -437.203 4001
2547.18 -436.11 3991
2550.96 -435.127 3982
2560.48 -435.127 3982
2563.55 -434.034 3972
2573.05 -434.034 3972
2594.9 -436.11 3991
2604.44 -436.11 3991
2613.99 -436.11 3991
2623.53 -436.11 3991
2639.67 -437.203 4001
2661.82 -439.279 4020
2678.08 -440.372 4030
2687.72 -440.372 4030
2697.35 -440.372 4030
2706.99 -440.372 4030
2716.63 -440.372 4030
2712.73 -438.186 4010
2709.42 -436.11 3991
2712.84 -435.127 3982
2722.36 -435.127 3982
2692.77 -428.898 3925
2702.16 -428.898 3925
2711.55 -428.898 3925
2727.86 -429.991 3935
2737.27 -429.991 3935
2746.68 -429.991 3935
2736.48 -426.931 3907
2676.95 -416.222 3809
2698.05 -418.08 3826
2707.2 -418.08 3826
2716.35 -418.08 3826
2731.91 -419.063 3835
2741.08 -419.063 3835
2750.25 -419.063 3835
2740.71 -416.222 3809
2801.08 -423.981 3880
2816.87 -424.964 3889
2826.17 -424.964 3889
2835.47 -424.964 3889
2844.77 -424.964 3889
2873.89 -427.915 3916
2924.48 -434.034 3972
2933.98 -434.034 3972
2943.48 -434.034 3972
2952.98 -434.034 3972
2962.48 -434.034 3972
2971.97 -434.034 3972
2960.46 -430.974 3944
3005.28 -436.11 3991
3014.82 -436.11 3991
3024.37 -436.11 3991
3033.91 -436.11 3991
3043.45 -436.11 3991
3053 -436.11 3991
-2331.38 -361.675 3384
-2323.29 -361.675 3384
-2315.2 -361.675 3384
-2316.65 -363.171 3398
-2332.3 -366.912 3433
-2324.09 -366.912 3433
-2339.49 -370.652 3468
-2336.58 -371.507 3476
-2332.95 -372.256 3483
-2324.62 -372.256 3483
-2335.58 -375.355 3512
-2337.12 -376.958 3527
-2358.4 -381.768 3572
-2349.86 -381.768 3572
-2356.39 -384.226 3595
-2358.24 -385.936 3611
-2369.78 -389.249 3642
-2387.65 -393.631 3683
-2460.23 -407.098 3809
-2451.12 -407.098 3809
-2442.01 -407.098 3809
-2432.9 -407.098 3809
-2418.07 -406.136 3800
-2408.98 -406.136 3800
-2378.42 -402.502 3766
-2424.15 -411.8 3853
-2426.22 -413.724 3871
-2416.96 -413.724 3871
-2407.71 -413.724 3871
-2381.72 -410.839 3844
-1298.8 -355.903 3330
-1290.83 -355.903 3330
-1282.87 -355.903 3330
-1272.23 -355.155 3323
-1262 -354.514 3317
-1254.07 -354.514 3317
-1231.48 -350.346 3278
-1218.79 -348.956 3265
-1201.34 -346.177 3239
-1193.6 -346.177 3239
-1183.65 -345.536 3233
-1173.74 -344.895 3227
-1163.85 -344.254 3221
-1156.15 -344.254 3221
-1148.45 -344.254 3221
-1138.27 -343.505 3214
-1128.47 -342.864 3208
-1120.8 -342.864 3208
-1113.13 -342.864 3208
-1103.39 -342.223 3202
-1095.73 -342.223 3202
-1088.08 -342.223 3202
-1080.42 -342.223 3202
-1072.76 -342.223 3202
-1061.11 -340.94 3190
-1053.49 -340.94 3190
-1045.86 -340.94 3190
-1034.32 -339.658 3178
-1020.91 -337.734 3160
-557.985 -185.967 1740
-554.143 -186.074 1741
-551.243 -186.502 1745
-547.07 -186.502 1745
-544.142 -186.929 1749
-539.96 -186.929 1749
-535.777 -186.929 1749
-531.595 -186.929 1749
-525 -186.074 1741
-520.538 -185.967 1740
-516.377 -185.967 1740
-511.627 -185.754 1738
-506.303 -185.326 1734
-500.709 -184.792 1729
-496.574 -184.792 1729
-491.3 -184.364 1725
-485.763 -183.83 1720
-480.53 -183.402 1716
-475.594 -183.082 1713
-471.497 -183.082 1713
-466.037 -182.547 1708
-460.871 -182.12 1704
-456.26 -181.906 1702
-452.19 -181.906 1702
-447.33 -181.585 1699
-442.223 -181.158 1695
-437.395 -180.837 1692
-433.348 -180.837 1692
-428.034 -180.303 1687
-421.738 -179.341 1678
-417.476 -179.234 1677
-413.466 -179.234 1677
-408.479 -178.807 1673
-403.269 -178.272 1668
-399.041 -178.165 1667
-395.055 -178.165 1667
-390.13 -177.738 1663
-385.921 -177.631 1662
-381.488 -177.417 1660
-377.518 -177.417 1660
-373.548 -177.417 1660
-368.466 -176.883 1655
-364.068 -176.669 1653
-359.897 -176.562 1652
-355.946 -176.562 1652
-351.57 -176.348 1650
-347.624 -176.348 1650
-343.679 -176.348 1650
-339.733 -176.348 1650
-335.787 -176.348 1650
-332.244 -176.562 1652
-328.293 -176.562 1652
-324.343 -176.562 1652
-320.393 -176.562 1652
-316.634 -176.669 1653
-313.437 -177.097 1657
-309.475 -177.097 1657
-305.513 -177.097 1657
-301.732 -177.204 1658
-298.486 -177.631 1662
-294.512 -177.631 1662
-290.537 -177.631 1662
-286.563 -177.631 1662
-282.589 -177.631 1662
-278.782 -177.738 1663
-274.805 -177.738 1663
-270.828 -177.738 1663
-266.852 -177.738 1663
-262.875 -177.738 1663
-258.898 -177.738 1663
-254.921 -177.738 1663
-250.945 -177.738 1663
-246.968 -177.738 1663
-242.845 -177.631 1662
-238.296 -177.204 1658
-234.331 -177.204 1658
-230.227 -177.097 1657
-226.265 -177.097 1657
-222.034 -176.883 1655
-217.681 -176.562 1652
-213.084 -176.028 1647
-209.145 -176.028 1647
-204.584 -175.493 1642
-200.413 -175.28 1640
-196.012 -174.852 1636
-192.1 -174.852 1636
-187.958 -174.638 1634
-183.712 -174.318 1631
-179.592 -174.104 1629
-175.696 -174.104 1629
-171.801 -174.104 1629
-167.905 -174.104 1629
-163.909 -173.997 1628
-160.016 -173.997 1628
-155.931 -173.783 1626
-151.856 -173.57 1624
-147.973 -173.57 1624
-144.089 -173.57 1624
-140.206 -173.57 1624
-136.322 -173.57 1624
-132.602 -173.783 1626
-128.872 -173.997 1628
-125.056 -174.104 1629
-121.16 -174.104 1629
-117.409 -174.318 1631
-113.509 -174.318 1631
-110.012 -174.959 1637
-106.097 -174.959 1637
-102.307 -175.173 1639
-98.3879 -175.173 1639
-94.4686 -175.173 1639
-90.5492 -175.173 1639
-86.6299 -175.173 1639
-82.9629 -175.707 1644
-79.0316 -175.707 1644
-75.1003 -175.707 1644
-150.63 -393.631 3683
-142.131 -394.486 3691
-133.305 -394.486 3691
-124.479 -394.486 3691
-115.652 -394.486 3691
-107.058 -395.341 3699
-98.2121 -395.341 3699
-89.3667 -395.341 3699
-80.6954 -396.196 3707
-72.0052 -397.158 3716
-63.2551 -398.013 3724
-54.3498 -398.013 3724
-45.4446 -398.013 3724
-36.6179 -398.868 3732
-27.6936 -398.868 3732
-18.7692 -398.868 3732
-9.84488 -398.868 3732
-0.920541 -398.868 3732
7.98665 -398.013 3724
16.8919 -398.013 3724
25.7971 -398.013 3724
34.7768 -398.868 3732
43.7012 -398.868 3732
52.6255 -398.868 3732
61.5499 -398.868 3732
70.3231 -398.013 3724
78.8667 -396.196 3707
87.7312 -396.196 3707
96.3873 -395.341 3699
105.233 -395.341 3699
113.831 -394.486 3691
122.924 -395.341 3699
131.769 -395.341 3699
140.614 -395.341 3699
149.137 -394.486 3691
157.963 -394.486 3691
166.789 -394.486 3691
175.235 -393.631 3683
184.042 -393.631 3683
192.849 -393.631 3683
201.218 -392.776 3675
210.006 -392.776 3675
218.318 -391.921 3667
227.087 -391.921 3667
235.856 -391.921 3667
244.625 -391.921 3667
253.947 -392.776 3675
262.735 -392.776 3675
271.523 -392.776 3675
280.311 -392.776 3675
288.469 -391.921 3667
297.238 -391.921 3667
306.675 -392.776 3675
315.463 -392.776 3675
324.251 -392.776 3675
331.498 -390.959 3658
340.246 -390.959 3658
348.993 -390.959 3658
356.958 -390.104 3650
365.686 -390.104 3650
374.415 -390.104 3650
382.303 -389.249 3642
390.261 -388.501 3635
398.075 -387.646 3627
406.748 -387.646 3627
415.422 -387.646 3627
424.095 -387.646 3627
433.723 -388.501 3635
442.415 -388.501 3635
451.107 -388.501 3635
458.788 -387.646 3627
466.43 -386.791 3619
475.084 -386.791 3619
483.738 -386.791 3619
492.393 -386.791 3619
501.047 -386.791 3619
509.701 -386.791 3619
518.355 -386.791 3619
527.009 -386.791 3619
535.663 -386.791 3619
1086.1 -433.817 4059
1095.81 -433.817 4059
1105.52 -433.817 4059
1115.22 -433.817 4059
1119.39 -431.68 4039
1131.84 -432.749 4049
1141.52 -432.749 4049
1151.21 -432.749 4049
1160.89 -432.749 4049
1165.08 -430.718 4030
1180.25 -432.749 4049
1189.93 -432.749 4049
1199.62 -432.749 4049
1215.27 -434.886 4069
1228.01 -435.955 4079
1237.77 -435.955 4079
1250.58 -437.024 4089
1260.36 -437.024 4089
1270.14 -437.024 4089
1423.1 -435.955 4079
1432.85 -435.955 4079
1442.6 -435.955 4079
1452.36 -435.955 4079
1458.53 -434.886 4069
1468.26 -434.886 4069
1474.36 -433.817 4059
1469.8 -429.649 4020
1475.74 -428.58 4010
1485.33 -428.58 4010
1505.73 -431.68 4039
1515.38 -431.68 4039
1536.37 -434.886 4069
1549.9 -435.955 4079
1559.65 -435.955 4079
1569.41 -435.955 4079
1575.29 -434.886 4069
2425.57 -433.817 4059
2441.28 -434.886 4069
2451.01 -434.886 4069
2460.74 -434.886 4069
2464.4 -433.817 4059
2461.91 -431.68 4039
2466.07 -430.718 4030
2475.7 -430.718 4030
2479.17 -429.649 4020
2477.02 -427.618 4001
2486.59 -427.618 4001
2496.16 -427.618 4001
2505.73 -427.618 4001
2527.24 -429.649 4020
2536.85 -429.649 4020
2546.46 -429.649 4020
2544 -427.618 4001
2553.56 -427.618 4001
2544.55 -424.519 3972
2554.05 -424.519 3972
2575.81 -426.55 3991
2585.36 -426.55 3991
2594.9 -426.55 3991
2604.44 -426.55 3991
2613.99 -426.55 3991
2623.53 -426.55 3991
2639.67 -427.618 4001
2655.2 -428.58 4010
2664.79 -428.58 4010
2674.38 -428.58 4010
2683.97 -428.58 4010
2693.56 -428.58 4010
2703.14 -428.58 4010
2712.73 -428.58 4010
2709.42 -426.55 3991
2712.84 -425.588 3982
2722.36 -425.588 3982
2705.81 -421.526 3944
2702.16 -419.496 3925
2711.55 -419.496 3925
2727.86 -420.564 3935
2737.27 -420.564 3935
2746.68 -420.564 3935
2736.48 -417.572 3907
2676.95 -407.098 3809
2686.06 -407.098 3809
2695.17 -407.098 3809
2716.35 -408.915 3826
2725.5 -408.915 3826
2734.64 -408.915 3826
2743.79 -408.915 3826
2740.71 -407.098 3809
2768.59 -409.877 3835
2790.8 -411.8 3853
2826.17 -415.648 3889
2835.47 -415.648 3889
2844.77 -415.648 3889
2873.89 -418.534 3916
2924.48 -424.519 3972
2933.98 -424.519 3972
2943.48 -424.519 3972
2952.98 -424.519 3972
2962.48 -424.519 3972
2971.97 -424.519 3972
2960.46 -421.526 3944
3005.28 -426.55 3991
3014.82 -426.55 3991
3024.37 -426.55 3991
3033.91 -426.55 3991
3043.45 -426.55 3991
3053 -426.55 3991
-2427.27 -355.762 3405
-2434.05 -357.957 3426
-2425.86 -357.957 3426
-2417.66 -357.957 3426
-2409.47 -357.957 3426
-2376.75 -354.3 3391
-2368.64 -354.3 3391
-2341.04 -351.374 3363
-2333 -351.374 3363
-2339.47 -353.568 3384
-2369.96 -359.419 3440
-2361.73 -359.419 3440
-2353.51 -359.419 3440
-2335.74 -357.957 3426
-2356.08 -362.345 3468
-2347.79 -362.345 3468
-2359.06 -365.375 3497
-2350.69 -365.375 3497
-2352.38 -366.942 3512
-2343.98 -366.942 3512
-2345.56 -368.509 3527
-2357 -371.644 3557
-2373.59 -375.614 3595
-2364.99 -375.614 3595
-2366.88 -377.286 3611
-2373.92 -379.793 3635
-2365.23 -379.793 3635
-2392.84 -385.644 3691
-2460.23 -397.973 3809
-2462.06 -399.75 3826
-2452.91 -399.75 3826
-2443.76 -399.75 3826
-2418.07 -397.033 3800
-2408.98 -397.033 3800
-2372.74 -392.54 3757
-2396.47 -397.973 3809
-2387.36 -397.973 3809
-2378.25 -397.973 3809
-2369.14 -397.973 3809
-2360.03 -397.973 3809
-1298.8 -347.926 3330
-1290.83 -347.926 3330
-1282.87 -347.926 3330
-1272.23 -347.195 3323
-1259.34 -345.837 3310
-1251.42 -345.837 3310
-1228.85 -341.762 3271
-1218.79 -341.135 3265
-1201.34 -338.418 3239
-1193.6 -338.418 3239
-1183.65 -337.791 3233
-1173.74 -337.165 3227
-1166.02 -337.165 3227
-1158.31 -337.165 3227
-1148.45 -336.538 3221
-1138.27 -335.806 3214
-1128.47 -335.179 3208
-1120.8 -335.179 3208
-1113.13 -335.179 3208
-1103.39 -334.553 3202
-1095.73 -334.553 3202
-1088.08 -334.553 3202
-1080.42 -334.553 3202
-1072.76 -334.553 3202
-1063.11 -333.926 3196
-1053.49 -333.299 3190
-1045.86 -333.299 3190
-1034.32 -332.045 3178
-1020.91 -330.164 3160
-554.143 -181.904 1741
-550.611 -182.113 1743
-546.443 -182.113 1743
-544.764 -182.949 1751
-540.577 -182.949 1751
-536.39 -182.949 1751
-532.203 -182.949 1751
-525 -181.904 1741
-520.538 -181.799 1740
-516.377 -181.799 1740
-511.627 -181.59 1738
-506.303 -181.172 1734
-500.709 -180.65 1729
-496.574 -180.65 1729
-490.731 -180.023 1723
-485.198 -179.501 1718
-480.25 -179.187 1715
-474.483 -178.56 1709
-470.396 -178.56 1709
-464.945 -178.038 1704
-460.33 -177.829 1702
-455.455 -177.516 1699
-451.393 -177.516 1699
-446.277 -177.098 1695
-441.441 -176.784 1692
-436.878 -176.575 1690
-432.836 -176.575 1690
-428.034 -176.262 1687
-421.738 -175.321 1678
-417.476 -175.217 1677
-413.466 -175.217 1677
-408.479 -174.799 1673
-403.269 -174.277 1668
-399.041 -174.172 1667
-395.055 -174.172 1667
-390.13 -173.754 1663
-385.457 -173.441 1660
-381.488 -173.441 1660
-377.518 -173.441 1660
-373.098 -173.232 1658
-368.02 -172.709 1653
-364.068 -172.709 1653
-359.897 -172.605 1652
-355.946 -172.605 1652
-351.57 -172.396 1650
-347.624 -172.396 1650
-343.679 -172.396 1650
-339.733 -172.396 1650
-335.787 -172.396 1650
-331.842 -172.396 1650
-328.293 -172.605 1652
-324.343 -172.605 1652
-320.393 -172.605 1652
-316.442 -172.605 1652
-313.437 -173.127 1657
-309.475 -173.127 1657
-305.513 -173.127 1657
-301.55 -173.127 1657
-298.486 -173.65 1662
-294.512 -173.65 1662
-290.537 -173.65 1662
-286.563 -173.65 1662
-282.589 -173.65 1662
-278.782 -173.754 1663
-274.805 -173.754 1663
-270.828 -173.754 1663
-266.852 -173.754 1663
-262.875 -173.754 1663
-258.898 -173.754 1663
-254.921 -173.754 1663
-250.945 -173.754 1663
-246.968 -173.754 1663
-242.553 -173.441 1660
-238.296 -173.232 1658
-234.331 -173.232 1658
-230.227 -173.127 1657
-226.265 -173.127 1657
-222.034 -172.918 1655
-217.418 -172.396 1650
-212.825 -171.873 1645
-208.892 -171.873 1645
-204.584 -171.56 1642
-200.291 -171.247 1639
-196.012 -170.933 1636
-192.1 -170.933 1636
-187.958 -170.724 1634
-183.712 -170.411 1631
-179.592 -170.202 1629
-175.696 -170.202 1629
-171.801 -170.202 1629
-167.802 -170.097 1628
-163.909 -170.097 1628
-160.016 -170.097 1628
-155.74 -169.679 1624
-151.763 -169.575 1623
-147.882 -169.575 1623
-144 -169.575 1623
-140.206 -169.679 1624
-136.322 -169.679 1624
-132.439 -169.679 1624
-128.714 -169.888 1626
-124.979 -170.097 1628
-121.086 -170.097 1628
-117.265 -170.202 1629
-113.509 -170.411 1631
-109.81 -170.724 1634
-105.903 -170.724 1634
-102.182 -171.038 1637
-98.2679 -171.038 1637
-94.3533 -171.038 1637
-90.4387 -171.038 1637
-86.5242 -171.038 1637
-82.6096 -171.038 1637
-78.695 -171.038 1637
-74.7805 -171.038 1637
-142.131 -385.644 3691
-133.305 -385.644 3691
-124.479 -385.644 3691
-115.402 -384.809 3683
-106.594 -384.809 3683
-97.9997 -385.644 3691
-89.1734 -385.644 3691
-80.5213 -386.48 3699
-71.8309 -387.316 3707
-63.1192 -388.256 3716
-54.2331 -388.256 3716
-45.347 -388.256 3716
-36.5394 -389.092 3724
-27.6342 -389.092 3724
-18.729 -389.092 3724
-9.80268 -388.256 3716
-0.916594 -388.256 3716
7.96949 -388.256 3716
16.8556 -388.256 3716
25.6793 -387.316 3707
34.6277 -388.256 3716
43.5138 -388.256 3716
52.3999 -388.256 3716
61.286 -388.256 3716
70.0021 -387.316 3707
78.6965 -386.48 3699
87.5419 -386.48 3699
96.3873 -386.48 3699
105.005 -385.644 3691
113.831 -385.644 3691
122.658 -385.644 3691
131.484 -385.644 3691
140.31 -385.644 3691
149.137 -385.644 3691
157.963 -385.644 3691
166.789 -385.644 3691
175.235 -384.809 3683
184.042 -384.809 3683
192.849 -384.809 3683
201.218 -383.973 3675
210.006 -383.973 3675
218.794 -383.973 3675
227.087 -383.137 3667
235.856 -383.137 3667
244.625 -383.137 3667
252.772 -382.196 3658
261.519 -382.196 3658
270.267 -382.196 3658
279.014 -382.196 3658
287.132 -381.361 3650
296.509 -382.196 3658
305.256 -382.196 3658
314.004 -382.196 3658
322.751 -382.196 3658
330.773 -381.361 3650
339.502 -381.361 3650
347.467 -380.525 3642
355.491 -379.793 3635
364.184 -379.793 3635
372.876 -379.793 3635
379.889 -378.122 3619
388.543 -378.122 3619
396.319 -377.286 3611
405.851 -378.122 3619
414.505 -378.122 3619
423.16 -378.122 3619
431.814 -378.122 3619
440.468 -378.122 3619
449.122 -378.122 3619
457.776 -378.122 3619
465.399 -377.286 3611
472.984 -376.45 3603
481.6 -376.45 3603
490.216 -376.45 3603
497.724 -375.614 3595
507.447 -376.45 3603
516.063 -376.45 3603
524.679 -376.45 3603
533.295 -376.45 3603
1103.91 -427.228 4089
1113.69 -427.228 4089
1123.47 -427.228 4089
1127.7 -425.139 4069
1134.64 -424.094 4059
1144.34 -424.094 4059
1154.05 -424.094 4059
1160.89 -423.049 4049
1170.57 -423.049 4049
1180.25 -423.049 4049
1189.93 -423.049 4049
1205.54 -425.139 4069
1218.26 -426.184 4079
1231.02 -427.228 4089
1240.8 -427.228 4089
1250.58 -427.228 4089
1260.36 -427.228 4089
1270.14 -427.228 4089
1448.8 -425.139 4069
1458.53 -425.139 4069
1468.26 -425.139 4069
1474.36 -424.094 4059
1473.46 -421.064 4030
1483.1 -421.064 4030
1496.07 -422.004 4039
1509.45 -423.049 4049
1519.14 -423.049 4049
1540.15 -426.184 4079
1553.7 -427.228 4089
1563.48 -427.228 4089
1573.26 -427.228 4089
1583.03 -427.228 4089
2425.57 -424.094 4059
2453.28 -427.228 4089
2463.06 -427.228 4089
2472.84 -427.228 4089
2476.54 -426.184 4079
2480.2 -425.139 4069
2471.57 -422.004 4039
2481.23 -422.004 4039
2485.34 -421.064 4030
2482.59 -418.974 4010
2486.59 -418.034 4001
2496.16 -418.034 4001
2505.73 -418.034 4001
2539.18 -422.004 4039
2548.84 -422.004 4039
2558.5 -422.004 4039
2556.08 -420.019 4020
2565.69 -420.019 4020
2544.55 -415.004 3972
2554.05 -415.004 3972
2575.81 -416.989 3991
2585.36 -416.989 3991
2594.9 -416.989 3991
2604.44 -416.989 3991
2613.99 -416.989 3991
2617.61 -416.049 3982
2633.07 -416.989 3991
2649.24 -418.034 4001
2664.79 -418.974 4010
2674.38 -418.974 4010
2683.97 -418.974 4010
2693.56 -418.974 4010
2703.14 -418.974 4010
2712.73 -418.974 4010
2709.42 -416.989 3991
2712.84 -416.049 3982
2722.36 -416.049 3982
2705.81 -412.078 3944
2702.16 -410.093 3925
2711.55 -410.093 3925
2720.93 -410.093 3925
2730.32 -410.093 3925
2739.7 -410.093 3925
2717.57 -405.392 3880
2676.95 -397.973 3809
2686.06 -397.973 3809
2688.8 -397.033 3800
2710.67 -398.914 3818
2719.8 -398.914 3818
2728.93 -398.914 3818
2738.06 -398.914 3818
2747.19 -398.914 3818
2768.59 -400.69 3835
2777.76 -400.69 3835
2800.01 -402.571 3853
2809.23 -402.571 3853
2838.19 -405.392 3880
2873.89 -409.153 3916
2910.49 -413.019 3953
2919.95 -413.019 3953
2943.48 -415.004 3972
2952.98 -415.004 3972
2962.48 -415.004 3972
2957.76 -413.019 3953
2960.46 -412.078 3944
2969.89 -412.078 3944
3014.82 -416.989 3991
3024.37 -416.989 3991
3033.91 -416.989 3991
3022.1 -414.064 3963
3031.58 -414.064 3963
-2452.22 -351.179 3440
-2458.91 -353.323 3461
-2450.64 -353.323 3461
-2442.36 -353.323 3461
-2434.09 -353.323 3461
-2406.18 -350.464 3433
-2397.98 -350.464 3433
-2360.53 -346.177 3391
-2347.56 -345.462 3384
-2378.19 -351.179 3440
-2379.61 -352.608 3454
-2371.35 -352.608 3454
-2372.66 -354.037 3468
-2364.37 -354.037 3468
-2375.78 -356.998 3497
-2367.42 -356.998 3497
-2369.17 -358.529 3512
-2366.15 -359.346 3520
-2367.11 -360.775 3534
-2358.66 -360.775 3534
-2365.51 -363.123 3557
-2366.94 -364.654 3572
-2378.87 -367.819 3603
-2370.25 -367.819 3603
-2372.12 -369.452 3619
-2373.92 -371.086 3635
-2365.23 -371.086 3635
-2392.84 -376.803 3691
-2460.23 -388.849 3809
-2462.06 -390.584 3826
-2452.91 -390.584 3826
-2443.76 -390.584 3826
-2418.07 -387.93 3800
-2408.98 -387.93 3800
-2351.89 -380.171 3724
-2369.41 -384.459 3766
-2365.42 -385.276 3774
-2356.4 -385.276 3774
-2347.37 -385.276 3774
-2317.28 -381.805 3740
-1283.08 -337.907 3310
-1275.17 -337.907 3310
-1267.25 -337.907 3310
-1249.44 -335.253 3284
-1241.59 -335.253 3284
-1228.85 -333.926 3271
-1218.79 -333.314 3265
-1201.34 -330.659 3239
-1193.6 -330.659 3239
-1185.85 -330.659 3239
-1173.74 -329.434 3227
-1166.02 -329.434 3227
-1158.31 -329.434 3227
-1150.59 -329.434 3227
-1140.75 -328.822 3221
-1130.58 -328.107 3214
-1122.9 -328.107 3214
-1113.13 -327.495 3208
-1103.39 -326.882 3202
-1095.73 -326.882 3202
-1088.08 -326.882 3202
-1080.42 -326.882 3202
-1072.76 -326.882 3202
-1063.11 -326.27 3196
-1053.49 -325.657 3190
-1045.86 -325.657 3190
-1034.32 -324.432 3178
-1020.91 -322.594 3160
-554.779 -177.937 1743
-551.243 -178.142 1745
-547.07 -178.142 1745
-544.764 -178.754 1751
-540.577 -178.754 1751
-536.39 -178.754 1751
-532.203 -178.754 1751
-525 -177.733 1741
-520.538 -177.631 1740
-516.377 -177.631 1740
-511.627 -177.427 1738
-505.719 -176.814 1732
-500.709 -176.508 1729
-496.574 -176.508 1729
-490.446 -175.794 1722
-484.633 -175.181 1716
-479.69 -174.875 1713
-474.483 -174.466 1709
-470.396 -174.466 1709
-464.4 -173.752 1702
-460.059 -173.65 1701
-455.455 -173.446 1699
-451.393 -173.446 1699
-446.013 -172.935 1694
-441.441 -172.731 1692
-436.878 -172.527 1690
-432.836 -172.527 1690
-427.526 -172.016 1685
-421.486 -171.2 1677
-416.978 -170.995 1675
-412.973 -170.995 1675
-408.235 -170.689 1672
-403.028 -170.179 1667
-399.041 -170.179 1667
-395.055 -170.179 1667
-390.13 -169.77 1663
-385.457 -169.464 1660
-381.488 -169.464 1660
-377.518 -169.464 1660
-372.873 -169.158 1657
-368.02 -168.75 1653
-364.068 -168.75 1653
-359.897 -168.647 1652
-355.946 -168.647 1652
-351.57 -168.443 1650
-347.624 -168.443 1650
-343.679 -168.443 1650
-339.733 -168.443 1650
-335.787 -168.443 1650
-331.842 -168.443 1650
-327.896 -168.443 1650
-323.95 -168.443 1650
-320.005 -168.443 1650
-316.442 -168.647 1652
-313.059 -168.954 1655
-309.102 -168.954 1655
-305.144 -168.954 1655
-301.55 -169.158 1657
-298.127 -169.464 1660
-294.157 -169.464 1660
-290.188 -169.464 1660
-286.563 -169.668 1662
-282.589 -169.668 1662
-278.614 -169.668 1662
-274.64 -169.668 1662
-270.828 -169.77 1663
-266.852 -169.77 1663
-262.875 -169.77 1663
-258.898 -169.77 1663
-254.768 -169.668 1662
-250.794 -169.668 1662
-246.819 -169.668 1662
-242.553 -169.464 1660
-238.296 -169.26 1658
-234.19 -169.158 1657
-229.949 -168.954 1655
-225.992 -168.954 1655
-221.766 -168.75 1653
-217.418 -168.443 1650
-212.825 -167.933 1645
-208.892 -167.933 1645
-204.335 -167.422 1640
-200.047 -167.116 1637
-195.773 -166.81 1634
-191.865 -166.81 1634
-187.728 -166.606 1632
-183.487 -166.299 1629
-179.592 -166.299 1629
-175.696 -166.299 1629
-171.695 -166.197 1628
-167.802 -166.197 1628
-163.708 -165.993 1626
-159.82 -165.993 1626
-155.74 -165.789 1624
-151.763 -165.687 1623
-147.882 -165.687 1623
-144 -165.687 1623
-140.206 -165.789 1624
-136.322 -165.789 1624
-132.439 -165.789 1624
-128.714 -165.993 1626
-124.979 -166.197 1628
-121.086 -166.197 1628
-117.193 -166.197 1628
-113.369 -166.299 1629
-109.676 -166.606 1632
-105.773 -166.606 1632
-101.87 -166.606 1632
-98.0878 -166.81 1634
-94.1804 -166.81 1634
-90.273 -166.81 1634
-86.3656 -166.81 1634
-82.4582 -166.81 1634
-78.5508 -166.81 1634
-141.823 -375.986 3683
-133.016 -375.986 3683
-124.209 -375.986 3683
-115.402 -375.986 3683
-106.594 -375.986 3683
-97.9997 -376.803 3691
-89.1734 -376.803 3691
-80.5213 -377.619 3699
-71.6758 -377.619 3699
-63.1192 -379.355 3716
-54.2331 -379.355 3716
-45.347 -379.355 3716
-36.4609 -379.355 3716
-27.5748 -379.355 3716
-18.6888 -379.355 3716
-9.80268 -379.355 3716
-0.916594 -379.355 3716
7.95019 -378.436 3707
16.8147 -378.436 3707
25.6239 -377.619 3699
34.5439 -378.436 3707
43.4084 -378.436 3707
52.273 -378.436 3707
61.1376 -378.436 3707
70.0021 -378.436 3707
78.6965 -377.619 3699
87.5419 -377.619 3699
96.1789 -376.803 3691
105.005 -376.803 3691
113.585 -375.986 3683
122.658 -376.803 3691
131.484 -376.803 3691
140.31 -376.803 3691
149.137 -376.803 3691
157.963 -376.803 3691
166.789 -376.803 3691
175.616 -376.803 3691
184.442 -376.803 3691
193.268 -376.803 3691
201.656 -375.986 3683
210.464 -375.986 3683
218.794 -375.169 3675
227.583 -375.169 3675
236.371 -375.169 3675
244.625 -374.352 3667
252.772 -373.434 3658
261.519 -373.434 3658
270.267 -373.434 3658
279.014 -373.434 3658
287.132 -372.617 3650
296.509 -373.434 3658
305.256 -373.434 3658
314.004 -373.434 3658
322.045 -372.617 3650
330.048 -371.8 3642
338.758 -371.8 3642
347.467 -371.8 3642
355.491 -371.086 3635
363.382 -370.269 3627
372.055 -370.269 3627
379.889 -369.452 3619
387.684 -368.636 3611
396.319 -368.636 3611
404.954 -368.636 3611
413.589 -368.636 3611
422.224 -368.636 3611
431.814 -369.452 3619
440.468 -369.452 3619
449.122 -369.452 3619
456.764 -368.636 3611
465.399 -368.636 3611
472.984 -367.819 3603
481.6 -367.819 3603
488.175 -366.288 3588
497.724 -367.002 3595
506.321 -367.002 3595
514.917 -367.002 3595
523.514 -367.002 3595
1103.91 -417.433 4089
1113.69 -417.433 4089
1123.47 -417.433 4089
1130.47 -416.412 4079
1137.43 -415.391 4069
1149.98 -416.412 4079
1159.73 -416.412 4079
1169.49 -416.412 4079
1176.35 -415.391 4069
1186.08 -415.391 4069
1195.81 -415.391 4069
1208.51 -416.412 4079
1221.25 -417.433 4089
1231.02 -417.433 4089
1240.8 -417.433 4089
1250.58 -417.433 4089
1458.53 -415.391 4069
1468.26 -415.391 4069
1477.99 -415.391 4069
1476.75 -412.329 4039
1486.41 -412.329 4039
1499.77 -413.35 4049
1509.45 -413.35 4049
1519.14 -413.35 4049
1540.15 -416.412 4079
1553.7 -417.433 4089
1563.48 -417.433 4089
1573.26 -417.433 4089
1583.03 -417.433 4089
2425.57 -414.371 4059
2453.28 -417.433 4089
2463.06 -417.433 4089
2472.84 -417.433 4089
2476.54 -416.412 4079
2486.3 -416.412 4079
2496.05 -416.412 4079
2487.37 -413.35 4049
2490.89 -412.329 4039
2494.98 -411.41 4030
2492.18 -409.368 4010
2501.77 -409.368 4010
2511.36 -409.368 4010
2539.18 -412.329 4039
2548.84 -412.329 4039
2558.5 -412.329 4039
2556.08 -410.389 4020
2565.69 -410.389 4020
2544.55 -405.489 3972
2554.05 -405.489 3972
2575.81 -407.429 3991
2585.36 -407.429 3991
2594.9 -407.429 3991
2604.44 -407.429 3991
2613.99 -407.429 3991
2617.61 -406.51 3982
2633.07 -407.429 3991
2649.24 -408.449 4001
2664.79 -409.368 4010
2674.38 -409.368 4010
2683.97 -409.368 4010
2693.56 -409.368 4010
2703.14 -409.368 4010
2712.73 -409.368 4010
2709.42 -407.429 3991
2712.84 -406.51 3982
2722.36 -406.51 3982
2705.81 -402.631 3944
2702.16 -400.691 3925
2711.55 -400.691 3925
2720.93 -400.691 3925
2730.32 -400.691 3925
2739.7 -400.691 3925
2717.57 -396.097 3880
2676.95 -388.849 3809
2686.06 -388.849 3809
2688.8 -387.93 3800
2710.67 -389.768 3818
2719.8 -389.768 3818
2728.93 -389.768 3818
2738.06 -389.768 3818
2747.19 -389.768 3818
2768.59 -391.503 3835
2777.76 -391.503 3835
2800.01 -393.341 3853
2809.23 -393.341 3853
2838.19 -396.097 3880
2873.89 -399.772 3916
2910.49 -403.549 3953
2919.95 -403.549 3953
2943.48 -405.489 3972
2952.98 -405.489 3972
2962.48 -405.489 3972
2957.76 -403.549 3953
2960.46 -402.631 3944
