ply
format ascii 1.0
comment File generated
element vertex 2139
property float x
property float y
property float z
end_header
2024.59 -107.399 2871
2223.86 -116.003 3101
2252.15 -117.087 3130
2259.63 -117.087 3130
2267.12 -117.087 3130
2274.6 -117.087 3130
2282.09 -117.087 3130
2272.75 -116.227 3107
2280.18 -116.227 3107
2308.96 -117.312 3136
2338.62 -118.434 3166
2346.19 -118.434 3166
2353.76 -118.434 3166
2693.23 -135.081 3611
2701.86 -135.081 3611
2710.5 -135.081 3611
2737.21 -135.978 3635
2776.11 -137.475 3675
2803.09 -138.373 3699
2811.93 -138.373 3699
2839.84 -139.308 3724
2848.75 -139.308 3724
-2680.43 -125.345 3580
-2671.87 -125.345 3580
-2663.31 -125.345 3580
-2637.7 -124.54 3557
-2629.19 -124.54 3557
-2603.74 -123.735 3534
-2552.69 -121.704 3476
-2518.03 -120.443 3440
-2509.8 -120.443 3440
-2496.49 -120.198 3433
-2503.5 -120.934 3454
-2495.24 -120.934 3454
-2486.98 -120.934 3454
-2478.72 -120.934 3454
-2470.46 -120.934 3454
-2447.23 -120.198 3433
-2453.94 -120.934 3454
-2450.64 -121.179 3461
-2457.89 -121.949 3483
-2475.58 -123.244 3520
-2482.58 -124.015 3542
-2474.11 -124.015 3542
-2476.08 -124.54 3557
-2473.13 -124.82 3565
-2480.5 -125.625 3588
-2471.92 -125.625 3588
-2479.13 -126.431 3611
-2475.97 -126.711 3619
-2472.77 -126.991 3627
-2464.1 -126.991 3627
-2465.58 -127.516 3642
-2467.67 -128.076 3658
-2458.92 -128.076 3658
-2450.17 -128.076 3658
-2441.42 -128.076 3658
-2427.36 -127.796 3650
-2423.93 -128.076 3658
-2415.18 -128.076 3658
-2406.43 -128.076 3658
-2397.69 -128.076 3658
-2388.94 -128.076 3658
-2380.19 -128.076 3658
-2377.28 -128.391 3667
-2384.01 -129.232 3691
-2375.19 -129.232 3691
-2366.36 -129.232 3691
-2357.53 -129.232 3691
-2348.71 -129.232 3691
-2339.88 -129.232 3691
-2331.05 -129.232 3691
-2317.19 -128.951 3683
-2298.36 -128.391 3667
-2294.58 -128.671 3675
-2290.77 -128.951 3683
-2281.97 -128.951 3683
-2273.16 -128.951 3683
-2264.35 -128.951 3683
-2255.54 -128.951 3683
-2184.36 -128.391 3667
-2185.09 -128.951 3683
-2176.28 -128.951 3683
-2172.18 -129.232 3691
-2163.35 -129.232 3691
-2154.53 -129.232 3691
-2145.7 -129.232 3691
-2117.77 -128.076 3658
-2118.82 -128.671 3675
-2110.04 -128.671 3675
-2101.25 -128.671 3675
-2082.78 -128.076 3658
-2051.92 -126.711 3619
-2043.27 -126.711 3619
-2025.62 -126.15 3603
-1986.77 -124.26 3549
-1966.02 -123.489 3527
-1957.59 -123.489 3527
-1924.84 -121.949 3483
-1900.55 -120.934 3454
-1853.94 -118.483 3384
-1845.85 -118.483 3384
-1833.96 -118.238 3377
-1807.5 -117.047 3343
-1792.51 -116.592 3330
-1784.54 -116.592 3330
-1776.58 -116.592 3330
-1768.62 -116.592 3330
-1746.38 -115.647 3303
-1731.64 -115.191 3290
-1723.77 -115.191 3290
-1715.9 -115.191 3290
-1695.06 -114.316 3265
-1683.63 -114.071 3258
-1679.44 -114.316 3265
-1671.63 -114.316 3265
-1670.45 -114.771 3278
-1662.61 -114.771 3278
-1657.8 -114.981 3284
-1649.95 -114.981 3284
-1642.1 -114.981 3284
-1637.23 -115.191 3290
-1632.83 -115.437 3297
-1624.94 -115.437 3297
-1626.87 -116.137 3317
-1618.94 -116.137 3317
-1611 -116.137 3317
-1603.07 -116.137 3317
-1591.77 -115.892 3310
-1583.86 -115.892 3310
-1575.94 -115.892 3310
-1568.03 -115.892 3310
-1560.11 -115.892 3310
-1555.48 -116.137 3317
-1550.35 -116.347 3323
-1542.4 -116.347 3323
-1537.69 -116.592 3330
-1529.72 -116.592 3330
-1524.96 -116.837 3337
-1516.98 -116.837 3337
-1518.05 -117.537 3357
-1510.02 -117.537 3357
-1504.67 -117.747 3363
-1496.63 -117.747 3363
-1488.59 -117.747 3363
-1477.91 -117.537 3357
-1469.88 -117.537 3357
-1461.85 -117.537 3357
-1453.82 -117.537 3357
-1451.4 -117.992 3370
-1449.33 -118.483 3384
-1441.24 -118.483 3384
-1433.15 -118.483 3384
-1428 -118.728 3391
-1422.83 -118.973 3398
-1414.7 -118.973 3398
-1415.27 -119.708 3419
-1407.09 -119.708 3419
-1398.92 -119.708 3419
-1390.74 -119.708 3419
-1382.56 -119.708 3419
-1374.39 -119.708 3419
-1374.6 -120.443 3440
-1366.38 -120.443 3440
-1358.15 -120.443 3440
-1349.93 -120.443 3440
-1338.97 -120.198 3433
-1330.76 -120.198 3433
-1322.55 -120.198 3433
-1306.3 -119.463 3412
-1292.82 -118.973 3398
-1284.69 -118.973 3398
-1268.68 -118.238 3377
-1253.13 -117.537 3357
-1235.09 -116.592 3330
-1227.13 -116.592 3330
-1216.6 -116.347 3323
-1206.47 -116.137 3317
-1193.48 -115.647 3303
-1185.59 -115.647 3303
-1173.05 -115.191 3290
-1163.06 -114.981 3284
-1155.21 -114.981 3284
-1147.35 -114.981 3284
-1139.5 -114.981 3284
-1129.58 -114.771 3278
-1112.84 -113.861 3252
-1105.07 -113.861 3252
-1095.27 -113.651 3246
-1085.16 -113.406 3239
-1071.43 -112.776 3221
-1063.72 -112.776 3221
-1053.73 -112.531 3214
-560.774 -60.3267 1723
-556.654 -60.3267 1723
-552.534 -60.3267 1723
-548.414 -60.3267 1723
-544.293 -60.3267 1723
-540.173 -60.3267 1723
-536.053 -60.3267 1723
-531.933 -60.3267 1723
-527.813 -60.3267 1723
-523.692 -60.3267 1723
-518.667 -60.2217 1720
-514.554 -60.2217 1720
-510.441 -60.2217 1720
-505.74 -60.1517 1718
-501.631 -60.1517 1718
-496.654 -60.0466 1715
-492.553 -60.0466 1715
-487.313 -59.9066 1711
-481.809 -59.7315 1706
-476.33 -59.5564 1701
-471.151 -59.4164 1697
-467.093 -59.4164 1697
-462.217 -59.3114 1694
-457.084 -59.1713 1690
-452.238 -59.0663 1687
-448.204 -59.0663 1687
-443.644 -58.9962 1685
-439.092 -58.9262 1683
-434.292 -58.8212 1680
-430.275 -58.8212 1680
-424.482 -58.5761 1673
-420.481 -58.5761 1673
-415.236 -58.401 1668
-411.247 -58.401 1668
-406.526 -58.296 1665
-402.544 -58.296 1665
-397.366 -58.1209 1660
-393.396 -58.1209 1660
-388.957 -58.0509 1658
-384.76 -58.0159 1657
-379.189 -57.7708 1650
-375.244 -57.7708 1650
-371.298 -57.7708 1650
-366.907 -57.7008 1648
-362.966 -57.7008 1648
-358.154 -57.5607 1644
-354.223 -57.5607 1644
-349.865 -57.4907 1642
-345.939 -57.4907 1642
-341.387 -57.3857 1639
-337.468 -57.3857 1639
-333.549 -57.3857 1639
-329.227 -57.3156 1637
-325.313 -57.3156 1637
-321.398 -57.3156 1637
-317.289 -57.2806 1636
-313.377 -57.2806 1636
-309.465 -57.2806 1636
-306.113 -57.3857 1639
-302.194 -57.3857 1639
-298.457 -57.4207 1640
-295.253 -57.5607 1644
-291.853 -57.6658 1647
-287.915 -57.6658 1647
-284.149 -57.7008 1648
-280.548 -57.7708 1650
-277.105 -57.8758 1653
-273.153 -57.8758 1653
-269.2 -57.8758 1653
-265.247 -57.8758 1653
-261.294 -57.8758 1653
-257.341 -57.8758 1653
-253.388 -57.8758 1653
-249.436 -57.8758 1653
-245.483 -57.8758 1653
-241.53 -57.8758 1653
-237.146 -57.7708 1650
-232.776 -57.6658 1647
-228.838 -57.6658 1647
-224.899 -57.6658 1647
-220.693 -57.5957 1645
-216.364 -57.4907 1642
-211.79 -57.3156 1637
-207.876 -57.3156 1637
-203.836 -57.2806 1636
-199.68 -57.2106 1634
-195.413 -57.1056 1631
-191.513 -57.1056 1631
-187.268 -57.0005 1628
-183.375 -57.0005 1628
-179.481 -57.0005 1628
-175.588 -57.0005 1628
-171.695 -57.0005 1628
-167.802 -57.0005 1628
-164.01 -57.0355 1629
-160.115 -57.0355 1629
-156.219 -57.0355 1629
-152.511 -57.1056 1631
-148.702 -57.1406 1632
-144.799 -57.1406 1632
-140.896 -57.1406 1632
-137.33 -57.2806 1636
-133.417 -57.2806 1636
-129.743 -57.3857 1639
-125.823 -57.3857 1639
-121.904 -57.3857 1639
-117.841 -57.3156 1637
-114.065 -57.3857 1639
-110.146 -57.3857 1639
-106.227 -57.3857 1639
-102.307 -57.3857 1639
-98.448 -57.4207 1640
-94.5262 -57.4207 1640
-90.6045 -57.4207 1640
-86.6299 -57.3857 1639
-82.6096 -57.3156 1637
-78.695 -57.3156 1637
-74.6434 -57.2106 1634
-134.497 -130.387 3724
-125.592 -130.387 3724
-117.188 -130.947 3740
-108.736 -131.542 3757
-99.7521 -131.542 3757
-90.768 -131.542 3757
-81.6097 -131.262 3749
-72.0052 -130.107 3716
-63.1192 -130.107 3716
-54.2331 -130.107 3716
-45.347 -130.107 3716
-36.4609 -130.107 3716
-27.6936 -130.667 3732
-18.7692 -130.667 3732
-9.84488 -130.667 3732
-0.920541 -130.667 3732
8.0038 -130.667 3732
16.9644 -130.947 3740
25.9079 -130.947 3740
34.9352 -131.262 3749
43.9002 -131.262 3749
52.8652 -131.262 3749
61.8302 -131.262 3749
70.6253 -130.947 3740
79.3985 -130.667 3732
88.3229 -130.667 3732
96.8303 -130.107 3716
105.233 -129.512 3699
114.078 -129.512 3699
123.189 -129.792 3707
132.054 -129.792 3707
140.919 -129.792 3707
149.783 -129.792 3707
158.648 -129.792 3707
167.512 -129.792 3707
176.377 -129.792 3707
184.842 -129.512 3699
193.687 -129.512 3699
202.532 -129.512 3699
210.921 -129.232 3691
219.747 -129.232 3691
228.573 -129.232 3691
237.4 -129.232 3691
245.692 -128.951 3683
254.499 -128.951 3683
263.307 -128.951 3683
272.705 -129.232 3691
281.531 -129.232 3691
290.987 -129.512 3699
300.481 -129.792 3707
309.345 -129.792 3707
318.21 -129.792 3707
327.074 -129.792 3707
335.214 -129.512 3699
344.059 -129.512 3699
352.142 -129.232 3691
360.185 -128.951 3683
368.993 -128.951 3683
377.8 -128.951 3683
386.607 -128.951 3683
394.555 -128.671 3675
402.465 -128.391 3667
411.234 -128.391 3667
420.003 -128.391 3667
425.849 -127.516 3642
432.768 -126.991 3627
440.468 -126.711 3619
449.122 -126.711 3619
457.776 -126.711 3619
465.399 -126.431 3611
474.034 -126.431 3611
482.669 -126.431 3611
491.304 -126.431 3611
498.831 -126.15 3603
507.447 -126.15 3603
516.063 -126.15 3603
521.33 -125.345 3580
528.706 -125.065 3572
534.992 -124.54 3557
543.498 -124.54 3557
549.676 -124.015 3542
556.885 -123.735 3534
565.336 -123.735 3534
573.787 -123.735 3534
579.931 -123.244 3520
588.349 -123.244 3520
597.953 -123.489 3527
606.387 -123.489 3527
617.436 -124.015 3542
625.906 -124.015 3542
638.495 -124.82 3565
649.743 -125.345 3580
658.304 -125.345 3580
666.864 -125.345 3580
1046.46 -139.42 3982
1055.98 -139.42 3982
1067.91 -139.735 3991
1077.45 -139.735 3991
1087 -139.735 3991
1096.54 -139.735 3991
1111.35 -140.401 4010
1126.53 -141.101 4030
1149.98 -142.816 4079
1159.73 -142.816 4079
1169.49 -142.816 4079
1179.24 -142.816 4079
1189 -142.816 4079
1198.75 -142.816 4079
1490.44 -131.542 3757
1499.42 -131.542 3757
1508.41 -131.542 3757
1504.06 -130.387 3724
1512.97 -130.387 3724
1518.6 -130.107 3716
1517.21 -129.232 3691
1526.04 -129.232 3691
1514.49 -127.516 3642
1497.27 -125.345 3580
1505.83 -125.345 3580
1514.39 -125.345 3580
1509.76 -124.26 3549
1511.83 -123.735 3534
1501.36 -122.194 3490
1509.7 -122.194 3490
1505.43 -121.179 3461
1504.52 -120.443 3440
1512.75 -120.443 3440
1520.98 -120.443 3440
1529.2 -120.443 3440
1537.43 -120.443 3440
1555.09 -121.179 3461
1566.53 -121.424 3468
1574.82 -121.424 3468
1583.12 -121.424 3468
1591.41 -121.424 3468
1599.7 -121.424 3468
1607.99 -121.424 3468
1616.29 -121.424 3468
1624.58 -121.424 3468
1629.58 -121.179 3461
1637.85 -121.179 3461
1642.8 -120.934 3454
1647.71 -120.688 3447
2355.67 -141.416 4039
2365.33 -141.416 4039
2386.75 -142.116 4059
2396.45 -142.116 4059
2406.16 -142.116 4059
2415.87 -142.116 4059
2402.27 -140.751 4020
2411.88 -140.751 4020
2421.49 -140.751 4020
2431.11 -140.751 4020
2440.72 -140.751 4020
2450.33 -140.751 4020
2448.32 -140.085 4001
2457.89 -140.085 4001
2467.45 -140.085 4001
2465.26 -139.42 3982
2468.57 -139.07 3972
2478.06 -139.07 3972
2475.66 -138.405 3953
2467.51 -137.424 3925
2465.54 -136.794 3907
2474.88 -136.794 3907
2484.23 -136.794 3907
2476.34 -135.849 3880
2474.08 -135.219 3862
2483.32 -135.219 3862
2498.36 -135.534 3871
2507.62 -135.534 3871
2516.88 -135.534 3871
2543.75 -136.479 3898
2553.07 -136.479 3898
2562.4 -136.479 3898
2559.84 -135.849 3880
1838.72 -96.5297 2757
1845.31 -96.5297 2757
1851.9 -96.5297 2757
1858.5 -96.5297 2757
1871.85 -96.8799 2767
1900.19 -98.0003 2799
1906.89 -98.0003 2799
1923.15 -98.4905 2813
1936.74 -98.8406 2823
1946.93 -99.0156 2828
1953.7 -99.0156 2828
1960.46 -99.0156 2828
1967.22 -99.0156 2828
1983.76 -99.5058 2842
2010.86 -100.521 2871
2017.73 -100.521 2871
2024.59 -100.521 2871
2025.09 -100.206 2862
2031.94 -100.206 2862
2038.78 -100.206 2862
2048.48 -100.346 2866
2167.21 -105.808 3022
2210.41 -107.559 3072
2217.76 -107.559 3072
2225.11 -107.559 3072
2232.45 -107.559 3072
2239.8 -107.559 3072
2247.14 -107.559 3072
2280.18 -108.784 3107
2308.96 -109.8 3136
2338.62 -110.85 3166
2346.19 -110.85 3166
2353.76 -110.85 3166
2338.95 -109.8 3136
2667.44 -124.82 3565
2675.97 -124.82 3565
2731.18 -126.991 3627
2782.16 -128.951 3683
2822.03 -130.387 3724
2830.94 -130.387 3724
2884.84 -132.453 3783
2893.88 -132.453 3783
-2680.43 -116.769 3580
-2671.87 -116.769 3580
-2663.31 -116.769 3580
-2654.75 -116.769 3580
-2646.19 -116.769 3580
-2603.74 -115.269 3534
-2579.13 -114.551 3512
-2528.28 -112.659 3454
-2520.02 -112.659 3454
-2511.76 -112.659 3454
-2534.67 -114.062 3497
-2542.92 -114.812 3520
-2534.5 -114.812 3520
-2526.08 -114.812 3520
-2511.95 -114.551 3512
-2487.86 -113.834 3490
-2479.52 -113.834 3490
-2471.17 -113.834 3490
-2484 -114.812 3520
-2495.98 -115.758 3549
-2487.49 -115.758 3549
-2479 -115.758 3549
-2476.08 -116.019 3557
-2473.13 -116.28 3565
-2480.5 -117.03 3588
-2471.92 -117.03 3588
-2479.13 -117.78 3611
-2475.97 -118.041 3619
-2472.77 -118.302 3627
-2464.1 -118.302 3627
-2465.58 -118.791 3642
-2467.67 -119.313 3658
-2458.92 -119.313 3658
-2450.17 -119.313 3658
-2441.42 -119.313 3658
-2427.36 -119.052 3650
-2423.93 -119.313 3658
-2415.18 -119.313 3658
-2406.43 -119.313 3658
-2397.69 -119.313 3658
-2388.94 -119.313 3658
-2380.19 -119.313 3658
-2377.28 -119.607 3667
-2384.01 -120.39 3691
-2375.19 -120.39 3691
-2366.36 -120.39 3691
-2357.53 -120.39 3691
-2348.71 -120.39 3691
-2339.88 -120.39 3691
-2331.05 -120.39 3691
-2317.19 -120.129 3683
-2298.36 -119.607 3667
-2299.58 -120.129 3683
-2290.77 -120.129 3683
-2281.97 -120.129 3683
-2273.16 -120.129 3683
-2264.35 -120.129 3683
-2255.54 -120.129 3683
-2246.74 -120.129 3683
-2237.93 -120.129 3683
-2186.56 -118.302 3627
-2177.88 -118.302 3627
-2182.96 -119.052 3650
-2184.36 -119.607 3667
-2185.09 -120.129 3683
-2176.28 -120.129 3683
-2172.18 -120.39 3691
-2163.35 -120.39 3691
-2154.53 -120.39 3691
-2145.7 -120.39 3691
-2117.77 -119.313 3658
-2118.82 -119.868 3675
-2110.04 -119.868 3675
-2101.25 -119.868 3675
-2082.78 -119.313 3658
-2051.92 -118.041 3619
-2043.27 -118.041 3619
-2025.62 -117.519 3603
-1986.77 -115.758 3549
-1966.02 -115.04 3527
-1957.59 -115.04 3527
-1924.84 -113.605 3483
-1900.55 -112.659 3454
-1853.94 -110.376 3384
-1845.85 -110.376 3384
-1833.96 -110.148 3377
-1807.5 -109.039 3343
-1792.51 -108.615 3330
-1784.54 -108.615 3330
-1776.58 -108.615 3330
-1768.62 -108.615 3330
-1746.38 -107.734 3303
-1731.64 -107.31 3290
-1723.77 -107.31 3290
-1715.9 -107.31 3290
-1695.06 -106.495 3265
-1683.63 -106.266 3258
-1679.44 -106.495 3265
-1671.63 -106.495 3265
-1670.45 -106.919 3278
-1662.61 -106.919 3278
-1657.8 -107.115 3284
-1649.95 -107.115 3284
-1642.1 -107.115 3284
-1637.23 -107.31 3290
-1632.83 -107.539 3297
-1624.94 -107.539 3297
-1626.87 -108.191 3317
-1618.94 -108.191 3317
-1611 -108.191 3317
-1603.07 -108.191 3317
-1591.77 -107.963 3310
-1583.86 -107.963 3310
-1575.94 -107.963 3310
-1568.03 -107.963 3310
-1560.11 -107.963 3310
-1555.48 -108.191 3317
-1550.35 -108.387 3323
-1542.4 -108.387 3323
-1537.69 -108.615 3330
-1529.72 -108.615 3330
-1524.96 -108.843 3337
-1516.98 -108.843 3337
-1518.05 -109.496 3357
-1510.02 -109.496 3357
-1504.67 -109.691 3363
-1496.63 -109.691 3363
-1488.59 -109.691 3363
-1477.91 -109.496 3357
-1469.88 -109.496 3357
-1461.85 -109.496 3357
-1453.82 -109.496 3357
-1451.4 -109.92 3370
-1449.33 -110.376 3384
-1441.24 -110.376 3384
-1433.15 -110.376 3384
-1428 -110.605 3391
-1422.83 -110.833 3398
-1414.7 -110.833 3398
-1415.27 -111.518 3419
-1407.09 -111.518 3419
-1398.92 -111.518 3419
-1390.74 -111.518 3419
-1382.56 -111.518 3419
-1374.39 -111.518 3419
-1374.6 -112.203 3440
-1366.38 -112.203 3440
-1358.15 -112.203 3440
-1349.93 -112.203 3440
-1338.97 -111.974 3433
-1330.76 -111.974 3433
-1322.55 -111.974 3433
-1306.3 -111.29 3412
-1292.82 -110.833 3398
-1284.69 -110.833 3398
-1268.68 -110.148 3377
-1253.13 -109.496 3357
-1235.09 -108.615 3330
-1227.13 -108.615 3330
-1216.6 -108.387 3323
-1206.47 -108.191 3317
-1193.48 -107.734 3303
-1185.59 -107.734 3303
-1173.05 -107.31 3290
-1163.06 -107.115 3284
-1155.21 -107.115 3284
-1147.35 -107.115 3284
-1139.5 -107.115 3284
-1129.58 -106.919 3278
-1112.84 -106.071 3252
-1105.07 -106.071 3252
-1095.27 -105.875 3246
-1085.16 -105.647 3239
-1071.43 -105.06 3221
-1063.72 -105.06 3221
-1053.73 -104.831 3214
-561.425 -56.2645 1725
-557.3 -56.2645 1725
-553.175 -56.2645 1725
-549.05 -56.2645 1725
-544.925 -56.2645 1725
-540.173 -56.1993 1723
-536.053 -56.1993 1723
-531.933 -56.1993 1723
-527.813 -56.1993 1723
-523.692 -56.1993 1723
-518.667 -56.1014 1720
-514.554 -56.1014 1720
-510.441 -56.1014 1720
-505.74 -56.0362 1718
-501.631 -56.0362 1718
-496.654 -55.9383 1715
-492.553 -55.9383 1715
-487.313 -55.8078 1711
-481.809 -55.6448 1706
-476.33 -55.4817 1701
-471.151 -55.3512 1697
-467.093 -55.3512 1697
-462.217 -55.2534 1694
-457.084 -55.1229 1690
-452.238 -55.025 1687
-448.204 -55.025 1687
-443.644 -54.9598 1685
-439.092 -54.8946 1683
-434.292 -54.7967 1680
-430.275 -54.7967 1680
-424.482 -54.5684 1673
-420.481 -54.5684 1673
-415.236 -54.4053 1668
-411.247 -54.4053 1668
-406.526 -54.3075 1665
-402.544 -54.3075 1665
-397.366 -54.1444 1660
-393.396 -54.1444 1660
-388.957 -54.0791 1658
-384.76 -54.0465 1657
-379.189 -53.8182 1650
-375.244 -53.8182 1650
-371.298 -53.8182 1650
-366.907 -53.753 1648
-362.966 -53.753 1648
-358.154 -53.6225 1644
-354.223 -53.6225 1644
-349.865 -53.5573 1642
-345.939 -53.5573 1642
-341.387 -53.4594 1639
-337.468 -53.4594 1639
-333.549 -53.4594 1639
-329.227 -53.3942 1637
-325.313 -53.3942 1637
-321.398 -53.3942 1637
-317.289 -53.3616 1636
-313.377 -53.3616 1636
-309.465 -53.3616 1636
-306.113 -53.4594 1639
-302.194 -53.4594 1639
-298.457 -53.492 1640
-295.253 -53.6225 1644
-291.853 -53.7204 1647
-287.915 -53.7204 1647
-284.149 -53.753 1648
-280.548 -53.8182 1650
-277.105 -53.9161 1653
-273.153 -53.9161 1653
-269.2 -53.9161 1653
-265.247 -53.9161 1653
-261.294 -53.9161 1653
-257.341 -53.9161 1653
-253.388 -53.9161 1653
-249.436 -53.9161 1653
-245.483 -53.9161 1653
-241.53 -53.9161 1653
-237.146 -53.8182 1650
-232.776 -53.7204 1647
-228.838 -53.7204 1647
-224.899 -53.7204 1647
-220.693 -53.6551 1645
-216.364 -53.5573 1642
-211.79 -53.3942 1637
-207.876 -53.3942 1637
-203.836 -53.3616 1636
-199.68 -53.2963 1634
-195.413 -53.1985 1631
-191.513 -53.1985 1631
-187.268 -53.1006 1628
-183.375 -53.1006 1628
-179.481 -53.1006 1628
-175.588 -53.1006 1628
-171.695 -53.1006 1628
-167.802 -53.1006 1628
-164.01 -53.1332 1629
-160.311 -53.1985 1631
-156.411 -53.1985 1631
-152.511 -53.1985 1631
-148.702 -53.2311 1632
-144.799 -53.2311 1632
-140.896 -53.2311 1632
-137.33 -53.3616 1636
-133.417 -53.3616 1636
-129.743 -53.4594 1639
-125.823 -53.4594 1639
-121.904 -53.4594 1639
-117.841 -53.3942 1637
-114.065 -53.4594 1639
-110.146 -53.4594 1639
-106.227 -53.4594 1639
-102.37 -53.492 1640
-98.448 -53.492 1640
-94.5262 -53.492 1640
-90.6045 -53.492 1640
-86.6827 -53.492 1640
-82.6096 -53.3942 1637
-78.695 -53.3942 1637
-74.7348 -53.3616 1636
-70.7361 -53.2963 1634
-117.188 -121.988 3740
-108.997 -122.836 3766
-99.9911 -122.836 3766
-90.9854 -122.836 3766
-81.6097 -122.281 3749
-72.1603 -121.466 3724
-63.2551 -121.466 3724
-54.3498 -121.466 3724
-45.4446 -121.466 3724
-36.5394 -121.466 3724
-27.6936 -121.727 3732
-18.8095 -121.988 3740
-9.86599 -121.988 3740
-0.922514 -121.988 3740
8.0038 -121.727 3732
16.9644 -121.988 3740
25.9079 -121.988 3740
34.9352 -122.281 3749
43.9002 -122.281 3749
52.8652 -122.281 3749
61.8302 -122.281 3749
70.7952 -122.281 3749
79.3985 -121.727 3732
88.3229 -121.727 3732
96.8303 -121.205 3716
105.233 -120.651 3699
114.325 -120.912 3707
123.189 -120.912 3707
132.054 -120.912 3707
141.261 -121.205 3716
150.147 -121.205 3716
159.033 -121.205 3716
167.512 -120.912 3707
176.377 -120.912 3707
184.842 -120.651 3699
193.687 -120.651 3699
202.532 -120.651 3699
211.378 -120.651 3699
220.223 -120.651 3699
229.069 -120.651 3699
237.914 -120.651 3699
246.226 -120.39 3691
255.052 -120.39 3691
263.879 -120.39 3691
273.296 -120.651 3699
282.141 -120.651 3699
291.616 -120.912 3707
301.21 -121.205 3716
310.096 -121.205 3716
318.982 -121.205 3716
327.868 -121.205 3716
336.755 -121.205 3716
345.641 -121.205 3716
353.668 -120.912 3707
361.75 -120.651 3699
370.596 -120.651 3699
379.441 -120.651 3699
386.607 -120.129 3683
394.555 -119.868 3675
402.465 -119.607 3667
411.234 -119.607 3667
420.003 -119.607 3667
425.849 -118.791 3642
431.814 -118.041 3619
440.468 -118.041 3619
449.122 -118.041 3619
457.776 -118.041 3619
465.399 -117.78 3611
474.034 -117.78 3611
482.669 -117.78 3611
491.304 -117.78 3611
498.831 -117.519 3603
505.335 -117.03 3588
513.915 -117.03 3588
520.165 -116.508 3572
526.486 -116.019 3557
532.736 -115.53 3542
541.206 -115.53 3542
548.435 -115.269 3534
556.885 -115.269 3534
564.216 -115.04 3527
572.651 -115.04 3527
578.613 -114.551 3512
587.012 -114.551 3512
596.766 -114.812 3520
606.387 -115.04 3527
616.041 -115.269 3534
624.492 -115.269 3534
638.495 -116.28 3565
647.02 -116.28 3565
655.545 -116.28 3565
664.07 -116.28 3565
1046.46 -129.881 3982
1076.4 -132.393 4059
1088.78 -132.719 4069
1098.51 -132.719 4069
1108.24 -132.719 4069
1115.22 -132.393 4059
1124.93 -132.393 4059
1143.02 -133.371 4089
1152.8 -133.371 4089
1162.58 -133.371 4089
1172.36 -133.371 4089
1504.32 -123.684 3792
1513.39 -123.684 3792
1522.46 -123.684 3792
1521.03 -122.836 3766
1523.12 -122.281 3749
1525.14 -121.727 3732
1520.5 -120.651 3699
1529.35 -120.651 3699
1514.49 -118.791 3642
1503.54 -117.258 3595
1499.52 -116.28 3565
1508.04 -116.28 3565
1513.17 -116.019 3557
1515.26 -115.53 3542
1504.37 -114.062 3497
1512.73 -114.062 3497
1511.96 -113.377 3476
1510.65 -112.659 3454
1512.75 -112.203 3440
1520.98 -112.203 3440
1529.2 -112.203 3440
1537.43 -112.203 3440
1545.66 -112.203 3440
1563.37 -112.888 3461
1571.64 -112.888 3461
1579.92 -112.888 3461
1588.2 -112.888 3461
1596.47 -112.888 3461
1604.75 -112.888 3461
1613.02 -112.888 3461
1621.3 -112.888 3461
1626.28 -112.659 3454
1634.54 -112.659 3454
1636.14 -112.203 3440
1620.95 -110.605 3391
2367.34 -132.393 4059
2377.04 -132.393 4059
2398.51 -133.045 4079
2408.26 -133.045 4079
2418.02 -133.045 4079
2427.77 -133.045 4079
2437.53 -133.045 4079
2417.88 -131.447 4030
2427.52 -131.447 4030
2437.15 -131.447 4030
2446.79 -131.447 4030
2456.43 -131.447 4030
2448.32 -130.501 4001
2457.89 -130.501 4001
2455.74 -129.881 3982
2453.5 -129.262 3963
2456.76 -128.935 3953
2466.21 -128.935 3953
2458.13 -128.022 3925
2450.54 -127.141 3898
2442.82 -126.261 3871
2452.08 -126.261 3871
2461.34 -126.261 3871
2464.85 -125.967 3862
2434.37 -123.945 3800
2432.52 -123.39 3783
2441.57 -123.39 3783
2439.6 -122.836 3766
2459.66 -123.39 3783
2496.77 -124.793 3826
2505.92 -124.793 3826
2515.07 -124.793 3826
2524.21 -124.793 3826
1829.47 -89.7949 2753
1838.72 -89.9253 2757
1845.31 -89.9253 2757
1851.9 -89.9253 2757
1858.5 -89.9253 2757
1868.47 -90.0884 2762
1881.19 -90.382 2771
1893.94 -90.6755 2780
1900.59 -90.6755 2780
1907.24 -90.6755 2780
1917.33 -90.8386 2785
1923.99 -90.8386 2785
1930.65 -90.8386 2785
1937.31 -90.8386 2785
1957.23 -91.4583 2804
1990.55 -92.6978 2842
1997.35 -92.6978 2842
2011.2 -93.024 2852
2025.09 -93.3501 2862
2031.94 -93.3501 2862
2038.78 -93.3501 2862
2048.48 -93.4806 2866
2080.44 -94.6222 2901
2120.47 -96.1226 2947
2127.52 -96.1226 2947
2154.12 -97.0032 2974
2196.12 -98.5689 3022
2215.74 -99.1234 3039
2223 -99.1234 3039
2250.82 -100.037 3067
2287.61 -101.341 3107
2295.04 -101.341 3107
2302.47 -101.341 3107
2331.45 -102.287 3136
2338.95 -102.287 3136
2346.45 -102.287 3136
2353.95 -102.287 3136
2725.16 -118.041 3619
2794.24 -120.651 3699
2853.86 -122.836 3766
2862.87 -122.836 3766
2891.7 -123.684 3792
2900.77 -123.684 3792
-2680.43 -108.193 3580
-2671.87 -108.193 3580
-2663.31 -108.193 3580
-2654.75 -108.193 3580
-2646.19 -108.193 3580
-2603.74 -106.803 3534
-2579.13 -106.138 3512
-2528.28 -104.385 3454
-2520.02 -104.385 3454
-2511.76 -104.385 3454
-2534.67 -105.685 3497
-2542.92 -106.38 3520
-2534.5 -106.38 3520
-2526.08 -106.38 3520
-2511.95 -106.138 3512
-2487.86 -105.473 3490
-2479.52 -105.473 3490
-2471.17 -105.473 3490
-2484 -106.38 3520
-2495.98 -107.256 3549
-2487.49 -107.256 3549
-2479 -107.256 3549
-2476.08 -107.498 3557
-2467.58 -107.498 3557
-2480.5 -108.435 3588
-2471.92 -108.435 3588
-2473.64 -108.888 3603
-2475.97 -109.372 3619
-2472.77 -109.614 3627
-2464.1 -109.614 3627
-2460.84 -109.855 3635
-2456.87 -110.067 3642
-2453.54 -110.309 3650
-2444.81 -110.309 3650
-2436.08 -110.309 3650
-2422.04 -110.067 3642
-2423.93 -110.551 3658
-2415.18 -110.551 3658
-2406.43 -110.551 3658
-2397.69 -110.551 3658
-2388.94 -110.551 3658
-2374.99 -110.309 3650
-2377.28 -110.823 3667
-2368.51 -110.823 3667
-2359.74 -110.823 3667
-2350.97 -110.823 3667
-2342.2 -110.823 3667
-2333.43 -110.823 3667
-2324.67 -110.823 3667
-2315.9 -110.823 3667
-2307.13 -110.823 3667
-2282.69 -110.067 3642
-2299.58 -111.306 3683
-2290.77 -111.306 3683
-2281.97 -111.306 3683
-2273.16 -111.306 3683
-2264.35 -111.306 3683
-2255.54 -111.306 3683
-2246.74 -111.306 3683
-2237.93 -111.306 3683
-2195.23 -109.614 3627
-2186.56 -109.614 3627
-2177.88 -109.614 3627
-2182.96 -110.309 3650
-2184.36 -110.823 3667
-2175.59 -110.823 3667
-2166.82 -110.823 3667
-2158.06 -110.823 3667
-2149.29 -110.823 3667
-2140.52 -110.823 3667
-2117.22 -110.067 3642
-2108.51 -110.067 3642
-2104.41 -110.309 3650
-2095.68 -110.309 3650
-2086.95 -110.309 3650
-2078.23 -110.309 3650
-2042.85 -108.888 3603
-2034.23 -108.888 3603
-1999.76 -107.498 3557
-1974.46 -106.592 3527
-1945.4 -105.473 3490
-1937.05 -105.473 3490
-1908.81 -104.385 3454
-1869.74 -102.693 3398
-1850.11 -102.058 3377
-1842.03 -102.058 3377
-1815.49 -101.031 3343
-1789.65 -100.033 3310
-1777.97 -99.8219 3303
-1766.86 -99.6406 3297
-1758.97 -99.6406 3297
-1751.09 -99.6406 3297
-1736.33 -99.2477 3284
-1728.48 -99.2477 3284
-1720.63 -99.2477 3284
-1702.86 -98.6735 3265
-1691.42 -98.4619 3258
-1680.53 -98.2806 3252
-1675.84 -98.4619 3258
-1668.05 -98.4619 3258
-1666.88 -98.8548 3271
-1662.61 -99.0664 3278
-1654.77 -99.0664 3278
-1646.93 -99.0664 3278
-1639.1 -99.0664 3278
-1631.26 -99.0664 3278
-1629.36 -99.429 3290
-1621.49 -99.429 3290
-1623.44 -100.033 3310
-1615.52 -100.033 3310
-1607.6 -100.033 3310
-1587.12 -99.2477 3284
-1579.27 -99.2477 3284
-1577.64 -99.6406 3297
-1569.75 -99.6406 3297
-1561.87 -99.6406 3297
-1556.81 -99.8219 3303
-1552.2 -100.033 3310
-1544.28 -100.033 3310
-1536.37 -100.033 3310
-1531.68 -100.245 3317
-1526.51 -100.426 3323
-1518.56 -100.426 3323
-1510.62 -100.426 3323
-1505.84 -100.638 3330
-1501.02 -100.849 3337
-1498.86 -101.242 3350
-1490.85 -101.242 3350
-1482.84 -101.242 3350
-1471.74 -101.031 3343
-1463.75 -101.031 3343
-1455.76 -101.031 3343
-1450.79 -101.242 3350
-1445.8 -101.454 3357
-1443.34 -101.847 3370
-1435.28 -101.847 3370
-1430.18 -102.058 3377
-1425.06 -102.27 3384
-1416.96 -102.27 3384
-1408.87 -102.27 3384
-1406.58 -102.693 3398
-1401.33 -102.905 3405
-1393.19 -102.905 3405
-1387.89 -103.116 3412
-1379.73 -103.116 3412
-1374.39 -103.328 3419
-1369.01 -103.539 3426
-1363.6 -103.751 3433
-1355.39 -103.751 3433
-1347.18 -103.751 3433
-1338.97 -103.751 3433
-1330.76 -103.751 3433
-1317.16 -103.328 3419
-1303.62 -102.905 3405
-1290.15 -102.481 3391
-1282.04 -102.481 3391
-1266.05 -101.847 3370
-1247.91 -101.031 3343
-1235.09 -100.638 3330
-1227.13 -100.638 3330
-1211.84 -100.033 3310
-1201.38 -99.8219 3303
-1188.79 -99.429 3290
-1180.92 -99.429 3290
-1170.91 -99.2477 3284
-1160.93 -99.0664 3278
-1153.1 -99.0664 3278
-1145.26 -99.0664 3278
-1137.42 -99.0664 3278
-1122.69 -98.4619 3258
-1108.4 -97.8877 3239
-1100.65 -97.8877 3239
-1092.9 -97.8877 3239
-1079.13 -97.3437 3221
-1069.1 -97.1322 3214
-1061.41 -97.1322 3214
-1053.73 -97.1322 3214
-1038.23 -96.4069 3190
-557.3 -52.1322 1725
-553.175 -52.1322 1725
-549.05 -52.1322 1725
-544.925 -52.1322 1725
-540.8 -52.1322 1725
-536.675 -52.1322 1725
-531.624 -52.0416 1722
-527.506 -52.0416 1722
-522.781 -51.9811 1720
-518.064 -51.9207 1718
-513.956 -51.9207 1718
-509.848 -51.9207 1718
-505.151 -51.8602 1716
-501.047 -51.8602 1716
-496.075 -51.7696 1713
-491.979 -51.7696 1713
-486.458 -51.6185 1708
-481.244 -51.4976 1704
-475.769 -51.3465 1699
-470.596 -51.2256 1695
-466.543 -51.2256 1695
-461.671 -51.1349 1692
-457.084 -51.0745 1690
-451.702 -50.9234 1685
-447.673 -50.9234 1685
-443.117 -50.8629 1683
-438.832 -50.8327 1682
-434.292 -50.7723 1680
-430.275 -50.7723 1680
-424.482 -50.5607 1673
-420.23 -50.5305 1672
-415.236 -50.4096 1668
-411.247 -50.4096 1668
-406.526 -50.3189 1665
-402.061 -50.2585 1663
-397.366 -50.1678 1660
-393.396 -50.1678 1660
-388.723 -50.0772 1657
-384.76 -50.0772 1657
-379.189 -49.8656 1650
-374.789 -49.8052 1648
-370.848 -49.8052 1648
-366.907 -49.8052 1648
-362.746 -49.775 1647
-358.154 -49.6843 1644
-354.223 -49.6843 1644
-349.865 -49.6238 1642
-345.517 -49.5634 1640
-341.387 -49.5332 1639
-337.468 -49.5332 1639
-333.142 -49.4727 1637
-329.026 -49.4425 1636
-325.114 -49.4425 1636
-321.202 -49.4425 1636
-317.289 -49.4425 1636
-313.377 -49.4425 1636
-309.465 -49.4425 1636
-305.553 -49.4425 1636
-301.641 -49.4425 1636
-298.275 -49.5332 1639
-294.894 -49.6238 1642
-291.499 -49.7145 1645
-287.565 -49.7145 1645
-284.149 -49.8052 1648
-280.548 -49.8656 1650
-276.603 -49.8656 1650
-272.657 -49.8656 1650
-269.2 -49.9563 1653
-265.247 -49.9563 1653
-261.294 -49.9563 1653
-257.341 -49.9563 1653
-253.388 -49.9563 1653
-249.436 -49.9563 1653
-245.483 -49.9563 1653
-241.092 -49.8656 1650
-236.715 -49.775 1647
-232.776 -49.775 1647
-228.56 -49.7145 1645
-224.626 -49.7145 1645
-220.29 -49.6238 1642
-215.968 -49.5332 1639
-211.79 -49.4727 1637
-207.876 -49.4727 1637
-203.587 -49.3821 1634
-199.68 -49.3821 1634
-195.413 -49.2914 1631
-191.513 -49.2914 1631
-187.268 -49.2007 1628
-183.375 -49.2007 1628
-179.261 -49.1403 1626
-175.373 -49.1403 1626
-171.484 -49.1403 1626
-167.802 -49.2007 1628
-164.01 -49.231 1629
-160.311 -49.2914 1631
-156.411 -49.2914 1631
-152.511 -49.2914 1631
-148.702 -49.3216 1632
-144.799 -49.3216 1632
-140.896 -49.3216 1632
-137.33 -49.4425 1636
-133.417 -49.4425 1636
-129.584 -49.4727 1637
-125.67 -49.4727 1637
-121.755 -49.4727 1637
-117.841 -49.4727 1637
-114.065 -49.5332 1639
-110.146 -49.5332 1639
-106.227 -49.5332 1639
-102.37 -49.5634 1640
-98.568 -49.6238 1642
-94.6415 -49.6238 1642
-90.715 -49.6238 1642
-86.7885 -49.6238 1642
-82.6096 -49.4727 1637
-78.695 -49.4727 1637
-74.7348 -49.4425 1636
-70.8226 -49.4425 1636
-66.706 -49.2914 1631
-62.8058 -49.2914 1631
-117.188 -113.029 3740
-108.997 -113.814 3766
-99.9911 -113.814 3766
-90.9854 -113.814 3766
-81.6097 -113.301 3749
-72.1603 -112.545 3724
-63.2551 -112.545 3724
-54.3498 -112.545 3724
-45.4446 -112.545 3724
-36.5394 -112.545 3724
-27.6936 -112.787 3732
-18.8095 -113.029 3740
-9.86599 -113.029 3740
-0.922514 -113.029 3740
8.0038 -112.787 3732
16.9644 -113.029 3740
25.9079 -113.029 3740
34.9352 -113.301 3749
43.9002 -113.301 3749
52.8652 -113.301 3749
61.8302 -113.301 3749
70.7952 -113.301 3749
79.5687 -113.029 3740
88.5122 -113.029 3740
97.0388 -112.545 3724
105.233 -111.79 3699
114.325 -112.031 3707
123.189 -112.031 3707
132.054 -112.031 3707
141.261 -112.303 3716
150.147 -112.303 3716
159.033 -112.303 3716
167.512 -112.031 3707
176.377 -112.031 3707
184.842 -111.79 3699
193.687 -111.79 3699
202.532 -111.79 3699
211.378 -111.79 3699
220.223 -111.79 3699
229.069 -111.79 3699
237.914 -111.79 3699
246.226 -111.548 3691
255.052 -111.548 3691
264.451 -111.79 3699
273.887 -112.031 3707
282.752 -112.031 3707
292.324 -112.303 3716
301.859 -112.545 3724
310.764 -112.545 3724
319.669 -112.545 3724
328.574 -112.545 3724
337.48 -112.545 3724
346.385 -112.545 3724
354.527 -112.303 3716
363.413 -112.303 3716
371.397 -112.031 3707
380.262 -112.031 3707
388.287 -111.79 3699
395.414 -111.306 3683
403.343 -111.064 3675
412.131 -111.064 3675
420.003 -110.823 3667
425.849 -110.067 3642
432.768 -109.614 3627
440.468 -109.372 3619
449.122 -109.372 3619
457.776 -109.372 3619
465.399 -109.13 3611
474.034 -109.13 3611
482.669 -109.13 3611
491.304 -109.13 3611
498.831 -108.888 3603
505.335 -108.435 3588
513.915 -108.435 3588
520.165 -107.952 3572
526.486 -107.498 3557
532.736 -107.045 3542
541.206 -107.045 3542
548.435 -106.803 3534
556.885 -106.803 3534
564.216 -106.592 3527
572.651 -106.592 3527
578.613 -106.138 3512
587.012 -106.138 3512
597.953 -106.592 3527
606.387 -106.592 3527
616.041 -106.803 3534
624.492 -106.803 3534
638.495 -107.74 3565
648.291 -107.952 3572
661.062 -108.647 3595
669.659 -108.647 3595
678.255 -108.647 3595
797.033 -114.6 3792
820.981 -116.716 3862
830.217 -116.716 3862
851.189 -118.348 3916
860.554 -118.348 3916
869.918 -118.348 3916
1046.46 -120.342 3982
1081.7 -123.274 4079
1094.13 -123.576 4089
1103.91 -123.576 4089
1113.69 -123.576 4089
1117.97 -122.972 4069
1127.7 -122.972 4069
1143.02 -123.576 4089
1152.8 -123.576 4089
1162.58 -123.576 4089
1172.36 -123.576 4089
1514.64 -115.386 3818
1523.77 -115.386 3818
1532.9 -115.386 3818
1531.53 -114.6 3792
1530.03 -113.814 3766
1532.09 -113.301 3749
1527.49 -112.303 3716
1536.38 -112.303 3716
1514.49 -110.067 3642
1503.54 -108.647 3595
1499.52 -107.74 3565
1508.04 -107.74 3565
1513.17 -107.498 3557
1515.26 -107.045 3542
1504.37 -105.685 3497
1512.73 -105.685 3497
1511.96 -105.05 3476
1510.65 -104.385 3454
1512.75 -103.962 3440
1520.98 -103.962 3440
1529.2 -103.962 3440
1537.43 -103.962 3440
1545.66 -103.962 3440
1563.37 -104.597 3461
1571.64 -104.597 3461
1579.92 -104.597 3461
1588.2 -104.597 3461
1596.47 -104.597 3461
1604.75 -104.597 3461
1613.02 -104.597 3461
1621.3 -104.597 3461
1626.28 -104.385 3454
1634.54 -104.385 3454
1636.14 -103.962 3440
1620.95 -102.481 3391
2351.82 -122.367 4049
2373.17 -122.972 4069
2382.9 -122.972 4069
2398.51 -123.274 4079
2408.26 -123.274 4079
2418.02 -123.274 4079
2427.77 -123.274 4079
2437.53 -123.274 4079
2435.28 -122.669 4059
2444.99 -122.669 4059
2454.69 -122.669 4059
2446.79 -121.793 4030
2456.43 -121.793 4030
2448.32 -120.917 4001
2457.89 -120.917 4001
2455.74 -120.342 3982
2453.5 -119.768 3963
2456.76 -119.466 3953
2466.21 -119.466 3953
2458.13 -118.62 3925
2450.54 -117.804 3898
2442.82 -116.988 3871
2452.08 -116.988 3871
2461.34 -116.988 3871
2464.85 -116.716 3862
2434.37 -114.842 3800
2432.52 -114.328 3783
2441.57 -114.328 3783
2439.6 -113.814 3766
2459.66 -114.328 3783
2496.77 -115.628 3826
2505.92 -115.628 3826
2515.07 -115.628 3826
2524.21 -115.628 3826
1832.12 -83.3209 2757
1838.72 -83.3209 2757
1845.31 -83.3209 2757
1851.9 -83.3209 2757
1858.5 -83.3209 2757
1868.47 -83.472 2762
1881.19 -83.744 2771
1893.94 -84.016 2780
1900.59 -84.016 2780
1907.24 -84.016 2780
1917.33 -84.1671 2785
1923.99 -84.1671 2785
1930.65 -84.1671 2785
1937.31 -84.1671 2785
1957.23 -84.7413 2804
1990.55 -85.8897 2842
1997.35 -85.8897 2842
2011.2 -86.192 2852
2025.09 -86.4942 2862
2031.94 -86.4942 2862
2038.78 -86.4942 2862
2048.48 -86.6151 2866
2080.44 -87.6728 2901
2120.47 -89.063 2947
2127.52 -89.063 2947
2154.12 -89.879 2974
2196.12 -91.3296 3022
2215.74 -91.8434 3039
2223 -91.8434 3039
2250.82 -92.6896 3067
2287.61 -93.8985 3107
2295.04 -93.8985 3107
2302.47 -93.8985 3107
2331.45 -94.7749 3136
2338.95 -94.7749 3136
2346.45 -94.7749 3136
2353.95 -94.7749 3136
2725.16 -109.372 3619
2800.29 -112.031 3707
2859.92 -114.056 3774
2868.95 -114.056 3774
2897.8 -114.842 3800
2906.89 -114.842 3800
-2686.42 -99.84 3588
-2677.84 -99.84 3588
-2669.26 -99.84 3588
-2654.75 -99.6174 3580
-2646.19 -99.6174 3580
-2637.63 -99.6174 3580
-2579.13 -97.7252 3512
-2544.38 -96.7234 3476
-2546.28 -97.113 3490
-2537.94 -97.113 3490
-2551.34 -97.9478 3520
-2542.92 -97.9478 3520
-2534.5 -97.9478 3520
-2526.08 -97.9478 3520
-2511.95 -97.7252 3512
-2498.56 -97.5304 3505
-2490.18 -97.5304 3505
-2481.79 -97.5304 3505
-2484 -97.9478 3520
-2495.98 -98.7548 3549
-2487.49 -98.7548 3549
-2479 -98.7548 3549
-2476.08 -98.9774 3557
-2467.58 -98.9774 3557
-2480.5 -99.84 3588
-2471.92 -99.84 3588
-2473.64 -100.257 3603
-2475.97 -100.703 3619
-2467.32 -100.703 3619
-2458.66 -100.703 3619
-2455.43 -100.925 3627
-2452.15 -101.148 3635
-2443.46 -101.148 3635
-2434.76 -101.148 3635
-2426.07 -101.148 3635
-2417.38 -101.148 3635
-2423.93 -101.788 3658
-2415.18 -101.788 3658
-2406.43 -101.788 3658
-2397.69 -101.788 3658
-2388.94 -101.788 3658
-2369.78 -101.343 3642
-2371.44 -101.788 3658
-2368.51 -102.038 3667
-2359.74 -102.038 3667
-2350.97 -102.038 3667
-2336.45 -101.788 3658
-2327.71 -101.788 3658
-2318.96 -101.788 3658
-2310.21 -101.788 3658
-2301.47 -101.788 3658
-2282.69 -101.343 3642
-2299.58 -102.483 3683
-2290.77 -102.483 3683
-2281.97 -102.483 3683
-2273.16 -102.483 3683
-2264.35 -102.483 3683
-2255.54 -102.483 3683
-2246.74 -102.483 3683
-2237.93 -102.483 3683
-2195.23 -100.925 3627
-2186.56 -100.925 3627
-2177.88 -100.925 3627
-2182.96 -101.565 3650
-2174.24 -101.565 3650
-2165.51 -101.565 3650
-2156.78 -101.565 3650
-2143.34 -101.343 3642
-2134.63 -101.343 3642
-2125.93 -101.343 3642
-2113.15 -101.148 3635
-2104.45 -101.148 3635
-2099.8 -101.343 3642
-2091.09 -101.343 3642
-2082.38 -101.343 3642
-2069.68 -101.148 3635
-2038.31 -100.035 3595
-2029.72 -100.035 3595
-1999.76 -98.9774 3557
-1974.46 -98.1426 3527
-1945.4 -97.113 3490
-1937.05 -97.113 3490
-1908.81 -96.1113 3454
-1869.74 -94.553 3398
-1835.31 -93.2174 3350
-1823.49 -93.0226 3343
-1815.49 -93.0226 3343
-1789.65 -92.1043 3310
-1774.74 -91.7426 3297
-1763.11 -91.5478 3290
-1755.24 -91.5478 3290
-1744.18 -91.3808 3284
-1736.33 -91.3808 3284
-1721.64 -91.0191 3271
-1713.81 -91.0191 3271
-1702.86 -90.8521 3265
-1688.31 -90.4904 3252
-1670.71 -89.9617 3233
-1669.67 -90.3234 3246
-1661.91 -90.3234 3246
-1657.2 -90.4904 3252
-1649.42 -90.4904 3252
-1641.65 -90.4904 3252
-1633.87 -90.4904 3252
-1626.09 -90.4904 3252
-1621.3 -90.6574 3258
-1616.98 -90.8521 3265
-1609.17 -90.8521 3265
-1607.74 -91.2139 3278
-1599.9 -91.2139 3278
-1592.06 -91.2139 3278
-1580.84 -91.0191 3271
-1573.02 -91.0191 3271
-1571.42 -91.3808 3284
-1563.56 -91.3808 3284
-1555.71 -91.3808 3284
-1550.69 -91.5478 3290
-1548.92 -91.9095 3303
-1541.02 -91.9095 3303
-1533.12 -91.9095 3303
-1528.45 -92.1043 3310
-1520.54 -92.1043 3310
-1515.82 -92.2991 3317
-1507.89 -92.2991 3317
-1502.67 -92.4661 3323
-1494.72 -92.4661 3323
-1489.91 -92.6608 3330
-1481.95 -92.6608 3330
-1473.98 -92.6608 3330
-1466.02 -92.6608 3330
-1458.06 -92.6608 3330
-1450.09 -92.6608 3330
-1445.16 -92.8556 3337
-1442.78 -93.2174 3350
-1437.77 -93.4121 3357
-1429.74 -93.4121 3357
-1421.71 -93.4121 3357
-1419.16 -93.7739 3370
-1411.1 -93.7739 3370
-1403.04 -93.7739 3370
-1397.88 -93.9687 3377
-1392.69 -94.1634 3384
-1387.46 -94.3582 3391
-1379.35 -94.3582 3391
-1371.24 -94.3582 3391
-1368.76 -94.7478 3405
-1369.01 -95.3321 3426
-1360.82 -95.3321 3426
-1352.62 -95.3321 3426
-1344.43 -95.3321 3426
-1330.78 -94.9426 3412
-1322.62 -94.9426 3412
-1311.76 -94.7478 3405
-1298.26 -94.3582 3391
-1282.16 -93.7739 3370
-1274.1 -93.7739 3370
-1258.53 -93.2174 3350
-1245.67 -92.8556 3337
-1227.67 -92.1043 3310
-1219.76 -92.1043 3310
-1209.28 -91.9095 3303
-1196.65 -91.5478 3290
-1186.62 -91.3808 3284
-1178.77 -91.3808 3284
-1164.14 -90.8521 3265
-1156.33 -90.8521 3265
-1148.52 -90.8521 3265
-1140.72 -90.8521 3265
-1130.48 -90.6574 3258
-1116.14 -90.1287 3239
-1108.4 -90.1287 3239
-1100.65 -90.1287 3239
-1084.47 -89.433 3214
-1076.78 -89.433 3214
-1069.1 -89.433 3214
-1055.47 -88.9321 3196
-1047.83 -88.9321 3196
-1038.23 -88.7652 3190
-557.3 -48 1725
-553.175 -48 1725
-549.05 -48 1725
-544.925 -48 1725
-540.8 -48 1725
-536.675 -48 1725
-531.624 -47.9165 1722
-527.506 -47.9165 1722
-522.781 -47.8609 1720
-518.064 -47.8052 1718
-513.358 -47.7495 1716
-509.254 -47.7495 1716
-505.151 -47.7495 1716
-501.047 -47.7495 1716
-496.075 -47.6661 1713
-491.979 -47.6661 1713
-486.458 -47.5269 1708
-481.244 -47.4156 1704
-475.209 -47.2209 1697
-470.318 -47.1374 1694
-466.268 -47.1374 1694
-461.671 -47.0817 1692
-456.814 -46.9982 1689
-451.702 -46.8869 1685
-447.673 -46.8869 1685
-442.854 -46.8035 1682
-438.832 -46.8035 1682
-434.292 -46.7478 1680
-430.275 -46.7478 1680
-424.482 -46.553 1673
-420.23 -46.5252 1672
-415.236 -46.4139 1668
-411.247 -46.4139 1668
-406.526 -46.3304 1665
-402.061 -46.2748 1663
-397.366 -46.1913 1660
-393.396 -46.1913 1660
-388.723 -46.1078 1657
-384.76 -46.1078 1657
-379.189 -45.913 1650
-374.789 -45.8574 1648
-370.848 -45.8574 1648
-366.907 -45.8574 1648
-362.746 -45.8296 1647
-357.718 -45.6904 1642
-353.792 -45.6904 1642
-349.865 -45.6904 1642
-345.517 -45.6348 1640
-340.971 -45.5513 1637
-337.056 -45.5513 1637
-333.142 -45.5513 1637
-328.624 -45.4678 1634
-324.716 -45.4678 1634
-320.809 -45.4678 1634
-316.514 -45.4122 1632
-312.611 -45.4122 1632
-308.708 -45.4122 1632
-305.179 -45.4678 1634
-301.272 -45.4678 1634
-297.911 -45.5513 1637
-294.355 -45.6069 1639
-290.967 -45.6904 1642
-287.041 -45.6904 1642
-283.459 -45.7461 1644
-279.698 -45.7739 1645
-275.764 -45.7739 1645
-271.831 -45.7739 1645
-268.711 -45.913 1650
-264.766 -45.913 1650
-260.82 -45.913 1650
-256.874 -45.913 1650
-252.929 -45.913 1650
-248.53 -45.8296 1647
-244.592 -45.8296 1647
-240.653 -45.8296 1647
-236.715 -45.8296 1647
-232.352 -45.7461 1644
-228.143 -45.6904 1642
-224.217 -45.6904 1642
-220.022 -45.6348 1640
-215.968 -45.6069 1639
-211.661 -45.5235 1636
-207.749 -45.5235 1636
-203.587 -45.4678 1634
-199.435 -45.4122 1632
-195.173 -45.3287 1629
-191.278 -45.3287 1629
-187.268 -45.3009 1628
-183.149 -45.2452 1626
-179.261 -45.2452 1626
-175.373 -45.2452 1626
-171.484 -45.2452 1626
-167.802 -45.3009 1628
-164.01 -45.3287 1629
-160.311 -45.3843 1631
-156.411 -45.3843 1631
-152.511 -45.3843 1631
-148.702 -45.4122 1632
-144.799 -45.4122 1632
-140.896 -45.4122 1632
-137.33 -45.5235 1636
-133.417 -45.5235 1636
-129.584 -45.5513 1637
-125.67 -45.5513 1637
-121.755 -45.5513 1637
-117.841 -45.5513 1637
-114.065 -45.6069 1639
-110.146 -45.6069 1639
-106.227 -45.6069 1639
-102.37 -45.6348 1640
-98.568 -45.6904 1642
-94.6415 -45.6904 1642
-90.715 -45.6904 1642
-86.7885 -45.6904 1642
-82.6096 -45.5513 1637
-78.695 -45.5513 1637
-74.7348 -45.5235 1636
-70.8226 -45.5235 1636
-66.706 -45.3843 1631
-62.8058 -45.3843 1631
-108.997 -104.793 3766
-99.9911 -104.793 3766
-90.9854 -104.793 3766
-81.6097 -104.32 3749
-72.1603 -103.624 3724
-63.2551 -103.624 3724
-54.3498 -103.624 3724
-45.4446 -103.624 3724
-36.5394 -103.624 3724
-27.6936 -103.847 3732
-18.8095 -104.07 3740
-9.86599 -104.07 3740
-0.922514 -104.07 3740
8.0038 -103.847 3732
16.9644 -104.07 3740
25.9079 -104.07 3740
34.9352 -104.32 3749
43.9002 -104.32 3749
52.8652 -104.32 3749
61.8302 -104.32 3749
70.7952 -104.32 3749
79.5687 -104.07 3740
88.5122 -104.07 3740
97.0388 -103.624 3724
105.233 -102.929 3699
114.325 -103.151 3707
123.189 -103.151 3707
132.054 -103.151 3707
141.261 -103.402 3716
150.147 -103.402 3716
159.033 -103.402 3716
167.512 -103.151 3707
176.377 -103.151 3707
184.842 -102.929 3699
193.687 -102.929 3699
202.532 -102.929 3699
211.378 -102.929 3699
220.223 -102.929 3699
229.069 -102.929 3699
237.914 -102.929 3699
246.226 -102.706 3691
255.052 -102.706 3691
264.451 -102.929 3699
273.887 -103.151 3707
282.752 -103.151 3707
292.324 -103.402 3716
301.859 -103.624 3724
310.764 -103.624 3724
319.669 -103.624 3724
328.574 -103.624 3724
337.48 -103.624 3724
346.385 -103.624 3724
354.527 -103.402 3716
363.413 -103.402 3716
371.397 -103.151 3707
380.262 -103.151 3707
388.287 -102.929 3699
395.414 -102.483 3683
403.343 -102.261 3675
412.131 -102.261 3675
420.003 -102.038 3667
425.849 -101.343 3642
432.768 -100.925 3627
440.468 -100.703 3619
449.122 -100.703 3619
457.776 -100.703 3619
465.399 -100.48 3611
472.984 -100.257 3603
481.6 -100.257 3603
490.216 -100.257 3603
496.755 -99.84 3588
503.081 -99.3948 3572
511.623 -99.3948 3572
517.98 -98.9774 3557
524.266 -98.56 3542
531.533 -98.3374 3534
539.984 -98.3374 3534
547.348 -98.1426 3527
555.782 -98.1426 3527
563.097 -97.9478 3520
571.514 -97.9478 3520
578.613 -97.7252 3512
587.012 -97.7252 3512
597.953 -98.1426 3527
606.387 -98.1426 3527
616.041 -98.3374 3534
624.492 -98.3374 3534
638.495 -99.2 3565
648.291 -99.3948 3572
661.062 -100.035 3595
669.659 -100.035 3595
678.255 -100.035 3595
797.033 -105.516 3792
820.981 -107.464 3862
830.217 -107.464 3862
851.189 -108.967 3916
860.554 -108.967 3916
869.918 -108.967 3916
1081.7 -113.503 4079
1094.13 -113.781 4089
1103.91 -113.781 4089
1113.69 -113.781 4089
1117.97 -113.224 4069
1127.7 -113.224 4069
1143.02 -113.781 4089
1152.8 -113.781 4089
1162.58 -113.781 4089
1172.36 -113.781 4089
1514.64 -106.24 3818
1523.77 -106.24 3818
1532.9 -106.24 3818
1531.53 -105.516 3792
1530.03 -104.793 3766
1532.09 -104.32 3749
1527.49 -103.402 3716
1536.38 -103.402 3716
1514.49 -101.343 3642
1503.54 -100.035 3595
1499.52 -99.2 3565
1508.04 -99.2 3565
1513.17 -98.9774 3557
1515.26 -98.56 3542
1504.37 -97.3078 3497
1512.73 -97.3078 3497
1511.96 -96.7234 3476
1510.65 -96.1113 3454
1512.75 -95.7217 3440
1520.98 -95.7217 3440
1529.2 -95.7217 3440
1537.43 -95.7217 3440
1545.66 -95.7217 3440
1550.72 -95.5269 3433
1558.93 -95.5269 3433
1567.14 -95.5269 3433
1575.35 -95.5269 3433
1586.79 -95.7217 3440
1595.01 -95.7217 3440
1603.24 -95.7217 3440
1611.46 -95.7217 3440
1619.69 -95.7217 3440
1627.92 -95.7217 3440
1629.48 -95.3321 3426
1620.95 -94.3582 3391
2351.82 -112.668 4049
2373.17 -113.224 4069
2382.9 -113.224 4069
2398.51 -113.503 4079
2408.26 -113.503 4079
2418.02 -113.503 4079
2427.77 -113.503 4079
2437.53 -113.503 4079
2435.28 -112.946 4059
2444.99 -112.946 4059
2454.69 -112.946 4059
2446.79 -112.139 4030
2456.43 -112.139 4030
2448.32 -111.332 4001
2457.89 -111.332 4001
2455.74 -110.803 3982
2447.31 -109.996 3953
2445.57 -109.496 3935
2454.98 -109.496 3935
2452.49 -108.967 3916
2410.93 -106.713 3835
2414.43 -106.463 3826
2423.57 -106.463 3826
2416.19 -105.739 3800
2425.28 -105.739 3800
2429.24 -105.516 3792
2410.66 -104.32 3749
2419.62 -104.32 3749
2422.76 -104.07 3740
2431.7 -104.07 3740
2446.52 -104.32 3749
2455.48 -104.32 3749
2464.45 -104.32 3749
1832.12 -76.7165 2757
1838.72 -76.7165 2757
1845.31 -76.7165 2757
1851.9 -76.7165 2757
1855.8 -76.6052 2753
1856.29 -76.3548 2744
1875.08 -76.8556 2762
1887.81 -77.1061 2771
1894.44 -77.1061 2771
1904.5 -77.2452 2776
1913.89 -77.3565 2780
1920.54 -77.3565 2780
1927.18 -77.3565 2780
1933.83 -77.3565 2780
1950.25 -77.7461 2794
1963.94 -78.0243 2804
1970.64 -78.0243 2804
2000.62 -78.9426 2837
2014.48 -79.2208 2847
2024.84 -79.36 2852
2031.66 -79.36 2852
2042.05 -79.4991 2857
2055.34 -79.7495 2866
2080.18 -80.4452 2891
2087.09 -80.4452 2891
2123.7 -81.5861 2932
2149.61 -82.3095 2958
2175.64 -83.033 2984
2182.77 -83.033 2984
2206.05 -83.6452 3006
2249.32 -85.0087 3055
2290.6 -86.2887 3101
2298.02 -86.2887 3101
2305.43 -86.2887 3101
2338.95 -87.2626 3136
2346.45 -87.2626 3136
2353.95 -87.2626 3136
2725.16 -100.703 3619
2800.29 -103.151 3707
2859.92 -105.016 3774
2868.95 -105.016 3774
2897.8 -105.739 3800
2906.89 -105.739 3800
-2686.42 -91.2449 3588
-2677.84 -91.2449 3588
-2669.26 -91.2449 3588
-2654.75 -91.0414 3580
-2646.19 -91.0414 3580
-2637.63 -91.0414 3580
-2579.13 -89.3122 3512
-2544.38 -88.3967 3476
-2546.28 -88.7527 3490
-2537.94 -88.7527 3490
-2551.34 -89.5156 3520
-2542.92 -89.5156 3520
-2534.5 -89.5156 3520
-2526.08 -89.5156 3520
-2511.95 -89.3122 3512
-2498.56 -89.1341 3505
-2490.18 -89.1341 3505
-2481.79 -89.1341 3505
-2484 -89.5156 3520
-2491.05 -90.0751 3542
-2482.58 -90.0751 3542
-2474.11 -90.0751 3542
-2465.64 -90.0751 3542
-2467.58 -90.4565 3557
-2464.6 -90.66 3565
-2456.08 -90.66 3565
-2463.34 -91.2449 3588
-2465.03 -91.6263 3603
-2461.86 -91.8298 3611
-2453.23 -91.8298 3611
-2450.01 -92.0332 3619
-2441.36 -92.0332 3619
-2438.08 -92.2367 3627
-2429.41 -92.2367 3627
-2420.73 -92.2367 3627
-2412.06 -92.2367 3627
-2418.63 -92.8216 3650
-2409.9 -92.8216 3650
-2401.17 -92.8216 3650
-2392.44 -92.8216 3650
-2383.71 -92.8216 3650
-2369.78 -92.6181 3642
-2366.26 -92.8216 3650
-2362.7 -93.025 3658
-2353.95 -93.025 3658
-2345.2 -93.025 3658
-2336.45 -93.025 3658
-2327.71 -93.025 3658
-2318.96 -93.025 3658
-2310.21 -93.025 3658
-2296.43 -92.8216 3650
-2278.3 -92.4401 3635
-2294.58 -93.4573 3675
-2285.8 -93.4573 3675
-2277.01 -93.4573 3675
-2273.16 -93.6608 3683
-2264.35 -93.6608 3683
-2255.54 -93.6608 3683
-2246.74 -93.6608 3683
-2237.93 -93.6608 3683
-2195.23 -92.2367 3627
-2186.56 -92.2367 3627
-2177.88 -92.2367 3627
-2173.99 -92.4401 3635
