ply
format ascii 1.0
comment File generated
element vertex 2249
property float x
property float y
property float z
end_header
1928.81 726.081 3635
1949.76 730.675 3658
1958.51 730.675 3658
1972.1 732.473 3667
1998.15 738.865 3699
2024.91 745.457 3732
2038.19 747.055 3740
2056.44 750.45 3757
2074.77 753.846 3774
2103.12 760.837 3809
2141.62 771.424 3862
2150.85 771.424 3862
2165.12 773.222 3871
2199.65 782.21 3916
2219.74 786.005 3935
2229.15 786.005 3935
2243.68 787.803 3944
2263.96 791.598 3963
2273.44 791.598 3963
2282.92 791.598 3963
2292.39 791.598 3963
2307.1 793.396 3972
2327.68 797.191 3991
2337.22 797.191 3991
2346.76 797.191 3991
2356.31 797.191 3991
2365.85 797.191 3991
2375.39 797.191 3991
2379.56 795.394 3982
2400.48 799.189 4001
2415.47 800.987 4010
2425.06 800.987 4010
2440.72 802.984 4020
2450.33 802.984 4020
2466.07 804.981 4030
2475.7 804.981 4030
2485.34 804.981 4030
2494.98 804.981 4030
2504.61 804.981 4030
2514.25 804.981 4030
2523.89 804.981 4030
2533.52 804.981 4030
2543.16 804.981 4030
2552.8 804.981 4030
2562.44 804.981 4030
2565.69 802.984 4020
2563.13 799.189 4001
2572.7 799.189 4001
2582.27 799.189 4001
2591.83 799.189 4001
2601.4 799.189 4001
2610.97 799.189 4001
2620.54 799.189 4001
2623.53 797.191 3991
2627.14 795.394 3982
2611.5 787.803 3944
2620.93 787.803 3944
2605.68 780.413 3907
2584.91 771.424 3862
2588.1 769.626 3853
2597.31 769.626 3853
2594.35 766.031 3835
2603.52 766.031 3835
2588.84 759.04 3800
2597.93 759.04 3800
530.498 145.816 730
532.244 145.816 730
533.989 145.816 730
535.735 145.816 730
536.744 145.616 729
537.01 145.216 727
538.749 145.216 727
539.744 145.017 726
540.734 144.817 725
542.468 144.817 725
544.201 144.817 725
545.935 144.817 725
547.669 144.817 725
549.402 144.817 725
551.136 144.817 725
552.87 144.817 725
554.604 144.817 725
-2339.02 631.494 3124
-2331.54 631.494 3124
-2315.15 629.068 3112
-2312.15 630.281 3118
-2318 633.92 3136
-2310.5 633.92 3136
-2303.01 633.92 3136
-2295.51 633.92 3136
-2279.25 631.494 3124
-2276.14 632.707 3130
-2268.66 632.707 3130
-2282.85 638.771 3160
-2323.53 652.315 3227
-2352.42 662.624 3278
-2344.58 662.624 3278
-2364.54 670.508 3317
-2370.82 674.55 3337
-2410.99 688.296 3405
-2437.42 698.201 3454
-2459.4 706.893 3497
-2487.49 717.405 3549
-2479 717.405 3549
-2492.09 723.671 3580
-2493.94 726.703 3595
-2490.87 728.32 3603
-2482.26 728.32 3603
-2484.63 731.555 3619
-2481.45 733.172 3627
-2478.23 734.789 3635
-2469.53 734.789 3635
-2460.84 734.789 3635
-2446.75 733.172 3627
-2438.08 733.172 3627
-2429.41 733.172 3627
-2410.05 729.938 3611
-2401.42 729.938 3611
-2403.39 733.172 3627
-2394.71 733.172 3627
-2386.04 733.172 3627
-2387.2 736.204 3642
-2378.49 736.204 3642
-2369.78 736.204 3642
-2366.26 737.821 3650
-2368.51 741.258 3667
-2364.89 742.875 3675
-2356.1 742.875 3675
-2347.31 742.875 3675
-2338.52 742.875 3675
-2329.74 742.875 3675
-2315.9 741.258 3667
-2307.13 741.258 3667
-2298.36 741.258 3667
-2299.58 744.492 3683
-2290.77 744.492 3683
-2302.41 751.163 3716
-2298.46 752.78 3724
-2289.56 752.78 3724
-2280.65 752.78 3724
-2261.38 749.343 3707
-2228.21 741.258 3667
-2209.15 737.821 3650
-2210.67 741.258 3667
-2201.9 741.258 3667
-2197.92 742.875 3675
-2189.13 742.875 3675
-2180.34 742.875 3675
-2064.96 736.204 3642
-2056.25 736.204 3642
-2047.54 736.204 3642
-2034.92 734.789 3635
-2000.22 741.258 3667
-1991.45 741.258 3667
-1982.68 741.258 3667
-1977.43 756.014 3740
-1968.49 756.014 3740
-1959.54 756.014 3740
-1950.6 756.014 3740
-1946.33 757.833 3749
-1937.36 757.833 3749
-1928.4 757.833 3749
-1919.43 757.833 3749
-1755.86 723.671 3580
-1747.3 723.671 3580
-1738.74 723.671 3580
-1734.04 725.288 3588
-1759.13 739.438 3658
-1750.38 739.438 3658
-1741.63 739.438 3658
-1732.88 739.438 3658
-1709.53 733.172 3627
-1719.61 741.258 3667
-1714.57 742.875 3675
-1705.79 742.875 3675
-1697 742.875 3675
-1688.21 742.875 3675
-1679.42 742.875 3675
-1670.63 742.875 3675
-1661.85 742.875 3675
-1653.06 742.875 3675
-1644.27 742.875 3675
-1635.48 742.875 3675
-1626.69 742.875 3675
-1624.95 746.109 3691
-1616.12 746.109 3691
-1607.3 746.109 3691
-1605.4 749.343 3707
-1596.54 749.343 3707
-1587.67 749.343 3707
-1575.4 747.726 3699
-1563.17 746.109 3691
-1554.34 746.109 3691
-1548.86 747.726 3699
-1540.02 747.726 3699
-1534.48 749.343 3707
-1539.2 756.014 3740
-1533.94 757.833 3749
-1524.97 757.833 3749
-1526.12 762.887 3774
-1517.09 762.887 3774
-1508.07 762.887 3774
-1499.04 762.887 3774
-1490.02 762.887 3774
-1480.99 762.887 3774
-1475.48 764.706 3783
-1466.43 764.706 3783
-1463.94 768.143 3800
-1458.3 769.962 3809
-1459.08 775.218 3835
-1449.91 775.218 3835
-1454.26 782.495 3871
-1445.01 782.495 3871
-1439.09 784.314 3880
-1429.81 784.314 3880
-1420.53 784.314 3880
-1407.98 782.495 3871
-1405.23 786.133 3889
-1395.93 786.133 3889
-1389.84 787.953 3898
-1383.7 789.772 3907
-1374.36 789.772 3907
-1365.02 789.772 3907
-1355.67 789.772 3907
-1343.23 787.953 3898
-1346.57 795.432 3935
-1337.16 795.432 3935
-1333.82 799.07 3953
-1324.37 799.07 3953
-1314.92 799.07 3953
-1299.52 795.432 3935
-1290.11 795.432 3935
-1265.73 786.133 3889
-1256.43 786.133 3889
-1235.58 778.856 3853
-1217.78 773.398 3826
-1206.1 771.781 3818
-534.65 358.399 1773
-530.41 358.399 1773
-526.17 358.399 1773
-521.342 357.995 1771
-513.311 355.367 1758
-507.369 354.154 1752
-503.18 354.154 1752
-496.996 352.739 1745
-492.259 352.335 1743
-486.131 350.92 1736
-481.979 350.92 1736
-476.452 349.909 1731
-469.311 347.686 1720
-463.846 346.675 1715
-458.136 345.462 1709
-454.049 345.462 1709
-449.173 344.856 1706
-444.05 344.047 1702
-439.204 343.441 1699
-435.141 343.441 1699
-430.571 343.036 1697
-424.754 341.621 1690
-419.468 340.611 1685
-415.438 340.611 1685
-409.7 339.196 1678
-404.478 338.185 1673
-398.563 336.568 1665
-394.581 336.568 1665
-389.427 335.557 1660
-383.832 334.142 1653
-379.879 334.142 1653
-375.926 334.142 1653
-371.298 333.536 1650
-366.907 333.131 1648
-362.966 333.131 1648
-358.808 332.929 1647
-354.869 332.929 1647
-350.931 332.929 1647
-346.36 332.323 1644
-342.012 331.918 1642
-338.086 331.918 1642
-333.752 331.514 1640
-329.83 331.514 1640
-326.306 331.918 1642
-322.772 332.323 1644
-318.841 332.323 1644
-314.91 332.323 1644
-310.978 332.323 1644
-307.234 332.525 1645
-303.3 332.525 1645
-299.366 332.525 1645
-295.792 332.929 1647
-292.031 333.131 1648
-288.09 333.131 1648
-284.494 333.536 1650
-281.398 334.546 1655
-277.441 334.546 1655
-273.483 334.546 1655
-269.525 334.546 1655
-265.889 334.951 1657
-262.875 336.163 1663
-258.898 336.163 1663
-255.228 336.568 1665
-251.548 336.972 1667
-247.71 337.174 1668
-243.722 337.174 1668
-239.733 337.174 1668
-236.451 338.185 1673
-233.145 339.196 1678
-229.132 339.196 1678
-225.12 339.196 1678
-221.107 339.196 1678
-217.353 339.6 1680
-213.336 339.6 1680
-209.319 339.6 1680
-205.546 340.004 1682
-201.643 340.206 1683
-197.854 340.611 1685
-193.824 340.611 1685
-190.245 341.419 1689
-186.868 342.632 1695
-183.03 343.036 1697
-178.972 343.036 1697
-175.327 343.845 1701
-171.259 343.845 1701
-167.191 343.845 1701
-353.018 826.562 4089
-343.24 826.562 4089
-333.462 826.562 4089
-322.892 824.54 4079
-313.138 824.54 4079
-299.74 814.635 4030
-287.295 806.752 3991
-275.803 801.092 3963
-266.326 801.092 3963
-256.849 801.092 3963
-247.934 802.911 3972
-240.177 808.773 4001
-231.128 810.593 4010
-221.539 810.593 4010
-211.95 810.593 4010
-202.361 810.593 4010
-192.772 810.593 4010
-183.182 810.593 4010
-173.593 810.593 4010
-165.19 816.455 4039
-155.532 816.455 4039
-145.873 816.455 4039
-136.215 816.455 4039
-126.556 816.455 4039
-116.348 812.614 4020
-106.735 812.614 4020
-96.2039 804.932 3982
-86.464 802.911 3972
-76.7914 801.092 3963
-67.3147 801.092 3963
-55.8385 773.398 3826
-46.6894 773.398 3826
-37.03 762.887 3774
-28.0052 762.887 3774
-18.8095 756.014 3740
-9.75783 747.726 3699
-0.904508 741.258 3667
7.8644 741.258 3667
16.6333 741.258 3667
25.3399 739.438 3658
34.0127 737.821 3650
42.5653 734.789 3635
51.2577 734.789 3635
59.8182 733.172 3627
68.4914 733.172 3627
77.1647 733.172 3627
85.8379 733.172 3627
94.3027 731.555 3619
102.729 729.938 3611
111.118 728.32 3603
119.733 728.32 3603
128.064 726.703 3595
136.661 726.703 3595
145.258 726.703 3595
153.854 726.703 3595
162.451 726.703 3595
171.048 726.703 3595
179.295 725.288 3588
187.875 725.288 3588
195.579 722.054 3572
203.721 720.639 3565
212.246 720.639 3565
220.771 720.639 3565
229.746 722.054 3572
238.287 722.054 3572
246.829 722.054 3572
255.371 722.054 3572
263.913 722.054 3572
272.454 722.054 3572
281.625 723.671 3580
291.402 726.703 3595
300.667 728.32 3603
309.282 728.32 3603
318.604 729.938 3611
327.239 729.938 3611
335.874 729.938 3611
343.746 728.32 3603
352.362 728.32 3603
359.475 725.288 3588
368.055 725.288 3588
375.795 723.671 3580
382.745 720.639 3565
388.746 715.99 3542
397.216 715.99 3542
405.686 715.99 3542
412.402 712.958 3527
418.211 708.51 3505
424.767 705.478 3490
433.113 705.478 3490
439.688 702.648 3476
443.36 695.371 3440
449.748 692.541 3426
457.941 692.541 3426
464.229 689.711 3412
465.604 679.806 3363
470.829 675.763 3343
478.823 675.763 3343
482.012 669.093 3310
489.927 669.093 3310
497.842 669.093 3310
506.827 670.508 3317
514.759 670.508 3317
522.691 670.508 3317
531.582 671.72 3323
540.665 673.135 3330
549.782 674.55 3337
557.761 674.55 3337
565.741 674.55 3337
574.753 675.763 3343
583.967 677.178 3350
591.978 677.178 3350
599.989 677.178 3350
607.999 677.178 3350
618.401 679.806 3363
626.443 679.806 3363
634.485 679.806 3363
643.864 681.221 3370
654.631 684.051 3384
662.723 684.051 3384
670.815 684.051 3384
678.908 684.051 3384
687 684.051 3384
695.092 684.051 3384
703.184 684.051 3384
714.219 686.881 3398
722.344 686.881 3398
730.47 686.881 3398
738.596 686.881 3398
746.721 686.881 3398
756.402 688.296 3405
764.544 688.296 3405
772.687 688.296 3405
780.829 688.296 3405
788.972 688.296 3405
797.114 688.296 3405
805.256 688.296 3405
811.727 686.881 3398
818.163 685.466 3391
826.272 685.466 3391
834.381 685.466 3391
847.708 689.711 3412
857.622 691.126 3419
869.344 693.956 3433
877.553 693.956 3433
892.987 699.616 3461
905.169 702.648 3476
917.16 705.478 3490
925.506 705.478 3490
939.738 709.925 3512
952.186 712.958 3527
964.706 715.99 3542
973.176 715.99 3542
985.803 719.022 3557
998.502 722.054 3572
1011.55 725.288 3588
1020.13 725.288 3588
1030.72 726.703 3595
1046.26 731.555 3619
1061.61 736.204 3642
1070.32 736.204 3642
1079.03 736.204 3642
1090.13 737.821 3650
1101.27 739.438 3658
1115.17 742.875 3675
1123.96 742.875 3675
1132.75 742.875 3675
1144.02 744.492 3683
1152.83 744.492 3683
1161.64 744.492 3683
1167.9 742.875 3675
1176.69 742.875 3675
1185.48 742.875 3675
1191.67 741.258 3667
1200.44 741.258 3667
1209.2 741.258 3667
1217.97 741.258 3667
1226.74 741.258 3667
1232.48 739.438 3658
1241.23 739.438 3658
1249.97 739.438 3658
1258.72 739.438 3658
1264.7 737.821 3650
1276.22 739.438 3658
1284.96 739.438 3658
1293.71 739.438 3658
1302.46 739.438 3658
1308.34 737.821 3650
1314.18 736.204 3642
1322.89 736.204 3642
1329.04 734.789 3635
1337.73 734.789 3635
1343.46 733.172 3627
1352.13 733.172 3627
1360.81 733.172 3627
1372.5 734.789 3635
1381.19 734.789 3635
1389.89 734.789 3635
1398.58 734.789 3635
1401.08 731.555 3619
1409.73 731.555 3619
1418.38 731.555 3619
1427.04 731.555 3619
1435.69 731.555 3619
1441.15 729.938 3611
1446.58 728.32 3603
1455.19 728.32 3603
1460.56 726.703 3595
1466.29 725.288 3588
1471.59 723.671 3580
1480.15 723.671 3580
1485.38 722.054 3572
1493.92 722.054 3572
1502.46 722.054 3572
1511.01 722.054 3572
1519.55 722.054 3572
1528.09 722.054 3572
1540.07 723.671 3580
1555.12 726.703 3595
1563.72 726.703 3595
1575.81 728.32 3603
1584.43 728.32 3603
1596.58 729.938 3611
1615.89 734.789 3635
1624.58 734.789 3635
1647.65 741.258 3667
1682.17 752.78 3724
1713.78 762.887 3774
1722.8 762.887 3774
1784.6 786.133 3889
1802.2 789.772 3907
1811.54 789.772 3907
1820.89 789.772 3907
1830.23 789.772 3907
1839.57 789.772 3907
1848.91 789.772 3907
1858.26 789.772 3907
1867.6 789.772 3907
1859.65 782.495 3871
1868.91 782.495 3871
1869.43 778.856 3853
1857.19 769.962 3809
1849.15 762.887 3774
1858.17 762.887 3774
1846.42 754.397 3732
1851.37 752.78 3724
1851.78 749.343 3707
1860.64 749.343 3707
1853.37 742.875 3675
1837.84 733.172 3627
1838.36 729.938 3611
1838.81 726.703 3595
1847.41 726.703 3595
1852.39 725.288 3588
1872.9 729.938 3611
1885.71 731.555 3619
1894.36 731.555 3619
1903.02 731.555 3619
1915.9 733.172 3627
1928.81 734.789 3635
1949.76 739.438 3658
1958.51 739.438 3658
1972.1 741.258 3667
1998.15 747.726 3699
2024.91 754.397 3732
2038.19 756.014 3740
2056.44 759.45 3757
2074.77 762.887 3774
2103.12 769.962 3809
2141.62 780.675 3862
2150.85 780.675 3862
2165.12 782.495 3871
2199.65 791.591 3916
2214.1 793.41 3925
2223.48 793.41 3925
2238.56 795.432 3935
2253.11 797.251 3944
2273.44 801.092 3963
2282.92 801.092 3963
2292.39 801.092 3963
2307.1 802.911 3972
2327.68 806.752 3991
2337.22 806.752 3991
2346.76 806.752 3991
2356.31 806.752 3991
2365.85 806.752 3991
2375.39 806.752 3991
2379.56 804.932 3982
2400.48 808.773 4001
2415.47 810.593 4010
2425.06 810.593 4010
2434.65 810.593 4010
2450.33 812.614 4020
2466.07 814.635 4030
2475.7 814.635 4030
2485.34 814.635 4030
2494.98 814.635 4030
2504.61 814.635 4030
2514.25 814.635 4030
2523.89 814.635 4030
2533.52 814.635 4030
2543.16 814.635 4030
2552.8 814.635 4030
2562.44 814.635 4030
2565.69 812.614 4020
2563.13 808.773 4001
2572.7 808.773 4001
2582.27 808.773 4001
2591.83 808.773 4001
2601.4 808.773 4001
2610.97 808.773 4001
2620.54 808.773 4001
2623.53 806.752 3991
2627.14 804.932 3982
2611.5 797.251 3944
2620.93 797.251 3944
2605.68 789.772 3907
2584.91 780.675 3862
2588.1 778.856 3853
2597.31 778.856 3853
2594.35 775.218 3835
2603.52 775.218 3835
2588.84 768.143 3800
2597.93 768.143 3800
529.771 147.362 729
531.514 147.362 729
533.258 147.362 729
535.001 147.362 729
536.008 147.16 728
537.01 146.958 727
538.749 146.958 727
539 146.554 725
539.988 146.351 724
541.719 146.351 724
543.451 146.351 724
545.182 146.351 724
546.913 146.351 724
548.645 146.351 724
550.376 146.351 724
552.107 146.351 724
553.074 146.149 723
-2334.52 637.75 3118
-2327.07 637.75 3118
-2311.43 635.5 3107
-2312.15 637.75 3118
-2318 641.432 3136
-2310.5 641.432 3136
-2303.01 641.432 3136
-2295.51 641.432 3136
-2279.25 638.978 3124
-2276.14 640.205 3130
-2268.66 640.205 3130
-2282.85 646.341 3160
-2323.53 660.045 3227
-2352.42 670.477 3278
-2344.58 670.477 3278
-2364.54 678.453 3317
-2370.82 682.544 3337
-2362.84 682.544 3337
-2437.42 706.475 3454
-2459.4 715.27 3497
-2493.1 727.543 3557
-2484.59 727.543 3557
-2492.09 732.247 3580
-2493.94 735.315 3595
-2490.87 736.951 3603
-2482.26 736.951 3603
-2484.63 740.224 3619
-2481.45 741.86 3627
-2478.23 743.497 3635
-2469.53 743.497 3635
-2460.84 743.497 3635
-2446.75 741.86 3627
-2438.08 741.86 3627
-2429.41 741.86 3627
-2410.05 738.588 3611
-2401.42 738.588 3611
-2403.39 741.86 3627
-2394.71 741.86 3627
-2386.04 741.86 3627
-2387.2 744.928 3642
-2378.49 744.928 3642
-2369.78 744.928 3642
-2366.26 746.565 3650
-2368.51 750.042 3667
-2364.89 751.678 3675
-2356.1 751.678 3675
-2347.31 751.678 3675
-2338.52 751.678 3675
-2329.74 751.678 3675
-2315.9 750.042 3667
-2307.13 750.042 3667
-2298.36 750.042 3667
-2299.58 753.314 3683
-2290.77 753.314 3683
-2302.41 760.064 3716
-2298.46 761.701 3724
-2289.56 761.701 3724
-2280.65 761.701 3724
-2261.38 758.223 3707
-2237.93 753.314 3683
-2219.44 750.042 3667
-2215.49 751.678 3675
-2206.7 751.678 3675
-2217.05 758.223 3707
-2227.85 764.973 3740
-2218.9 764.973 3740
-2209.96 764.973 3740
-2142.46 760.064 3716
-2133.58 760.064 3716
-2124.69 760.064 3716
-2092.46 751.678 3675
-2079.14 750.042 3667
-2070.37 750.042 3667
-2047.54 744.928 3642
-2034.92 743.497 3635
-2000.22 750.042 3667
-1991.45 750.042 3667
-1982.68 750.042 3667
-1986.83 754.951 3691
-1991.4 760.064 3716
-1982.51 760.064 3716
-1977.88 761.701 3724
-1977.43 764.973 3740
-1968.49 764.973 3740
-1959.54 764.973 3740
-1950.6 764.973 3740
-1946.33 766.814 3749
-1937.36 766.814 3749
-1928.4 766.814 3749
-1919.43 766.814 3749
-1768.36 733.883 3588
-1763.22 735.315 3595
-1754.62 735.315 3595
-1746.02 735.315 3595
-1737.43 735.315 3595
-1759.13 748.201 3658
-1750.38 748.201 3658
-1741.63 748.201 3658
-1732.88 748.201 3658
-1709.53 741.86 3627
-1719.61 750.042 3667
-1714.57 751.678 3675
-1705.79 751.678 3675
-1697 751.678 3675
-1688.21 751.678 3675
-1679.42 751.678 3675
-1670.63 751.678 3675
-1661.85 751.678 3675
-1653.06 751.678 3675
-1644.27 751.678 3675
-1635.48 751.678 3675
-1626.69 751.678 3675
-1624.95 754.951 3691
-1616.12 754.951 3691
-1607.3 754.951 3691
-1605.4 758.223 3707
-1596.54 758.223 3707
-1587.67 758.223 3707
-1575.4 756.587 3699
-1563.17 754.951 3691
-1554.34 754.951 3691
-1548.86 756.587 3699
-1540.02 756.587 3699
-1534.48 758.223 3707
-1539.2 764.973 3740
-1533.94 766.814 3749
-1524.97 766.814 3749
-1526.12 771.927 3774
-1517.09 771.927 3774
-1508.07 771.927 3774
-1499.04 771.927 3774
-1490.02 771.927 3774
-1480.99 771.927 3774
-1475.48 773.768 3783
-1466.43 773.768 3783
-1463.94 777.245 3800
-1458.3 779.086 3809
-1459.08 784.404 3835
-1449.91 784.404 3835
-1454.26 791.768 3871
-1445.01 791.768 3871
-1439.09 793.609 3880
-1429.81 793.609 3880
-1420.53 793.609 3880
-1407.98 791.768 3871
-1405.23 795.449 3889
-1395.93 795.449 3889
-1389.84 797.29 3898
-1383.7 799.131 3907
-1374.36 799.131 3907
-1365.02 799.131 3907
-1355.67 799.131 3907
-1343.23 797.29 3898
-1346.57 804.858 3935
-1337.16 804.858 3935
-1333.82 808.54 3953
-1324.37 808.54 3953
-1314.92 808.54 3953
-1299.52 804.858 3935
-1290.11 804.858 3935
-1265.73 795.449 3889
-1256.43 795.449 3889
-1235.58 788.086 3853
-1217.78 782.563 3826
-1206.1 780.927 3818
-534.65 362.646 1773
-530.41 362.646 1773
-526.17 362.646 1773
-521.342 362.237 1771
-513.311 359.578 1758
-507.369 358.351 1752
-503.18 358.351 1752
-496.996 356.919 1745
-492.259 356.51 1743
-486.691 355.488 1738
-482.535 355.488 1738
-476.727 354.26 1732
-469.857 352.215 1722
-463.846 350.783 1715
-458.136 349.556 1709
-454.049 349.556 1709
-449.963 349.556 1709
-444.571 348.533 1704
-439.721 347.92 1701
-435.653 347.92 1701
-430.571 347.101 1697
-424.754 345.67 1690
-419.468 344.647 1685
-415.438 344.647 1685
-410.188 343.624 1680
-404.478 342.193 1673
-399.041 340.965 1667
-395.055 340.965 1667
-389.896 339.943 1662
-384.993 339.124 1658
-379.879 338.102 1653
-375.926 338.102 1653
-371.973 338.102 1653
-367.352 337.488 1650
-363.407 337.488 1650
-359.025 337.079 1648
-355.085 337.079 1648
-350.931 336.875 1647
-346.571 336.465 1645
-342.012 335.852 1642
-338.086 335.852 1642
-334.159 335.852 1642
-330.233 335.852 1642
-326.306 335.852 1642
-322.772 336.261 1644
-318.841 336.261 1644
-314.91 336.261 1644
-310.978 336.261 1644
-307.234 336.465 1645
-303.3 336.465 1645
-299.366 336.465 1645
-295.792 336.875 1647
-292.031 337.079 1648
-288.09 337.079 1648
-284.494 337.488 1650
-281.398 338.511 1655
-277.441 338.511 1655
-273.483 338.511 1655
-269.525 338.511 1655
-265.889 338.92 1657
-262.875 340.147 1663
-258.898 340.147 1663
-255.228 340.556 1665
-251.548 340.965 1667
-247.562 340.965 1667
-243.576 340.965 1667
-239.733 341.17 1668
-236.451 342.193 1673
-233.145 343.215 1678
-229.132 343.215 1678
-225.12 343.215 1678
-221.107 343.215 1678
-217.095 343.215 1678
-213.082 343.215 1678
-209.319 343.624 1680
-205.301 343.624 1680
-201.643 344.238 1683
-197.854 344.647 1685
-193.824 344.647 1685
-190.02 345.056 1687
-186.758 346.488 1694
-182.815 346.692 1695
-178.761 346.692 1695
-175.121 347.511 1699
-171.058 347.511 1699
-166.995 347.511 1699
-353.018 836.357 4089
-343.24 836.357 4089
-333.462 836.357 4089
-322.892 834.312 4079
-313.138 834.312 4079
-299.74 824.289 4030
-287.295 816.312 3991
-276.429 812.426 3972
-266.931 812.426 3972
-256.849 810.585 3963
-247.934 812.426 3972
-240.177 818.358 4001
-231.128 820.198 4010
-221.539 820.198 4010
-211.95 820.198 4010
-202.361 820.198 4010
-192.772 820.198 4010
-183.182 820.198 4010
-173.593 820.198 4010
-164.413 822.244 4020
-155.185 824.289 4030
-145.548 824.289 4030
-135.911 824.289 4030
-126.274 824.289 4030
-115.509 816.312 3991
-105.965 816.312 3991
-95.9623 812.426 3972
-86.2681 810.585 3963
-63.9685 770.291 3766
-54.9628 770.291 3766
-45.9572 770.291 3766
-36.6964 764.973 3740
-27.7529 764.973 3740
-18.6033 756.587 3699
-9.67342 750.042 3667
-0.892668 740.224 3619
7.72714 736.951 3603
16.343 736.951 3603
24.9589 736.951 3603
33.5747 736.951 3603
42.015 733.883 3588
50.595 733.883 3588
59.1749 733.883 3588
67.6039 732.247 3580
76.1647 732.247 3580
84.7256 732.247 3580
93.2865 732.247 3580
101.847 732.247 3580
110.161 730.611 3572
118.703 730.611 3572
126.996 729.179 3565
135.521 729.179 3565
144.046 729.179 3565
152.87 730.611 3572
161.412 730.611 3572
169.954 730.611 3572
178.146 729.179 3565
186.671 729.179 3565
194.758 727.543 3557
202.406 724.475 3542
210.876 724.475 3542
220.275 727.543 3557
228.781 727.543 3557
237.287 727.543 3557
245.793 727.543 3557
254.299 727.543 3557
262.804 727.543 3557
271.31 727.543 3557
280.445 729.179 3565
290.186 732.247 3580
299.415 733.883 3588
307.995 733.883 3588
317.192 735.315 3595
325.789 735.315 3595
334.386 735.315 3595
342.315 733.883 3588
350.895 733.883 3588
358.673 732.247 3580
367.234 732.247 3580
374.955 730.611 3572
381.887 727.543 3557
388.746 724.475 3542
397.216 724.475 3542
404.77 722.838 3534
411.584 719.975 3520
418.211 716.907 3505
423.915 712.407 3483
432.244 712.407 3483
437.79 707.907 3461
443.36 703.612 3440
449.748 700.748 3426
457.941 700.748 3426
460.419 692.158 3384
462.835 683.771 3343
469.984 682.544 3337
477.964 682.544 3337
480.992 675.59 3303
488.891 675.59 3303
497.842 677.022 3310
505.757 677.022 3310
513.672 677.022 3310
521.588 677.022 3310
530.623 678.453 3317
538.555 678.453 3317
547.475 679.681 3323
555.421 679.681 3323
563.368 679.681 3323
572.517 681.112 3330
581.701 682.544 3337
589.68 682.544 3337
598.735 683.771 3343
606.729 683.771 3343
614.723 683.771 3343
621.6 682.544 3337
630.711 683.771 3343
642.527 687.862 3363
650.569 687.862 3363
658.611 687.862 3363
668.04 689.294 3370
676.099 689.294 3370
684.158 689.294 3370
692.216 689.294 3370
700.275 689.294 3370
711.276 692.158 3384
719.368 692.158 3384
728.965 693.589 3391
737.074 693.589 3391
745.183 693.589 3391
753.292 693.589 3391
761.401 693.589 3391
769.51 693.589 3391
777.619 693.589 3391
785.728 693.589 3391
793.837 693.589 3391
800.29 692.158 3384
808.382 692.158 3384
816.474 692.158 3384
826.272 693.589 3391
834.381 693.589 3391
842.49 693.589 3391
855.867 697.885 3412
865.798 699.316 3419
873.974 699.316 3419
887.568 703.612 3440
901.263 707.907 3461
913.481 710.975 3476
921.793 710.975 3476
933.852 713.839 3490
948.137 718.338 3512
960.62 721.406 3527
969.055 721.406 3527
981.646 724.475 3542
994.309 727.543 3557
1007.04 730.611 3572
1015.59 730.611 3572
1028.71 733.883 3588
1043.94 738.588 3611
1057.24 741.86 3627
1070.32 744.928 3642
1079.03 744.928 3642
1090.13 746.565 3650
1101.27 748.201 3658
1112.75 750.042 3667
1121.52 750.042 3667
1132.75 751.678 3675
1141.54 751.678 3675
1150.33 751.678 3675
1159.11 751.678 3675
1165.36 750.042 3667
1174.13 750.042 3667
1182.9 750.042 3667
1191.67 750.042 3667
1200.44 750.042 3667
1209.2 750.042 3667
1217.97 750.042 3667
1226.74 750.042 3667
1232.48 748.201 3658
1241.23 748.201 3658
1249.97 748.201 3658
1258.72 748.201 3658
1264.7 746.565 3650
1276.22 748.201 3658
1284.96 748.201 3658
1293.71 748.201 3658
1302.46 748.201 3658
1305.47 744.928 3642
1314.18 744.928 3642
1322.89 744.928 3642
1329.04 743.497 3635
1337.73 743.497 3635
1346.42 743.497 3635
1355.12 743.497 3635
1363.81 743.497 3635
1372.5 743.497 3635
1381.19 743.497 3635
1389.89 743.497 3635
1398.58 743.497 3635
1401.08 740.224 3619
1409.73 740.224 3619
1418.38 740.224 3619
1427.04 740.224 3619
1432.52 738.588 3611
1437.96 736.951 3603
1443.36 735.315 3595
1451.96 735.315 3595
1457.71 733.883 3588
1463.02 732.247 3580
1468.3 730.611 3572
1476.84 730.611 3572
1479.14 727.543 3557
1487.65 727.543 3557
1496.15 727.543 3557
1504.66 727.543 3557
1513.17 727.543 3557
1521.67 727.543 3557
1533.62 729.179 3565
1548.63 732.247 3580
1557.19 732.247 3580
1569.25 733.883 3588
1580.91 735.315 3595
1593.05 736.951 3603
1612.33 741.86 3627
1621 741.86 3627
1647.65 750.042 3667
1682.17 761.701 3724
1713.78 771.927 3774
1722.8 771.927 3774
1784.6 795.449 3889
1802.2 799.131 3907
1811.54 799.131 3907
1820.89 799.131 3907
1830.23 799.131 3907
1839.57 799.131 3907
1848.91 799.131 3907
1858.26 799.131 3907
1867.6 799.131 3907
1863.97 793.609 3880
1873.25 793.609 3880
1869.43 788.086 3853
1857.19 779.086 3809
1849.15 771.927 3774
1858.17 771.927 3774
1850.38 764.973 3740
1851.37 761.701 3724
1851.78 758.223 3707
1860.64 758.223 3707
1853.37 751.678 3675
1837.84 741.86 3627
1838.36 738.588 3611
1838.81 735.315 3595
1847.41 735.315 3595
1852.39 733.883 3588
1872.9 738.588 3611
1885.71 740.224 3619
1894.36 740.224 3619
1903.02 740.224 3619
1915.9 741.86 3627
1928.81 743.497 3635
1949.76 748.201 3658
1958.51 748.201 3658
1972.1 750.042 3667
1998.15 756.587 3699
2024.91 763.337 3732
2033.83 763.337 3732
2056.44 768.45 3757
2074.77 771.927 3774
2108.09 780.927 3818
2141.62 789.927 3862
2150.85 789.927 3862
2170.15 793.609 3880
2194.6 799.131 3907
2214.1 802.813 3925
2223.48 802.813 3925
2243.68 806.699 3944
2253.11 806.699 3944
2267.7 808.54 3953
2277.15 808.54 3953
2292.39 810.585 3963
2307.1 812.426 3972
2327.68 816.312 3991
2337.22 816.312 3991
2352.64 818.358 4001
2362.21 818.358 4001
2371.78 818.358 4001
2381.35 818.358 4001
2384.94 816.312 3991
2405.88 820.198 4010
2415.47 820.198 4010
2425.06 820.198 4010
2434.65 820.198 4010
2456.43 824.289 4030
2466.07 824.289 4030
2481.23 826.13 4039
2490.89 826.13 4039
2500.55 826.13 4039
2510.21 826.13 4039
2519.87 826.13 4039
2529.52 826.13 4039
2539.18 826.13 4039
2548.84 826.13 4039
2558.5 826.13 4039
2568.16 826.13 4039
2565.69 822.244 4020
2568.9 820.198 4010
2578.49 820.198 4010
2588.07 820.198 4010
2597.66 820.198 4010
2607.25 820.198 4010
2616.84 820.198 4010
2626.43 820.198 4010
2636.02 820.198 4010
2633.07 816.312 3991
2624.08 810.585 3963
2633.55 810.585 3963
2617.69 802.813 3925
2609 797.29 3898
2600.19 791.768 3871
2609.44 791.768 3871
2612.61 789.927 3862
2609.63 786.245 3844
2588.84 777.245 3800
2597.93 777.245 3800
530.785 148.904 728
532.526 148.904 728
534.267 148.904 728
536.008 148.904 728
537.01 148.699 727
538.749 148.699 727
538.257 148.086 724
539.242 147.881 723
540.971 147.881 723
542.7 147.881 723
544.429 147.881 723
546.158 147.881 723
547.887 147.881 723
549.616 147.881 723
551.345 147.881 723
553.074 147.881 723
-2330.03 643.978 3112
-2322.59 643.978 3112
-2311.43 642.943 3107
-2312.15 645.22 3118
-2313.57 647.703 3130
-2306.08 647.703 3130
-2298.6 647.703 3130
-2291.11 647.703 3130
-2279.25 646.461 3124
-2280.51 648.944 3136
-2273.01 648.944 3136
-2282.85 653.911 3160
-2323.53 667.775 3227
-2352.42 678.329 3278
-2344.58 678.329 3278
-2364.54 686.399 3317
-2356.61 686.399 3317
-2348.68 686.399 3317
-2437.42 714.749 3454
-2459.4 723.647 3497
-2493.1 736.063 3557
-2484.59 736.063 3557
-2492.09 740.823 3580
-2493.94 743.927 3595
-2490.87 745.582 3603
-2482.26 745.582 3603
-2484.63 748.893 3619
-2481.45 750.549 3627
-2472.77 750.549 3627
-2464.1 750.549 3627
-2455.43 750.549 3627
-2446.75 750.549 3627
-2438.08 750.549 3627
-2418.69 747.238 3611
-2404.72 745.582 3603
-2401.42 747.238 3611
-2392.78 747.238 3611
-2384.15 747.238 3611
-2380.78 748.893 3619
-2372.12 748.893 3619
-2368.69 750.549 3627
-2360.02 750.549 3627
-2351.35 750.549 3627
-2342.67 750.549 3627
-2334 750.549 3627
-2325.33 750.549 3627
-2316.65 750.549 3627
-2307.98 750.549 3627
-2304.38 752.204 3635
-2295.69 752.204 3635
-2291.4 753.653 3642
-2292.72 756.964 3658
-2299.58 762.137 3683
-2290.77 762.137 3683
-2296.84 767.104 3707
-2287.97 767.104 3707
-2279.11 767.104 3707
-2270.24 767.104 3707
-2251.62 763.793 3691
-2237.93 762.137 3683
-2219.44 758.826 3667
-2215.49 760.482 3675
-2206.7 760.482 3675
-2217.05 767.104 3707
-2227.85 773.932 3740
-2218.9 773.932 3740
-2209.96 773.932 3740
-2142.46 768.966 3716
-2133.58 768.966 3716
-2124.69 768.966 3716
-2092.46 760.482 3675
-2079.14 758.826 3667
-2070.37 758.826 3667
-2047.54 753.653 3642
-2034.92 752.204 3635
-2000.22 758.826 3667
-1991.45 758.826 3667
-1982.68 758.826 3667
-1986.83 763.793 3691
-1991.4 768.966 3716
-1982.51 768.966 3716
-1977.88 770.621 3724
-1977.43 773.932 3740
-1968.49 773.932 3740
-1959.54 773.932 3740
-1942.25 770.621 3724
-1933.35 770.621 3724
-1924.44 770.621 3724
-1915.54 770.621 3724
-1897.93 767.104 3707
-1768.36 742.478 3588
-1763.22 743.927 3595
-1754.62 743.927 3595
-1746.02 743.927 3595
-1737.43 743.927 3595
-1732.68 745.582 3603
-1727.89 747.238 3611
-1719.25 747.238 3611
-1718.2 750.549 3627
-1709.53 750.549 3627
-1707.89 753.653 3642
-1702.91 755.308 3650
-1694.18 755.308 3650
-1685.45 755.308 3650
-1676.73 755.308 3650
-1671.65 756.964 3658
-1662.91 756.964 3658
-1654.16 756.964 3658
-1645.41 756.964 3658
-1636.66 756.964 3658
-1627.92 756.964 3658
-1623.15 758.826 3667
-1621.43 762.137 3683
-1612.62 762.137 3683
-1603.81 762.137 3683
-1598.47 763.793 3691
-1589.64 763.793 3691
-1580.82 763.793 3691
-1568.58 762.137 3683
-1556.39 760.482 3675
-1550.97 762.137 3683
-1545.51 763.793 3691
-1536.69 763.793 3691
-1527.86 763.793 3691
-1522.33 765.448 3699
-1530.26 773.932 3740
-1521.31 773.932 3740
-1516.01 775.795 3749
-1510.26 777.45 3757
-1504.87 779.313 3766
-1495.87 779.313 3766
-1486.86 779.313 3766
-1474.32 777.45 3757
-1465.34 777.45 3757
-1456.36 777.45 3757
-1453.92 780.968 3774
-1448.34 782.831 3783
-1449.19 788.211 3809
-1440.08 788.211 3809
-1440.74 793.591 3835
-1438.29 797.316 3853
-1432.41 799.178 3862
-1423.18 799.178 3862
-1413.94 799.178 3862
-1404.7 799.178 3862
-1398.72 801.041 3871
-1389.46 801.041 3871
-1380.21 801.041 3871
-1370.95 801.041 3871
-1361.69 801.041 3871
-1352.44 801.041 3871
-1343.18 801.041 3871
-1333.92 801.041 3871
-1333.91 806.628 3898
-1324.59 806.628 3898
-1327.75 814.284 3935
-1318.34 814.284 3935
-1308.93 814.284 3935
-1299.52 814.284 3935
-1275.03 804.766 3889
-1254.01 797.316 3853
-1244.8 797.316 3853
-1221.47 788.211 3809
-1204.09 782.831 3783
-527.418 364.824 1763
-523.202 364.824 1763
-518.987 364.824 1763
-513.311 363.79 1758
-507.369 362.548 1752
-503.18 362.548 1752
-496.427 360.686 1743
-492.259 360.686 1743
-486.691 359.651 1738
-482.535 359.651 1738
-476.727 358.409 1732
-469.857 356.34 1722
-463.846 354.891 1715
-458.136 353.65 1709
-454.049 353.65 1709
-449.963 353.65 1709
-444.571 352.615 1704
-439.721 351.994 1701
-435.653 351.994 1701
-430.571 351.167 1697
-424.754 349.718 1690
-419.468 348.683 1685
-415.438 348.683 1685
-410.188 347.649 1680
-404.478 346.2 1673
-399.041 344.959 1667
-395.055 344.959 1667
-389.896 343.924 1662
-384.993 343.096 1658
-379.879 342.062 1653
-375.926 342.062 1653
-371.973 342.062 1653
-367.352 341.441 1650
-363.407 341.441 1650
-359.025 341.027 1648
-355.085 341.027 1648
-350.931 340.82 1647
-346.571 340.406 1645
-342.012 339.785 1642
-338.086 339.785 1642
-334.159 339.785 1642
-330.233 339.785 1642
-326.306 339.785 1642
-322.772 340.199 1644
-318.841 340.199 1644
-314.91 340.199 1644
-310.978 340.199 1644
-307.607 340.82 1647
-303.669 340.82 1647
-299.73 340.82 1647
-295.972 341.027 1648
-292.031 341.027 1648
-288.09 341.027 1648
-284.494 341.441 1650
-281.398 342.475 1655
-277.441 342.475 1655
-273.483 342.475 1655
-269.525 342.475 1655
-265.889 342.889 1657
-262.875 344.131 1663
-258.898 344.131 1663
-255.228 344.545 1665
-251.548 344.959 1667
-247.562 344.959 1667
-243.576 344.959 1667
-239.733 345.166 1668
-236.451 346.2 1673
-233.145 347.235 1678
-229.132 347.235 1678
-225.12 347.235 1678
-221.107 347.235 1678
-217.095 347.235 1678
-213.082 347.235 1678
-209.319 347.649 1680
-205.301 347.649 1680
-201.643 348.27 1683
-197.854 348.683 1685
-193.824 348.683 1685
-190.02 349.097 1687
-186.758 350.546 1694
-182.815 350.753 1695
-178.761 350.753 1695
-175.121 351.581 1699
-171.058 351.581 1699
-166.995 351.581 1699
-353.018 846.152 4089
-343.24 846.152 4089
-333.462 846.152 4089
-322.892 844.083 4079
-313.138 844.083 4079
-300.409 835.806 4039
-288.015 827.942 4001
-277.125 824.01 3982
-267.603 824.01 3982
-256.849 820.079 3963
-247.934 821.941 3972
-240.177 827.942 4001
-231.128 829.805 4010
-221.539 829.805 4010
-211.95 829.805 4010
-202.361 829.805 4010
-192.772 829.805 4010
-183.182 829.805 4010
-173.593 829.805 4010
-164.413 831.874 4020
-155.185 833.943 4030
-145.548 833.943 4030
-135.911 833.943 4030
-126.274 833.943 4030
-115.509 825.873 3991
-105.965 825.873 3991
-95.9623 821.941 3972
-86.2681 820.079 3963
-72.0052 768.966 3716
-63.9685 779.313 3766
-54.9628 779.313 3766
-45.9572 779.313 3766
-36.6964 773.932 3740
-27.7529 773.932 3740
-18.6033 765.448 3699
-9.67342 758.826 3667
-0.892668 748.893 3619
7.72714 745.582 3603
16.343 745.582 3603
24.9589 745.582 3603
33.5747 745.582 3603
42.015 742.478 3588
50.595 742.478 3588
59.1749 742.478 3588
67.6039 740.823 3580
76.1647 740.823 3580
84.7256 740.823 3580
93.2865 740.823 3580
101.847 740.823 3580
110.161 739.167 3572
118.703 739.167 3572
126.996 737.719 3565
135.521 737.719 3565
144.046 737.719 3565
152.87 739.167 3572
161.412 739.167 3572
169.954 739.167 3572
178.146 737.719 3565
186.671 737.719 3565
194.758 736.063 3557
202.406 732.959 3542
210.876 732.959 3542
220.275 736.063 3557
228.781 736.063 3557
237.287 736.063 3557
245.793 736.063 3557
254.299 736.063 3557
262.804 736.063 3557
271.31 736.063 3557
280.445 737.719 3565
290.186 740.823 3580
299.415 742.478 3588
307.995 742.478 3588
317.192 743.927 3595
325.789 743.927 3595
334.386 743.927 3595
342.315 742.478 3588
350.895 742.478 3588
358.673 740.823 3580
367.234 740.823 3580
374.955 739.167 3572
381.887 736.063 3557
388.746 732.959 3542
397.216 732.959 3542
404.77 731.304 3534
411.584 728.407 3520
419.047 726.751 3512
424.767 722.199 3490
433.113 722.199 3490
439.688 719.302 3476
445.164 714.749 3454
449.748 708.955 3426
457.941 708.955 3426
462.324 703.161 3398
463.804 693.228 3350
469.984 690.538 3337
477.964 690.538 3337
480.992 683.502 3303
488.891 683.502 3303
497.842 684.951 3310
505.757 684.951 3310
513.672 684.951 3310
521.588 684.951 3310
530.623 686.399 3317
538.555 686.399 3317
547.475 687.641 3323
555.421 687.641 3323
563.368 687.641 3323
572.517 689.09 3330
581.701 690.538 3337
589.68 690.538 3337
598.735 691.78 3343
606.729 691.78 3343
614.723 691.78 3343
621.6 690.538 3337
630.711 691.78 3343
642.527 695.918 3363
650.569 695.918 3363
658.611 695.918 3363
668.04 697.367 3370
676.099 697.367 3370
684.158 697.367 3370
692.216 697.367 3370
700.275 697.367 3370
711.276 700.264 3384
719.368 700.264 3384
728.965 701.712 3391
737.074 701.712 3391
745.183 701.712 3391
753.292 701.712 3391
761.401 701.712 3391
769.51 701.712 3391
777.619 701.712 3391
785.728 701.712 3391
793.837 701.712 3391
800.29 700.264 3384
808.382 700.264 3384
816.474 700.264 3384
826.272 701.712 3391
834.381 701.712 3391
842.49 701.712 3391
855.867 706.058 3412
865.798 707.507 3419
873.974 707.507 3419
887.568 711.852 3440
901.263 716.198 3461
913.481 719.302 3476
921.793 719.302 3476
933.852 722.199 3490
948.137 726.751 3512
960.62 729.855 3527
969.055 729.855 3527
981.646 732.959 3542
994.309 736.063 3557
1007.04 739.167 3572
1015.59 739.167 3572
1028.71 742.478 3588
1043.94 747.238 3611
1057.24 750.549 3627
1070.32 753.653 3642
1079.03 753.653 3642
1090.13 755.308 3650
1101.27 756.964 3658
1110.02 756.964 3658
1118.76 756.964 3658
1130.28 758.826 3667
1139.05 758.826 3667
1147.82 758.826 3667
1156.59 758.826 3667
1165.36 758.826 3667
1174.13 758.826 3667
1182.9 758.826 3667
1191.67 758.826 3667
1200.44 758.826 3667
1209.2 758.826 3667
1217.97 758.826 3667
1226.74 758.826 3667
1235.51 758.826 3667
1244.28 758.826 3667
1253.05 758.826 3667
1258.72 756.964 3658
1267.47 756.964 3658
1276.22 756.964 3658
1284.96 756.964 3658
1293.71 756.964 3658
1302.46 756.964 3658
1308.34 755.308 3650
1314.18 753.653 3642
1322.89 753.653 3642
1329.04 752.204 3635
1337.73 752.204 3635
1346.42 752.204 3635
1355.12 752.204 3635
1363.81 752.204 3635
1372.5 752.204 3635
1381.19 752.204 3635
1389.89 752.204 3635
1398.58 752.204 3635
1404.17 750.549 3627
1409.73 748.893 3619
1418.38 748.893 3619
1427.04 748.893 3619
1432.52 747.238 3611
1437.96 745.582 3603
1443.36 743.927 3595
1451.96 743.927 3595
1454.46 740.823 3580
1459.76 739.167 3572
1465.42 737.719 3565
1473.94 737.719 3565
1479.14 736.063 3557
1484.3 734.408 3549
1492.79 734.408 3549
1501.28 734.408 3549
1509.76 734.408 3549
1515.26 732.959 3542
1530.18 736.063 3557
1542.14 737.719 3565
1550.67 737.719 3565
1565.76 740.823 3580
1577.83 742.478 3588
1589.51 743.927 3595
1605.22 747.238 3611
1613.85 747.238 3611
1643.61 756.964 3658
1682.17 770.621 3724
1713.78 780.968 3774
1722.8 780.968 3774
1788.73 806.628 3898
1802.2 808.49 3907
1811.54 808.49 3907
1820.89 808.49 3907
1830.23 808.49 3907
1843.81 810.353 3916
1853.17 810.353 3916
1862.54 810.353 3916
1871.9 810.353 3916
1868.3 804.766 3889
1877.6 804.766 3889
1869.43 797.316 3853
1861.58 790.073 3818
1849.15 780.968 3774
1858.17 780.968 3774
1850.38 773.932 3740
1851.37 770.621 3724
1851.78 767.104 3707
1860.64 767.104 3707
1853.37 760.482 3675
1837.84 750.549 3627
1838.36 747.238 3611
1838.81 743.927 3595
1847.41 743.927 3595
1848.26 740.823 3580
1864.6 743.927 3595
1881.54 747.238 3611
1890.17 747.238 3611
1898.81 747.238 3611
1911.67 748.893 3619
1928.81 752.204 3635
1941.24 753.653 3642
1949.95 753.653 3642
1972.1 758.826 3667
1998.15 765.448 3699
2024.91 772.277 3732
2033.83 772.277 3732
2056.44 777.45 3757
2079.72 782.831 3783
2117.47 793.591 3835
2141.62 799.178 3862
2150.85 799.178 3862
2175.19 804.766 3889
2199.65 810.353 3916
2219.74 814.284 3935
2229.15 814.284 3935
2243.68 816.147 3944
2258.25 818.009 3953
2273.44 820.079 3963
2282.92 820.079 3963
2297.6 821.941 3972
2312.9 824.01 3982
2327.68 825.873 3991
2337.22 825.873 3991
2352.64 827.942 4001
2362.21 827.942 4001
2371.78 827.942 4001
2381.35 827.942 4001
2384.94 825.873 3991
2405.88 829.805 4010
2415.47 829.805 4010
2425.06 829.805 4010
2440.72 831.874 4020
2456.43 833.943 4030
2466.07 833.943 4030
2481.23 835.806 4039
2490.89 835.806 4039
2500.55 835.806 4039
2510.21 835.806 4039
2526.1 837.875 4049
2535.79 837.875 4049
2545.47 837.875 4049
2555.15 837.875 4049
2564.83 837.875 4049
2574.52 837.875 4049
2577.82 835.806 4039
2575.3 831.874 4020
2584.92 831.874 4020
2594.53 831.874 4020
2604.14 831.874 4020
2613.75 831.874 4020
2623.37 831.874 4020
2632.98 831.874 4020
2636.02 829.805 4010
2633.07 825.873 3991
2630.04 821.941 3972
2639.54 821.941 3972
2624.36 814.284 3935
2609 806.628 3898
2618.32 806.628 3898
2627.65 806.628 3898
2612.61 799.178 3862
2609.63 795.453 3844
2588.84 786.348 3800
2597.93 786.348 3800
530.056 150.441 727
531.795 150.441 727
533.533 150.441 727
535.272 150.441 727
534.794 149.82 724
536.526 149.82 724
538.257 149.82 724
539.242 149.613 723
540.971 149.613 723
542.7 149.613 723
544.429 149.613 723
546.158 149.613 723
547.887 149.613 723
549.616 149.613 723
551.345 149.613 723
553.074 149.613 723
-2326.29 650.386 3107
-2318.86 650.386 3107
-2311.43 650.386 3107
-2307.71 651.433 3112
-2313.57 655.201 3130
-2306.08 655.201 3130
-2298.6 655.201 3130
-2291.11 655.201 3130
-2279.25 653.945 3124
-2284.87 657.713 3142
-2277.36 657.713 3142
-2287.18 662.737 3166
-2323.53 675.506 3227
-2347.39 684.716 3271
-2339.57 684.716 3271
-2359.55 692.88 3310
-2356.61 694.345 3317
-2348.68 694.345 3317
-2432.48 721.558 3447
-2459.4 732.025 3497
-2493.1 744.584 3557
-2484.59 744.584 3557
-2492.09 749.399 3580
-2493.94 752.539 3595
-2490.87 754.213 3603
-2482.26 754.213 3603
-2484.63 757.563 3619
-2481.45 759.237 3627
-2472.77 759.237 3627
-2464.1 759.237 3627
-2455.43 759.237 3627
-2435.96 755.888 3611
-2427.32 755.888 3611
-2413.33 754.213 3603
-2399.38 752.539 3595
-2390.78 752.539 3595
-2387.48 754.213 3603
-2378.87 754.213 3603
-2375.51 755.888 3611
-2366.88 755.888 3611
-2358.24 755.888 3611
-2349.61 755.888 3611
-2346.16 757.563 3619
-2337.51 757.563 3619
-2328.85 757.563 3619
-2320.2 757.563 3619
-2311.54 757.563 3619
-2307.98 759.237 3627
-2304.38 760.912 3635
-2295.69 760.912 3635
-2291.4 762.377 3642
-2287.7 764.052 3650
-2289.59 767.611 3667
-2280.82 767.611 3667
-2281.97 770.96 3683
-2287.97 775.984 3707
-2279.11 775.984 3707
-2270.24 775.984 3707
-2261.38 775.984 3707
-2242.79 772.634 3691
-2229.12 770.96 3683
-2225.14 772.634 3691
-2216.31 772.634 3691
-2217.05 775.984 3707
-2227.85 782.892 3740
-2218.9 782.892 3740
-2209.96 782.892 3740
-2186.89 777.868 3716
-2172.73 775.984 3707
-2163.87 775.984 3707
-2155 775.984 3707
-2175.09 786.45 3757
-2166.1 786.45 3757
-2157.12 786.45 3757
-2124.69 777.868 3716
-2092.46 769.285 3675
-2079.14 767.611 3667
-2070.37 767.611 3667
-2052.04 764.052 3650
-2034.92 760.912 3635
-2026.22 760.912 3635
-2017.53 760.912 3635
-1991.45 760.912 3635
-1995.31 765.727 3658
-1986.56 765.727 3658
-1982.68 767.611 3667
-1986.83 772.634 3691
-1991.4 777.868 3716
-1982.51 777.868 3716
-1977.88 779.542 3724
-1968.97 779.542 3724
-1960.07 779.542 3724
-1946.97 777.868 3716
-1929.22 774.309 3699
-1890.78 762.377 3642
-1882.07 762.377 3642
-1873.36 762.377 3642
-1864.65 762.377 3642
-1855.94 762.377 3642
-1847.23 762.377 3642
-1826.3 760.912 3635
-1817.61 760.912 3635
-1808.91 760.912 3635
-1788.33 755.888 3611
-1775.76 754.213 3603
-1763.22 752.539 3595
-1754.62 752.539 3595
-1746.02 752.539 3595
-1737.43 752.539 3595
-1732.68 754.213 3603
-1724.06 754.213 3603
-1715.45 754.213 3603
-1706.83 754.213 3603
-1701.98 755.888 3611
-1700.85 759.237 3627
-1695.91 760.912 3635
-1687.22 760.912 3635
-1678.53 760.912 3635
-1669.83 760.912 3635
-1661.14 760.912 3635
-1652.45 760.912 3635
-1643.76 760.912 3635
-1635.07 760.912 3635
-1629.5 762.377 3642
-1620.8 762.377 3642
-1619.17 765.727 3658
-1614.38 767.611 3667
-1605.61 767.611 3667
-1596.85 767.611 3667
-1595.01 770.96 3683
-1586.2 770.96 3683
-1577.39 770.96 3683
-1565.18 769.285 3675
-1549.19 765.727 3658
-1547.6 769.285 3675
-1542.16 770.96 3683
-1533.36 770.96 3683
-1524.55 770.96 3683
-1515.74 770.96 3683
-1520.44 777.868 3716
-1511.55 777.868 3716
-1512.37 782.892 3740
-1507.04 784.776 3749
-1501.28 786.45 3757
-1492.29 786.45 3757
-1483.31 786.45 3757
-1474.32 786.45 3757
-1465.34 786.45 3757
-1456.36 786.45 3757
-1447.37 786.45 3757
-1441.83 788.334 3766
-1435.87 790.009 3774
-1426.85 790.009 3774
-1430.97 797.335 3809
-1425.22 799.219 3818
-1416.09 799.219 3818
-1406.96 799.219 3818
-1397.83 799.219 3818
-1385.43 797.335 3809
-1376.32 797.335 3809
-1367.21 797.335 3809
-1358.1 797.335 3809
-1348.99 797.335 3809
-1339.89 797.335 3809
-1330.78 797.335 3809
-1321.67 797.335 3809
-1303.6 791.893 3783
-1297.63 793.777 3792
-1288.57 793.777 3792
-1288.27 799.219 3818
-1279.14 799.219 3818
-1270.01 799.219 3818
-1260.88 799.219 3818
-1245.85 795.451 3800
-1231.23 791.893 3783
-1219.28 790.009 3774
-1210.25 790.009 3774
-1198.68 788.334 3766
-519.048 366.117 1749
-514.865 366.117 1749
-510.683 366.117 1749
-505.342 365.28 1745
-501.169 365.28 1745
-496.427 364.861 1743
-492.259 364.861 1743
-486.691 363.814 1738
-482.535 363.814 1738
-476.727 362.558 1732
-470.13 360.674 1723
-464.116 359.209 1716
-458.672 358.162 1711
-454.581 358.162 1711
-449.963 357.744 1709
-445.093 357.116 1706
-439.98 356.278 1702
-435.91 356.278 1702
-431.078 355.65 1699
-425.256 354.185 1692
-419.965 353.139 1687
-415.931 353.139 1687
-410.921 352.301 1683
-405.445 351.045 1677
-399.76 349.58 1670
-395.766 349.58 1670
-390.6 348.533 1665
-385.921 347.905 1662
-380.798 346.859 1657
-376.836 346.859 1657
-372.423 346.44 1655
-368.02 346.021 1653
-363.847 345.812 1652
-359.461 345.393 1650
-355.516 345.393 1650
-351.144 344.975 1648
-346.571 344.347 1645
-342.012 343.719 1642
-338.086 343.719 1642
-334.159 343.719 1642
-330.233 343.719 1642
-326.306 343.719 1642
-322.772 344.137 1644
-318.841 344.137 1644
-314.91 344.137 1644
-310.978 344.137 1644
-307.607 344.765 1647
-303.669 344.765 1647
-299.73 344.765 1647
-295.972 344.975 1648
-292.031 344.975 1648
-288.09 344.975 1648
-284.149 344.975 1648
-281.058 346.021 1653
-277.441 346.44 1655
-273.483 346.44 1655
-269.525 346.44 1655
-265.889 346.859 1657
-262.401 347.487 1660
-258.431 347.487 1660
-254.921 348.115 1663
-251.246 348.533 1665
-247.562 348.952 1667
-243.576 348.952 1667
-239.733 349.161 1668
-236.31 349.999 1672
-233.006 351.045 1677
-228.996 351.045 1677
-225.12 351.255 1678
-221.107 351.255 1678
-217.095 351.255 1678
-213.082 351.255 1678
-209.069 351.255 1678
-205.301 351.673 1680
-201.643 352.301 1683
-197.854 352.72 1685
-193.824 352.72 1685
-189.795 352.72 1685
-186.537 354.185 1692
-182.707 354.604 1694
-178.656 354.604 1694
-174.605 354.604 1694
-353.018 855.948 4089
-343.24 855.948 4089
-333.462 855.948 4089
-322.892 853.854 4079
-313.138 853.854 4079
-300.409 845.481 4039
-288.015 837.526 4001
-277.125 833.549 3982
-267.603 833.549 3982
-256.849 829.572 3963
-247.934 831.456 3972
-239.577 835.433 3991
-230.609 837.526 4001
-221.042 837.526 4001
-211.474 837.526 4001
-201.907 837.526 4001
-192.339 837.526 4001
-182.771 837.526 4001
-173.204 837.526 4001
-163.636 837.526 4001
-153.683 835.433 3991
-144.14 835.433 3991
-134.596 835.433 3991
-124.175 829.572 3963
-114.698 829.572 3963
-105.222 829.572 3963
-91.8068 795.451 3800
-81.4138 782.892 3740
-72.0052 777.868 3716
-63.1192 777.868 3716
-53.7515 770.96 3683
-44.9443 770.96 3683
-35.9801 767.611 3667
-27.2112 767.611 3667
-18.2412 759.237 3627
-9.52569 755.888 3611
-0.885022 751.073 3588
7.67782 749.399 3580
16.2387 749.399 3580
24.7995 749.399 3580
33.3604 749.399 3580
41.8276 747.724 3572
50.3693 747.724 3572
58.7956 746.259 3565
67.3206 746.259 3565
75.8456 746.259 3565
84.3706 746.259 3565
92.8956 746.259 3565
101.421 746.259 3565
109.699 744.584 3557
118.205 744.584 3557
126.711 744.584 3557
134.912 742.91 3549
143.399 742.91 3549
151.886 742.91 3549
160.373 742.91 3549
168.859 742.91 3549
177.346 742.91 3549
185.833 742.91 3549
193.936 741.444 3542
201.549 738.304 3527
209.983 738.304 3527
218.851 739.77 3534
227.302 739.77 3534
235.753 739.77 3534
244.203 739.77 3534
252.654 739.77 3534
261.696 741.444 3542
270.166 741.444 3542
279.816 744.584 3557
288.97 746.259 3565
298.08 747.724 3572
306.621 747.724 3572
315.869 749.399 3580
324.43 749.399 3580
332.991 749.399 3580
341.552 749.399 3580
350.112 749.399 3580
358.673 749.399 3580
367.234 749.399 3580
374.22 746.259 3565
381.887 744.584 3557
388.746 741.444 3542
397.216 741.444 3542
404.77 739.77 3534
411.584 736.839 3520
419.047 735.164 3512
424.767 730.559 3490
433.113 730.559 3490
439.688 727.629 3476
445.164 723.023 3454
449.748 717.162 3426
457.941 717.162 3426
462.324 711.301 3398
463.804 701.253 3350
469.984 698.532 3337
477.964 698.532 3337
480.992 691.415 3303
488.891 691.415 3303
496.789 691.415 3303
505.757 692.88 3310
513.672 692.88 3310
521.588 692.88 3310
528.383 691.415 3303
536.281 691.415 3303
545.333 692.88 3310
553.248 692.88 3310
561.164 692.88 3310
571.314 695.601 3323
579.26 695.601 3323
587.207 695.601 3323
595.153 695.601 3323
603.099 695.601 3323
612.333 697.067 3330
620.296 697.067 3330
629.579 698.532 3337
638.706 699.788 3343
649.408 702.718 3357
657.436 702.718 3357
666.653 703.974 3363
674.694 703.974 3363
682.736 703.974 3363
690.778 703.974 3363
698.82 703.974 3363
708.334 705.44 3370
716.392 705.44 3370
725.956 706.905 3377
734.031 706.905 3377
742.107 706.905 3377
750.182 706.905 3377
758.258 706.905 3377
766.333 706.905 3377
774.408 706.905 3377
782.484 706.905 3377
790.559 706.905 3377
798.635 706.905 3377
806.71 706.905 3377
814.786 706.905 3377
822.861 706.905 3377
829.214 705.44 3370
840.751 708.37 3384
850.599 709.836 3391
864.026 714.232 3412
872.185 714.232 3412
885.762 718.628 3433
899.44 723.023 3454
909.539 724.489 3461
917.816 724.489 3461
931.979 729.094 3483
