ply
format ascii 1.0
comment File generated
element vertex 2252
property float x
property float y
property float z
end_header
553.979 231.996 3412
573.836 236.824 3483
582.164 236.824 3483
603.039 241.856 3557
614.124 242.876 3572
622.666 242.876 3572
639.513 246.071 3619
648.167 246.071 3619
656.821 246.071 3619
665.475 246.071 3619
674.129 246.071 3619
678.255 244.439 3595
688.38 244.983 3603
698.544 245.527 3611
707.179 245.527 3611
721.959 247.635 3642
730.668 247.635 3642
739.377 247.635 3642
748.086 247.635 3642
756.796 247.635 3642
765.505 247.635 3642
774.214 247.635 3642
782.923 247.635 3642
791.632 247.635 3642
798.803 247.159 3635
809.05 247.635 3642
817.759 247.635 3642
828.284 248.179 3650
837.012 248.179 3650
845.741 248.179 3650
854.469 248.179 3650
863.197 248.179 3650
875.986 249.335 3667
884.755 249.335 3667
893.524 249.335 3667
902.293 249.335 3667
911.062 249.335 3667
917.573 248.723 3658
926.321 248.723 3658
935.068 248.723 3658
946.138 249.335 3667
954.906 249.335 3667
963.675 249.335 3667
972.444 249.335 3667
976.664 248.179 3650
983.233 247.635 3642
991.942 247.635 3642
1000.65 247.635 3642
1007.42 247.159 3635
1020.31 248.179 3650
1029.03 248.179 3650
1037.76 248.179 3650
1046.49 248.179 3650
1055.22 248.179 3650
1063.95 248.179 3650
1070.32 247.635 3642
1079.03 247.635 3642
1090.13 248.179 3650
1101.27 248.723 3658
1110.02 248.723 3658
1118.76 248.723 3658
1127.51 248.723 3658
1136.26 248.723 3658
1145.01 248.723 3658
1153.75 248.723 3658
1167.9 249.879 3675
1179.25 250.423 3683
1190.64 250.967 3691
1199.47 250.967 3691
1208.29 250.967 3691
1217.12 250.967 3691
1225.95 250.967 3691
1234.77 250.967 3691
1246.29 251.511 3699
1260.91 252.667 3716
1272.53 253.211 3724
1281.43 253.211 3724
1290.34 253.211 3724
1299.24 253.211 3724
1308.15 253.211 3724
1317.05 253.211 3724
1325.96 253.211 3724
1328.77 252.055 3707
1337.63 252.055 3707
1346.5 252.055 3707
1355.36 252.055 3707
1367.54 252.667 3716
1376.43 252.667 3716
1385.31 252.667 3716
1394.2 252.667 3716
1403.08 252.667 3716
1415.01 253.211 3724
1423.92 253.211 3724
1432.82 253.211 3724
1441.73 253.211 3724
1447.51 252.667 3716
1456.4 252.667 3716
1455.43 250.967 3691
1464.26 250.967 3691
1466.7 249.879 3675
1475.48 249.879 3675
1484.27 249.879 3675
1489.81 249.335 3667
1505.12 250.423 3683
1513.92 250.423 3683
1529.35 251.511 3699
1538.19 251.511 3699
1547.04 251.511 3699
1549.15 250.423 3683
1557.96 250.423 3683
1566.77 250.423 3683
1575.57 250.423 3683
1584.38 250.423 3683
1593.19 250.423 3683
1602 250.423 3683
1614.3 250.967 3691
1623.13 250.967 3691
1631.96 250.967 3691
1640.78 250.967 3691
1656.76 252.055 3707
1673.26 253.211 3724
1682.17 253.211 3724
1691.07 253.211 3724
1699.98 253.211 3724
1708.88 253.211 3724
1714.1 252.667 3716
1722.98 252.667 3716
1727.67 252.055 3707
1736.54 252.055 3707
1741.64 251.511 3699
1750.48 251.511 3699
1759.33 251.511 3699
1748.58 248.723 3658
1749.64 247.635 3642
1758.35 247.635 3642
1763.66 247.159 3635
1772.35 247.159 3635
1781.04 247.159 3635
1789.74 247.159 3635
1782.6 244.983 3603
1787.23 244.439 3595
1792.33 243.963 3588
1792.88 242.876 3572
1801.42 242.876 3572
1794.77 240.836 3542
1795.6 239.816 3527
1781.53 236.824 3483
1789.86 236.824 3483
1790.44 235.804 3468
1798.73 235.804 3468
1811.2 236.348 3476
1830.5 237.776 3497
1838.86 237.776 3497
1855.15 238.796 3512
1863.55 238.796 3512
1876.21 239.34 3520
1896.41 240.836 3542
1904.88 240.836 3542
1913.35 240.836 3542
1917.47 240.292 3534
1925.93 240.292 3534
1934.38 240.292 3534
1968.12 243.42 3580
1989.38 244.983 3603
2011.3 246.615 3627
2019.97 246.615 3627
2041.51 248.179 3650
2082.26 252.055 3707
2119.33 255.454 3757
2128.31 255.454 3757
2181.67 260.758 3835
2190.84 260.758 3835
2200.01 260.758 3835
2204 260.146 3826
2198.1 258.378 3800
2222.29 260.146 3826
2236.69 260.758 3835
2245.86 260.758 3835
2255.03 260.758 3835
2269.52 261.37 3844
2300.05 263.818 3880
2309.33 263.818 3880
2318.61 263.818 3880
2322.49 263.206 3871
2331.74 263.206 3871
2324.67 261.37 3844
2333.86 261.37 3844
2343.05 261.37 3844
2363.26 262.594 3862
2372.5 262.594 3862
2381.73 262.594 3862
2407.68 264.43 3889
2416.98 264.43 3889
2454.98 267.557 3935
2464.39 267.557 3935
2473.8 267.557 3935
2483.21 267.557 3935
2492.62 267.557 3935
2502.03 267.557 3935
2464.85 262.594 3862
2456.79 260.758 3835
2465.96 260.758 3835
2498.36 263.206 3871
2507.62 263.206 3871
2516.88 263.206 3871
2526.13 263.206 3871
2535.39 263.206 3871
2520.98 260.758 3835
2501.78 257.834 3792
2498.93 256.61 3774
2507.96 256.61 3774
2516.98 256.61 3774
2509.27 254.911 3749
2506.82 253.755 3732
2515.74 253.755 3732
2513.84 252.667 3716
2522.73 252.667 3716
2531.62 252.667 3716
2534.35 252.055 3707
2543.21 252.055 3707
2552.08 252.055 3707
2555.42 251.511 3699
2564.26 251.511 3699
2573.11 251.511 3699
2498.89 243.42 3580
1960.43 190.316 2799
1967.13 190.316 2799
1973.82 190.316 2799
1980.51 190.316 2799
1987.21 190.316 2799
1971.1 188.14 2767
1970.57 187.46 2757
1967.84 186.576 2744
1974.41 186.576 2744
1977.36 186.236 2739
1981.01 185.964 2735
1983.92 185.624 2730
1997.01 186.236 2739
2020.38 187.8 2762
2026.99 187.8 2762
2040.22 188.412 2771
2057.18 189.364 2785
2067.55 189.704 2790
2074.22 189.704 2790
2087.61 190.316 2799
2094.3 190.316 2799
2104.75 190.656 2804
2111.45 190.656 2804
2118.16 190.656 2804
2124.86 190.656 2804
2149.81 192.288 2828
2156.57 192.288 2828
2163.34 192.288 2828
-2348 220.742 3136
-2340.5 220.742 3136
-2324.07 219.898 3124
-2312.15 219.475 3118
-2300.26 219.053 3112
-2297.24 219.475 3118
-2289.79 219.475 3118
-2291.11 220.32 3130
-2283.63 220.32 3130
-2280.51 220.742 3136
-2273.01 220.742 3136
-2265.51 220.742 3136
-2266.65 221.587 3148
-2259.12 221.587 3148
-2251.6 221.587 3148
-2244.07 221.587 3148
-2236.54 221.587 3148
-2229.01 221.587 3148
-2217.25 221.165 3142
-2205.52 220.742 3136
-2206.43 221.587 3148
-2203.09 222.009 3154
-2195.55 222.009 3154
-2188.01 222.009 3154
-2184.61 222.432 3160
-2189.46 223.699 3178
-2181.86 223.699 3178
-2190.68 225.388 3202
-2183.02 225.388 3202
-2188.27 226.725 3221
-2180.57 226.725 3221
-2176.92 227.148 3227
-2194.74 229.823 3265
-2208.37 232.075 3297
-2200.48 232.075 3297
-2209.89 233.905 3323
-2206.58 234.398 3330
-2198.62 234.398 3330
-2190.66 234.398 3330
-2174.17 233.483 3317
-2157.1 232.497 3303
-2149.2 232.497 3303
-2132.87 231.582 3290
-2125.01 231.582 3290
-2125.5 232.497 3303
-2134.92 234.398 3330
-2126.95 234.398 3330
-2118.99 234.398 3330
-2123.71 235.806 3350
-2115.69 235.806 3350
-2107.68 235.806 3350
-2099.67 235.806 3350
-2091.66 235.806 3350
-2083.65 235.806 3350
-2063.25 234.398 3330
-2050.97 233.905 3323
-2022.73 231.582 3290
-2014.86 231.582 3290
-1999.67 230.738 3278
-2007.03 232.497 3303
-2015.47 234.398 3330
-2044.28 238.692 3391
-2036.17 238.692 3391
-2032.25 239.184 3398
-2024.12 239.184 3398
-2016 239.184 3398
-2007.87 239.184 3398
-1991.51 238.199 3384
-1971.11 236.721 3363
-1963.07 236.721 3363
-1943.4 235.313 3343
-1927.88 234.398 3330
-1923.95 234.891 3337
-1919.41 235.313 3343
-1911.42 235.313 3343
-1903.43 235.313 3343
-1892.03 234.891 3337
-1884.05 234.891 3337
-1876.07 234.891 3337
-1871.45 235.313 3343
-1863.46 235.313 3343
-1855.46 235.313 3343
-1844.15 234.891 3337
-1836.17 234.891 3337
-1820.52 233.905 3323
-1805.49 232.99 3310
-1797.57 232.99 3310
-1785.87 232.497 3303
-1799.5 235.313 3343
-1802.23 236.721 3363
-1816.59 239.677 3405
-1808.45 239.677 3405
-1807.71 240.663 3419
-1799.53 240.663 3419
-1791.36 240.663 3419
-1783.18 240.663 3419
-1767.74 239.677 3405
-1770.45 241.155 3426
-1765.86 241.648 3433
-1757.65 241.648 3433
-1753 242.141 3440
-1755.43 243.619 3461
-1750.69 244.112 3468
-1742.39 244.112 3468
-1734.1 244.112 3468
-1722.32 243.619 3461
-1714.05 243.619 3461
-1702.32 243.126 3454
-1694.06 243.126 3454
-1685.8 243.126 3454
-1677.54 243.126 3454
-1669.28 243.126 3454
-1654.29 242.141 3440
-1646.07 242.141 3440
-1637.84 242.141 3440
-1629.61 242.141 3440
-1618.09 241.648 3433
-1606.6 241.155 3426
-1598.4 241.155 3426
-1590.21 241.155 3426
-1582.02 241.155 3426
-1573.83 241.155 3426
-1565.63 241.155 3426
-1557.44 241.155 3426
-1549.25 241.155 3426
-1544.2 241.648 3433
-1535.99 241.648 3433
-1527.78 241.648 3433
-1519.58 241.648 3433
-1505.2 240.663 3419
-1497.03 240.663 3419
-1473.61 238.199 3384
-1459.45 237.214 3370
-1451.4 237.214 3370
-1443.34 237.214 3370
-1435.28 237.214 3370
-1424.26 236.721 3363
-1405.26 234.891 3337
-1397.28 234.891 3337
-1389.3 234.891 3337
-1373.05 233.483 3317
-716.726 124.027 1762
-712.916 124.097 1763
-708.701 124.097 1763
-704.485 124.097 1763
-699.872 124.027 1762
-695.658 124.027 1762
-691.445 124.027 1762
-687.621 124.097 1763
-683.405 124.097 1763
-679.96 124.238 1765
-675.739 124.238 1765
-671.519 124.238 1765
-669.566 124.66 1771
-665.331 124.66 1771
-661.096 124.66 1771
-656.862 124.66 1771
-651.152 124.379 1767
-646.927 124.379 1767
-641.974 124.238 1765
-636.669 124.027 1762
-631.738 123.886 1760
-627.529 123.886 1760
-622.612 123.745 1758
-617.705 123.604 1756
-612.108 123.323 1752
-607.919 123.323 1752
-603.729 123.323 1752
-597.144 122.83 1745
-592.971 122.83 1745
-588.124 122.689 1743
-583.956 122.689 1743
-579.122 122.549 1741
-573.308 122.197 1736
-568.501 122.056 1734
-564.354 122.056 1734
-559.562 121.915 1732
-553.817 121.563 1727
-548.414 121.282 1723
-544.293 121.282 1723
-539.86 121.211 1722
-533.875 120.789 1716
-528.846 120.578 1713
-524.749 120.578 1713
-520.653 120.578 1713
-515.35 120.296 1709
-510.965 120.226 1708
-506.88 120.226 1708
-502.207 120.085 1706
-496.96 119.803 1702
-492.89 119.803 1702
-488.82 119.803 1702
-484.465 119.733 1701
-479.832 119.592 1699
-475.209 119.451 1697
-471.151 119.451 1697
-467.093 119.451 1697
-462.49 119.311 1695
-458.436 119.311 1695
-454.383 119.311 1695
-450.33 119.311 1695
-446.277 119.311 1695
-441.962 119.24 1694
-437.912 119.24 1694
-433.861 119.24 1694
-429.81 119.24 1694
-425.256 119.1 1692
-421.21 119.1 1692
-417.164 119.1 1692
-413.118 119.1 1692
-409.072 119.1 1692
-405.026 119.1 1692
-400.98 119.1 1692
-396.23 118.888 1689
-392.191 118.888 1689
-387.233 118.607 1685
-383.203 118.607 1685
-379.174 118.607 1685
-374.699 118.466 1683
-370.455 118.396 1682
-366.433 118.396 1682
-361.548 118.114 1678
-357.323 118.044 1677
-352.891 117.903 1675
-348.261 117.692 1672
-344.263 117.692 1672
-339.857 117.551 1670
-335.864 117.551 1670
-331.87 117.551 1670
-327.877 117.551 1670
-323.496 117.41 1668
-319.315 117.34 1667
-315.329 117.34 1667
-311.343 117.34 1667
-307.356 117.34 1667
-303.37 117.34 1667
-299.384 117.34 1667
-295.575 117.41 1668
-291.586 117.41 1668
-287.942 117.551 1670
-284.459 117.762 1673
-281.129 118.044 1677
-277.118 118.044 1677
-273.271 118.114 1678
-269.579 118.255 1680
-266.036 118.466 1683
-262.012 118.466 1683
-258.6 118.748 1687
-254.868 118.888 1689
-251.275 119.1 1692
-247.229 119.1 1692
-243.47 119.24 1694
-239.843 119.451 1697
-236.063 119.592 1699
-232 119.592 1699
-228.34 119.803 1702
-224.27 119.803 1702
-220.717 120.085 1706
-216.638 120.085 1706
-212.558 120.085 1706
-208.845 120.296 1709
-204.998 120.437 1711
-200.906 120.437 1711
-196.815 120.437 1711
-193.174 120.718 1715
-189.073 120.718 1715
-184.972 120.718 1715
-181.187 120.93 1718
-177.285 121.07 1720
-173.474 121.282 1723
-169.354 121.282 1723
-165.234 121.282 1723
-161.487 121.563 1727
-157.54 121.704 1729
-153.671 121.915 1732
-149.53 121.915 1732
-145.724 122.197 1736
-141.736 122.337 1738
-137.817 122.549 1741
-133.654 122.549 1741
-129.639 122.689 1743
-125.615 122.83 1745
-121.582 122.971 1747
-117.404 122.971 1747
-113.356 123.112 1749
-109.298 123.253 1751
-105.291 123.464 1754
-101.097 123.464 1754
-96.9026 123.464 1754
-92.814 123.604 1756
-88.6148 123.604 1756
-84.4157 123.604 1756
-80.0339 123.323 1752
-75.8443 123.323 1752
-71.6547 123.323 1752
-67.4652 123.323 1752
-63.2756 123.323 1752
-58.9849 123.112 1749
-54.8025 123.112 1749
-50.6201 123.112 1749
-26.9144 255.304 3627
-18.2412 255.304 3627
-9.5679 255.304 3627
-0.894641 255.304 3627
7.7443 254.178 3611
16.3793 254.178 3611
25.0143 254.178 3611
33.5747 253.614 3603
42.1906 253.614 3603
50.9193 254.178 3611
59.5543 254.178 3611
68.1893 254.178 3611
77.4838 256.36 3642
86.5716 257.486 3658
95.319 257.486 3658
104.066 257.486 3658
112.32 256.36 3642
121.029 256.36 3642
129.739 256.36 3642
138.448 256.36 3642
146.227 254.741 3619
154.882 254.741 3619
285.952 255.867 3635
294.645 255.867 3635
303.337 255.867 3635
312.029 255.867 3635
320.722 255.867 3635
331.498 257.486 3658
340.246 257.486 3658
348.993 257.486 3658
355.491 255.867 3635
361.779 254.178 3611
370.414 254.178 3611
374.22 250.94 3565
381.028 249.813 3549
386.332 247.772 3520
390.6 245.168 3483
398.928 245.168 3483
405.504 244.112 3468
408.785 241.155 3426
411.866 238.199 3384
419.958 238.199 3384
425.394 236.721 3363
430.085 234.891 3337
435.439 233.483 3317
443.371 233.483 3317
451.303 233.483 3317
459.235 233.483 3317
467.167 233.483 3317
475.099 233.483 3317
482.012 232.99 3310
488.003 232.075 3297
494.834 231.582 3290
506.827 233.483 3317
517.862 234.891 3337
525.842 234.891 3337
540.221 237.706 3377
553.979 240.17 3412
573.836 245.168 3483
582.164 245.168 3483
603.039 250.376 3557
614.124 251.432 3572
622.666 251.432 3572
639.513 254.741 3619
648.167 254.741 3619
656.821 254.741 3619
665.475 254.741 3619
674.129 254.741 3619
678.255 253.051 3595
688.38 253.614 3603
698.544 254.178 3611
707.179 254.178 3611
721.959 256.36 3642
730.668 256.36 3642
739.377 256.36 3642
748.086 256.36 3642
756.796 256.36 3642
765.505 256.36 3642
774.214 256.36 3642
782.923 256.36 3642
791.632 256.36 3642
798.803 255.867 3635
809.05 256.36 3642
817.759 256.36 3642
828.284 256.923 3650
837.012 256.923 3650
845.741 256.923 3650
854.469 256.923 3650
863.197 256.923 3650
875.986 258.119 3667
884.755 258.119 3667
893.524 258.119 3667
902.293 258.119 3667
911.062 258.119 3667
917.573 257.486 3658
926.321 257.486 3658
935.068 257.486 3658
946.138 258.119 3667
954.906 258.119 3667
963.675 258.119 3667
972.444 258.119 3667
976.664 256.923 3650
983.233 256.36 3642
991.942 256.36 3642
1000.65 256.36 3642
1007.42 255.867 3635
1020.31 256.923 3650
1029.03 256.923 3650
1037.76 256.923 3650
1046.49 256.923 3650
1055.22 256.923 3650
1063.95 256.923 3650
1070.32 256.36 3642
1079.03 256.36 3642
1090.13 256.923 3650
1101.27 257.486 3658
1110.02 257.486 3658
1118.76 257.486 3658
1127.51 257.486 3658
1136.26 257.486 3658
1145.01 257.486 3658
1153.75 257.486 3658
1167.9 258.682 3675
1179.25 259.246 3683
1190.64 259.809 3691
1199.47 259.809 3691
1208.29 259.809 3691
1217.12 259.809 3691
1225.95 259.809 3691
1234.77 259.809 3691
1246.29 260.372 3699
1260.91 261.568 3716
1272.53 262.132 3724
1281.43 262.132 3724
1290.34 262.132 3724
1299.24 262.132 3724
1308.15 262.132 3724
1317.05 262.132 3724
1325.96 262.132 3724
1328.77 260.935 3707
1337.63 260.935 3707
1346.5 260.935 3707
1355.36 260.935 3707
1367.54 261.568 3716
1376.43 261.568 3716
1385.31 261.568 3716
1394.2 261.568 3716
1403.08 261.568 3716
1424.51 263.891 3749
1433.47 263.891 3749
1442.44 263.891 3749
1451.4 263.891 3749
1453.75 262.695 3732
1462.67 262.695 3732
1465.29 261.568 3716
1477.35 262.132 3724
1486.25 262.132 3724
1495.16 262.132 3724
1504.06 262.132 3724
1512.97 262.132 3724
1525.14 262.695 3732
1537.35 263.258 3740
1550.02 263.891 3749
1558.98 263.891 3749
1567.95 263.891 3749
1576.91 263.891 3749
1585.88 263.891 3749
1594.84 263.891 3749
1603.81 263.891 3749
1612.77 263.891 3749
1621.74 263.891 3749
1630.7 263.891 3749
1639.67 263.891 3749
1648.63 263.891 3749
1661.14 264.454 3757
1670.12 264.454 3757
1690.72 266.285 3783
1703.82 266.918 3792
1712.88 266.918 3792
1721.95 266.918 3792
1731.02 266.918 3792
1740.09 266.918 3792
1745 266.285 3783
1754.05 266.285 3783
1763.1 266.285 3783
1772.14 266.285 3783
1773.18 265.088 3766
1782.19 265.088 3766
1778.83 263.258 3740
1783.95 262.695 3732
1785.19 261.568 3716
1794.07 261.568 3716
1798.59 260.935 3707
1783.56 257.486 3658
1781.04 255.867 3635
1789.74 255.867 3635
1798.43 255.867 3635
1803.14 255.304 3627
1799.83 253.614 3603
1800.91 252.559 3588
1809.49 252.559 3588
1794.77 249.321 3542
1799.16 248.757 3534
1785.11 245.66 3490
1793.45 245.66 3490
1794.57 244.675 3476
1798.73 244.112 3468
1818.49 245.66 3490
1838.35 247.209 3512
1846.75 247.209 3512
1855.15 247.209 3512
1867.79 247.772 3520
1887.94 249.321 3542
1896.41 249.321 3542
1904.88 249.321 3542
1913.35 249.321 3542
1921.82 249.321 3542
1930.29 249.321 3542
1938.76 249.321 3542
1980.76 253.614 3603
1998.21 254.741 3619
2015.74 255.867 3635
2024.43 255.867 3635
2045.99 257.486 3658
2082.26 260.935 3707
2168.4 270.578 3844
2177.6 270.578 3844
2191.91 271.212 3853
2201.12 271.212 3853
2210.34 271.212 3853
2214.36 270.578 3844
2218.35 269.945 3835
2258.89 273.746 3889
2268.19 273.746 3889
2277.49 273.746 3889
2286.79 273.746 3889
2306.71 275.013 3907
2321.39 275.646 3916
2330.76 275.646 3916
2340.12 275.646 3916
2349.48 275.646 3916
2358.85 275.646 3916
2379.7 276.984 3935
2389.11 276.984 3935
2398.52 276.984 3935
2407.93 276.984 3935
2417.34 276.984 3935
2426.75 276.984 3935
2459.07 279.588 3972
2468.57 279.588 3972
2508.01 282.967 4020
2517.62 282.967 4020
2527.24 282.967 4020
2536.85 282.967 4020
2546.46 282.967 4020
2544 281.63 4001
2517.18 277.617 3944
2526.62 277.617 3944
2536.05 277.617 3944
2545.48 277.617 3944
2554.91 277.617 3944
2564.34 277.617 3944
2555.5 275.646 3916
2564.86 275.646 3916
2544.65 272.479 3871
2530.15 269.945 3835
2528.07 268.748 3818
2537.2 268.748 3818
2540.32 268.115 3809
2538.05 266.918 3792
2529.66 265.088 3766
2538.66 265.088 3766
2541.58 264.454 3757
2550.56 264.454 3757
2559.55 264.454 3757
2545.97 262.132 3724
2554.88 262.132 3724
2563.78 262.132 3724
2572.69 262.132 3724
2581.59 262.132 3724
2590.5 262.132 3724
2498.89 251.995 3580
1960.43 197.021 2799
1967.13 197.021 2799
1973.82 197.021 2799
1980.51 197.021 2799
1987.21 197.021 2799
1971.1 194.769 2767
1970.57 194.065 2757
1967.84 193.15 2744
1974.41 193.15 2744
1977.36 192.798 2739
1981.01 192.516 2735
1983.92 192.164 2730
1997.01 192.798 2739
2020.38 194.417 2762
2026.99 194.417 2762
2043.9 195.402 2776
2057.18 196.036 2785
2067.55 196.387 2790
2074.22 196.387 2790
2087.61 197.021 2799
2094.3 197.021 2799
2104.75 197.373 2804
2111.45 197.373 2804
2118.16 197.373 2804
2124.86 197.373 2804
2149.81 199.062 2828
2156.57 199.062 2828
2163.34 199.062 2828
-2339.02 227.381 3124
-2331.54 227.381 3124
-2319.61 226.945 3118
-2307.71 226.508 3112
-2300.26 226.508 3112
-2292.82 226.508 3112
-2285.38 226.508 3112
-2286.72 227.381 3124
-2283.63 227.818 3130
-2276.14 227.818 3130
-2268.66 227.818 3130
-2265.51 228.255 3136
-2258.01 228.255 3136
-2250.51 228.255 3136
-2243.01 228.255 3136
-2239.79 228.691 3142
-2232.28 228.691 3142
-2224.76 228.691 3142
-2217.25 228.691 3142
-2205.52 228.255 3136
-2206.43 229.128 3148
-2203.09 229.565 3154
-2195.55 229.565 3154
-2188.01 229.565 3154
-2184.61 230.002 3160
-2189.46 231.312 3178
-2181.86 231.312 3178
-2190.68 233.059 3202
-2195.97 234.441 3221
-2192.35 234.878 3227
-2184.63 234.878 3227
-2197.83 237.134 3258
-2229.7 241.429 3317
-2225.78 241.866 3323
-2217.84 241.866 3323
-2241.15 245.286 3370
-2233.09 245.286 3370
-2225.03 245.286 3370
-2216.97 245.286 3370
-2204.32 244.777 3363
-2166.24 241.429 3317
-2171.32 242.885 3337
-2163.34 242.885 3337
-2163.76 243.831 3350
-2173.12 245.796 3377
-2174.02 246.815 3391
-2165.92 246.815 3391
-2157.81 246.815 3391
-2167.45 248.853 3419
-2159.27 248.853 3419
-2151.1 248.853 3419
-2142.92 248.853 3419
-2134.74 248.853 3419
-2126.57 248.853 3419
-2114.06 248.343 3412
-2071.95 244.34 3357
-2059.62 243.831 3350
-2051.61 243.831 3350
-2007 239.464 3290
-2019.18 241.866 3323
-2031.81 244.34 3357
-2073.82 250.381 3440
-2065.6 250.381 3440
-2065.74 251.4 3454
-2057.48 251.4 3454
-2049.22 251.4 3454
-2028.55 249.872 3433
-2007.99 248.343 3412
-1983.42 246.305 3384
-1975.32 246.305 3384
-1955.02 244.777 3363
-1935.4 243.321 3343
-1923.95 242.885 3337
-1919.41 243.321 3343
-1911.42 243.321 3343
-1903.43 243.321 3343
-1895.43 243.321 3343
-1887.44 243.321 3343
-1879.44 243.321 3343
-1879.29 244.34 3357
-1871.26 244.34 3357
-1866.56 244.777 3363
-1858.52 244.777 3363
-1850.48 244.777 3363
-1831.48 243.321 3343
-1823.49 243.321 3343
-1815.49 243.321 3343
-1807.5 243.321 3343
-1829.11 247.324 3398
-1824.73 247.834 3405
-1816.59 247.834 3405
-1830.76 250.891 3447
-1829.92 251.91 3461
-1821.64 251.91 3461
-1813.36 251.91 3461
-1805.09 251.91 3461
-1793.18 251.4 3454
-1784.92 251.4 3454
-1787.97 253.002 3476
-1779.66 253.002 3476
-1774.92 253.511 3483
-1770.14 254.021 3490
-1761.79 254.021 3490
-1753.45 254.021 3490
-1745.1 254.021 3490
-1733.27 253.511 3483
-1724.94 253.511 3483
-1716.61 253.511 3483
-1708.29 253.511 3483
-1699.96 253.511 3483
-1691.63 253.511 3483
-1683.3 253.511 3483
-1664.39 251.91 3461
-1656.11 251.91 3461
-1647.84 251.91 3461
-1639.56 251.91 3461
-1627.99 251.4 3454
-1619.73 251.4 3454
-1611.47 251.4 3454
-1603.21 251.4 3454
-1591.71 250.891 3447
-1583.47 250.891 3447
-1575.23 250.891 3447
-1563.8 250.381 3440
-1549.25 249.362 3426
-1553.65 251.4 3454
-1551.65 252.419 3468
-1543.36 252.419 3468
-1535.07 252.419 3468
-1511.37 249.872 3433
-1503.16 249.872 3433
-1482.75 247.834 3405
-1474.61 247.834 3405
-1475.51 249.362 3426
-1467.32 249.362 3426
-1459.13 249.362 3426
-1450.94 249.362 3426
-1425.06 246.305 3384
-1416.96 246.305 3384
-1408.87 246.305 3384
-1373.05 241.429 3317
-719.573 128.757 1769
-715.343 128.757 1769
-711.112 128.757 1769
-706.882 128.757 1769
-701.063 128.466 1765
-696.843 128.466 1765
-691.445 128.248 1762
-687.621 128.32 1763
-683.405 128.32 1763
-679.19 128.32 1763
-674.974 128.32 1763
-670.758 128.32 1763
-668.81 128.757 1769
-664.58 128.757 1769
-660.35 128.757 1769
-656.12 128.757 1769
-650.415 128.466 1765
-646.195 128.466 1765
-641.247 128.32 1763
-635.947 128.102 1760
-631.02 127.957 1758
-626.816 127.957 1758
-622.612 127.957 1758
-617.001 127.665 1754
-612.108 127.52 1752
-606.878 127.301 1749
-602.695 127.301 1749
-597.144 127.01 1745
-592.292 126.865 1743
-587.449 126.719 1741
-583.286 126.719 1741
-578.125 126.501 1738
-572.647 126.21 1734
-568.501 126.21 1734
-564.354 126.21 1734
-559.562 126.064 1732
-553.817 125.7 1727
-549.05 125.555 1725
-544.925 125.555 1725
-539.86 125.336 1722
-533.875 124.9 1716
-528.846 124.681 1713
-524.749 124.681 1713
-520.653 124.681 1713
-515.35 124.39 1709
-510.965 124.317 1708
-506.88 124.317 1708
-502.207 124.172 1706
-496.96 123.881 1702
-492.89 123.881 1702
-488.82 123.881 1702
-484.465 123.808 1701
-479.832 123.662 1699
-475.209 123.517 1697
-471.151 123.517 1697
-467.093 123.517 1697
-462.49 123.371 1695
-458.436 123.371 1695
-454.383 123.371 1695
-450.33 123.371 1695
-446.277 123.371 1695
-441.962 123.298 1694
-437.912 123.298 1694
-433.861 123.298 1694
-429.81 123.298 1694
-425.759 123.298 1694
-421.21 123.153 1692
-417.164 123.153 1692
-413.118 123.153 1692
-409.072 123.153 1692
-405.026 123.153 1692
-400.98 123.153 1692
-396.23 122.934 1689
-392.191 122.934 1689
-387.233 122.643 1685
-383.203 122.643 1685
-379.174 122.643 1685
-374.699 122.498 1683
-370.455 122.425 1682
-366.433 122.425 1682
-361.548 122.134 1678
-357.323 122.061 1677
-352.891 121.915 1675
-348.261 121.697 1672
-344.263 121.697 1672
-339.857 121.551 1670
-335.864 121.551 1670
-331.87 121.551 1670
-327.877 121.551 1670
-323.496 121.406 1668
-319.507 121.406 1668
-315.329 121.333 1667
-311.343 121.333 1667
-307.356 121.333 1667
-303.37 121.333 1667
-299.563 121.406 1668
-295.575 121.406 1668
-291.586 121.406 1668
-287.942 121.551 1670
-284.799 121.915 1675
-281.129 122.061 1677
-277.118 122.061 1677
-273.271 122.134 1678
-269.579 122.279 1680
-266.036 122.498 1683
-262.012 122.498 1683
-258.6 122.789 1687
-254.868 122.934 1689
-251.275 123.153 1692
-247.229 123.153 1692
-243.47 123.298 1694
-239.843 123.517 1697
-236.063 123.662 1699
-232 123.662 1699
-228.34 123.881 1702
-224.27 123.881 1702
-220.717 124.172 1706
-216.638 124.172 1706
-212.558 124.172 1706
-208.845 124.39 1709
-204.998 124.536 1711
-200.906 124.536 1711
-196.815 124.536 1711
-193.174 124.827 1715
-189.183 124.9 1716
-185.08 124.9 1716
-181.187 125.045 1718
-177.285 125.191 1720
-173.373 125.336 1722
-169.354 125.409 1723
-165.234 125.409 1723
-161.3 125.555 1725
-157.54 125.846 1729
-153.671 126.064 1732
-149.53 126.064 1732
-145.724 126.355 1736
-141.736 126.501 1738
-137.817 126.719 1741
-133.654 126.719 1741
-129.639 126.865 1743
-125.615 127.01 1745
-121.582 127.156 1747
-117.404 127.156 1747
-113.356 127.301 1749
-109.298 127.447 1751
-105.171 127.52 1752
-100.982 127.52 1752
-96.7921 127.52 1752
-92.6025 127.52 1752
-88.413 127.52 1752
-84.2234 127.52 1752
-79.9882 127.447 1751
-75.801 127.447 1751
-71.6138 127.447 1751
-67.4267 127.447 1751
-63.1672 127.301 1749
-58.9849 127.301 1749
-54.8025 127.301 1749
-50.6201 127.301 1749
-35.9801 266.904 3667
-27.2112 266.904 3667
-18.4423 266.904 3667
-9.67342 266.904 3667
-0.900315 265.666 3650
7.77861 263.992 3627
16.4519 263.992 3627
25.1251 263.992 3627
33.9382 265.084 3642
42.6473 265.084 3642
51.3564 265.084 3642
60.0655 265.084 3642
69.0768 266.249 3658
78.5263 268.651 3691
87.5419 269.233 3699
96.3873 269.233 3699
105.233 269.233 3699
114.849 271.052 3724
123.754 271.052 3724
132.66 271.052 3724
138.448 265.084 3642
337.48 271.052 3724
346.385 271.052 3724
355.29 271.052 3724
360.968 268.651 3691
364.885 265.084 3642
373.594 265.084 3642
379.049 262.828 3611
384.356 260.571 3580
389.514 258.315 3549
398.001 258.315 3549
403.166 256.204 3520
407.257 253.511 3483
409.62 249.872 3433
413.57 247.324 3398
421.696 247.324 3398
425.394 244.777 3363
430.858 243.321 3343
435.439 241.429 3317
443.371 241.429 3317
451.303 241.429 3317
461.035 242.375 3330
468.998 242.375 3330
476.961 242.375 3330
483.031 241.429 3317
488.003 239.973 3297
495.887 239.973 3297
509.883 242.885 3337
522.984 245.286 3370
531.042 245.286 3370
545.82 248.343 3412
553.979 248.343 3412
573.836 253.511 3483
582.164 253.511 3483
610.838 262.245 3603
622.204 263.41 3619
630.859 263.41 3619
642.34 264.575 3635
653.719 265.666 3650
662.447 265.666 3650
671.175 265.666 3650
679.904 265.666 3650
691.839 266.904 3667
700.608 266.904 3667
709.377 266.904 3667
718.146 266.904 3667
728.501 267.486 3675
737.289 267.486 3675
746.077 267.486 3675
754.865 267.486 3675
763.653 267.486 3675
774.122 268.068 3683
782.93 268.068 3683
791.737 268.068 3683
800.544 268.068 3683
807.593 267.486 3675
818.158 268.068 3683
826.965 268.068 3683
835.773 268.068 3683
844.58 268.068 3683
853.387 268.068 3683
858.449 266.904 3667
867.217 266.904 3667
877.897 267.486 3675
886.685 267.486 3675
895.474 267.486 3675
904.262 267.486 3675
913.05 267.486 3675
919.831 266.904 3667
932.651 268.068 3683
941.459 268.068 3683
954.394 269.233 3699
963.24 269.233 3699
972.085 269.233 3699
980.93 269.233 3699
983.354 267.486 3675
989.982 266.904 3667
1000.93 267.486 3675
1009.72 267.486 3675
1018.51 267.486 3675
1029.53 268.068 3683
1042.85 269.233 3699
1051.69 269.233 3699
1062.83 269.815 3707
1071.7 269.815 3707
1080.56 269.815 3707
1087.08 269.233 3699
1093.55 268.651 3691
1109.84 270.47 3716
1118.73 270.47 3716
1127.62 270.47 3716
1136.5 270.47 3716
1145.39 270.47 3716
1146.51 268.651 3691
1160.34 269.815 3707
1169.21 269.815 3707
1183.47 271.052 3724
1197.5 272.217 3740
1206.45 272.217 3740
1215.39 272.217 3740
1224.33 272.217 3740
1230.64 271.635 3732
1242.22 272.217 3740
1251.16 272.217 3740
1260.11 272.217 3740
1269.05 272.217 3740
1277.99 272.217 3740
1286.94 272.217 3740
1295.88 272.217 3740
1304.82 272.217 3740
1313.77 272.217 3740
1322.71 272.217 3740
1331.66 272.217 3740
1334.86 271.052 3724
1349.54 272.217 3740
1361.75 272.872 3749
1370.72 272.872 3749
1379.68 272.872 3749
1388.65 272.872 3749
1397.61 272.872 3749
1406.58 272.872 3749
1412.15 272.217 3740
1424.51 272.872 3749
1433.47 272.872 3749
1442.44 272.872 3749
1451.4 272.872 3749
1453.75 271.635 3732
1462.67 271.635 3732
1465.29 270.47 3716
1477.35 271.052 3724
1486.25 271.052 3724
1495.16 271.052 3724
1504.06 271.052 3724
1512.97 271.052 3724
1525.14 271.635 3732
1537.35 272.217 3740
1550.02 272.872 3749
1558.98 272.872 3749
1567.95 272.872 3749
1576.91 272.872 3749
1585.88 272.872 3749
1594.84 272.872 3749
1603.81 272.872 3749
1612.77 272.872 3749
1621.74 272.872 3749
1630.7 272.872 3749
1639.67 272.872 3749
1648.63 272.872 3749
1661.14 273.454 3757
1670.12 273.454 3757
1690.72 275.347 3783
1703.82 276.002 3792
1712.88 276.002 3792
1721.95 276.002 3792
1731.02 276.002 3792
1740.09 276.002 3792
1745 275.347 3783
1754.05 275.347 3783
1763.1 275.347 3783
1772.14 275.347 3783
1773.18 274.109 3766
1782.19 274.109 3766
1778.83 272.217 3740
1783.95 271.635 3732
1785.19 270.47 3716
1794.07 270.47 3716
1798.59 269.815 3707
1783.56 266.249 3658
1781.04 264.575 3635
1789.74 264.575 3635
1798.43 264.575 3635
1803.14 263.992 3627
1799.83 262.245 3603
1800.91 261.154 3588
1809.49 261.154 3588
1794.77 257.806 3542
1799.16 257.223 3534
1785.11 254.021 3490
1793.45 254.021 3490
1794.57 253.002 3476
1798.73 252.419 3468
1818.49 254.021 3490
1838.35 255.622 3512
1846.75 255.622 3512
1855.15 255.622 3512
1867.79 256.204 3520
1887.94 257.806 3542
1896.41 257.806 3542
1904.88 257.806 3542
1913.35 257.806 3542
1921.82 257.806 3542
1930.29 257.806 3542
1938.76 257.806 3542
1980.76 262.245 3603
1998.21 263.41 3619
2015.74 264.575 3635
2024.43 264.575 3635
2045.99 266.249 3658
2082.26 269.815 3707
2168.4 279.787 3844
2177.6 279.787 3844
2191.91 280.442 3853
2201.12 280.442 3853
2210.34 280.442 3853
2214.36 279.787 3844
2218.35 279.132 3835
2258.89 283.062 3889
2268.19 283.062 3889
2277.49 283.062 3889
2286.79 283.062 3889
2306.71 284.372 3907
2321.39 285.027 3916
2330.76 285.027 3916
2340.12 285.027 3916
2349.48 285.027 3916
2358.85 285.027 3916
2379.7 286.41 3935
2389.11 286.41 3935
2398.52 286.41 3935
2407.93 286.41 3935
2417.34 286.41 3935
2426.75 286.41 3935
2459.07 289.103 3972
2468.57 289.103 3972
2508.01 292.597 4020
2517.62 292.597 4020
2527.24 292.597 4020
2536.85 292.597 4020
2546.46 292.597 4020
2544 291.214 4001
2517.18 287.065 3944
2526.62 287.065 3944
2536.05 287.065 3944
2545.48 287.065 3944
2554.91 287.065 3944
2564.34 287.065 3944
2555.5 285.027 3916
2564.86 285.027 3916
2544.65 281.752 3871
2530.15 279.132 3835
2528.07 277.894 3818
2537.2 277.894 3818
2540.32 277.239 3809
2538.05 276.002 3792
2529.66 274.109 3766
2538.66 274.109 3766
2541.58 273.454 3757
2550.56 273.454 3757
2559.55 273.454 3757
2545.97 271.052 3724
2554.88 271.052 3724
2563.78 271.052 3724
2572.69 271.052 3724
2581.59 271.052 3724
2590.5 271.052 3724
1960.43 203.726 2799
1967.13 203.726 2799
1973.82 203.726 2799
1976.98 203.362 2794
1983.66 203.362 2794
1971.1 201.397 2767
1967.71 200.378 2753
1964.26 199.359 2739
1970.81 199.359 2739
1974.47 199.068 2735
1981.01 199.068 2735
1981.01 198.413 2726
1997.01 199.359 2739
2020.38 201.033 2762
2026.99 201.033 2762
2043.9 202.052 2776
2057.18 202.707 2785
2067.55 203.071 2790
2074.22 203.071 2790
2083.88 203.362 2794
2094.3 203.726 2799
2100.99 203.726 2799
2107.69 203.726 2799
2118.16 204.09 2804
2124.86 204.09 2804
2149.81 205.837 2828
2156.57 205.837 2828
2163.34 205.837 2828
-2339.02 234.865 3124
-2331.54 234.865 3124
-2319.61 234.414 3118
-2307.71 233.963 3112
-2300.26 233.963 3112
-2292.82 233.963 3112
-2285.38 233.963 3112
-2286.72 234.865 3124
-2283.63 235.316 3130
-2276.14 235.316 3130
-2268.66 235.316 3130
-2265.51 235.767 3136
-2258.01 235.767 3136
-2250.51 235.767 3136
-2243.01 235.767 3136
-2239.79 236.218 3142
-2232.28 236.218 3142
-2229.01 236.669 3148
-2221.48 236.669 3148
-2213.96 236.669 3148
-2206.43 236.669 3148
-2203.09 237.12 3154
-2195.55 237.12 3154
-2188.01 237.12 3154
-2184.61 237.571 3160
-2205.99 240.729 3202
-2198.34 240.729 3202
-2190.68 240.729 3202
-2195.97 242.157 3221
-2192.35 242.608 3227
-2184.63 242.608 3227
-2364.45 263.509 3505
-2366.15 264.636 3520
-2357.74 264.636 3520
-2349.32 264.636 3520
-2340.9 264.636 3520
-2332.48 264.636 3520
-2324.07 264.636 3520
-2310.39 264.035 3512
-2287.57 262.381 3490
-2255.71 259.674 3454
-2247.45 259.674 3454
-2239.19 259.674 3454
-2230.93 259.674 3454
-2227.18 260.201 3461
-2218.9 260.201 3461
-2210.63 260.201 3461
-2206.8 260.727 3468
-2198.51 260.727 3468
-2190.22 260.727 3468
-2181.92 260.727 3468
-2173.63 260.727 3468
-2165.34 260.727 3468
-2157.05 260.727 3468
-2131.4 258.622 3440
-2105.9 256.517 3412
-2089.13 255.464 3398
-2081 255.464 3398
-2007 247.345 3290
-2019.18 249.826 3323
-2090.52 259.674 3454
-2099.74 261.855 3483
-2091.42 261.855 3483
-2083.09 261.855 3483
-2074.76 261.855 3483
-2066.43 261.855 3483
-2049.24 260.727 3468
-2020.35 258.096 3433
-2003.93 257.043 3419
-1995.75 257.043 3419
-1967.23 254.412 3384
-1946.98 252.833 3363
-1931.44 251.856 3350
-1923.43 251.856 3350
-1911.42 251.329 3343
-1903.43 251.329 3343
-1903.37 252.382 3357
-1898.73 252.833 3363
-1890.69 252.833 3363
-1890.48 253.886 3377
-1882.41 253.886 3377
-1874.33 253.886 3377
-1862.39 253.359 3370
-1854.33 253.359 3370
-1842.44 252.833 3363
-1834.39 252.833 3363
-1815.49 251.329 3343
-1837.23 255.464 3398
-1832.88 255.991 3405
-1835.99 257.569 3426
-1827.8 257.569 3426
-1838.19 260.201 3461
-1845.25 262.381 3490
-1836.9 262.381 3490
-1828.56 262.381 3490
-1820.21 262.381 3490
-1804.6 261.328 3476
-1799.9 261.855 3483
-1795.18 262.381 3490
-1786.83 262.381 3490
-1793.77 264.636 3520
-1788.9 265.163 3527
-1780.47 265.163 3527
-1772.04 265.163 3527
-1763.6 265.163 3527
-1744.22 263.509 3505
-1739.31 264.035 3512
-1730.91 264.035 3512
-1722.51 264.035 3512
-1714.11 264.035 3512
-1705.71 264.035 3512
-1697.31 264.035 3512
-1681.7 262.907 3497
-1673.34 262.907 3497
-1664.98 262.907 3497
-1656.62 262.907 3497
-1648.25 262.907 3497
-1639.89 262.907 3497
-1631.53 262.907 3497
-1623.17 262.907 3497
-1614.8 262.907 3497
-1606.44 262.907 3497
-1598.08 262.907 3497
-1586.53 262.381 3490
-1571.86 261.328 3476
-1563.55 261.328 3476
-1555.23 261.328 3476
-1546.92 261.328 3476
-1538.61 261.328 3476
-1526.77 260.727 3468
-1518.48 260.727 3468
-1494.95 258.096 3433
-1489.77 258.622 3440
-1487.57 259.674 3454
-1485.31 260.727 3468
-1477.02 260.727 3468
-1468.72 260.727 3468
-1448.64 258.622 3440
-1440.41 258.622 3440
-1426.36 257.569 3426
-722.014 133.446 1775
-717.769 133.446 1775
-713.524 133.446 1775
-709.28 133.446 1775
-704.241 133.296 1773
-700.001 133.296 1773
-692.622 132.694 1765
-687.621 132.544 1763
-683.405 132.544 1763
-679.19 132.544 1763
-674.974 132.544 1763
-670.758 132.544 1763
-667.298 132.694 1765
-663.077 132.694 1765
-658.857 132.694 1765
-654.636 132.694 1765
-649.678 132.544 1763
-645.463 132.544 1763
-640.883 132.469 1762
-635.224 132.168 1758
-631.02 132.168 1758
-626.816 132.168 1758
-622.612 132.168 1758
-616.298 131.717 1752
-611.06 131.491 1749
-606.184 131.341 1747
-602.006 131.341 1747
-596.46 131.04 1743
-591.612 130.89 1741
-587.449 130.89 1741
-583.286 130.89 1741
-578.125 130.664 1738
-573.308 130.514 1736
-568.501 130.364 1734
-564.354 130.364 1734
-559.562 130.213 1732
-553.817 129.837 1727
-549.05 129.687 1725
-544.925 129.687 1725
-539.86 129.461 1722
-533.875 129.01 1716
-528.846 128.785 1713
-524.749 128.785 1713
-520.653 128.785 1713
-515.35 128.484 1709
-510.965 128.409 1708
-506.88 128.409 1708
-502.207 128.258 1706
-496.96 127.958 1702
-492.89 127.958 1702
-488.82 127.958 1702
-484.465 127.883 1701
-479.832 127.732 1699
-475.209 127.582 1697
-471.151 127.582 1697
-467.093 127.582 1697
-462.49 127.431 1695
-458.436 127.431 1695
-454.383 127.431 1695
-450.33 127.431 1695
-446.277 127.431 1695
-441.962 127.356 1694
-437.912 127.356 1694
-433.861 127.356 1694
-429.81 127.356 1694
-425.759 127.356 1694
-421.21 127.206 1692
-417.164 127.206 1692
-413.118 127.206 1692
-409.072 127.206 1692
-404.547 127.056 1690
-400.506 127.056 1690
-396.23 126.98 1689
-391.727 126.83 1687
-387.233 126.68 1685
-383.203 126.68 1685
-379.174 126.68 1685
-374.699 126.529 1683
-370.014 126.304 1680
-365.997 126.304 1680
-361.548 126.153 1678
-357.323 126.078 1677
-352.891 125.928 1675
-348.261 125.702 1672
-344.263 125.702 1672
-339.857 125.552 1670
-335.864 125.552 1670
-331.473 125.402 1668
-327.484 125.402 1668
-323.496 125.402 1668
-319.507 125.402 1668
-315.329 125.326 1667
-311.343 125.326 1667
-307.356 125.326 1667
-303.37 125.326 1667
-299.563 125.402 1668
-295.575 125.402 1668
-291.586 125.402 1668
-287.942 125.552 1670
-284.799 125.928 1675
-281.129 126.078 1677
-277.118 126.078 1677
-273.271 126.153 1678
-269.579 126.304 1680
-266.036 126.529 1683
-262.012 126.529 1683
-258.294 126.68 1685
-254.868 126.98 1689
-251.275 127.206 1692
-247.229 127.206 1692
-243.47 127.356 1694
-239.843 127.582 1697
-236.063 127.732 1699
-232 127.732 1699
-228.34 127.958 1702
-224.27 127.958 1702
-220.717 128.258 1706
-216.638 128.258 1706
-212.558 128.258 1706
-208.845 128.484 1709
-204.998 128.634 1711
-200.906 128.634 1711
-196.815 128.634 1711
-193.174 128.935 1715
-189.183 129.01 1716
-185.08 129.01 1716
-181.187 129.161 1718
-177.285 129.311 1720
-173.373 129.461 1722
-169.354 129.537 1723
-165.234 129.537 1723
-161.3 129.687 1725
-157.54 129.988 1729
-153.671 130.213 1732
-149.53 130.213 1732
-145.724 130.514 1736
-141.736 130.664 1738
-137.817 130.89 1741
-133.654 130.89 1741
-129.49 130.89 1741
-125.615 131.191 1745
-121.582 131.341 1747
-117.404 131.341 1747
-113.356 131.491 1749
-109.174 131.491 1749
-105.111 131.642 1751
-100.924 131.642 1751
-96.7369 131.642 1751
-92.5497 131.642 1751
-88.3625 131.642 1751
-84.1753 131.642 1751
-79.9882 131.642 1751
-75.801 131.642 1751
-71.6138 131.642 1751
-67.4267 131.642 1751
-63.1672 131.491 1749
-58.9849 131.491 1749
-54.8025 131.491 1749
-50.5622 131.341 1747
-36.4609 279.372 3716
-27.5748 279.372 3716
-18.6888 279.372 3716
-9.73673 277.492 3691
-0.910428 277.492 3691
7.8644 275.688 3667
16.6333 275.688 3667
25.4022 275.688 3667
34.3948 277.492 3691
43.2211 277.492 3691
52.273 278.695 3707
61.1376 278.695 3707
70.0021 278.695 3707
78.8667 278.695 3707
87.7312 278.695 3707
96.3873 278.094 3699
105.233 278.094 3699
114.849 279.973 3724
123.754 279.973 3724
132.66 279.973 3724
342.011 283.732 3774
351.035 283.732 3774
360.06 283.732 3774
364.195 279.973 3724
369.794 277.492 3691
378.62 277.492 3691
383.143 274.41 3650
387.684 271.478 3611
392.039 268.546 3572
400.58 268.546 3572
406.488 266.817 3549
411.584 264.636 3520
413.797 260.727 3468
417.83 258.096 3433
426.039 258.096 3433
428.936 254.938 3391
430.858 251.329 3343
435.439 249.375 3317
443.371 249.375 3317
451.303 249.375 3317
461.035 250.352 3330
468.998 250.352 3330
476.961 250.352 3330
483.031 249.375 3317
488.003 247.871 3297
500.85 250.352 3330
510.799 251.329 3343
529.502 256.517 3412
537.661 256.517 3412
545.82 256.517 3412
553.979 256.517 3412
562.138 256.517 3412
602.222 270.876 3603
618.806 274.41 3650
634.583 277.492 3691
643.409 277.492 3691
655.063 278.695 3707
663.928 278.695 3707
672.792 278.695 3707
681.657 278.695 3707
690.521 278.695 3707
699.386 278.695 3707
708.25 278.695 3707
717.115 278.695 3707
725.98 278.695 3707
734.844 278.695 3707
743.709 278.695 3707
752.573 278.695 3707
761.438 278.695 3707
768.64 278.094 3699
777.485 278.094 3699
786.331 278.094 3699
795.176 278.094 3699
804.022 278.094 3699
812.867 278.094 3699
823.49 278.695 3707
832.354 278.695 3707
841.219 278.695 3707
850.083 278.695 3707
858.948 278.695 3707
862.194 276.891 3683
872.893 277.492 3691
881.72 277.492 3691
890.546 277.492 3691
899.372 277.492 3691
908.198 277.492 3691
917.025 277.492 3691
925.851 277.492 3691
945.06 280.575 3732
953.984 280.575 3732
962.909 280.575 3732
971.833 280.575 3732
980.757 280.575 3732
989.682 280.575 3732
994.325 279.372 3716
1000.78 278.695 3707
1012.1 279.372 3716
1020.98 279.372 3716
1029.87 279.372 3716
1040.99 279.973 3724
1056.94 281.853 3749
1065.91 281.853 3749
1077.17 282.454 3757
1086.15 282.454 3757
1095.14 282.454 3757
1104.12 282.454 3757
1110.73 281.853 3749
1129.85 284.409 3783
1138.9 284.409 3783
1147.95 284.409 3783
1156.99 284.409 3783
1166.04 284.409 3783
1169.81 283.131 3766
1178.81 283.131 3766
1187.82 283.131 3766
1207.63 285.687 3800
1219.6 286.364 3809
1228.7 286.364 3809
1237.81 286.364 3809
1243.98 285.687 3800
1247.46 284.409 3783
1256.5 284.409 3783
1265.55 284.409 3783
1280.32 285.687 3800
1289.41 285.687 3800
1298.5 285.687 3800
1301.73 284.409 3783
1310.78 284.409 3783
1325.76 285.687 3800
1334.84 285.687 3800
1343.93 285.687 3800
1350.17 285.086 3792
1356.01 284.409 3783
1371.19 285.687 3800
1383.55 286.364 3809
1392.66 286.364 3809
1408.02 287.642 3826
1417.17 287.642 3826
1426.32 287.642 3826
1435.47 287.642 3826
1441.6 287.04 3818
1460.61 288.995 3844
1469.8 288.995 3844
1478.99 288.995 3844
1488.18 288.995 3844
1490.36 287.642 3826
1499.51 287.642 3826
1505.51 287.04 3818
1524.95 288.995 3844
1534.14 288.995 3844
1543.34 288.995 3844
1552.53 288.995 3844
1558.06 288.318 3835
1563.56 287.642 3826
1572.71 287.642 3826
1581.85 287.642 3826
1591 287.642 3826
1600.15 287.642 3826
1605.94 287.04 3818
1615.07 287.04 3818
1616.54 285.687 3800
1633.33 287.04 3818
1645.9 287.642 3826
1655.05 287.642 3826
1664.2 287.642 3826
1673.35 287.642 3826
1678.98 287.04 3818
1688.11 287.04 3818
1693.24 286.364 3809
1717.99 288.995 3844
1727.18 288.995 3844
1736.37 288.995 3844
1745.56 288.995 3844
1750.65 288.318 3835
1755.69 287.642 3826
1764.84 287.642 3826
1773.99 287.642 3826
1779.41 287.04 3818
1788.54 287.04 3818
1785.43 285.086 3792
1794.49 285.086 3792
1799.28 284.409 3783
1800.2 283.131 3766
1804.88 282.454 3757
1813.87 282.454 3757
1810.72 280.575 3732
1807.46 278.695 3707
1812.4 278.094 3699
1821.25 278.094 3699
1809.81 275.011 3658
1807.12 273.282 3635
1811.82 272.681 3627
1800.91 269.749 3588
1809.49 269.749 3588
1798.31 266.817 3549
1803.24 266.29 3542
1788.69 262.907 3497
1797.05 262.907 3497
1794.57 261.328 3476
1798.73 260.727 3468
1818.49 262.381 3490
1838.35 264.035 3512
1846.75 264.035 3512
1859.37 264.636 3520
1867.79 264.636 3520
1887.94 266.29 3542
1900.15 266.817 3549
1908.64 266.817 3549
1917.13 266.817 3549
1921.82 266.29 3542
1930.29 266.29 3542
1938.76 266.29 3542
1980.76 270.876 3603
1998.21 272.079 3619
2024.06 274.41 3650
2032.78 274.41 3650
2045.99 275.011 3658
2105.85 281.853 3749
2198.87 293.055 3898
2208.19 293.055 3898
2227.75 294.408 3916
2237.11 294.408 3916
2246.48 294.408 3916
2235.1 291.702 3880
2233.97 290.348 3862
2279.8 295.085 3925
2289.18 295.085 3925
2298.57 295.085 3925
2307.95 295.085 3925
2328.56 296.513 3944
2371.78 300.798 4001
2381.35 300.798 4001
2390.91 300.798 4001
2383.08 298.618 3972
2392.58 298.618 3972
2396.64 297.942 3963
2406.11 297.942 3963
2432.66 300.047 3991
2442.2 300.047 3991
2457.89 300.798 4001
2467.45 300.798 4001
2488.79 302.227 4020
2498.4 302.227 4020
2526.1 304.407 4049
2535.79 304.407 4049
2551.76 305.159 4059
2561.46 305.159 4059
2571.17 305.159 4059
2556.08 302.227 4020
2553.56 300.798 4001
2563.13 300.798 4001
2572.7 300.798 4001
2563.55 298.618 3972
2567.22 297.942 3963
2576.69 297.942 3963
2573.77 296.513 3944
2583.2 296.513 3944
2574.23 294.408 3916
2553.9 291.025 3871
2563.16 291.025 3871
2572.42 291.025 3871
2569.67 289.672 3853
2549.43 286.364 3809
2541.08 284.409 3783
2550.12 284.409 3783
2553.08 283.732 3774
2562.11 283.732 3774
2565.68 283.131 3766
2574.69 283.131 3766
2583.69 283.131 3766
2592.7 283.131 3766
2572.69 279.973 3724
2581.59 279.973 3724
2590.5 279.973 3724
1956.93 210.055 2794
1963.61 210.055 2794
1970.29 210.055 2794
1957.87 208.025 2767
1964.49 208.025 2767
1961.13 206.973 2753
1957.71 205.92 2739
1964.26 205.92 2739
1970.81 205.92 2739
1974.47 205.619 2735
1974.49 204.943 2726
1981.01 204.943 2726
2000.65 206.296 2744
2020.38 207.649 2762
2026.99 207.649 2762
2043.9 208.702 2776
2060.88 209.754 2790
2070.51 210.055 2794
2077.2 210.055 2794
2083.88 210.055 2794
2094.3 210.431 2799
2100.99 210.431 2799
2107.69 210.431 2799
2118.16 210.807 2804
2124.86 210.807 2804
2146.01 212.235 2823
2152.76 212.235 2823
2159.51 212.235 2823
-2334.52 241.883 3118
-2327.07 241.883 3118
-2315.15 241.417 3112
-2307.71 241.417 3112
-2296.57 241.03 3107
-2289.14 241.03 3107
-2281.71 241.03 3107
-2286.72 242.348 3124
-2279.25 242.348 3124
-2276.14 242.814 3130
-2268.66 242.814 3130
-2261.18 242.814 3130
-2258.01 243.279 3136
-2250.51 243.279 3136
-2243.01 243.279 3136
-2239.79 243.745 3142
-2232.28 243.745 3142
-2229.01 244.21 3148
-2221.48 244.21 3148
-2213.96 244.21 3148
-2202.22 243.745 3142
-2198.9 244.21 3148
-2191.37 244.21 3148
-2183.84 244.21 3148
-2172.17 243.745 3142
-2205.99 248.399 3202
-2198.34 248.399 3202
-2190.68 248.399 3202
-2195.97 249.873 3221
-2192.35 250.339 3227
-2184.63 250.339 3227
-2364.45 271.905 3505
-2366.15 273.069 3520
-2357.74 273.069 3520
-2349.32 273.069 3520
-2340.9 273.069 3520
-2332.48 273.069 3520
-2324.07 273.069 3520
-2310.39 272.448 3512
-2287.57 270.741 3490
-2255.71 267.949 3454
-2247.45 267.949 3454
-2239.19 267.949 3454
-2230.93 267.949 3454
-2227.18 268.492 3461
-2218.9 268.492 3461
-2210.63 268.492 3461
-2206.8 269.035 3468
-2198.51 269.035 3468
-2190.22 269.035 3468
-2181.92 269.035 3468
-2183.03 270.198 3483
-2174.7 270.198 3483
-2166.38 270.198 3483
-2153.71 269.655 3476
-2123.18 266.863 3440
-2102.04 265.233 3419
-2093.86 265.233 3419
-2007 255.226 3290
-2019.18 257.786 3323
-2090.52 267.949 3454
-2113.01 271.905 3505
-2104.63 271.905 3505
-2096.24 271.905 3505
-2087.86 271.905 3505
-2079.48 271.905 3505
-2062.24 270.741 3490
-2040.94 269.035 3468
-2008.03 265.776 3426
-1999.84 265.776 3426
-1979.44 264.147 3405
-1963.19 263.061 3391
-1951.05 262.518 3384
-1942.96 262.518 3384
-1934.86 262.518 3384
-1926.77 262.518 3384
-1918.68 262.518 3384
-1910.59 262.518 3384
-1902.49 262.518 3384
-1898.32 263.061 3391
-1890.21 263.061 3391
-1882.1 263.061 3391
-1870.13 262.518 3384
-1862.03 262.518 3384
-1850.11 261.975 3377
-1842.03 261.975 3377
-1819.29 259.881 3350
-1837.23 263.604 3398
-1840.41 265.233 3419
-1843.49 266.863 3440
-1835.26 266.863 3440
-1853.59 270.741 3490
-1853.18 271.905 3505
-1844.8 271.905 3505
-1836.42 271.905 3505
-1828.04 271.905 3505
-1811.87 270.741 3490
-1819.02 273.069 3520
-1810.61 273.069 3520
-1802.19 273.069 3520
-1800.91 274.155 3534
-1804.12 275.939 3557
-1795.61 275.939 3557
-1787.11 275.939 3557
-1778.6 275.939 3557
-1770.1 275.939 3557
-1761.59 275.939 3557
-1753.09 275.939 3557
-1744.58 275.939 3557
-1728.75 274.775 3542
-1720.28 274.775 3542
-1707.95 274.155 3534
-1696.13 273.612 3527
-1687.7 273.612 3527
-1679.26 273.612 3527
-1670.83 273.612 3527
-1659.09 273.069 3520
-1650.68 273.069 3520
-1642.26 273.069 3520
-1630.13 272.448 3512
-1621.73 272.448 3512
-1613.33 272.448 3512
-1604.93 272.448 3512
-1596.54 272.448 3512
-1581.35 271.284 3497
-1576.59 271.905 3505
-1568.21 271.905 3505
-1559.83 271.905 3505
-1551.45 271.905 3505
-1533.38 270.198 3483
-1525.05 270.198 3483
-1507.14 268.492 3461
-1498.86 268.492 3461
-1503.08 270.741 3490
-1501.16 271.905 3505
-1492.77 271.905 3505
-1484.39 271.905 3505
-1460.43 269.035 3468
-1452.14 269.035 3468
-1443.84 269.035 3468
-722.827 137.853 1777
-718.578 137.853 1777
-714.328 137.853 1777
-710.079 137.853 1777
-704.241 137.543 1773
-700.001 137.543 1773
-692.622 136.922 1765
-687.621 136.767 1763
-683.405 136.767 1763
-679.19 136.767 1763
-674.974 136.767 1763
-670.758 136.767 1763
-667.298 136.922 1765
-663.077 136.922 1765
-658.857 136.922 1765
-654.636 136.922 1765
-649.678 136.767 1763
-645.463 136.767 1763
-640.883 136.689 1762
-635.224 136.379 1758
-631.02 136.379 1758
-626.816 136.379 1758
-622.612 136.379 1758
-616.298 135.914 1752
-611.06 135.681 1749
-606.184 135.526 1747
-602.006 135.526 1747
-596.46 135.216 1743
-591.612 135.06 1741
-587.449 135.06 1741
-583.286 135.06 1741
-578.79 134.983 1740
-573.308 134.672 1736
-568.501 134.517 1734
-564.354 134.517 1734
-559.562 134.362 1732
-553.817 133.974 1727
-549.05 133.819 1725
-544.925 133.819 1725
-539.86 133.586 1722
-533.875 133.121 1716
-528.846 132.888 1713
-524.749 132.888 1713
-520.653 132.888 1713
-515.35 132.578 1709
