ply
format ascii 1.0
comment File generated
element vertex 2247
property float x
property float y
property float z
end_header
168.526 1021.45 3542
176.596 1019.14 3534
185.047 1019.14 3534
193.498 1019.14 3534
201.949 1019.14 3534
210.4 1019.14 3534
218.851 1019.14 3534
227.302 1019.14 3534
235.753 1019.14 3534
243.72 1017.12 3527
252.654 1019.14 3534
261.105 1019.14 3534
269.556 1019.14 3534
279.187 1023.46 3549
288.97 1028.08 3565
297.495 1028.08 3565
306.02 1028.08 3565
314.545 1028.08 3565
323.07 1028.08 3565
332.991 1032.4 3580
341.552 1032.4 3580
350.112 1032.4 3580
358.673 1032.4 3580
367.234 1032.4 3580
375.795 1032.4 3580
382.745 1028.08 3565
389.514 1023.46 3549
398.001 1023.46 3549
402.25 1012.79 3512
409.83 1010.78 3505
416.422 1006.45 3490
419.534 994.05 3447
427.776 994.05 3447
435.134 992.031 3440
442.458 990.012 3433
447.91 983.956 3412
456.069 983.956 3412
462.324 979.919 3398
466.573 971.844 3370
470.829 964.058 3343
478.823 964.058 3343
484.924 960.309 3330
491.851 958.29 3323
498.895 956.56 3317
506.827 956.56 3317
514.759 956.56 3317
522.691 956.56 3317
530.623 956.56 3317
538.555 956.56 3317
546.487 956.56 3317
554.419 956.56 3317
563.368 958.29 3323
571.314 958.29 3323
579.26 958.29 3323
586.146 956.56 3317
594.078 956.56 3317
603.099 958.29 3323
611.045 958.29 3323
618.992 958.29 3323
626.938 958.29 3323
634.884 958.29 3323
642.831 958.29 3323
650.777 958.29 3323
658.723 958.29 3323
668.074 960.309 3330
676.037 960.309 3330
684 960.309 3330
691.963 960.309 3330
699.926 960.309 3330
707.889 960.309 3330
714.347 958.29 3323
722.294 958.29 3323
730.24 958.29 3323
738.186 958.29 3323
746.133 958.29 3323
754.079 958.29 3323
762.025 958.29 3323
769.971 958.29 3323
777.918 958.29 3323
782.79 954.541 3310
792.377 956.56 3317
800.309 956.56 3317
808.241 956.56 3317
816.173 956.56 3317
827.335 960.309 3330
835.298 960.309 3330
846.553 964.058 3343
854.547 964.058 3343
866.153 968.095 3357
875.743 969.826 3363
892.983 979.919 3398
901.109 979.919 3398
914.854 985.975 3419
930.589 994.05 3447
940.738 996.068 3454
948.998 996.068 3454
965.294 1004.43 3483
981.73 1012.79 3512
996.33 1019.14 3534
1004.78 1019.14 3534
1024.13 1030.1 3572
1034.98 1032.4 3580
1045.87 1034.71 3588
1063.56 1043.65 3619
1072.22 1043.65 3619
1090.13 1052.59 3650
1106.39 1059.8 3675
1115.17 1059.8 3675
1123.96 1059.8 3675
1132.75 1059.8 3675
1141.54 1059.8 3675
1150.33 1059.8 3675
1159.11 1059.8 3675
1170.45 1062.11 3683
1179.25 1062.11 3683
1188.06 1062.11 3683
1191.67 1057.49 3667
1200.44 1057.49 3667
1209.2 1057.49 3667
1217.97 1057.49 3667
1226.74 1057.49 3667
1232.48 1054.9 3658
1241.23 1054.9 3658
1249.97 1054.9 3658
1255.97 1052.59 3650
1264.7 1052.59 3650
1273.43 1052.59 3650
1282.15 1052.59 3650
1288.05 1050.28 3642
1294.27 1048.27 3635
1311.21 1054.9 3658
1319.95 1054.9 3658
1328.7 1054.9 3658
1337.45 1054.9 3658
1343.25 1052.59 3650
1351.98 1052.59 3650
1360.71 1052.59 3650
1366.43 1050.28 3642
1372.5 1048.27 3635
1381.19 1048.27 3635
1389.89 1048.27 3635
1389.34 1041.34 3611
1394.88 1039.04 3603
1397.65 1034.71 3588
1406.23 1034.71 3588
1411.66 1032.4 3580
1420.22 1032.4 3580
1425.59 1030.1 3572
1431.32 1028.08 3565
1439.84 1028.08 3565
1441.87 1023.46 3549
1447.5 1021.45 3542
1449.8 1017.12 3527
1458.23 1017.12 3527
1454.19 1008.47 3497
1459.63 1006.45 3490
1462.08 1002.41 3476
1470.4 1002.41 3476
1475.31 1000.11 3468
1490.02 1004.43 3483
1504.37 1008.47 3497
1522.68 1015.1 3520
1531.1 1015.1 3520
1549.14 1021.45 3542
1570.8 1030.1 3572
1593.05 1039.04 3603
1601.66 1039.04 3603
1627.71 1050.28 3642
1640.01 1052.59 3650
1667.26 1064.41 3691
1683.35 1069.03 3707
1692.22 1069.03 3707
1701.08 1069.03 3707
1721.48 1076.24 3732
1749.88 1088.35 3774
1758.9 1088.35 3774
1772.14 1090.95 3783
1781.19 1090.95 3783
1790.23 1090.95 3783
1795 1088.35 3774
1804.02 1088.35 3774
1789.03 1073.93 3724
1797.93 1073.93 3724
1786.95 1062.11 3683
1768.45 1045.96 3627
1765.36 1039.04 3603
1773.98 1039.04 3603
1763.79 1028.08 3565
1764.37 1023.46 3549
1758.37 1015.1 3520
1748.21 1004.43 3483
1756.54 1004.43 3483
1753.72 998.087 3461
1751.31 992.031 3440
1759.53 992.031 3440
1767.76 992.031 3440
1775.99 992.031 3440
1780.58 990.012 3433
1792.44 992.031 3440
1807.99 996.068 3454
1816.25 996.068 3454
1831.91 1000.11 3468
1840.2 1000.11 3468
1856.49 1004.43 3483
1888.37 1017.12 3527
1896.81 1017.12 3527
1909.02 1019.14 3534
1917.47 1019.14 3534
1925.93 1019.14 3534
1930.54 1017.12 3527
2350.42 1162.18 4030
2360.06 1162.18 4030
2369.7 1162.18 4030
2379.33 1162.18 4030
2388.97 1162.18 4030
2398.61 1162.18 4030
2419.6 1167.66 4049
2429.28 1167.66 4049
2438.96 1167.66 4049
2437.15 1162.18 4030
2429.18 1153.81 4001
2432.66 1150.93 3991
2436.69 1148.33 3982
2457.89 1153.81 4001
2467.45 1153.81 4001
2482.59 1156.41 4010
2492.18 1156.41 4010
2501.77 1156.41 4010
2511.36 1156.41 4010
2527.24 1159.29 4020
2548.84 1164.77 4039
2558.5 1164.77 4039
2568.16 1164.77 4039
2577.82 1164.77 4039
2549.43 1098.44 3809
2558.54 1098.44 3809
2567.65 1098.44 3809
2541.58 1083.45 3757
2550.56 1083.45 3757
537.453 203.885 707
539.143 203.885 707
540.834 203.885 707
-2379.45 924.088 3178
-2371.85 924.088 3178
-2350.86 918.854 3160
-2329.95 913.62 3142
-2322.44 913.62 3142
-2314.93 913.62 3142
-2303.01 911.875 3136
-2295.51 911.875 3136
-2296.76 915.365 3148
-2293.6 917.109 3154
-2286.06 917.109 3154
-2291.52 922.343 3172
-2292.57 925.833 3184
-2289.26 927.577 3190
-2281.64 927.577 3190
-2286.84 932.811 3208
-2296.93 940.081 3233
-2306.9 947.35 3258
-2299.11 947.35 3258
-2305.38 953.166 3278
-2310.86 958.69 3297
-2330.92 970.321 3337
-2322.94 970.321 3337
-2333 977.882 3363
-2339.47 983.988 3384
-2336.2 986.023 3391
-2328.09 986.023 3391
-2339.14 994.165 3419
-2330.96 994.165 3419
-2322.79 994.165 3419
-2314.61 994.165 3419
-2301.72 992.13 3412
-2298.26 994.165 3419
-2299.46 998.236 3433
-2291.25 998.236 3433
-2283.04 998.236 3433
-2279.47 1000.27 3440
-2285.11 1006.38 3461
-2276.84 1006.38 3461
-2282.98 1012.77 3483
-2274.65 1012.77 3483
-2270.88 1014.81 3490
-2262.53 1014.81 3490
-2258.71 1016.85 3497
-2255.49 1019.17 3505
-2251.6 1021.21 3512
-2243.2 1021.21 3512
-2234.8 1021.21 3512
-2226.4 1021.21 3512
-2218.01 1021.21 3512
-2209.61 1021.21 3512
-2210.61 1025.57 3527
-2206.55 1027.6 3534
-2198.1 1027.6 3534
-2189.65 1027.6 3534
-2186.13 1029.93 3542
-2186.88 1034.29 3557
-2183.28 1036.62 3565
-2174.75 1036.62 3565
-2166.23 1036.62 3565
-2157.7 1036.62 3565
-2149.18 1036.62 3565
-2140.65 1036.62 3565
-2136.31 1038.65 3572
-2127.77 1038.65 3572
-2119.23 1038.65 3572
-2110.69 1038.65 3572
-2102.15 1038.65 3572
-2089.5 1036.62 3565
-2085.06 1038.65 3572
-2076.52 1038.65 3572
-2072.61 1040.98 3580
-2064.05 1040.98 3580
-2055.49 1040.98 3580
-2046.93 1040.98 3580
-2042.92 1043.31 3588
-2034.34 1043.31 3588
-2025.76 1043.31 3588
-2017.18 1043.31 3588
-1999.65 1038.65 3572
-1991.11 1038.65 3572
-1982.56 1038.65 3572
-1974.02 1038.65 3572
-1961.63 1036.62 3565
-1956.94 1038.65 3572
-1948.4 1038.65 3572
-1939.85 1038.65 3572
-1939.96 1043.31 3588
-1935.15 1045.34 3595
-1926.56 1045.34 3595
-1917.96 1045.34 3595
-1913.61 1047.67 3603
-1913.45 1052.32 3619
-1913.22 1056.97 3635
-1904.53 1056.97 3635
-1895.84 1056.97 3635
-1894.93 1061.33 3650
-1890.34 1063.66 3658
-1881.59 1063.66 3658
-1877.45 1066.28 3667
-1889.07 1077.91 3707
-1880.2 1077.91 3707
-1871.34 1077.91 3707
-1862.47 1077.91 3707
-1853.61 1077.91 3707
-1849.22 1080.53 3716
-1840.34 1080.53 3716
-1831.45 1080.53 3716
-1822.56 1080.53 3716
-1813.68 1080.53 3716
-1804.79 1080.53 3716
-1779.96 1070.93 3683
-1767.3 1068.6 3675
-1758.51 1068.6 3675
-1745.92 1066.28 3667
-1729.1 1061.33 3650
-1701.98 1049.99 3611
-1693.35 1049.99 3611
-1677.25 1045.34 3595
-1665.4 1043.31 3588
-1649.44 1038.65 3572
-1623.44 1027.6 3534
-1614.99 1027.6 3534
-1596.54 1021.21 3512
-1581.35 1016.85 3497
-1569.84 1014.81 3490
-1561.5 1014.81 3490
-1546.92 1010.74 3476
-1531.97 1006.38 3461
-1517.53 1002.31 3447
-1509.29 1002.31 3447
-1501.04 1002.31 3447
-1486.74 998.236 3433
-1478.53 998.236 3433
-1473.32 1000.27 3440
-1465.09 1000.27 3440
-1462.79 1004.34 3454
-1454.53 1004.34 3454
-1461.35 1014.81 3490
-1453 1014.81 3490
-1444.66 1014.81 3490
-1433.43 1012.77 3483
-1425.1 1012.77 3483
-1416.77 1012.77 3483
-1411.28 1014.81 3490
-1402.93 1014.81 3490
-1397.38 1016.85 3497
-1389.02 1016.85 3497
-1383.81 1019.17 3505
-1375.43 1019.17 3505
-1369.78 1021.21 3512
-1361.38 1021.21 3512
-1358.76 1025.57 3527
-1353.01 1027.6 3534
-1344.56 1027.6 3534
-1336.11 1027.6 3534
-1327.66 1027.6 3534
-1319.21 1027.6 3534
-1310.76 1027.6 3534
-1299.73 1025.57 3527
-1285.8 1021.21 3512
-1264.31 1010.74 3476
-1255.99 1010.74 3476
-1255.22 1016.85 3497
-1246.86 1016.85 3497
-1238.5 1016.85 3497
-1230.13 1016.85 3497
-1221.77 1016.85 3497
-1213.41 1016.85 3497
-1197.81 1010.74 3476
-1186.76 1008.41 3468
-1178.47 1008.41 3468
-1163.09 1002.31 3447
-608.748 528.341 1817
-604.403 528.341 1817
-600.058 528.341 1817
-595.713 528.341 1817
-589.415 526.596 1811
-582.177 523.979 1802
-577.868 523.979 1802
-573.559 523.979 1802
-569.249 523.979 1802
-563.686 522.816 1798
-555.031 518.745 1784
-549.53 517.582 1780
-545.274 517.582 1780
-540.105 516.71 1777
-534.047 514.965 1771
-527.418 512.639 1763
-523.202 512.639 1763
-517.515 511.185 1758
-510.683 508.568 1749
-504.763 506.824 1743
-500.595 506.824 1743
-494.433 504.788 1736
-488.87 503.334 1731
-484.73 503.334 1731
-480.591 503.334 1731
-475.901 502.753 1729
-472.312 503.334 1731
-468.173 503.334 1731
-464.034 503.334 1731
-459.894 503.334 1731
-455.755 503.334 1731
-452.398 504.207 1734
-448.252 504.207 1734
-445.13 505.37 1738
-440.974 505.37 1738
-438.577 507.405 1745
-434.902 507.987 1747
-431.711 509.15 1751
-427.523 509.15 1751
-425.029 511.185 1758
-423.458 514.384 1769
-419.228 514.384 1769
-417.343 517.292 1779
-413.786 518.164 1782
-409.984 518.745 1784
-405.718 518.745 1784
-401.452 518.745 1784
-396.741 518.164 1782
-392.479 518.164 1782
-388.218 518.164 1782
-382.879 516.71 1777
-377.778 515.547 1773
-372.274 513.802 1767
-368.048 513.802 1767
-362.794 512.348 1762
-357.359 510.604 1756
-352.154 509.15 1751
-347.967 509.15 1751
-342.602 507.405 1745
-337.459 505.951 1740
-332.149 504.207 1734
-328.003 504.207 1734
-322.922 502.753 1729
-318.05 501.59 1725
-312.287 498.973 1716
-308.184 498.973 1716
-303.903 498.682 1715
-299.453 498.1 1713
-295.701 498.682 1715
-291.77 498.973 1716
-288.337 500.136 1720
-284.224 500.136 1720
-280.437 500.717 1722
-276.479 501.008 1723
-272.675 501.59 1725
-268.55 501.59 1725
-265.805 504.207 1734
-261.96 504.788 1736
-258.551 506.242 1741
-254.388 506.242 1741
-251.087 507.987 1747
-247.616 509.441 1752
-244.538 511.767 1760
-240.33 511.767 1760
-237.328 514.384 1769
-235.075 518.745 1784
-231.844 521.072 1792
-227.558 521.072 1792
-223.772 522.235 1796
-219.966 523.398 1800
-215.901 523.979 1802
-211.592 523.979 1802
-208.088 526.015 1809
-204.663 528.341 1817
-200.318 528.341 1817
-195.973 528.341 1817
-191.628 528.341 1817
-187.077 527.76 1815
-183.542 530.086 1823
-179.183 530.086 1823
-175.591 532.412 1831
-171.773 534.157 1837
-167.745 535.32 1841
-163.342 535.32 1841
-159.717 537.937 1850
-155.797 539.681 1856
-151.848 541.426 1862
-147.395 541.426 1862
-142.943 541.426 1862
-138.49 541.426 1862
-134.037 541.426 1862
-179.792 1087.5 3740
-170.849 1087.5 3740
-161.905 1087.5 3740
-152.634 1085.18 3732
-143.71 1085.18 3732
-134.786 1085.18 3732
-125.861 1085.18 3732
-116.686 1082.85 3724
-107.289 1077.91 3707
-98.4245 1077.91 3707
-88.9801 1070.93 3683
-79.8247 1066.28 3667
-70.7264 1061.33 3650
-61.9981 1061.33 3650
-53.1531 1059.01 3642
-44.3585 1056.97 3635
-35.5877 1054.65 3627
-26.9144 1054.65 3627
-18.2009 1052.32 3619
-9.50459 1047.67 3603
-0.888721 1047.67 3603
7.72714 1047.67 3603
16.343 1047.67 3603
24.9035 1045.34 3595
33.3604 1040.98 3580
41.8276 1038.65 3572
50.3693 1038.65 3572
58.9111 1038.65 3572
67.3206 1036.62 3565
75.8456 1036.62 3565
84.3706 1036.62 3565
92.4787 1031.97 3549
100.766 1029.93 3542
109.236 1029.93 3542
117.939 1031.97 3549
126.426 1031.97 3549
134.912 1031.97 3549
143.116 1029.93 3542
151.586 1029.93 3542
160.056 1029.93 3542
168.526 1029.93 3542
176.996 1029.93 3542
185.466 1029.93 3542
193.936 1029.93 3542
202.406 1029.93 3542
210.876 1029.93 3542
219.346 1029.93 3542
227.816 1029.93 3542
235.753 1027.6 3534
244.203 1027.6 3534
252.654 1027.6 3534
261.696 1029.93 3542
270.166 1029.93 3542
279.816 1034.29 3557
288.97 1036.62 3565
297.495 1036.62 3565
306.02 1036.62 3565
314.545 1036.62 3565
323.07 1036.62 3565
332.991 1040.98 3580
341.552 1040.98 3580
350.112 1040.98 3580
358.673 1040.98 3580
367.234 1040.98 3580
375.795 1040.98 3580
382.745 1036.62 3565
387.868 1027.6 3534
396.319 1027.6 3534
401.448 1019.17 3505
408.894 1016.85 3497
415.586 1012.77 3483
419.534 1002.31 3447
427.776 1002.31 3447
435.134 1000.27 3440
442.458 998.236 3433
447.91 992.13 3412
456.069 992.13 3412
461.371 986.023 3391
465.604 977.882 3363
469.984 970.321 3337
477.964 970.321 3337
483.905 966.251 3323
490.963 964.506 3317
497.842 962.471 3310
505.757 962.471 3310
514.759 964.506 3317
522.691 964.506 3317
530.623 964.506 3317
538.555 964.506 3317
546.487 964.506 3317
554.419 964.506 3317
562.35 964.506 3317
570.282 964.506 3317
578.214 964.506 3317
586.146 964.506 3317
592.825 962.471 3310
600.74 962.471 3310
609.942 964.506 3317
617.874 964.506 3317
625.806 964.506 3317
633.738 964.506 3317
641.67 964.506 3317
649.602 964.506 3317
657.534 964.506 3317
666.67 966.251 3323
674.616 966.251 3323
682.562 966.251 3323
690.508 966.251 3323
698.455 966.251 3323
706.401 966.251 3323
714.347 966.251 3323
722.294 966.251 3323
730.24 966.251 3323
736.853 964.506 3317
744.785 964.506 3317
752.717 964.506 3317
760.649 964.506 3317
768.581 964.506 3317
776.513 964.506 3317
782.79 962.471 3310
790.705 962.471 3310
800.309 964.506 3317
808.241 964.506 3317
816.173 964.506 3317
827.335 968.286 3330
835.298 968.286 3330
846.553 972.066 3343
854.547 972.066 3343
864.347 974.102 3350
874.181 976.137 3357
887.464 981.953 3377
895.54 981.953 3377
914.854 994.165 3419
926.809 998.236 3433
940.738 1004.34 3454
948.998 1004.34 3454
963.354 1010.74 3476
981.73 1021.21 3512
996.33 1027.6 3534
1004.78 1027.6 3534
1024.13 1038.65 3572
1032.67 1038.65 3572
1045.87 1043.31 3588
1061.21 1049.99 3611
1069.85 1049.99 3611
1087.74 1059.01 3642
1106.39 1068.6 3675
1115.17 1068.6 3675
1123.96 1068.6 3675
1132.75 1068.6 3675
1141.54 1068.6 3675
1150.33 1068.6 3675
1159.11 1068.6 3675
1170.45 1070.93 3683
1179.25 1070.93 3683
1188.06 1070.93 3683
1188.74 1063.66 3658
1197.49 1063.66 3658
1206.24 1063.66 3658
1214.98 1063.66 3658
1223.73 1063.66 3658
1229.78 1061.33 3650
1238.51 1061.33 3650
1247.24 1061.33 3650
1255.97 1061.33 3650
1264.7 1061.33 3650
1270.63 1059.01 3642
1279.34 1059.01 3642
1285.58 1056.97 3635
1294.27 1056.97 3635
1311.21 1063.66 3658
1319.95 1063.66 3658
1328.7 1063.66 3658
1337.45 1063.66 3658
1343.25 1061.33 3650
1351.98 1061.33 3650
1360.71 1061.33 3650
1366.43 1059.01 3642
1372.5 1056.97 3635
1381.19 1056.97 3635
1389.89 1056.97 3635
1389.34 1049.99 3611
1394.88 1047.67 3603
1397.65 1043.31 3588
1406.23 1043.31 3588
1411.66 1040.98 3580
1420.22 1040.98 3580
1425.59 1038.65 3572
1431.32 1036.62 3565
1439.84 1036.62 3565
1441.87 1031.97 3549
1447.5 1029.93 3542
1449.8 1025.57 3527
1458.23 1025.57 3527
1454.19 1016.85 3497
1459.63 1014.81 3490
1462.08 1010.74 3476
1470.4 1010.74 3476
1475.31 1008.41 3468
1487.02 1010.74 3476
1498.34 1012.77 3483
1512.73 1016.85 3497
1521.09 1016.85 3497
1536.01 1021.21 3512
1557.61 1029.93 3542
1579.34 1038.65 3572
1601.66 1047.67 3603
1610.28 1047.67 3603
1618.89 1047.67 3603
1645.13 1059.01 3642
1653.84 1059.01 3642
1662.54 1059.01 3642
1671.25 1059.01 3642
1687.34 1063.66 3658
1722.98 1080.53 3716
1731.87 1080.53 3716
1740.76 1080.53 3716
1749.64 1080.53 3716
1758.53 1080.53 3716
1767.41 1080.53 3716
1772 1077.91 3707
1757.32 1063.66 3658
1766.07 1063.66 3658
1755.89 1052.32 3619
1745.53 1040.98 3580
1746.74 1036.62 3565
1755.27 1036.62 3565
1755.88 1031.97 3549
1749.95 1023.53 3520
1750.87 1019.17 3505
1740.68 1008.41 3468
1748.98 1008.41 3468
1743.08 1000.27 3440
1747.74 998.236 3433
1752.37 996.201 3426
1760.56 996.201 3426
1768.76 996.201 3426
1776.95 996.201 3426
1788.79 998.236 3433
1807.99 1004.34 3454
1816.25 1004.34 3454
1824.51 1004.34 3454
1836.48 1006.38 3461
1844.76 1006.38 3461
1872.31 1016.85 3497
1880.67 1016.85 3497
1905.24 1025.57 3527
1913.68 1025.57 3527
1922.11 1025.57 3527
1926.71 1023.53 3520
2350.42 1171.83 4030
2360.06 1171.83 4030
2369.7 1171.83 4030
2379.33 1171.83 4030
2388.97 1171.83 4030
2398.61 1171.83 4030
2419.6 1177.35 4049
2429.28 1177.35 4049
2438.96 1177.35 4049
2437.15 1171.83 4030
2429.18 1163.4 4001
2432.66 1160.49 3991
2436.69 1157.87 3982
2457.89 1163.4 4001
2467.45 1163.4 4001
2482.59 1166.01 4010
2492.18 1166.01 4010
2501.77 1166.01 4010
2511.36 1166.01 4010
2527.24 1168.92 4020
2548.84 1174.45 4039
2558.5 1174.45 4039
2568.16 1174.45 4039
2577.82 1174.45 4039
2549.43 1107.57 3809
2558.54 1107.57 3809
2567.65 1107.57 3809
2541.58 1092.45 3757
2550.56 1092.45 3757
537.453 205.579 707
539.143 205.579 707
540.834 205.579 707
-2379.45 931.701 3178
-2371.85 931.701 3178
-2350.86 926.424 3160
-2329.95 921.147 3142
-2322.44 921.147 3142
-2314.93 921.147 3142
-2303.01 919.388 3136
-2295.51 919.388 3136
-2296.76 922.906 3148
-2293.6 924.665 3154
-2286.06 924.665 3154
-2291.52 929.942 3172
-2292.57 933.46 3184
-2289.26 935.219 3190
-2281.64 935.219 3190
-2286.84 940.496 3208
-2296.93 947.825 3233
-2306.9 955.155 3258
-2299.11 955.155 3258
-2305.38 961.018 3278
-2310.86 966.588 3297
-2330.92 978.315 3337
-2322.94 978.315 3337
-2333 985.938 3363
-2339.47 992.094 3384
-2336.2 994.147 3391
-2328.09 994.147 3391
-2339.14 1002.36 3419
-2330.96 1002.36 3419
-2322.79 1002.36 3419
-2314.61 1002.36 3419
-2301.72 1000.3 3412
-2298.26 1002.36 3419
-2299.46 1006.46 3433
-2291.25 1006.46 3433
-2283.04 1006.46 3433
-2279.47 1008.51 3440
-2285.11 1014.67 3461
-2276.84 1014.67 3461
-2282.98 1021.12 3483
-2274.65 1021.12 3483
-2270.88 1023.17 3490
-2262.53 1023.17 3490
-2258.71 1025.22 3497
-2255.49 1027.57 3505
-2251.6 1029.62 3512
-2243.2 1029.62 3512
-2234.8 1029.62 3512
-2226.4 1029.62 3512
-2218.01 1029.62 3512
-2209.61 1029.62 3512
-2210.61 1034.02 3527
-2202.18 1034.02 3527
-2198.1 1036.07 3534
-2189.65 1036.07 3534
-2181.19 1036.07 3534
-2181.97 1040.47 3549
-2178.38 1042.81 3557
-2169.87 1042.81 3557
-2161.37 1042.81 3557
-2157.7 1045.16 3565
-2149.18 1045.16 3565
-2140.65 1045.16 3565
-2136.31 1047.21 3572
-2127.77 1047.21 3572
-2119.23 1047.21 3572
-2110.69 1047.21 3572
-2102.15 1047.21 3572
-2089.5 1045.16 3565
-2085.06 1047.21 3572
-2076.52 1047.21 3572
-2072.61 1049.56 3580
-2064.05 1049.56 3580
-2055.49 1049.56 3580
-2046.93 1049.56 3580
-2042.92 1051.9 3588
-2034.34 1051.9 3588
-2025.76 1051.9 3588
-2017.18 1051.9 3588
-1999.65 1047.21 3572
-1991.11 1047.21 3572
-1982.56 1047.21 3572
-1974.02 1047.21 3572
-1961.63 1045.16 3565
-1956.94 1047.21 3572
-1948.4 1047.21 3572
-1939.85 1047.21 3572
-1939.96 1051.9 3588
-1935.15 1053.95 3595
-1926.56 1053.95 3595
-1917.96 1053.95 3595
-1913.61 1056.3 3603
-1913.45 1060.99 3619
-1913.22 1065.68 3635
-1904.53 1065.68 3635
-1895.84 1065.68 3635
-1894.93 1070.08 3650
-1890.34 1072.42 3658
-1881.59 1072.42 3658
-1877.45 1075.06 3667
-1889.07 1086.79 3707
-1880.2 1086.79 3707
-1871.34 1086.79 3707
-1862.47 1086.79 3707
-1853.61 1086.79 3707
-1849.22 1089.43 3716
-1840.34 1089.43 3716
-1831.45 1089.43 3716
-1822.56 1089.43 3716
-1813.68 1089.43 3716
-1804.79 1089.43 3716
-1779.96 1079.75 3683
-1767.3 1077.41 3675
-1758.51 1077.41 3675
-1745.92 1075.06 3667
-1729.1 1070.08 3650
-1701.98 1058.64 3611
-1693.35 1058.64 3611
-1677.25 1053.95 3595
-1665.4 1051.9 3588
-1649.44 1047.21 3572
-1623.44 1036.07 3534
-1614.99 1036.07 3534
-1596.54 1029.62 3512
-1581.35 1025.22 3497
-1569.84 1023.17 3490
-1561.5 1023.17 3490
-1546.92 1019.07 3476
-1531.97 1014.67 3461
-1517.53 1010.56 3447
-1509.29 1010.56 3447
-1501.04 1010.56 3447
-1486.74 1006.46 3433
-1478.53 1006.46 3433
-1473.32 1008.51 3440
-1465.09 1008.51 3440
-1462.79 1012.62 3454
-1454.53 1012.62 3454
-1461.35 1023.17 3490
-1453 1023.17 3490
-1444.66 1023.17 3490
-1433.43 1021.12 3483
-1425.1 1021.12 3483
-1416.77 1021.12 3483
-1411.28 1023.17 3490
-1402.93 1023.17 3490
-1397.38 1025.22 3497
-1389.02 1025.22 3497
-1383.81 1027.57 3505
-1375.43 1027.57 3505
-1369.78 1029.62 3512
-1361.38 1029.62 3512
-1358.76 1034.02 3527
-1353.01 1036.07 3534
-1344.56 1036.07 3534
-1336.11 1036.07 3534
-1327.66 1036.07 3534
-1319.21 1036.07 3534
-1310.76 1036.07 3534
-1299.73 1034.02 3527
-1285.8 1029.62 3512
-1264.31 1019.07 3476
-1255.99 1019.07 3476
-1255.22 1025.22 3497
-1246.86 1025.22 3497
-1238.5 1025.22 3497
-1230.13 1025.22 3497
-1221.77 1025.22 3497
-1213.41 1025.22 3497
-1197.81 1019.07 3476
-1186.76 1016.72 3468
-1178.47 1016.72 3468
-1163.09 1010.56 3447
-608.748 532.694 1817
-605.068 533.28 1819
-600.718 533.28 1819
-596.369 533.28 1819
-590.066 531.521 1813
-582.177 528.296 1802
-577.868 528.296 1802
-573.559 528.296 1802
-569.249 528.296 1802
-563.686 527.123 1798
-555.031 523.019 1784
-549.53 521.846 1780
-545.274 521.846 1780
-540.105 520.967 1777
-534.047 519.208 1771
-527.418 516.862 1763
-523.202 516.862 1763
-517.515 515.397 1758
-510.683 512.758 1749
-504.763 510.999 1743
-500.595 510.999 1743
-494.433 508.947 1736
-488.87 507.481 1731
-484.73 507.481 1731
-480.591 507.481 1731
-475.901 506.895 1729
-472.312 507.481 1731
-468.173 507.481 1731
-464.034 507.481 1731
-459.894 507.481 1731
-455.755 507.481 1731
-452.398 508.36 1734
-448.252 508.36 1734
-445.13 509.533 1738
-440.974 509.533 1738
-438.577 511.585 1745
-434.902 512.172 1747
-431.711 513.344 1751
-427.523 513.344 1751
-425.029 515.397 1758
-423.458 518.621 1769
-419.228 518.621 1769
-417.343 521.553 1779
-413.786 522.433 1782
-409.984 523.019 1784
-405.718 523.019 1784
-401.452 523.019 1784
-396.741 522.433 1782
-392.479 522.433 1782
-388.218 522.433 1782
-382.879 520.967 1777
-377.778 519.794 1773
-372.274 518.035 1767
-368.048 518.035 1767
-362.794 516.569 1762
-357.359 514.81 1756
-352.154 513.344 1751
-347.967 513.344 1751
-342.602 511.585 1745
-337.459 510.119 1740
-331.766 507.774 1732
-327.624 507.774 1732
-322.922 506.895 1729
-317.682 505.136 1723
-312.287 503.083 1716
-308.184 503.083 1716
-303.903 502.79 1715
-299.453 502.204 1713
-295.701 502.79 1715
-292.11 503.67 1718
-288.337 504.256 1720
-284.224 504.256 1720
-280.6 505.136 1723
-276.8 505.722 1725
-272.991 506.308 1727
-268.862 506.308 1727
-265.805 508.36 1734
-262.564 510.119 1740
-259.146 511.585 1745
-254.973 511.585 1745
-251.662 513.344 1751
-248.182 514.81 1756
-244.955 516.862 1763
-240.739 516.862 1763
-237.865 519.794 1773
-235.338 523.605 1786
-232.102 525.951 1794
-227.812 525.951 1794
-223.772 526.537 1796
-219.966 527.71 1800
-216.141 528.883 1804
-211.827 528.883 1804
-208.088 530.348 1809
-204.663 532.694 1817
-200.318 532.694 1817
-195.973 532.694 1817
-191.628 532.694 1817
-187.283 532.694 1817
-183.542 534.453 1823
-179.183 534.453 1823
-175.782 537.384 1833
-172.147 539.73 1841
-168.109 540.903 1845
-163.697 540.903 1845
-160.062 543.541 1854
-156.301 545.886 1862
-152.174 547.059 1866
-147.712 547.059 1866
-143.557 548.232 1870
-139.085 548.232 1870
-134.613 548.232 1870
-169.341 1086.79 3707
-160.476 1086.79 3707
-151.612 1086.79 3707
-142.747 1086.79 3707
-133.883 1086.79 3707
-125.018 1086.79 3707
-116.154 1086.79 3707
-107.058 1084.44 3699
-98.2121 1084.44 3699
-88.9801 1079.75 3683
-79.8247 1075.06 3667
-70.7264 1070.08 3650
-61.9981 1070.08 3650
-53.1531 1067.73 3642
-44.3585 1065.68 3635
-35.5877 1063.34 3627
-26.9144 1063.34 3627
-18.2412 1063.34 3627
-9.50459 1056.3 3603
-0.888721 1056.3 3603
7.72714 1056.3 3603
16.343 1056.3 3603
24.9035 1053.95 3595
33.3604 1049.56 3580
41.9213 1049.56 3580
50.4821 1049.56 3580
58.9111 1047.21 3572
67.4528 1047.21 3572
75.8456 1045.16 3565
84.3706 1045.16 3565
92.6871 1042.81 3557
100.965 1040.47 3549
109.452 1040.47 3549
118.205 1042.81 3557
126.711 1042.81 3557
135.216 1042.81 3557
143.399 1040.47 3549
151.886 1040.47 3549
160.373 1040.47 3549
168.859 1040.47 3549
177.346 1040.47 3549
185.833 1040.47 3549
194.319 1040.47 3549
202.806 1040.47 3549
211.293 1040.47 3549
219.78 1040.47 3549
228.266 1040.47 3549
236.286 1038.42 3542
244.756 1038.42 3542
253.226 1038.42 3542
261.696 1038.42 3542
270.166 1038.42 3542
279.816 1042.81 3557
288.97 1045.16 3565
297.495 1045.16 3565
306.02 1045.16 3565
314.545 1045.16 3565
323.07 1045.16 3565
332.991 1049.56 3580
341.552 1049.56 3580
350.112 1049.56 3580
358.673 1049.56 3580
367.234 1049.56 3580
374.955 1047.21 3572
381.887 1042.81 3557
387.1 1034.02 3527
395.534 1034.02 3527
400.532 1025.22 3497
407.257 1021.12 3483
412.126 1012.62 3454
418.682 1008.51 3440
426.908 1008.51 3440
434.248 1006.46 3433
440.653 1002.36 3419
445.154 994.147 3391
453.262 994.147 3391
459.467 990.042 3377
464.773 984.179 3357
469.984 978.315 3337
477.964 978.315 3337
483.905 974.211 3323
490.963 972.452 3317
497.842 970.4 3310
505.757 970.4 3310
513.672 970.4 3310
521.588 970.4 3310
529.503 970.4 3310
537.418 970.4 3310
545.333 970.4 3310
553.248 970.4 3310
562.35 972.452 3317
570.282 972.452 3317
578.214 972.452 3317
583.672 968.347 3303
591.571 968.347 3303
599.469 968.347 3303
607.368 968.347 3303
615.266 968.347 3303
623.165 968.347 3303
631.063 968.347 3303
638.962 968.347 3303
646.86 968.347 3303
656.146 970.4 3310
665.466 972.452 3317
673.398 972.452 3317
681.33 972.452 3317
690.508 974.211 3323
698.455 974.211 3323
706.401 974.211 3323
714.347 974.211 3323
722.294 974.211 3323
728.921 972.452 3317
736.853 972.452 3317
744.785 972.452 3317
752.717 972.452 3317
760.649 972.452 3317
768.581 972.452 3317
776.513 972.452 3317
782.79 970.4 3310
790.705 970.4 3310
801.757 974.211 3323
809.703 974.211 3323
817.649 974.211 3323
827.335 976.263 3330
835.298 976.263 3330
845.033 978.315 3337
853.013 978.315 3337
862.541 980.074 3343
874.181 984.179 3357
882.208 984.179 3357
890.236 984.179 3357
912.981 1000.3 3412
926.809 1006.46 3433
940.738 1012.62 3454
948.998 1012.62 3454
959.197 1014.67 3461
977.537 1025.22 3497
996.33 1036.07 3534
1004.78 1036.07 3534
1022.12 1045.16 3565
1032.67 1047.21 3572
1043.54 1049.56 3580
1063.56 1060.99 3619
1072.22 1060.99 3619
1087.74 1067.73 3642
1106.39 1077.41 3675
1117.6 1079.75 3683
1126.41 1079.75 3683
1135.22 1079.75 3683
1144.02 1079.75 3683
1152.83 1079.75 3683
1161.64 1079.75 3683
1167.9 1077.41 3675
1174.13 1075.06 3667
1182.9 1075.06 3667
1188.74 1072.42 3658
1197.49 1072.42 3658
1203.6 1070.08 3650
1212.33 1070.08 3650
1221.06 1070.08 3650
1229.78 1070.08 3650
1238.51 1070.08 3650
1247.24 1070.08 3650
1255.97 1070.08 3650
1264.7 1070.08 3650
1270.63 1067.73 3642
1279.34 1067.73 3642
1288.05 1067.73 3642
1296.76 1067.73 3642
1311.21 1072.42 3658
1319.95 1072.42 3658
1328.7 1072.42 3658
1337.45 1072.42 3658
1346.2 1072.42 3658
1351.98 1070.08 3650
1360.71 1070.08 3650
1366.43 1067.73 3642
1375.14 1067.73 3642
1381.19 1065.68 3635
1389.89 1065.68 3635
1395.5 1063.34 3627
1397.98 1058.64 3611
1400.38 1053.95 3595
1408.98 1053.95 3595
1411.66 1049.56 3580
1417.05 1047.21 3572
1422.79 1045.16 3565
1431.32 1045.16 3565
1439.84 1045.16 3565
1441.87 1040.47 3549
1447.5 1038.42 3542
1449.8 1034.02 3527
1458.23 1034.02 3527
1454.19 1025.22 3497
1459.63 1023.17 3490
1462.08 1019.07 3476
1470.4 1019.07 3476
1475.31 1016.72 3468
1487.02 1019.07 3476
1495.33 1019.07 3476
1503.65 1019.07 3476
1515 1021.12 3483
1523.33 1021.12 3483
1544.41 1029.62 3512
1566.08 1038.42 3542
1581.21 1042.81 3557
1589.72 1042.81 3557
1601.82 1045.16 3565
1620.73 1051.9 3588
1629.31 1051.9 3588
1637.89 1051.9 3588
1646.47 1051.9 3588
1651.36 1049.56 3580
1670.59 1056.3 3603
1679.2 1056.3 3603
1699.06 1063.34 3627
1707.74 1063.34 3627
1716.41 1063.34 3627
1725.08 1063.34 3627
1733.76 1063.34 3627
1734.74 1058.64 3611
1743.38 1058.64 3611
1733.09 1047.21 3572
1730.42 1040.47 3549
1735.48 1038.42 3542
1743.95 1038.42 3542
1741.53 1031.97 3520
1742.49 1027.57 3505
1725.4 1012.62 3454
1726.63 1008.51 3440
1734.85 1008.51 3440
1732.44 1002.36 3419
1740.62 1002.36 3419
1752.37 1004.41 3426
1760.56 1004.41 3426
1768.76 1004.41 3426
1776.95 1004.41 3426
1785.14 1004.41 3426
1800.66 1008.51 3440
1812.57 1010.56 3447
1820.81 1010.56 3447
1829.06 1010.56 3447
1837.3 1010.56 3447
1856.79 1016.72 3468
1865.08 1016.72 3468
1881.47 1021.12 3483
1889.8 1021.12 3483
1898.13 1021.12 3483
1890.59 1012.62 3454
2344.59 1178.55 4020
2354.2 1178.55 4020
2363.82 1178.55 4020
2373.43 1178.55 4020
2388.97 1181.48 4030
2398.61 1181.48 4030
2413.62 1184.12 4039
2423.28 1184.12 4039
2432.94 1184.12 4039
2437.15 1181.48 4030
2423.11 1170.05 3991
2432.66 1170.05 3991
2436.69 1167.41 3982
2457.89 1172.98 4001
2467.45 1172.98 4001
2477.02 1172.98 4001
2486.59 1172.98 4001
2501.77 1175.62 4010
2511.36 1175.62 4010
2520.95 1175.62 4010
2536.85 1178.55 4020
2546.46 1178.55 4020
2556.08 1178.55 4020
537.618 206.686 705
539.304 206.686 705
-2374.95 937.54 3172
-2367.37 937.54 3172
-2346.39 932.22 3154
-2334.4 930.447 3148
-2322.44 928.673 3142
-2314.93 928.673 3142
-2307.41 928.673 3142
-2299.9 928.673 3142
-2301.14 932.22 3154
-2297.96 933.994 3160
-2290.4 933.994 3160
-2295.85 939.314 3178
-2296.89 942.861 3190
-2293.57 944.634 3196
-2285.93 944.634 3196
-2286.84 948.181 3208
-2314.69 962.959 3258
-2316.1 966.802 3271
-2308.28 966.802 3271
-2313.82 972.417 3290
-2315.07 976.26 3303
-2330.92 986.309 3337
-2322.94 986.309 3337
-2333 993.994 3363
-2339.47 1000.2 3384
-2345.85 1006.41 3405
-2337.71 1006.41 3405
-2339.14 1010.55 3419
-2330.96 1010.55 3419
-2322.79 1010.55 3419
-2314.61 1010.55 3419
-2306.44 1010.55 3419
-2298.26 1010.55 3419
-2299.46 1014.68 3433
-2291.25 1014.68 3433
-2283.04 1014.68 3433
-2279.47 1016.75 3440
-2285.11 1022.96 3461
-2276.84 1022.96 3461
-2273.15 1025.03 3468
-2274.65 1029.46 3483
-2266.32 1029.46 3483
-2257.99 1029.46 3483
-2258.71 1033.6 3497
-2255.49 1035.96 3505
-2251.6 1038.03 3512
-2243.2 1038.03 3512
-2234.8 1038.03 3512
-2226.4 1038.03 3512
-2218.01 1038.03 3512
-2209.61 1038.03 3512
-2210.61 1042.47 3527
-2202.18 1042.47 3527
-2193.74 1042.47 3527
-2185.31 1042.47 3527
-2181.19 1044.54 3534
-2177.66 1046.9 3542
-2173.48 1048.97 3549
-2164.99 1048.97 3549
-2161.37 1051.33 3557
-2157.7 1053.7 3565
-2149.18 1053.7 3565
-2140.65 1053.7 3565
-2136.31 1055.77 3572
-2127.77 1055.77 3572
-2119.23 1055.77 3572
-2106.55 1053.7 3565
-2098.03 1053.7 3565
-2089.5 1053.7 3565
-2085.06 1055.77 3572
-2076.52 1055.77 3572
-2072.61 1058.13 3580
-2064.05 1058.13 3580
-2055.49 1058.13 3580
-2046.93 1058.13 3580
-2038.37 1058.13 3580
-2029.81 1058.13 3580
-2021.25 1058.13 3580
-2012.69 1058.13 3580
-1999.65 1055.77 3572
-1987.2 1053.7 3565
-1978.68 1053.7 3565
-1965.73 1051.33 3557
-1957.23 1051.33 3557
-1953.1 1053.7 3565
-1948.4 1055.77 3572
-1939.85 1055.77 3572
-1931.31 1055.77 3572
-1927.08 1058.13 3580
-1922.8 1060.5 3588
-1914.22 1060.5 3588
-1909.36 1062.57 3595
-1904.99 1064.93 3603
-1904.8 1069.66 3619
-1896.15 1069.66 3619
-1895.84 1074.39 3635
-1887.14 1074.39 3635
-1886.2 1078.82 3650
-1877.48 1078.82 3650
-1877.45 1083.85 3667
-1889.07 1095.67 3707
-1880.2 1095.67 3707
-1871.34 1095.67 3707
-1862.47 1095.67 3707
-1853.61 1095.67 3707
-1849.22 1098.33 3716
-1840.34 1098.33 3716
-1831.45 1098.33 3716
-1822.56 1098.33 3716
-1813.68 1098.33 3716
-1804.79 1098.33 3716
-1779.96 1088.58 3683
-1767.3 1086.21 3675
-1758.51 1086.21 3675
-1745.92 1083.85 3667
-1729.1 1078.82 3650
-1701.98 1067.29 3611
-1693.35 1067.29 3611
-1677.25 1062.57 3595
-1665.4 1060.5 3588
-1649.44 1055.77 3572
-1623.44 1044.54 3534
-1614.99 1044.54 3534
-1593.35 1035.96 3505
-1578.19 1031.53 3490
-1566.69 1029.46 3483
-1558.36 1029.46 3483
-1540.25 1022.96 3461
-1528.87 1020.89 3454
-1514.45 1016.75 3440
-1506.22 1016.75 3440
-1494.95 1014.68 3433
-1480.67 1010.55 3419
-1472.5 1010.55 3419
-1464.32 1010.55 3419
-1456.15 1010.55 3419
-1447.97 1010.55 3419
-1451.59 1018.82 3447
-1443.34 1018.82 3447
-1435.1 1018.82 3447
-1426.86 1018.82 3447
-1424.38 1022.96 3461
-1416.1 1022.96 3461
-1407.82 1022.96 3461
-1399.55 1022.96 3461
-1391.27 1022.96 3461
-1385.79 1025.03 3468
-1377.5 1025.03 3468
-1372.37 1027.39 3476
-1366.8 1029.46 3483
-1367.05 1035.96 3505
-1358.67 1035.96 3505
-1356.07 1040.4 3520
-1353.01 1044.54 3534
-1344.56 1044.54 3534
-1336.11 1044.54 3534
-1327.66 1044.54 3534
-1319.21 1044.54 3534
-1310.76 1044.54 3534
-1299.73 1042.47 3527
-1285.8 1038.03 3512
-1264.31 1027.39 3476
-1255.99 1027.39 3476
-1252.71 1031.53 3490
-1244.36 1031.53 3490
-1238.5 1033.6 3497
-1230.13 1033.6 3497
-1221.77 1033.6 3497
-1213.41 1033.6 3497
-1197.81 1027.39 3476
-1186.76 1025.03 3468
-1178.47 1025.03 3468
-1163.09 1018.82 3447
-608.748 537.046 1817
-605.068 537.638 1819
-600.718 537.638 1819
-596.369 537.638 1819
-590.066 535.864 1813
-582.177 532.613 1802
-577.868 532.613 1802
-573.559 532.613 1802
-567.986 531.431 1798
-563.686 531.431 1798
-555.031 527.293 1784
-549.53 526.11 1780
-545.274 526.11 1780
-538.889 524.041 1773
-532.84 522.268 1767
-527.418 521.086 1763
-523.202 521.086 1763
-516.926 519.017 1756
-510.683 516.948 1749
-504.763 515.174 1743
-500.595 515.174 1743
-494.433 513.105 1736
-488.87 511.628 1731
-484.73 511.628 1731
-480.591 511.628 1731
-475.901 511.036 1729
-472.312 511.628 1731
-468.173 511.628 1731
-464.034 511.628 1731
-459.894 511.628 1731
-455.755 511.628 1731
-452.398 512.514 1734
-448.252 512.514 1734
-445.13 513.697 1738
-440.974 513.697 1738
-437.572 514.583 1741
-434.902 516.357 1747
-431.711 517.539 1751
-427.523 517.539 1751
-425.512 520.199 1760
-423.458 522.859 1769
-419.228 522.859 1769
-417.578 526.11 1780
-413.786 526.701 1782
-409.984 527.293 1784
-405.718 527.293 1784
-401.452 527.293 1784
-396.741 526.701 1782
-392.039 526.11 1780
-387.782 526.11 1780
-382.879 525.224 1777
-377.778 524.041 1773
-372.274 522.268 1767
-368.048 522.268 1767
-362.382 520.199 1760
-356.952 518.426 1754
-352.154 517.539 1751
-347.967 517.539 1751
-342.602 515.766 1745
-337.459 514.288 1740
-331.766 511.923 1732
-327.624 511.923 1732
-322.922 511.036 1729
-317.682 509.263 1723
-312.287 507.194 1716
-308.184 507.194 1716
-303.903 506.898 1715
-299.453 506.307 1713
-295.701 506.898 1715
-292.11 507.785 1718
-288.337 508.376 1720
-284.224 508.376 1720
-280.6 509.263 1723
-276.8 509.854 1725
-272.991 510.445 1727
-268.862 510.445 1727
-265.805 512.514 1734
-262.564 514.288 1740
-259.146 515.766 1745
-254.973 515.766 1745
-251.806 517.834 1752
-248.182 519.017 1756
-244.955 521.086 1763
-240.739 521.086 1763
-237.865 524.041 1773
-235.338 527.884 1786
-232.102 530.248 1794
-227.812 530.248 1794
-223.772 530.839 1796
-220.21 532.613 1802
-216.26 533.5 1805
-211.944 533.5 1805
-208.318 535.273 1811
-204.888 537.638 1819
-200.539 537.638 1819
-196.189 537.638 1819
-191.839 537.638 1819
-187.695 538.229 1821
-183.744 539.411 1825
-179.379 539.411 1825
-175.782 541.775 1833
-172.334 544.731 1843
-168.565 546.8 1850
-164.141 546.8 1850
-160.235 548.573 1856
-156.468 550.938 1864
-153.071 554.78 1877
-148.583 554.78 1877
-144.248 555.372 1879
-139.754 555.372 1879
-135.261 555.372 1879
-169.341 1095.67 3707
-160.476 1095.67 3707
-151.612 1095.67 3707
-142.747 1095.67 3707
-133.883 1095.67 3707
-125.018 1095.67 3707
-116.154 1095.67 3707
-107.058 1093.3 3699
-98.2121 1093.3 3699
-88.9801 1088.58 3683
-79.8247 1083.85 3667
-70.7264 1078.82 3650
-61.9981 1078.82 3650
-53.1531 1076.46 3642
-44.3585 1074.39 3635
-35.5877 1072.02 3627
-26.9144 1072.02 3627
-18.2412 1072.02 3627
-9.50459 1064.93 3603
-0.888721 1064.93 3603
7.72714 1064.93 3603
16.343 1064.93 3603
24.9035 1062.57 3595
33.3604 1058.13 3580
41.9213 1058.13 3580
50.4821 1058.13 3580
59.043 1058.13 3580
67.6039 1058.13 3580
75.9945 1055.77 3572
84.5363 1055.77 3572
93.078 1055.77 3572
101.193 1051.33 3557
109.699 1051.33 3557
118.205 1051.33 3557
126.711 1051.33 3557
135.216 1051.33 3557
143.722 1051.33 3557
152.228 1051.33 3557
160.734 1051.33 3557
169.24 1051.33 3557
177.746 1051.33 3557
186.252 1051.33 3557
194.758 1051.33 3557
203.263 1051.33 3557
211.769 1051.33 3557
220.275 1051.33 3557
228.781 1051.33 3557
236.753 1048.97 3549
244.756 1046.9 3542
253.226 1046.9 3542
261.696 1046.9 3542
270.166 1046.9 3542
279.816 1051.33 3557
288.97 1053.7 3565
297.495 1053.7 3565
306.02 1053.7 3565
314.545 1053.7 3565
323.07 1053.7 3565
332.991 1058.13 3580
341.552 1058.13 3580
350.112 1058.13 3580
358.673 1058.13 3580
367.234 1058.13 3580
374.955 1055.77 3572
381.887 1051.33 3557
387.1 1042.47 3527
395.534 1042.47 3527
400.532 1033.6 3497
407.257 1029.46 3483
412.126 1020.89 3454
418.682 1016.75 3440
426.908 1016.75 3440
434.248 1014.68 3433
440.653 1010.55 3419
445.154 1002.27 3391
453.262 1002.27 3391
459.467 998.132 3377
464.773 992.22 3357
469.984 986.309 3337
477.964 986.309 3337
483.905 982.171 3323
489.927 978.329 3310
496.789 976.26 3303
504.688 976.26 3303
512.586 976.26 3303
520.485 976.26 3303
528.383 976.26 3303
536.281 976.26 3303
544.18 976.26 3303
552.078 976.26 3303
559.977 976.26 3303
567.875 976.26 3303
575.774 976.26 3303
583.672 976.26 3303
590.496 974.486 3297
598.38 974.486 3297
606.264 974.486 3297
614.149 974.486 3297
622.033 974.486 3297
631.063 976.26 3303
638.962 976.26 3303
646.86 976.26 3303
656.146 978.329 3310
665.466 980.398 3317
673.398 980.398 3317
681.33 980.398 3317
689.262 980.398 3317
697.194 980.398 3317
706.401 982.171 3323
714.347 982.171 3323
722.294 982.171 3323
728.921 980.398 3317
736.853 980.398 3317
744.785 980.398 3317
752.717 980.398 3317
762.025 982.171 3323
769.971 982.171 3323
777.918 982.171 3323
785.864 982.171 3323
793.81 982.171 3323
801.757 982.171 3323
811.409 984.24 3330
819.372 984.24 3330
827.335 984.24 3330
835.298 984.24 3330
845.033 986.309 3337
853.013 986.309 3337
862.541 988.083 3343
872.358 990.151 3350
885.625 996.063 3370
893.683 996.063 3370
916.727 1012.61 3426
928.699 1016.75 3440
940.738 1020.89 3454
948.998 1020.89 3454
963.354 1027.39 3476
977.537 1033.6 3497
996.33 1044.54 3534
1004.78 1044.54 3534
1019.83 1051.33 3557
1030.65 1053.7 3565
1045.87 1060.5 3588
1063.56 1069.66 3619
1072.22 1069.66 3619
1087.74 1076.46 3642
1108.79 1088.58 3683
1117.6 1088.58 3683
1126.41 1088.58 3683
1135.22 1088.58 3683
1144.02 1088.58 3683
1152.83 1088.58 3683
1161.64 1088.58 3683
1167.9 1086.21 3675
1174.13 1083.85 3667
1182.9 1083.85 3667
1188.74 1081.19 3658
1194.87 1078.82 3650
1203.6 1078.82 3650
1212.33 1078.82 3650
1221.06 1078.82 3650
1229.78 1078.82 3650
1238.51 1078.82 3650
1247.24 1078.82 3650
1253.22 1076.46 3642
1261.92 1076.46 3642
1270.63 1076.46 3642
1279.34 1076.46 3642
1288.05 1076.46 3642
1296.76 1076.46 3642
1311.21 1081.19 3658
1319.95 1081.19 3658
1328.7 1081.19 3658
1337.45 1081.19 3658
1346.2 1081.19 3658
1354.94 1081.19 3658
1363.69 1081.19 3658
1372.44 1081.19 3658
1381.18 1081.19 3658
1386.89 1078.82 3650
1395.62 1078.82 3650
1401.27 1076.46 3642
1401.08 1069.66 3619
1403.5 1064.93 3603
1412.11 1064.93 3603
1414.81 1060.5 3588
1420.22 1058.13 3580
1425.59 1055.77 3572
1431.32 1053.7 3565
1439.84 1053.7 3565
1441.87 1048.97 3549
1447.5 1046.9 3542
1449.8 1042.47 3527
1458.23 1042.47 3527
1454.19 1033.6 3497
1459.63 1031.53 3490
1458.72 1025.03 3468
1467.01 1025.03 3468
1475.31 1025.03 3468
1483.6 1025.03 3468
1495.33 1027.39 3476
1503.65 1027.39 3476
1511.96 1027.39 3476
1520.27 1027.39 3476
1531.66 1029.46 3483
1549.72 1035.96 3505
1570.99 1044.54 3534
1579.44 1044.54 3534
1587.89 1044.54 3534
1603.12 1048.97 3549
1611.6 1048.97 3549
1620.09 1048.97 3549
1628.58 1048.97 3549
1626.92 1042.47 3527
1635.35 1042.47 3527
1633.53 1035.96 3505
1645.19 1038.03 3512
1653.59 1038.03 3512
1665.77 1040.4 3520
1674.19 1040.4 3520
1682.61 1040.4 3520
1691.03 1040.4 3520
1699.44 1040.4 3520
1689.91 1029.46 3483
1677.27 1016.75 3440
1678.64 1012.61 3426
1686.83 1012.61 3426
1695.02 1012.61 3426
1703.22 1012.61 3426
1711.41 1012.61 3426
1702.03 1002.27 3391
1710.14 1002.27 3391
1711.16 998.132 3377
1729.92 1004.34 3398
1745.21 1008.48 3412
1760.56 1012.61 3426
1768.76 1012.61 3426
1776.95 1012.61 3426
1785.14 1012.61 3426
1800.66 1016.75 3440
1808.89 1016.75 3440
1817.12 1016.75 3440
1825.34 1016.75 3440
1833.57 1016.75 3440
1841.79 1016.75 3440
1846.26 1014.68 3433
1854.46 1014.68 3433
1862.67 1014.68 3433
1870.88 1014.68 3433
1875.26 1012.61 3426
2305.51 1168.38 3953
2314.97 1168.38 3953
2324.42 1168.38 3953
2333.87 1168.38 3953
2354.59 1173.99 3972
2364.09 1173.99 3972
2373.58 1173.99 3972
2383.08 1173.99 3972
2392.58 1173.99 3972
2413.57 1179.61 3991
2423.11 1179.61 3991
2432.66 1179.61 3991
537.618 208.375 705
539.304 208.375 705
-2383.94 948.715 3184
-2376.32 948.715 3184
-2355.32 943.351 3166
-2338.85 939.776 3154
-2331.31 939.776 3154
-2323.77 939.776 3154
-2311.82 937.988 3148
-2308.68 939.776 3154
-2305.52 941.563 3160
-2302.32 943.351 3166
-2294.75 943.351 3166
-2300.19 948.715 3184
-2296.89 950.502 3190
-2297.88 954.078 3202
-2290.22 954.078 3202
-2286.84 955.866 3208
-2314.69 970.764 3258
-2316.1 974.637 3271
-2308.28 974.637 3271
-2313.82 980.299 3290
-2315.07 984.172 3303
-2330.92 994.303 3337
-2322.94 994.303 3337
-2333 1002.05 3363
-2339.47 1008.31 3384
-2345.85 1014.56 3405
-2337.71 1014.56 3405
-2343.93 1020.82 3426
-2335.74 1020.82 3426
-2327.54 1020.82 3426
-2319.35 1020.82 3426
-2306.44 1018.74 3419
-2298.26 1018.74 3419
-2299.46 1022.91 3433
-2291.25 1022.91 3433
-2283.04 1022.91 3433
-2279.47 1024.99 3440
-2285.11 1031.25 3461
-2276.84 1031.25 3461
-2273.15 1033.34 3468
-2270.08 1035.72 3476
-2270.88 1039.89 3490
-2262.53 1039.89 3490
-2263.87 1044.36 3505
-2265.15 1048.83 3520
-2256.73 1048.83 3520
-2248.31 1048.83 3520
-2234.8 1046.45 3512
-2226.4 1046.45 3512
-2218.01 1046.45 3512
-2209.61 1046.45 3512
-2210.61 1050.92 3527
-2202.18 1050.92 3527
-2193.74 1050.92 3527
-2185.31 1050.92 3527
-2181.19 1053 3534
-2177.66 1055.39 3542
-2173.48 1057.47 3549
-2164.99 1057.47 3549
-2161.37 1059.85 3557
-2157.7 1062.24 3565
-2149.18 1062.24 3565
-2140.65 1062.24 3565
-2132.13 1062.24 3565
-2123.6 1062.24 3565
-2115.08 1062.24 3565
-2106.55 1062.24 3565
-2098.03 1062.24 3565
-2084.81 1059.85 3557
-2085.06 1064.32 3572
-2076.52 1064.32 3572
-2067.98 1064.32 3572
-2059.44 1064.32 3572
-2050.9 1064.32 3572
-2042.36 1064.32 3572
-2029.83 1062.24 3565
-2025.27 1064.32 3572
-2016.73 1064.32 3572
-2008.19 1064.32 3572
-1995.73 1062.24 3565
-1982.74 1059.85 3557
-1974.24 1059.85 3557
-1965.73 1059.85 3557
-1952.82 1057.47 3549
-1944.34 1057.47 3549
-1944.58 1062.24 3565
-1936.05 1062.24 3565
-1931.31 1064.32 3572
-1927.08 1066.71 3580
-1922.8 1069.09 3588
-1914.22 1069.09 3588
-1909.36 1071.18 3595
-1904.99 1073.56 3603
-1896.38 1073.56 3603
-1887.76 1073.56 3603
-1887.49 1078.33 3619
-1887.14 1083.1 3635
-1890.34 1089.95 3658
-1881.59 1089.95 3658
-1877.45 1092.63 3667
-1889.07 1104.55 3707
-1884.77 1107.23 3716
-1875.88 1107.23 3716
-1866.99 1107.23 3716
-1858.11 1107.23 3716
-1853.2 1109.61 3724
-1844.3 1109.61 3724
-1835.39 1109.61 3724
-1826.49 1109.61 3724
-1817.58 1109.61 3724
-1796.53 1102.17 3699
-1783.82 1099.78 3691
-1763.46 1092.63 3667
-1754.69 1092.63 3667
-1745.92 1092.63 3667
-1725.31 1085.18 3642
-1701.98 1075.94 3611
-1693.35 1075.94 3611
-1680.98 1073.56 3603
-1657.98 1064.32 3572
-1646.2 1062.24 3565
-1613.33 1046.45 3512
-1604.93 1046.45 3512
-1583.35 1037.81 3483
-1571.86 1035.72 3476
-1556.8 1031.25 3461
-1548.52 1031.25 3461
-1537.13 1029.16 3454
-1516.48 1020.82 3426
-1502.12 1016.65 3412
-1493.96 1016.65 3412
-1482.75 1014.56 3405
-1468.55 1010.39 3391
-1457.43 1008.31 3384
-1449.33 1008.31 3384
-1441.24 1008.31 3384
-1447.97 1018.74 3419
-1439.8 1018.74 3419
-1440.41 1024.99 3440
-1432.19 1024.99 3440
-1423.96 1024.99 3440
-1418.62 1027.08 3447
-1413.24 1029.16 3454
-1404.98 1029.16 3454
-1396.72 1029.16 3454
-1391.27 1031.25 3461
-1385.79 1033.34 3468
-1377.5 1033.34 3468
-1372.37 1035.72 3476
-1366.8 1037.81 3483
-1363.93 1041.98 3497
-1355.57 1041.98 3497
-1356.07 1048.83 3520
-1350.33 1050.92 3527
-1341.9 1050.92 3527
-1333.46 1050.92 3527
-1325.03 1050.92 3527
-1316.59 1050.92 3527
-1308.16 1050.92 3527
-1297.15 1048.83 3520
-1283.24 1044.36 3505
-1264.31 1035.72 3476
-1253.1 1033.34 3468
-1247.68 1035.72 3476
-1239.37 1035.72 3476
-1236.02 1039.89 3490
-1227.67 1039.89 3490
-1219.33 1039.89 3490
-1206.12 1035.72 3476
-1195.05 1033.34 3468
-1174.78 1022.91 3433
-1166.57 1022.91 3433
-1151.28 1016.65 3412
-608.748 541.399 1817
-605.068 541.995 1819
-600.718 541.995 1819
-596.369 541.995 1819
-592.019 541.995 1819
-581.531 536.334 1800
-576.585 535.738 1798
-572.285 535.738 1798
-567.986 535.738 1798
-561.178 533.354 1790
-553.787 530.374 1780
-546.752 527.693 1771
-542.517 527.693 1771
-537.066 526.501 1767
-531.634 525.309 1763
-525.922 523.819 1758
-521.719 523.819 1758
-515.748 522.031 1752
-509.515 519.946 1745
-503.894 518.456 1740
-499.733 518.456 1740
-493.864 516.668 1734
-488.87 515.774 1731
-484.17 515.178 1729
-480.036 515.178 1729
-475.351 514.582 1727
-471.767 515.178 1729
-467.632 515.178 1729
-463.498 515.178 1729
-459.363 515.178 1729
-455.755 515.774 1731
-451.877 516.072 1732
-448.252 516.668 1734
-445.13 517.86 1738
-440.974 517.86 1738
-437.572 518.754 1741
-434.902 520.542 1747
-431.711 521.733 1751
-427.523 521.733 1751
-425.512 524.415 1760
-423.458 527.097 1769
-419.228 527.097 1769
-417.578 530.374 1780
-413.786 530.97 1782
-409.984 531.566 1784
-405.718 531.566 1784
-401.452 531.566 1784
-396.295 530.374 1780
-392.039 530.374 1780
-387.782 530.374 1780
-382.879 529.48 1777
-377.778 528.289 1773
-372.274 526.501 1767
-368.048 526.501 1767
-362.382 524.415 1760
-356.952 522.627 1754
-352.154 521.733 1751
-347.967 521.733 1751
-342.602 519.946 1745
-337.459 518.456 1740
-331.766 516.072 1732
-327.624 516.072 1732
-322.922 515.178 1729
-317.682 513.39 1723
-312.287 511.305 1716
-308.184 511.305 1716
-303.903 511.007 1715
-299.453 510.411 1713
-295.701 511.007 1715
-292.11 511.901 1718
-288.337 512.497 1720
-284.224 512.497 1720
-280.6 513.39 1723
-276.8 513.986 1725
-272.991 514.582 1727
-268.862 514.582 1727
-265.805 516.668 1734
-262.564 518.456 1740
-259.146 519.946 1745
-254.973 519.946 1745
-251.806 522.031 1752
-248.182 523.223 1756
-244.955 525.309 1763
-240.739 525.309 1763
-237.865 528.289 1773
-235.338 532.162 1786
-232.102 534.546 1794
-227.812 534.546 1794
-223.772 535.142 1796
-220.21 536.93 1802
-216.26 537.823 1805
-211.944 537.823 1805
-208.318 539.611 1811
-204.888 541.995 1819
-200.539 541.995 1819
-196.189 541.995 1819
-191.839 541.995 1819
-187.695 542.591 1821
-183.744 543.783 1825
-179.379 543.783 1825
-175.782 546.166 1833
-172.334 549.146 1843
-168.565 551.232 1850
-164.141 551.232 1850
-160.235 553.02 1856
-156.468 555.403 1864
-153.071 559.277 1877
-148.583 559.277 1877
-144.248 559.873 1879
-139.754 559.873 1879
-135.261 559.873 1879
-133.594 1102.17 3699
-124.748 1102.17 3699
-115.903 1102.17 3699
-106.826 1099.78 3691
-97.9997 1099.78 3691
-88.9801 1097.4 3683
-79.8247 1092.63 3667
-70.5714 1085.18 3642
-61.8622 1085.18 3642
-53.1531 1085.18 3642
-44.2609 1080.71 3627
-35.5877 1080.71 3627
-26.9144 1080.71 3627
-18.2412 1080.71 3627
-9.50459 1073.56 3603
-0.888721 1073.56 3603
7.72714 1073.56 3603
16.343 1073.56 3603
24.9035 1071.18 3595
33.3604 1066.71 3580
41.9213 1066.71 3580
50.4821 1066.71 3580
59.043 1066.71 3580
67.6039 1066.71 3580
75.9945 1064.32 3572
84.5363 1064.32 3572
93.078 1064.32 3572
101.193 1059.85 3557
109.699 1059.85 3557
118.205 1059.85 3557
126.711 1059.85 3557
135.216 1059.85 3557
143.722 1059.85 3557
152.228 1059.85 3557
160.734 1059.85 3557
169.24 1059.85 3557
177.746 1059.85 3557
186.252 1059.85 3557
194.758 1059.85 3557
203.263 1059.85 3557
211.769 1059.85 3557
220.275 1059.85 3557
228.781 1059.85 3557
236.753 1057.47 3549
244.756 1055.39 3542
253.226 1055.39 3542
261.696 1055.39 3542
270.166 1055.39 3542
279.816 1059.85 3557
288.97 1062.24 3565
