ply
format ascii 1.0
comment File generated
element vertex 2151
property float x
property float y
property float z
end_header
1025.38 -461.448 3732
1043.73 -465.652 3766
1064.75 -470.969 3809
1073.86 -470.969 3809
1082.97 -470.969 3809
1094.66 -472.082 3818
1103.79 -472.082 3818
1115.25 -473.071 3826
1124.4 -473.071 3826
1136.21 -474.184 3835
1150.76 -476.41 3853
1159.97 -476.41 3853
1169.19 -476.41 3853
1172.9 -474.184 3835
1171.28 -469.856 3800
1180.37 -469.856 3800
1189.45 -469.856 3800
1193.18 -467.754 3783
1210.49 -470.969 3809
1227.92 -474.184 3835
1237.09 -474.184 3835
1246.26 -474.184 3835
1255.43 -474.184 3835
1267.57 -475.297 3844
1276.76 -475.297 3844
1285.96 -475.297 3844
1301.21 -477.523 3862
1322.66 -481.974 3898
1335.06 -483.087 3907
1344.4 -483.087 3907
1353.75 -483.087 3907
1353.67 -479.748 3880
1362.95 -479.748 3880
1372.22 -479.748 3880
1387.91 -481.974 3898
1400.46 -483.087 3907
1419.91 -486.549 3935
1432.58 -487.662 3944
1448.96 -490.011 3963
1468.74 -493.473 3991
1481.99 -494.709 4001
1491.56 -494.709 4001
1501.13 -494.709 4001
1517.87 -497.059 4020
1542.3 -501.881 4059
1559.65 -504.354 4079
1569.41 -504.354 4079
1579.16 -504.354 4079
1784 -504.354 4079
1793.75 -504.354 4079
1803.51 -504.354 4079
1795.48 -499.408 4039
1801.12 -498.295 4030
1806.26 -497.059 4020
1815.87 -497.059 4020
1820.94 -495.822 4010
1830.53 -495.822 4010
1840.12 -495.822 4010
1849.71 -495.822 4010
1859.3 -495.822 4010
1878.21 -498.295 4030
1887.85 -498.295 4030
1897.49 -498.295 4030
2269.69 -467.754 3783
2288.97 -469.856 3800
2324.67 -475.297 3844
2333.86 -475.297 3844
2381.46 -483.087 3907
2396.31 -484.199 3916
2405.67 -484.199 3916
2415.03 -484.199 3916
2418.83 -483.087 3907
2428.17 -483.087 3907
2437.51 -483.087 3907
2446.86 -483.087 3907
2485.12 -488.774 3953
2494.57 -488.774 3953
2516.06 -491.124 3972
2525.56 -491.124 3972
2535.05 -491.124 3972
2497.15 -481.974 3898
2506.47 -481.974 3898
2521.6 -483.087 3907
2530.94 -483.087 3907
2546.14 -484.199 3916
2555.5 -484.199 3916
2564.86 -484.199 3916
2574.23 -484.199 3916
2518.94 -472.082 3818
2528.07 -472.082 3818
2584.38 -480.861 3889
2593.68 -480.861 3889
2609 -481.974 3898
2618.32 -481.974 3898
2627.65 -481.974 3898
2667.71 -474.184 3835
2676.88 -474.184 3835
2686.05 -474.184 3835
2658.68 -467.754 3783
2679.71 -469.856 3800
2688.8 -469.856 3800
2722.74 -474.184 3835
2809.55 -487.662 3944
2825.42 -488.774 3953
2834.87 -488.774 3953
2844.32 -488.774 3953
2853.78 -488.774 3953
2863.23 -488.774 3953
2819.63 -479.748 3880
2828.91 -479.748 3880
2878.42 -486.549 3935
2894.44 -487.662 3944
2938.47 -493.473 3991
2948.02 -493.473 3991
2957.56 -493.473 3991
2967.1 -493.473 3991
2976.65 -493.473 3991
2979.46 -492.36 3982
2925.93 -481.974 3898
2963.11 -486.549 3935
2986.12 -488.774 3953
2995.57 -488.774 3953
3005.02 -488.774 3953
3022.1 -490.011 3963
3031.58 -490.011 3963
-2400.92 -428.501 3534
-2392.47 -428.501 3534
-2389.41 -429.471 3542
-2391.03 -431.29 3557
-2397.93 -434.078 3580
-2389.36 -434.078 3580
-2386.12 -435.048 3588
-2413.33 -441.596 3642
-2404.62 -441.596 3642
-2406.43 -443.536 3658
-2397.69 -443.536 3658
-2388.94 -443.536 3658
-2380.19 -443.536 3658
-2392.84 -447.537 3691
-2384.01 -447.537 3691
-2375.19 -447.537 3691
-2366.36 -447.537 3691
-2352.42 -446.567 3683
-2333.43 -444.627 3667
-2294.24 -438.807 3619
-2285.58 -438.807 3619
-2261.83 -435.897 3595
-2238.82 -433.108 3572
-2230.27 -433.108 3572
-2221.73 -433.108 3572
-677.139 -227.224 1874
-672.658 -227.224 1874
-668.176 -227.224 1874
-662.278 -226.739 1870
-656.399 -226.254 1866
-647.046 -224.557 1852
-642.617 -224.557 1852
-634.398 -223.223 1841
-626.574 -222.01 1831
-622.195 -222.01 1831
-617.817 -222.01 1831
-612.768 -221.768 1829
-607.729 -221.525 1827
-600.058 -220.313 1817
-595.713 -220.313 1817
-588.113 -219.1 1807
-580.885 -218.009 1798
-574.661 -217.282 1792
-568.466 -216.554 1786
-564.195 -216.554 1786
-557.103 -215.463 1777
-549.12 -214.008 1765
-541.503 -212.674 1754
-537.309 -212.674 1754
-530.379 -211.583 1745
-524.095 -210.734 1738
-519.341 -210.492 1736
-515.19 -210.492 1736
-509.861 -210.007 1732
-504.259 -209.4 1727
-499.55 -209.158 1725
-495.425 -209.158 1725
-490.446 -208.794 1722
-486.328 -208.794 1722
-481.65 -208.552 1720
-476.982 -208.309 1718
-472.874 -208.309 1718
-468.22 -208.067 1716
-463.846 -207.945 1715
-459.208 -207.703 1713
-455.112 -207.703 1713
-450.489 -207.46 1711
-445.876 -207.218 1709
-441.531 -207.097 1708
-437.446 -207.097 1708
-432.854 -206.854 1706
-428.272 -206.612 1704
-423.7 -206.369 1702
-419.63 -206.369 1702
-415.315 -206.248 1701
-411.248 -206.248 1701
-406.701 -206.005 1699
-402.639 -206.005 1699
-398.107 -205.763 1697
-393.352 -205.399 1694
-389.301 -205.399 1694
-385.25 -205.399 1694
-380.299 -204.914 1690
-376.035 -204.793 1689
-371.556 -204.55 1687
-367.522 -204.55 1687
-363.057 -204.308 1685
-358.601 -204.065 1683
-353.945 -203.702 1680
-349.511 -203.459 1678
-345.498 -203.459 1678
-341.282 -203.338 1677
-337.272 -203.338 1677
-332.864 -203.095 1675
-328.859 -203.095 1675
-324.853 -203.095 1675
-320.465 -202.853 1673
-316.464 -202.853 1673
-312.463 -202.853 1673
-308.278 -202.732 1672
-304.28 -202.732 1672
-300.282 -202.732 1672
-296.284 -202.732 1672
-292.285 -202.732 1672
-288.287 -202.732 1672
-283.949 -202.489 1670
-279.955 -202.489 1670
-275.962 -202.489 1670
-271.968 -202.489 1670
-268.296 -202.732 1672
-264.772 -203.095 1675
-260.766 -203.095 1675
-256.761 -203.095 1675
-253.057 -203.338 1677
-249.493 -203.702 1680
-245.475 -203.702 1680
-242.176 -204.308 1685
-238.43 -204.55 1687
-234.812 -204.914 1690
-230.771 -204.914 1690
-227.266 -205.399 1694
-223.347 -205.52 1695
-220.2 -206.369 1702
-216.13 -206.369 1702
-213.181 -207.46 1711
-209.701 -208.067 1716
-206.076 -208.552 1720
-201.963 -208.552 1720
-198.195 -208.915 1723
-195.089 -210.007 1732
-191.388 -210.492 1736
-187.237 -210.492 1736
-183.296 -210.734 1738
-179.346 -210.977 1740
-175.488 -211.34 1743
-171.516 -211.583 1745
-167.343 -211.583 1745
-163.358 -211.825 1747
-159.18 -211.825 1747
-155.002 -211.825 1747
-150.825 -211.825 1747
-146.815 -212.068 1749
-142.633 -212.068 1749
-138.45 -212.068 1749
-134.268 -212.068 1749
-130.085 -212.068 1749
-125.615 -211.583 1745
-121.442 -211.583 1745
-117.135 -211.34 1743
-112.837 -211.098 1741
-108.612 -210.977 1740
-104.451 -210.977 1740
-100.175 -210.734 1738
-96.0186 -210.734 1738
-91.8626 -210.734 1738
-87.7065 -210.734 1738
-83.4542 -210.492 1736
-79.3943 -210.734 1738
-75.2382 -210.734 1738
-71.0821 -210.734 1738
-66.9261 -210.734 1738
-62.77 -210.734 1738
-58.5464 -210.492 1736
-54.3951 -210.492 1736
-50.1859 -210.249 1734
-46.0394 -210.249 1734
-41.8929 -210.249 1734
-37.7899 -210.492 1736
-33.6774 -210.734 1738
-29.5213 -210.734 1738
-25.3652 -210.734 1738
-21.2457 -211.098 1741
-17.0825 -211.098 1741
-12.9192 -211.098 1741
-8.75595 -211.098 1741
-4.5927 -211.098 1741
-0.429438 -211.098 1741
34.7768 -452.508 3732
43.7012 -452.508 3732
52.7383 -453.478 3740
61.6818 -453.478 3740
70.6253 -453.478 3740
79.3985 -452.508 3732
88.3229 -452.508 3732
97.2472 -452.508 3732
105.944 -451.538 3724
114.325 -449.477 3707
123.189 -449.477 3707
131.769 -448.507 3699
140.614 -448.507 3699
148.813 -446.567 3683
157.621 -446.567 3683
165.705 -444.627 3667
174.045 -443.536 3658
182.393 -442.566 3650
191.121 -442.566 3650
199.412 -441.596 3642
208.121 -441.596 3642
215.937 -439.777 3627
224.61 -439.777 3627
233.283 -439.777 3627
241.957 -439.777 3627
250.077 -438.807 3619
258.159 -437.837 3611
266.794 -437.837 3611
274.819 -436.867 3603
283.435 -436.867 3603
293.348 -438.807 3619
302.669 -439.777 3627
311.343 -439.777 3627
321.339 -441.596 3642
330.773 -442.566 3650
340.246 -443.536 3658
348.993 -443.536 3658
357.741 -443.536 3658
366.488 -443.536 3658
375.235 -443.536 3658
383.143 -442.566 3650
391.871 -442.566 3650
399.721 -441.596 3642
408.431 -441.596 3642
417.14 -441.596 3642
425.849 -441.596 3642
435.513 -442.566 3650
447.284 -445.597 3675
458.057 -447.537 3691
466.883 -447.537 3691
476.741 -448.507 3699
486.636 -449.477 3707
496.704 -450.568 3716
505.59 -450.568 3716
514.476 -450.568 3716
520.968 -448.507 3699
529.813 -448.507 3699
538.659 -448.507 3699
547.504 -448.507 3699
982.77 -457.601 3774
991.795 -457.601 3774
1000.82 -457.601 3774
1009.84 -457.601 3774
1016.71 -456.631 3766
1030.35 -458.692 3783
1039.39 -458.692 3783
1058.14 -462.936 3818
1072.02 -464.997 3835
1083.73 -466.089 3844
1092.92 -466.089 3844
1107.27 -468.271 3862
1116.51 -468.271 3862
1133.61 -471.545 3889
1142.91 -471.545 3889
1154.88 -472.636 3898
1169.58 -474.819 3916
1178.94 -474.819 3916
1188.31 -474.819 3916
1192.16 -472.636 3898
1195.94 -470.454 3880
1205.22 -470.454 3880
1214.49 -470.454 3880
1218.1 -468.271 3862
1224.47 -467.18 3853
1245.21 -471.545 3889
1254.51 -471.545 3889
1263.81 -471.545 3889
1264.27 -468.271 3862
1273.51 -468.271 3862
1282.74 -468.271 3862
1291.98 -468.271 3862
1301.21 -468.271 3862
1322.66 -472.636 3898
1335.06 -473.727 3907
1344.4 -473.727 3907
1353.75 -473.727 3907
1353.67 -470.454 3880
1362.95 -470.454 3880
1372.22 -470.454 3880
1387.91 -472.636 3898
1400.46 -473.727 3907
1419.91 -477.122 3935
1432.58 -478.214 3944
1448.96 -480.517 3963
1468.74 -483.912 3991
1481.99 -485.125 4001
1491.56 -485.125 4001
1501.13 -485.125 4001
1517.87 -487.429 4020
1542.3 -492.158 4059
1559.65 -494.583 4079
1569.41 -494.583 4079
1579.16 -494.583 4079
1768.82 -495.795 4089
1778.59 -495.795 4089
1788.37 -495.795 4089
1793.75 -494.583 4079
1803.51 -494.583 4079
1795.48 -489.732 4039
1801.12 -488.641 4030
1806.26 -487.429 4020
1815.87 -487.429 4020
1820.94 -486.216 4010
1830.53 -486.216 4010
1840.12 -486.216 4010
1849.71 -486.216 4010
1859.3 -486.216 4010
1878.21 -488.641 4030
1887.85 -488.641 4030
1897.49 -488.641 4030
2300.89 -464.997 3835
2315.48 -466.089 3844
2368.21 -474.819 3916
2377.58 -474.819 3916
2409.49 -479.305 3953
2418.95 -479.305 3953
2428.4 -479.305 3953
2437.85 -479.305 3953
2441.73 -478.214 3944
2462.97 -480.517 3963
2472.45 -480.517 3963
2481.93 -480.517 3963
2503.35 -482.821 3982
2512.87 -482.821 3982
2522.39 -482.821 3982
2531.91 -482.821 3982
2535.05 -481.609 3972
2497.15 -472.636 3898
2506.47 -472.636 3898
2521.6 -473.727 3907
2530.94 -473.727 3907
2546.14 -474.819 3916
2555.5 -474.819 3916
2564.86 -474.819 3916
2574.23 -474.819 3916
2518.94 -462.936 3818
2528.07 -462.936 3818
2584.38 -471.545 3889
2593.68 -471.545 3889
2615.03 -473.727 3907
2630.41 -474.819 3916
2639.78 -474.819 3916
2649.14 -474.819 3916
2664.62 -475.91 3925
2674 -475.91 3925
2683.39 -475.91 3925
2680.43 -473.727 3907
2671.18 -470.454 3880
2711.54 -472.636 3898
2720.86 -472.636 3898
2730.18 -472.636 3898
2726.85 -470.454 3880
2736.13 -470.454 3880
2719.93 -466.089 3844
2800.12 -478.214 3944
2829.5 -481.609 3972
2859.73 -485.125 4001
2869.29 -485.125 4001
2878.86 -485.125 4001
2853.78 -479.305 3953
2863.23 -479.305 3953
2845.79 -474.819 3916
2828.91 -470.454 3880
2878.42 -477.122 3935
2901.04 -479.305 3953
2938.47 -483.912 3991
2948.02 -483.912 3991
2957.56 -483.912 3991
2967.1 -483.912 3991
2976.65 -483.912 3991
2979.46 -482.821 3982
2960.46 -478.214 3944
2969.89 -478.214 3944
2986.12 -479.305 3953
2995.57 -479.305 3953
3005.02 -479.305 3953
3028.96 -481.609 3972
3038.46 -481.609 3972
-2384.14 -415.637 3497
-2406.35 -420.986 3542
-2397.88 -420.986 3542
-2399.53 -422.769 3557
-2391.03 -422.769 3557
-2397.93 -425.502 3580
-2389.36 -425.502 3580
-2386.12 -426.453 3588
-2413.33 -432.871 3642
-2404.62 -432.871 3642
-2406.43 -434.773 3658
-2397.69 -434.773 3658
-2394.82 -435.843 3667
-2386.05 -435.843 3667
-2392.84 -438.695 3691
-2394.35 -440.597 3707
-2385.48 -440.597 3707
-2376.62 -440.597 3707
-2367.75 -440.597 3707
-2343.62 -437.744 3683
-2313.89 -433.822 3650
-2305.16 -433.822 3650
-2276.93 -430.138 3619
-2258.25 -428.236 3603
-2244.63 -427.285 3595
-2236.04 -427.285 3595
-677.139 -222.735 1874
-672.658 -222.735 1874
-668.176 -222.735 1874
-662.278 -222.26 1870
-656.399 -221.784 1866
-647.046 -220.12 1852
-642.617 -220.12 1852
-634.398 -218.813 1841
-626.574 -217.624 1831
-622.195 -217.624 1831
-617.817 -217.624 1831
-612.768 -217.387 1829
-607.729 -217.149 1827
-600.718 -216.198 1819
-596.369 -216.198 1819
-588.764 -215.009 1809
-582.177 -214.177 1802
-574.661 -212.989 1792
-569.102 -212.513 1788
-564.827 -212.513 1788
-557.103 -211.206 1777
-549.12 -209.78 1765
-541.503 -208.472 1754
-537.309 -208.472 1754
-530.379 -207.403 1745
-524.095 -206.571 1738
-519.341 -206.333 1736
-515.19 -206.333 1736
-509.861 -205.858 1732
-504.259 -205.263 1727
-499.55 -205.026 1725
-495.425 -205.026 1725
-490.446 -204.669 1722
-486.328 -204.669 1722
-481.65 -204.431 1720
-476.982 -204.194 1718
-472.874 -204.194 1718
-468.22 -203.956 1716
-463.846 -203.837 1715
-459.208 -203.599 1713
-455.112 -203.599 1713
-450.489 -203.362 1711
-445.876 -203.124 1709
-441.531 -203.005 1708
-437.446 -203.005 1708
-432.854 -202.767 1706
-428.272 -202.53 1704
-424.197 -202.53 1704
-420.123 -202.53 1704
-415.315 -202.173 1701
-411.248 -202.173 1701
-406.701 -201.935 1699
-402.639 -201.935 1699
-398.107 -201.698 1697
-393.584 -201.46 1695
-389.301 -201.341 1694
-385.25 -201.341 1694
-380.299 -200.866 1690
-376.035 -200.747 1689
-371.556 -200.509 1687
-367.522 -200.509 1687
-363.057 -200.271 1685
-358.601 -200.034 1683
-353.945 -199.677 1680
-349.511 -199.439 1678
-345.498 -199.439 1678
-341.282 -199.321 1677
-337.272 -199.321 1677
-332.864 -199.083 1675
-328.859 -199.083 1675
-324.853 -199.083 1675
-320.465 -198.845 1673
-316.464 -198.845 1673
-312.463 -198.845 1673
-308.278 -198.726 1672
-304.28 -198.726 1672
-300.282 -198.726 1672
-296.284 -198.726 1672
-292.285 -198.726 1672
-288.287 -198.726 1672
-283.949 -198.489 1670
-279.955 -198.489 1670
-275.962 -198.489 1670
-271.968 -198.489 1670
-268.296 -198.726 1672
-264.456 -198.845 1673
-260.455 -198.845 1673
-256.761 -199.083 1675
-252.755 -199.083 1675
-249.493 -199.677 1680
-245.475 -199.677 1680
-241.745 -199.915 1682
-238.147 -200.271 1685
-234.812 -200.866 1690
-230.771 -200.866 1690
-227.266 -201.341 1694
-223.347 -201.46 1695
-220.2 -202.292 1702
-216.13 -202.292 1702
-213.181 -203.362 1711
-209.701 -203.956 1716
-206.076 -204.431 1720
-201.963 -204.431 1720
-198.195 -204.788 1723
-195.089 -205.858 1732
-191.388 -206.333 1736
-187.237 -206.333 1736
-183.296 -206.571 1738
-179.346 -206.808 1740
-175.488 -207.165 1743
-171.516 -207.403 1745
-167.343 -207.403 1745
-163.358 -207.64 1747
-159.18 -207.64 1747
-155.002 -207.64 1747
-150.825 -207.64 1747
-146.815 -207.878 1749
-142.633 -207.878 1749
-138.45 -207.878 1749
-134.268 -207.878 1749
-130.085 -207.878 1749
-125.615 -207.403 1745
-121.442 -207.403 1745
-117.135 -207.165 1743
-112.773 -206.808 1740
-108.487 -206.571 1738
-104.331 -206.571 1738
-100.175 -206.571 1738
-95.9082 -206.333 1736
-91.7569 -206.333 1736
-87.6056 -206.333 1736
-83.4542 -206.333 1736
-79.3029 -206.333 1736
-75.2382 -206.571 1738
-71.0821 -206.571 1738
-66.9261 -206.571 1738
-62.77 -206.571 1738
-58.5464 -206.333 1736
-54.3951 -206.333 1736
-50.1859 -206.095 1734
-46.0394 -206.095 1734
-41.8929 -206.095 1734
-37.7899 -206.333 1736
-33.6774 -206.571 1738
-29.5213 -206.571 1738
-25.3652 -206.571 1738
-21.2457 -206.927 1741
-17.0825 -206.927 1741
-12.9192 -206.927 1741
-8.75595 -206.927 1741
-4.5927 -206.927 1741
-0.429438 -206.927 1741
34.7023 -442.618 3724
43.7012 -443.568 3732
52.6255 -443.568 3732
61.5499 -443.568 3732
70.4742 -443.568 3732
79.3985 -443.568 3732
88.3229 -443.568 3732
97.2472 -443.568 3732
105.944 -442.618 3724
114.325 -440.597 3707
123.189 -440.597 3707
131.769 -439.646 3699
140.614 -439.646 3699
148.813 -437.744 3683
157.621 -437.744 3683
165.705 -435.843 3667
174.045 -434.773 3658
182.393 -433.822 3650
191.121 -433.822 3650
199.412 -432.871 3642
208.121 -432.871 3642
215.937 -431.089 3627
224.61 -431.089 3627
233.283 -431.089 3627
241.957 -431.089 3627
250.077 -430.138 3619
258.159 -429.187 3611
266.794 -429.187 3611
274.819 -428.236 3603
283.435 -428.236 3603
293.348 -430.138 3619
302.669 -431.089 3627
311.343 -431.089 3627
321.339 -432.871 3642
330.773 -433.822 3650
340.246 -434.773 3658
348.993 -434.773 3658
357.741 -434.773 3658
366.488 -434.773 3658
375.235 -434.773 3658
383.143 -433.822 3650
391.871 -433.822 3650
399.721 -432.871 3642
408.431 -432.871 3642
417.14 -432.871 3642
425.849 -432.871 3642
435.513 -433.822 3650
446.31 -435.843 3667
457.064 -437.744 3683
465.872 -437.744 3683
475.71 -438.695 3691
485.586 -439.646 3699
495.501 -440.597 3707
504.366 -440.597 3707
513.23 -440.597 3707
520.968 -439.646 3699
529.813 -439.646 3699
538.659 -439.646 3699
547.504 -439.646 3699
982.77 -448.56 3774
991.795 -448.56 3774
1000.82 -448.56 3774
1009.84 -448.56 3774
1016.71 -447.609 3766
1030.35 -449.63 3783
1039.39 -449.63 3783
1058.14 -453.79 3818
1072.02 -455.811 3835
1083.73 -456.88 3844
1092.92 -456.88 3844
1107.27 -459.02 3862
1116.51 -459.02 3862
1133.61 -462.229 3889
1142.91 -462.229 3889
1154.88 -463.298 3898
1169.58 -465.438 3916
1178.94 -465.438 3916
1188.31 -465.438 3916
1192.16 -463.298 3898
1195.94 -461.159 3880
1205.22 -461.159 3880
1214.49 -461.159 3880
1218.1 -459.02 3862
1224.47 -457.95 3853
1245.21 -462.229 3889
1254.51 -462.229 3889
1263.81 -462.229 3889
1264.27 -459.02 3862
1273.51 -459.02 3862
1282.74 -459.02 3862
1291.98 -459.02 3862
1301.21 -459.02 3862
1322.66 -463.298 3898
1335.06 -464.368 3907
1344.4 -464.368 3907
1353.75 -464.368 3907
1353.67 -461.159 3880
1362.95 -461.159 3880
1372.22 -461.159 3880
1387.91 -463.298 3898
1400.46 -464.368 3907
1419.91 -467.696 3935
1429.32 -467.696 3935
1448.96 -471.024 3963
1468.74 -474.352 3991
1478.29 -474.352 3991
1487.83 -474.352 3991
1497.38 -474.352 3991
1514.09 -476.61 4010
1542.3 -482.434 4059
1559.65 -484.811 4079
1569.41 -484.811 4079
1579.16 -484.811 4079
1768.82 -486 4089
1778.59 -486 4089
1788.37 -486 4089
1793.75 -484.811 4079
1803.51 -484.811 4079
1795.48 -480.057 4039
1801.12 -478.987 4030
1806.26 -477.799 4020
1815.87 -477.799 4020
1820.94 -476.61 4010
1817.75 -473.282 3982
1827.27 -473.282 3982
1836.8 -473.282 3982
1846.32 -473.282 3982
1855.84 -473.282 3982
2300.89 -455.811 3835
2315.48 -456.88 3844
2368.21 -465.438 3916
2377.58 -465.438 3916
2409.49 -469.835 3953
2418.95 -469.835 3953
2428.4 -469.835 3953
2437.85 -469.835 3953
2441.73 -468.766 3944
2462.97 -471.024 3963
2472.45 -471.024 3963
2481.93 -471.024 3963
2503.35 -473.282 3982
2512.87 -473.282 3982
2522.39 -473.282 3982
2531.91 -473.282 3982
2535.05 -472.094 3972
2497.15 -463.298 3898
2506.47 -463.298 3898
2504.17 -461.159 3880
2513.45 -461.159 3880
2516.88 -460.089 3871
2526.13 -460.089 3871
2535.39 -460.089 3871
2544.65 -460.089 3871
2518.94 -453.79 3818
2528.07 -453.79 3818
2584.38 -462.229 3889
2593.68 -462.229 3889
2615.03 -464.368 3907
2630.41 -465.438 3916
2639.78 -465.438 3916
2649.14 -465.438 3916
2664.62 -466.508 3925
2674 -466.508 3925
2683.39 -466.508 3925
2680.43 -464.368 3907
2671.18 -461.159 3880
2711.54 -463.298 3898
2720.86 -463.298 3898
2730.18 -463.298 3898
2726.85 -461.159 3880
2736.13 -461.159 3880
2719.93 -456.88 3844
2800.12 -468.766 3944
2829.5 -472.094 3972
2859.73 -475.54 4001
2869.29 -475.54 4001
2878.86 -475.54 4001
2853.78 -469.835 3953
2863.23 -469.835 3953
2845.79 -465.438 3916
2828.91 -461.159 3880
2871.11 -466.508 3925
2901.04 -469.835 3953
2938.47 -474.352 3991
2948.02 -474.352 3991
2957.56 -474.352 3991
2967.1 -474.352 3991
2976.65 -474.352 3991
2979.46 -473.282 3982
2960.46 -468.766 3944
2969.89 -468.766 3944
2986.12 -469.835 3953
2995.57 -469.835 3953
3005.02 -469.835 3953
3028.96 -472.094 3972
3038.46 -472.094 3972
-2384.14 -407.26 3497
-2406.35 -412.501 3542
-2397.88 -412.501 3542
-2399.53 -414.248 3557
-2391.03 -414.248 3557
-2397.93 -416.926 3580
-2389.36 -416.926 3580
-2386.12 -417.858 3588
-2413.33 -424.147 3642
-2404.62 -424.147 3642
-2395.91 -424.147 3642
-2387.2 -424.147 3642
-2394.82 -427.058 3667
-2386.05 -427.058 3667
-2392.84 -429.854 3691
-2394.35 -431.717 3707
-2385.48 -431.717 3707
-2376.62 -431.717 3707
-2367.75 -431.717 3707
-2343.62 -428.922 3683
-2313.89 -425.079 3650
-2305.16 -425.079 3650
-2276.93 -421.468 3619
-2258.25 -419.605 3603
-2244.63 -418.673 3595
-2236.04 -418.673 3595
-674.248 -217.314 1866
-669.786 -217.314 1866
-665.324 -217.314 1866
-660.862 -217.314 1866
-653.585 -216.383 1858
-646.347 -215.451 1850
-641.923 -215.451 1850
-633.709 -214.17 1839
-626.574 -213.238 1831
-622.195 -213.238 1831
-617.817 -213.238 1831
-612.768 -213.005 1829
-607.064 -212.539 1825
-600.718 -211.841 1819
-596.369 -211.841 1819
-588.764 -210.676 1809
-582.177 -209.861 1802
-574.661 -208.696 1792
-569.102 -208.23 1788
-564.827 -208.23 1788
-557.103 -206.949 1777
-549.12 -205.552 1765
-541.503 -204.271 1754
-537.309 -204.271 1754
-530.379 -203.223 1745
-524.095 -202.407 1738
-518.743 -201.941 1734
-514.596 -201.941 1734
-509.861 -201.709 1732
-503.675 -200.893 1725
-498.971 -200.66 1723
-494.851 -200.66 1723
-490.446 -200.544 1722
-485.763 -200.311 1720
-481.65 -200.311 1720
-476.982 -200.078 1718
-472.874 -200.078 1718
-468.22 -199.845 1716
-463.846 -199.729 1715
-459.208 -199.496 1713
-455.112 -199.496 1713
-450.489 -199.263 1711
-445.876 -199.03 1709
-441.531 -198.914 1708
-437.446 -198.914 1708
-432.854 -198.681 1706
-428.272 -198.448 1704
-424.197 -198.448 1704
-420.123 -198.448 1704
-415.315 -198.098 1701
-411.248 -198.098 1701
-406.701 -197.865 1699
-402.639 -197.865 1699
-398.107 -197.632 1697
-393.584 -197.4 1695
-389.301 -197.283 1694
-385.25 -197.283 1694
-380.299 -196.817 1690
-376.035 -196.701 1689
-371.115 -196.235 1685
-367.086 -196.235 1685
-362.626 -196.002 1683
-358.388 -195.886 1682
-353.945 -195.653 1680
-349.302 -195.303 1677
-345.292 -195.303 1677
-341.282 -195.303 1677
-337.272 -195.303 1677
-332.864 -195.07 1675
-328.859 -195.07 1675
-324.853 -195.07 1675
-320.465 -194.837 1673
-316.464 -194.837 1673
-312.463 -194.837 1673
-308.278 -194.721 1672
-304.28 -194.721 1672
-300.282 -194.721 1672
-296.284 -194.721 1672
-292.285 -194.721 1672
-287.942 -194.488 1670
-283.949 -194.488 1670
-279.955 -194.488 1670
-275.631 -194.255 1668
-271.968 -194.488 1670
-268.456 -194.837 1673
-264.456 -194.837 1673
-260.455 -194.837 1673
-256.761 -195.07 1675
-252.755 -195.07 1675
-249.493 -195.653 1680
-245.475 -195.653 1680
-241.745 -195.886 1682
-237.864 -196.002 1683
-234.812 -196.817 1690
-230.771 -196.817 1690
-226.998 -197.05 1692
-223.347 -197.4 1695
-220.2 -198.215 1702
-216.13 -198.215 1702
-213.181 -199.263 1711
-209.578 -199.729 1715
-206.076 -200.311 1720
-201.963 -200.311 1720
-198.195 -200.66 1723
-195.089 -201.709 1732
-191.168 -201.941 1734
-187.021 -201.941 1734
-183.085 -202.174 1736
-179.14 -202.407 1738
-175.286 -202.757 1741
-171.32 -202.99 1743
-167.152 -202.99 1743
-163.358 -203.455 1747
-159.18 -203.455 1747
-155.002 -203.455 1747
-150.825 -203.455 1747
-146.815 -203.688 1749
-142.633 -203.688 1749
-138.45 -203.688 1749
-134.268 -203.688 1749
-130.085 -203.688 1749
-125.471 -202.99 1743
-121.303 -202.99 1743
-117.001 -202.757 1741
-112.643 -202.407 1738
-108.487 -202.407 1738
-104.331 -202.407 1738
-100.059 -202.174 1736
-95.9082 -202.174 1736
-91.7569 -202.174 1736
-87.6056 -202.174 1736
-83.3581 -201.941 1734
-79.3029 -202.174 1736
-75.1516 -202.174 1736
-71.0003 -202.174 1736
-66.849 -202.174 1736
-62.6977 -202.174 1736
-58.5464 -202.174 1736
-54.3951 -202.174 1736
-50.1859 -201.941 1734
-46.0394 -201.941 1734
-41.9412 -202.174 1736
-37.7899 -202.174 1736
-33.6774 -202.407 1738
-29.5213 -202.407 1738
-25.409 -202.757 1741
-21.2945 -203.223 1745
-17.1217 -203.223 1745
-12.9489 -203.223 1745
-8.77607 -203.223 1745
34.6277 -432.765 3716
43.6075 -433.697 3724
52.6255 -434.628 3732
61.5499 -434.628 3732
70.4742 -434.628 3732
79.3985 -434.628 3732
88.3229 -434.628 3732
97.0388 -433.697 3724
105.716 -432.765 3716
114.325 -431.717 3707
123.189 -431.717 3707
131.769 -430.785 3699
140.614 -430.785 3699
149.137 -429.854 3691
157.963 -429.854 3691
166.428 -428.922 3683
174.854 -427.99 3675
183.243 -427.058 3667
192.011 -427.058 3667
199.85 -425.079 3650
208.578 -425.079 3650
216.83 -424.147 3642
225.539 -424.147 3642
234.248 -424.147 3642
242.49 -423.332 3635
250.63 -422.4 3627
259.303 -422.4 3627
267.976 -422.4 3627
275.429 -420.537 3611
284.693 -421.468 3619
293.996 -422.4 3627
303.921 -424.147 3642
312.63 -424.147 3642
321.339 -424.147 3642
330.773 -425.079 3650
340.246 -426.01 3658
348.993 -426.01 3658
357.741 -426.01 3658
366.488 -426.01 3658
375.235 -426.01 3658
383.143 -425.079 3650
391.012 -424.147 3642
399.721 -424.147 3642
408.431 -424.147 3642
417.14 -424.147 3642
425.849 -424.147 3642
435.513 -425.079 3650
446.31 -427.058 3667
457.064 -428.922 3683
465.872 -428.922 3683
475.71 -429.854 3691
486.636 -431.717 3707
495.501 -431.717 3707
504.366 -431.717 3707
513.23 -431.717 3707
522.095 -431.717 3707
530.959 -431.717 3707
539.824 -431.717 3707
547.504 -430.785 3699
994.228 -444.644 3818
1005.46 -445.576 3826
1014.61 -445.576 3826
1023.76 -445.576 3826
1032.91 -445.576 3826
1042.06 -445.576 3826
1051.21 -445.576 3826
1065.34 -447.672 3844
1087.11 -452.913 3889
1096.41 -452.913 3889
1105.71 -452.913 3889
1117.59 -453.961 3898
1126.92 -453.961 3898
1141.48 -456.057 3916
1150.85 -456.057 3916
1160.21 -456.057 3916
1172.26 -457.105 3925
1181.65 -457.105 3925
1191.04 -457.105 3925
1200.42 -457.105 3925
1204.26 -455.009 3907
1213.6 -455.009 3907
1222.95 -455.009 3907
1229.45 -453.961 3898
1238.77 -453.961 3898
1253.86 -456.057 3916
1263.22 -456.057 3916
1272.58 -456.057 3916
1281.95 -456.057 3916
1288.35 -455.009 3907
1297.69 -455.009 3907
1294.99 -450.816 3871
1304.24 -450.816 3871
1319.61 -452.913 3889
1331.98 -453.961 3898
1341.31 -453.961 3898
1350.63 -453.961 3898
1356.81 -452.913 3889
1366.11 -452.913 3889
1375.41 -452.913 3889
1387.91 -453.961 3898
1410.5 -458.27 3935
1423.15 -459.318 3944
1432.58 -459.318 3944
1448.96 -461.531 3963
1461.75 -462.579 3972
1474.95 -463.743 3982
1484.48 -463.743 3982
1494 -463.743 3982
1514.09 -467.004 4010
1534.7 -470.382 4039
1559.65 -475.04 4079
1569.41 -475.04 4079
1579.16 -475.04 4079
1768.82 -476.205 4089
1778.59 -476.205 4089
1788.37 -476.205 4089
1789.36 -473.875 4069
1799.09 -473.875 4069
1799.93 -471.546 4049
1801.12 -469.333 4030
1806.26 -468.169 4020
1815.87 -468.169 4020
1808.23 -463.743 3982
1813.19 -462.579 3972
1822.69 -462.579 3972
1832.18 -462.579 3972
1841.68 -462.579 3972
1833.94 -458.27 3935
2338.68 -453.961 3898
2353.43 -455.009 3907
2385.15 -459.318 3944
2394.58 -459.318 3944
2415.59 -461.531 3963
2430.57 -462.579 3972
2440.07 -462.579 3972
2449.57 -462.579 3972
2459.07 -462.579 3972
2468.57 -462.579 3972
2484.3 -463.743 3982
2493.83 -463.743 3982
2509.01 -464.791 3991
2518.55 -464.791 3991
2528.09 -464.791 3991
2531.91 -463.743 3982
2535.05 -462.579 3972
2497.15 -453.961 3898
2506.47 -453.961 3898
2504.17 -451.864 3880
2513.45 -451.864 3880
2516.88 -450.816 3871
2526.13 -450.816 3871
2535.39 -450.816 3871
2544.65 -450.816 3871
2524.21 -445.576 3826
2557.2 -449.768 3862
2584.38 -452.913 3889
2593.68 -452.913 3889
2615.03 -455.009 3907
2630.41 -456.057 3916
2652.59 -458.27 3935
2662 -458.27 3935
2683.63 -460.366 3953
2693.08 -460.366 3953
2702.53 -460.366 3953
2692.77 -457.105 3925
2695.96 -456.057 3916
2718.46 -458.27 3935
2753.51 -462.579 3972
2763.01 -462.579 3972
2772.51 -462.579 3972
2782.01 -462.579 3972
2739.5 -453.961 3898
2781.26 -459.318 3944
2790.69 -459.318 3944
2820 -462.579 3972
2856.57 -467.004 4010
2866.16 -467.004 4010
2875.75 -467.004 4010
2885.34 -467.004 4010
2888.43 -465.956 4001
2898 -465.956 4001
2893.76 -463.743 3982
2903.28 -463.743 3982
2919.39 -464.791 3991
2950.21 -468.169 4020
2981.18 -471.546 4049
2990.86 -471.546 4049
3000.54 -471.546 4049
3010.22 -471.546 4049
3019.91 -471.546 4049
2993.67 -465.956 4001
2967.21 -460.366 3953
2984.19 -461.531 3963
3014.82 -464.791 3991
3024.37 -464.791 3991
3033.91 -464.791 3991
3051.08 -465.956 4001
3060.65 -465.956 4001
-2384.14 -398.883 3497
-2406.35 -404.016 3542
-2397.88 -404.016 3542
-2399.53 -405.727 3557
-2396.4 -406.64 3565
-2403.28 -409.263 3588
-2394.7 -409.263 3588
-2386.12 -409.263 3588
-2413.33 -415.423 3642
-2404.62 -415.423 3642
-2406.43 -417.248 3658
-2397.69 -417.248 3658
-2394.82 -418.274 3667
-2386.05 -418.274 3667
-2398.02 -421.924 3699
-2405.33 -424.776 3724
-2396.42 -424.776 3724
-2387.52 -424.776 3724
-2373.5 -423.863 3716
-2348.71 -421.012 3691
-2313.89 -416.335 3650
-2305.16 -416.335 3650
-2281.96 -413.712 3627
-2258.25 -410.974 3603
-2244.63 -410.061 3595
-2236.04 -410.061 3595
-674.248 -212.844 1866
-669.786 -212.844 1866
-665.324 -212.844 1866
-658.028 -211.932 1858
-652.178 -211.475 1854
-645.299 -210.677 1847
-640.882 -210.677 1847
-633.709 -209.764 1839
-626.574 -208.852 1831
-622.195 -208.852 1831
-617.817 -208.852 1831
-612.768 -208.624 1829
-607.064 -208.168 1825
-600.718 -207.483 1819
-596.369 -207.483 1819
-588.764 -206.342 1809
-582.177 -205.544 1802
-574.661 -204.403 1792
-569.102 -203.947 1788
-564.827 -203.947 1788
-556.476 -202.464 1775
-548.498 -201.096 1763
-540.577 -199.727 1751
-536.39 -199.727 1751
-529.163 -198.586 1741
-524.095 -198.244 1738
-518.743 -197.788 1734
-514.596 -197.788 1734
-509.566 -197.445 1731
-503.675 -196.761 1725
-498.971 -196.533 1723
-494.851 -196.533 1723
-490.446 -196.419 1722
-485.763 -196.191 1720
-481.65 -196.191 1720
-476.982 -195.963 1718
-472.874 -195.963 1718
-468.22 -195.734 1716
-463.846 -195.62 1715
-459.208 -195.392 1713
-455.112 -195.392 1713
-450.489 -195.164 1711
-445.876 -194.936 1709
-441.531 -194.822 1708
-437.446 -194.822 1708
-432.854 -194.594 1706
-428.272 -194.366 1704
-424.197 -194.366 1704
-420.123 -194.366 1704
-415.315 -194.024 1701
-411.248 -194.024 1701
-406.701 -193.795 1699
-402.639 -193.795 1699
-398.107 -193.567 1697
-393.584 -193.339 1695
-389.301 -193.225 1694
-385.25 -193.225 1694
-380.299 -192.769 1690
-376.035 -192.655 1689
-371.115 -192.199 1685
-367.086 -192.199 1685
-362.626 -191.97 1683
-357.962 -191.628 1680
-353.945 -191.628 1680
-349.302 -191.286 1677
-345.292 -191.286 1677
-340.875 -191.058 1675
-336.87 -191.058 1675
-332.864 -191.058 1675
-328.859 -191.058 1675
-324.465 -190.83 1673
-320.465 -190.83 1673
-316.464 -190.83 1673
-312.463 -190.83 1673
-308.278 -190.716 1672
-304.28 -190.716 1672
-300.282 -190.716 1672
-296.284 -190.716 1672
-292.285 -190.716 1672
-287.942 -190.488 1670
-283.609 -190.259 1668
-279.955 -190.488 1670
-275.962 -190.488 1670
-271.968 -190.488 1670
-268.456 -190.83 1673
-264.456 -190.83 1673
-260.455 -190.83 1673
-256.761 -191.058 1675
-252.755 -191.058 1675
-249.493 -191.628 1680
-245.475 -191.628 1680
-241.745 -191.856 1682
-237.864 -191.97 1683
-234.812 -192.769 1690
-230.771 -192.769 1690
-226.998 -192.997 1692
-223.347 -193.339 1695
-220.2 -194.138 1702
-216.13 -194.138 1702
-213.181 -195.164 1711
-209.701 -195.734 1716
-206.076 -196.191 1720
-201.963 -196.191 1720
-198.195 -196.533 1723
-194.751 -197.217 1729
-190.947 -197.56 1732
-186.805 -197.56 1732
-183.085 -198.016 1736
-179.14 -198.244 1738
-175.286 -198.586 1741
-171.32 -198.814 1743
-167.152 -198.814 1743
-163.358 -199.27 1747
-159.18 -199.27 1747
-155.002 -199.27 1747
-150.825 -199.27 1747
-146.647 -199.27 1747
-142.633 -199.499 1749
-138.45 -199.499 1749
-134.268 -199.499 1749
-130.085 -199.499 1749
-125.471 -198.814 1743
-121.303 -198.814 1743
-117.001 -198.586 1741
-112.643 -198.244 1738
-108.487 -198.244 1738
-104.331 -198.244 1738
-100.059 -198.016 1736
-95.9082 -198.016 1736
-91.6511 -197.788 1734
-87.5046 -197.788 1734
-83.3581 -197.788 1734
-79.2116 -197.788 1734
-75.1516 -198.016 1736
-71.0003 -198.016 1736
-66.849 -198.016 1736
-62.6977 -198.016 1736
-58.5464 -198.016 1736
-54.3951 -198.016 1736
-50.1859 -197.788 1734
-46.0925 -198.016 1736
-41.9412 -198.016 1736
-37.7899 -198.016 1736
-33.7161 -198.472 1740
-29.5553 -198.472 1740
-25.4382 -198.814 1743
-21.319 -199.27 1747
-17.1413 -199.27 1747
-12.9637 -199.27 1747
-8.78613 -199.27 1747
16.6696 -419.187 3675
25.4576 -419.187 3675
34.6277 -423.863 3716
43.6075 -424.776 3724
52.6255 -425.688 3732
61.5499 -425.688 3732
70.4742 -425.688 3732
79.2283 -424.776 3724
88.1336 -424.776 3724
97.0388 -424.776 3724
105.716 -423.863 3716
114.325 -422.837 3707
123.189 -422.837 3707
131.769 -421.924 3699
140.614 -421.924 3699
149.137 -421.012 3691
157.963 -421.012 3691
166.428 -420.099 3683
174.854 -419.187 3675
183.642 -419.187 3675
192.43 -419.187 3675
200.288 -417.248 3658
209.035 -417.248 3658
217.782 -417.248 3658
226.53 -417.248 3658
235.277 -417.248 3658
243.491 -416.335 3650
252.219 -416.335 3650
260.947 -416.335 3650
269.676 -416.335 3650
277.26 -414.624 3635
285.323 -413.712 3627
294.645 -414.624 3635
303.921 -415.423 3642
312.63 -415.423 3642
321.339 -415.423 3642
330.773 -416.335 3650
339.502 -416.335 3650
348.23 -416.335 3650
356.958 -416.335 3650
365.686 -416.335 3650
374.415 -416.335 3650
383.143 -416.335 3650
391.012 -415.423 3642
398.953 -414.624 3635
407.646 -414.624 3635
417.14 -415.423 3642
425.849 -415.423 3642
435.513 -416.335 3650
446.31 -418.274 3667
456.072 -419.187 3675
464.86 -419.187 3675
475.71 -421.012 3691
486.636 -422.837 3707
495.501 -422.837 3707
504.366 -422.837 3707
513.23 -422.837 3707
522.095 -422.837 3707
530.959 -422.837 3707
539.824 -422.837 3707
547.504 -421.924 3699
985.098 -435.498 3818
996.311 -436.41 3826
1012.56 -439.49 3853
1021.77 -439.49 3853
1033.39 -440.517 3862
1042.63 -440.517 3862
1051.86 -440.517 3862
1061.1 -440.517 3862
1077.81 -443.596 3889
1099.97 -448.843 3935
1109.38 -448.843 3935
1118.79 -448.843 3935
1128.2 -448.843 3935
1137.61 -448.843 3935
1147.02 -448.843 3935
1153.49 -447.703 3925
1162.88 -447.703 3925
1180.63 -450.897 3953
1190.08 -450.897 3953
1199.53 -450.897 3953
1208.99 -450.897 3953
1218.44 -450.897 3953
1227.89 -450.897 3953
1234.53 -449.87 3944
1237.97 -447.703 3925
1241.63 -445.65 3907
1256.74 -447.703 3925
1266.12 -447.703 3925
1275.51 -447.703 3925
1284.9 -447.703 3925
1291.31 -446.676 3916
1300.68 -446.676 3916
1307.03 -445.65 3907
1313.34 -444.623 3898
1322.66 -444.623 3898
1335.06 -445.65 3907
1344.4 -445.65 3907
1353.75 -445.65 3907
1359.95 -444.623 3898
1369.27 -444.623 3898
1378.59 -444.623 3898
1391.12 -445.65 3907
1413.72 -449.87 3944
1423.15 -449.87 3944
1432.58 -449.87 3944
1452.25 -453.064 3972
1461.75 -453.064 3972
1471.25 -453.064 3972
1480.75 -453.064 3972
1490.25 -453.064 3972
1506.92 -455.231 3991
1534.7 -460.706 4039
1559.65 -465.269 4079
1569.41 -465.269 4079
1583.03 -466.409 4089
1592.81 -466.409 4089
1602.59 -466.409 4089
1623.94 -464.128 4069
1633.67 -464.128 4069
1643.4 -464.128 4069
1653.13 -464.128 4069
1662.86 -464.128 4069
1672.59 -464.128 4069
1759.04 -466.409 4089
1768.82 -466.409 4089
1778.59 -466.409 4089
1788.37 -466.409 4089
1784.96 -462.987 4059
1794.66 -462.987 4059
1799.93 -461.847 4049
1801.12 -459.68 4030
1806.26 -458.539 4020
1815.87 -458.539 4020
1812.32 -455.231 3991
1817.75 -454.204 3982
1827.27 -454.204 3982
1836.8 -454.204 3982
1846.32 -454.204 3982
1855.84 -454.204 3982
2338.68 -444.623 3898
2358.85 -446.676 3916
2396.64 -452.037 3963
2406.11 -452.037 3963
2438.75 -456.372 4001
2448.32 -456.372 4001
2457.89 -456.372 4001
2467.45 -456.372 4001
2459.07 -453.064 3972
2468.57 -453.064 3972
2484.3 -454.204 3982
2493.83 -454.204 3982
2509.01 -455.231 3991
2518.55 -455.231 3991
2528.09 -455.231 3991
2531.91 -454.204 3982
2522.93 -450.897 3953
2497.15 -444.623 3898
2506.47 -444.623 3898
2504.17 -442.57 3880
2513.45 -442.57 3880
2528.58 -443.596 3889
2537.88 -443.596 3889
2547.18 -443.596 3889
2544.65 -441.543 3871
2524.21 -436.41 3826
2557.2 -440.517 3862
2602.32 -446.676 3916
2611.69 -446.676 3916
2621.05 -446.676 3916
2643.18 -448.843 3935
2671.46 -452.037 3963
2680.94 -452.037 3963
2690.42 -452.037 3963
2699.89 -452.037 3963
2709.37 -452.037 3963
2699.64 -448.843 3935
2695.96 -446.676 3916
2737.8 -452.037 3963
2786.79 -458.539 4020
2809.62 -460.706 4039
2819.28 -460.706 4039
2828.94 -460.706 4039
2838.59 -460.706 4039
2848.25 -460.706 4039
2837.39 -457.398 4010
2840.59 -456.372 4001
2856.57 -457.398 4010
2866.16 -457.398 4010
2875.75 -457.398 4010
2885.34 -457.398 4010
2888.43 -456.372 4001
2898 -456.372 4001
2900.3 -455.231 3991
2909.84 -455.231 3991
2926.7 -456.372 4001
2971.49 -461.847 4049
3003.26 -465.269 4079
3013.02 -465.269 4079
3022.77 -465.269 4079
3032.53 -465.269 4079
3042.28 -465.269 4079
3044.55 -464.128 4069
3003.24 -456.372 4001
3012.81 -456.372 4001
3022.38 -456.372 4001
3031.94 -456.372 4001
3041.51 -456.372 4001
3051.08 -456.372 4001
3060.65 -456.372 4001
-2372.66 -387.268 3468
-2384.14 -390.506 3497
-2400.92 -394.638 3534
-2392.47 -394.638 3534
-2399.53 -397.206 3557
-2396.4 -398.1 3565
-2403.28 -400.668 3588
-2394.7 -400.668 3588
-2386.12 -400.668 3588
-2413.33 -406.698 3642
-2404.62 -406.698 3642
-2406.43 -408.485 3658
-2397.69 -408.485 3658
-2394.82 -409.49 3667
-2386.05 -409.49 3667
-2419.42 -416.748 3732
-2421.47 -418.647 3749
-2412.51 -418.647 3749
-2403.54 -418.647 3749
-2383.72 -416.748 3732
-2364.61 -414.962 3716
-2355.73 -414.962 3716
-2310.21 -408.485 3658
-2301.47 -408.485 3658
-2253.23 -401.45 3595
-670.635 -207.257 1856
-666.197 -207.257 1856
-661.758 -207.257 1856
-656.612 -207.034 1854
-649.716 -206.252 1847
-644.6 -206.029 1845
-640.188 -206.029 1845
-633.709 -205.359 1839
-626.574 -204.466 1831
-622.195 -204.466 1831
-617.817 -204.466 1831
-612.098 -204.019 1827
-607.064 -203.796 1825
-600.718 -203.126 1819
-596.369 -203.126 1819
-588.764 -202.009 1809
-582.177 -201.227 1802
-574.661 -200.111 1792
-569.102 -199.664 1788
-564.827 -199.664 1788
-555.849 -197.989 1773
-548.187 -196.761 1762
-540.886 -195.644 1752
-536.696 -195.644 1752
-529.771 -194.639 1743
-524.698 -194.304 1740
-518.743 -193.634 1734
-514.596 -193.634 1734
-509.566 -193.299 1731
-503.675 -192.629 1725
-498.971 -192.405 1723
-494.851 -192.405 1723
-490.446 -192.294 1722
-485.763 -192.07 1720
-481.65 -192.07 1720
-476.982 -191.847 1718
-472.874 -191.847 1718
-468.22 -191.624 1716
-463.846 -191.512 1715
-459.208 -191.289 1713
-455.112 -191.289 1713
-450.489 -191.065 1711
-445.876 -190.842 1709
-441.531 -190.73 1708
-437.446 -190.73 1708
-432.854 -190.507 1706
-428.272 -190.284 1704
-423.7 -190.06 1702
-419.63 -190.06 1702
-415.315 -189.949 1701
-411.248 -189.949 1701
-406.701 -189.725 1699
-402.639 -189.725 1699
-398.107 -189.502 1697
-393.352 -189.167 1694
-388.841 -188.944 1692
-384.795 -188.944 1692
-380.749 -188.944 1692
-376.035 -188.609 1689
-371.556 -188.385 1687
-367.522 -188.385 1687
-363.057 -188.162 1685
-358.388 -187.827 1682
-353.945 -187.604 1680
-349.511 -187.38 1678
-345.498 -187.38 1678
-341.282 -187.269 1677
-336.87 -187.045 1675
-332.864 -187.045 1675
-328.859 -187.045 1675
-324.465 -186.822 1673
-320.465 -186.822 1673
-316.464 -186.822 1673
-312.463 -186.822 1673
-308.278 -186.71 1672
-304.28 -186.71 1672
-300.282 -186.71 1672
-296.284 -186.71 1672
-292.285 -186.71 1672
-287.942 -186.487 1670
-283.609 -186.264 1668
-279.955 -186.487 1670
-275.962 -186.487 1670
-271.968 -186.487 1670
-268.456 -186.822 1673
-264.456 -186.822 1673
-260.455 -186.822 1673
-256.761 -187.045 1675
-252.755 -187.045 1675
-249.493 -187.604 1680
-245.475 -187.604 1680
-241.745 -187.827 1682
-237.864 -187.939 1683
-234.812 -188.72 1690
-230.771 -188.72 1690
-226.998 -188.944 1692
-223.347 -189.279 1695
-220.2 -190.06 1702
-216.13 -190.06 1702
-213.181 -191.065 1711
-209.701 -191.624 1716
-206.076 -192.07 1720
-201.963 -192.07 1720
-198.195 -192.405 1723
-194.751 -193.076 1729
-190.947 -193.411 1732
-186.805 -193.411 1732
-183.085 -193.857 1736
-179.14 -194.081 1738
-175.488 -194.639 1743
-171.32 -194.639 1743
-167.152 -194.639 1743
-163.358 -195.086 1747
-159.18 -195.086 1747
-155.002 -195.086 1747
-150.825 -195.086 1747
-146.647 -195.086 1747
-142.633 -195.309 1749
-138.45 -195.309 1749
-134.268 -195.309 1749
-130.085 -195.309 1749
-125.471 -194.639 1743
-121.303 -194.639 1743
-117.001 -194.416 1741
-112.643 -194.081 1738
-108.487 -194.081 1738
-104.331 -194.081 1738
-100.059 -193.857 1736
-95.9082 -193.857 1736
-91.6511 -193.634 1734
-87.5046 -193.634 1734
-83.3581 -193.634 1734
-79.2116 -193.634 1734
-75.1516 -193.857 1736
-71.0821 -194.081 1738
-66.9261 -194.081 1738
-62.77 -194.081 1738
-58.5464 -193.857 1736
-54.3951 -193.857 1736
-50.2438 -193.857 1736
-46.0925 -193.857 1736
-41.9412 -193.857 1736
-37.8335 -194.081 1738
-33.7355 -194.416 1741
-29.5722 -194.416 1741
-25.4674 -194.862 1745
-21.319 -195.086 1747
-17.161 -195.309 1749
-12.9786 -195.309 1749
-8.79619 -195.309 1749
16.6696 -410.383 3675
25.4576 -410.383 3675
34.6277 -414.962 3716
43.6075 -415.855 3724
52.6255 -416.748 3732
61.5499 -416.748 3732
70.4742 -416.748 3732
79.2283 -415.855 3724
88.1336 -415.855 3724
97.0388 -415.855 3724
105.716 -414.962 3716
114.325 -413.957 3707
123.189 -413.957 3707
131.769 -413.063 3699
140.614 -413.063 3699
149.137 -412.17 3691
157.963 -412.17 3691
166.428 -411.277 3683
175.235 -411.277 3683
184.042 -411.277 3683
192.849 -411.277 3683
201.218 -410.383 3675
210.006 -410.383 3675
218.318 -409.49 3667
227.087 -409.49 3667
235.856 -409.49 3667
244.025 -408.485 3658
252.772 -408.485 3658
260.947 -407.591 3650
269.676 -407.591 3650
278.404 -407.591 3650
285.952 -405.916 3635
295.212 -406.698 3642
304.589 -407.591 3650
313.317 -407.591 3650
322.045 -407.591 3650
330.773 -407.591 3650
339.502 -407.591 3650
348.23 -407.591 3650
356.958 -407.591 3650
365.686 -407.591 3650
374.415 -407.591 3650
383.143 -407.591 3650
391.012 -406.698 3642
398.953 -405.916 3635
407.646 -405.916 3635
417.14 -406.698 3642
425.849 -406.698 3642
435.513 -407.591 3650
446.31 -409.49 3667
456.072 -410.383 3675
464.86 -410.383 3675
475.71 -412.17 3691
486.636 -413.957 3707
495.501 -413.957 3707
504.366 -413.957 3707
513.23 -413.957 3707
522.095 -413.957 3707
530.959 -413.957 3707
539.824 -413.957 3707
547.504 -413.063 3699
987.162 -427.245 3826
1017.4 -436.29 3907
1036.47 -440.422 3944
1045.9 -440.422 3944
1057.74 -441.427 3953
1067.19 -441.427 3953
1076.65 -441.427 3953
1086.1 -441.427 3953
1098.32 -442.544 3963
1113.11 -444.665 3982
1122.63 -444.665 3982
1132.16 -444.665 3982
1144.26 -445.671 3991
1153.8 -445.671 3991
1163.35 -445.671 3991
1172.89 -445.671 3991
1182.43 -445.671 3991
1191.98 -445.671 3991
1201.52 -445.671 3991
1211.06 -445.671 3991
1214.8 -443.549 3972
1221.52 -442.544 3963
1231 -442.544 3963
1237.34 -441.427 3953
1243.96 -440.422 3944
1241.63 -436.29 3907
1256.74 -438.3 3925
1266.12 -438.3 3925
1275.51 -438.3 3925
1284.9 -438.3 3925
1291.31 -437.295 3916
1306.99 -439.417 3935
1316.4 -439.417 3935
1325.81 -439.417 3935
1335.22 -439.417 3935
1344.63 -439.417 3935
1350.6 -438.3 3925
1359.98 -438.3 3925
1369.37 -438.3 3925
1378.75 -438.3 3925
1388.14 -438.3 3925
1404.29 -440.422 3944
1423.76 -443.549 3972
1433.26 -443.549 3972
1442.76 -443.549 3972
1462.86 -446.787 4001
1472.42 -446.787 4001
1481.99 -446.787 4001
1491.56 -446.787 4001
1501.13 -446.787 4001
1525.04 -451.031 4039
1542.3 -453.264 4059
1559.65 -455.497 4079
1569.41 -455.497 4079
1583.03 -456.614 4089
1592.81 -456.614 4089
1602.59 -456.614 4089
1623.94 -454.381 4069
1633.67 -454.381 4069
1643.4 -454.381 4069
1653.13 -454.381 4069
1662.86 -454.381 4069
1672.59 -454.381 4069
1674.05 -452.147 4049
1692.05 -454.381 4069
1705.97 -455.497 4079
1715.72 -455.497 4079
1725.47 -455.497 4079
1759.04 -456.614 4089
1768.82 -456.614 4089
1778.59 -456.614 4089
1788.37 -456.614 4089
1784.96 -453.264 4059
1794.66 -453.264 4059
1799.93 -452.147 4049
1801.12 -450.026 4030
1806.26 -448.909 4020
1815.87 -448.909 4020
1812.32 -445.671 3991
1817.75 -444.665 3982
1827.27 -444.665 3982
1836.8 -444.665 3982
1846.32 -444.665 3982
1855.84 -444.665 3982
2329.36 -435.285 3898
2366.28 -440.422 3944
2375.71 -440.422 3944
2413.57 -445.671 3991
2423.11 -445.671 3991
2438.75 -446.787 4001
2448.32 -446.787 4001
2457.89 -446.787 4001
2467.45 -446.787 4001
2459.07 -443.549 3972
2468.57 -443.549 3972
2484.3 -444.665 3982
2493.83 -444.665 3982
2509.01 -445.671 3991
2518.55 -445.671 3991
2528.09 -445.671 3991
2531.91 -444.665 3982
2522.93 -441.427 3953
2497.15 -435.285 3898
2506.47 -435.285 3898
2504.17 -433.275 3880
2513.45 -433.275 3880
2528.58 -434.28 3889
2537.88 -434.28 3889
2547.18 -434.28 3889
2544.65 -432.27 3871
2547.97 -431.265 3862
2575.08 -434.28 3889
2602.32 -437.295 3916
2611.69 -437.295 3916
2633.77 -439.417 3935
2649.22 -440.422 3944
2684.27 -444.665 3982
2693.79 -444.665 3982
2703.31 -444.665 3982
2712.84 -444.665 3982
2722.36 -444.665 3982
2711.98 -441.427 3953
2721.44 -441.427 3953
2770.27 -447.792 4010
2820.76 -454.381 4069
2830.49 -454.381 4069
2840.22 -454.381 4069
2849.95 -454.381 4069
2838.59 -451.031 4039
2848.25 -451.031 4039
2844.47 -448.909 4020
2846.98 -447.792 4010
2856.57 -447.792 4010
2866.16 -447.792 4010
2875.75 -447.792 4010
2885.34 -447.792 4010
2888.43 -446.787 4001
2898 -446.787 4001
2900.3 -445.671 3991
2909.84 -445.671 3991
2926.7 -446.787 4001
2971.49 -452.147 4049
3003.26 -455.497 4079
3013.02 -455.497 4079
3022.77 -455.497 4079
3032.53 -455.497 4079
3042.28 -455.497 4079
3044.55 -454.381 4069
3003.24 -446.787 4001
3012.81 -446.787 4001
3022.38 -446.787 4001
3031.94 -446.787 4001
3041.51 -446.787 4001
3051.08 -446.787 4001
3060.65 -446.787 4001
-2356.72 -358.854 3284
-2348.87 -358.854 3284
-2341.02 -358.854 3284
-2337.43 -359.509 3290
-2329.56 -359.509 3290
-2321.69 -359.509 3290
-2372.66 -378.96 3468
-2384.14 -382.129 3497
-2400.92 -386.172 3534
-2392.47 -386.172 3534
-2399.53 -388.685 3557
-2396.4 -389.56 3565
-2403.28 -392.073 3588
-2394.7 -392.073 3588
-2386.12 -392.073 3588
-2413.33 -397.974 3642
-2404.62 -397.974 3642
-2406.43 -399.722 3658
-2397.69 -399.722 3658
-2394.82 -400.705 3667
-2386.05 -400.705 3667
-2419.42 -407.808 3732
-2432.45 -411.524 3766
-2423.45 -411.524 3766
-2414.44 -411.524 3766
-2394.58 -409.666 3749
-2364.61 -406.06 3716
-2355.73 -406.06 3716
-2315.9 -400.705 3667
-2301.47 -399.722 3658
-2253.23 -392.838 3595
-670.635 -202.811 1856
-666.197 -202.811 1856
-661.758 -202.811 1856
-656.612 -202.593 1854
-649.716 -201.828 1847
-644.6 -201.609 1845
-640.188 -201.609 1845
-633.709 -200.954 1839
-626.574 -200.08 1831
-622.195 -200.08 1831
-617.817 -200.08 1831
-612.098 -199.642 1827
-607.064 -199.424 1825
-600.718 -198.768 1819
-596.369 -198.768 1819
-588.764 -197.676 1809
-582.177 -196.911 1802
-575.302 -196.036 1794
-569.739 -195.599 1790
-565.459 -195.599 1790
-558.043 -194.507 1780
-549.742 -193.086 1767
-543.356 -192.321 1760
-539.147 -192.321 1760
-532.203 -191.338 1751
-525 -190.245 1741
-519.341 -189.699 1736
-515.19 -189.699 1736
-510.45 -189.48 1734
-504.259 -188.715 1727
-499.55 -188.497 1725
-495.425 -188.497 1725
-490.446 -188.169 1722
-486.328 -188.169 1722
-481.65 -187.95 1720
-476.982 -187.732 1718
-472.874 -187.732 1718
-468.22 -187.513 1716
-463.846 -187.404 1715
-459.208 -187.185 1713
-455.112 -187.185 1713
-450.489 -186.967 1711
-445.876 -186.748 1709
-441.531 -186.639 1708
-437.446 -186.639 1708
-432.854 -186.42 1706
-428.272 -186.202 1704
-423.7 -185.983 1702
-419.63 -185.983 1702
-415.315 -185.874 1701
-411.248 -185.874 1701
-406.701 -185.655 1699
-402.639 -185.655 1699
-398.107 -185.437 1697
-393.352 -185.109 1694
-388.841 -184.891 1692
-384.795 -184.891 1692
-380.749 -184.891 1692
-376.035 -184.563 1689
-371.556 -184.344 1687
-367.522 -184.344 1687
-363.057 -184.126 1685
-358.388 -183.798 1682
-353.945 -183.579 1680
-349.927 -183.579 1680
-345.91 -183.579 1680
-341.282 -183.251 1677
-336.87 -183.033 1675
-332.864 -183.033 1675
-328.859 -183.033 1675
-324.465 -182.814 1673
-320.465 -182.814 1673
-316.464 -182.814 1673
-312.463 -182.814 1673
-308.278 -182.705 1672
-304.28 -182.705 1672
-300.282 -182.705 1672
-296.284 -182.705 1672
-292.285 -182.705 1672
-287.942 -182.487 1670
-283.949 -182.487 1670
-279.955 -182.487 1670
-275.962 -182.487 1670
-271.968 -182.487 1670
-268.456 -182.814 1673
-264.456 -182.814 1673
-260.455 -182.814 1673
-256.761 -183.033 1675
-252.755 -183.033 1675
-249.493 -183.579 1680
-245.475 -183.579 1680
-241.745 -183.798 1682
-237.864 -183.907 1683
-234.812 -184.672 1690
-230.771 -184.672 1690
