ply
format ascii 1.0
comment File generated
element vertex 2255
property float x
property float y
property float z
end_header
122.27 1179.79 2857
129.102 1179.79 2857
135.934 1179.79 2857
142.267 1175.66 2847
148.289 1169.47 2832
155.061 1169.47 2832
162.691 1175.66 2847
169.499 1175.66 2847
176.307 1175.66 2847
184.08 1181.86 2862
190.924 1181.86 2862
197.767 1181.86 2862
204.611 1181.86 2862
211.455 1181.86 2862
218.299 1181.86 2862
224.356 1177.73 2852
230.366 1173.6 2842
237.162 1173.6 2842
245.246 1179.79 2857
252.078 1179.79 2857
258.909 1179.79 2857
265.741 1179.79 2857
272.573 1179.79 2857
278.916 1177.73 2852
285.736 1177.73 2852
293.582 1181.86 2862
300.846 1183.51 2866
308.773 1187.64 2876
315.65 1187.64 2876
322.528 1187.64 2876
328.833 1185.57 2871
335.698 1185.57 2871
341.967 1183.51 2866
348.333 1181.86 2862
359.397 1195.9 2896
366.322 1195.9 2896
373.247 1195.9 2896
378.203 1189.7 2881
385.093 1189.7 2881
391.982 1189.7 2881
398.179 1187.64 2876
463.993 1146.34 2776
470.632 1146.34 2776
477.27 1146.34 2776
498.899 1181.86 2862
505.743 1181.86 2862
512.587 1181.86 2862
516.709 1175.66 2847
523.517 1175.66 2847
531.256 1177.73 2852
538.076 1177.73 2852
545.852 1179.79 2857
552.683 1179.79 2857
561.278 1183.51 2866
568.131 1183.51 2866
575.988 1185.57 2871
586.914 1193.83 2891
593.827 1193.83 2891
600.74 1193.83 2891
607.654 1193.83 2891
614.567 1193.83 2891
622.555 1195.9 2896
629.48 1195.9 2896
636.405 1195.9 2896
644.441 1197.96 2901
651.378 1197.96 2901
658.316 1197.96 2901
665.253 1197.96 2901
668.714 1191.77 2886
673.275 1187.64 2876
680.152 1187.64 2876
685.835 1185.57 2871
690.529 1181.86 2862
692.5 1173.6 2842
699.296 1173.6 2842
706.092 1173.6 2842
717.905 1181.86 2862
724.748 1181.86 2862
731.592 1181.86 2862
738.436 1181.86 2862
745.28 1181.86 2862
749.496 1177.73 2852
756.316 1177.73 2852
761.798 1175.66 2847
768.606 1175.66 2847
776.776 1177.73 2852
783.596 1177.73 2852
790.416 1177.73 2852
794.441 1173.6 2842
801.237 1173.6 2842
806.611 1171.53 2837
813.395 1171.53 2837
863.387 1165.75 2823
870.137 1165.75 2823
876.888 1165.75 2823
880.508 1161.62 2813
887.235 1161.62 2813
900 1169.47 2832
906.772 1169.47 2832
918.383 1175.66 2847
930.066 1181.86 2862
943.13 1189.7 2881
950.019 1189.7 2881
960.23 1193.83 2891
968.816 1195.9 2896
982.816 1204.57 2917
989.792 1204.57 2917
996.767 1204.57 2917
1003.74 1204.57 2917
1010.72 1204.57 2917
1013.86 1200.03 2906
1015.54 1193.83 2891
1010.42 1179.79 2857
1017.26 1179.79 2857
1022.3 1177.73 2852
1079.68 1219.43 2953
1086.75 1219.43 2953
1095.66 1221.5 2958
1102.73 1221.5 2958
1109.81 1221.5 2958
1116.88 1221.5 2958
1062.69 1140.56 2762
1076.26 1147.99 2780
1082.91 1147.99 2780
1089.56 1147.99 2780
1096.2 1147.99 2780
1102.85 1147.99 2780
1109.5 1147.99 2780
1121.77 1153.78 2794
1145.82 1171.53 2837
1152.6 1171.53 2837
1159.39 1171.53 2837
1168.23 1173.6 2842
1175.02 1173.6 2842
1181.82 1173.6 2842
1184.43 1169.47 2832
1283.68 1232.24 2984
1290.82 1232.24 2984
1297.95 1232.24 2984
1305.09 1232.24 2984
1305.19 1225.63 2968
1312.28 1225.63 2968
1319.38 1225.63 2968
1340.78 1238.84 3000
1347.95 1238.84 3000
1367.78 1250.41 3028
1380.01 1254.95 3039
1387.28 1254.95 3039
1394.55 1254.95 3039
1407.05 1152.12 2790
1418.28 1155.84 2799
1424.97 1155.84 2799
1431.67 1155.84 2799
1438.36 1155.84 2799
1457.44 1165.75 2823
1464.19 1165.75 2823
1470.95 1165.75 2823
1480.31 1167.82 2828
1491.81 1171.53 2837
1501.23 1173.6 2842
1508.03 1173.6 2842
1514.83 1173.6 2842
1511.45 1165.75 2823
1518.2 1165.75 2823
1514.69 1157.9 2804
1513.8 1152.12 2790
1567.33 1187.64 2876
1582.42 1193.83 2891
1589.34 1193.83 2891
1596.25 1193.83 2891
1603.16 1193.83 2891
1610.08 1193.83 2891
1733.22 1183.51 2866
1749.18 1189.7 2881
1765.22 1195.9 2896
1772.14 1195.9 2896
1782.14 1197.96 2901
1789.07 1197.96 2901
1796.01 1197.96 2901
1793.63 1191.77 2886
1794.29 1187.64 2876
1792.4 1181.86 2862
1799.24 1181.86 2862
1793.46 1173.6 2842
1800.26 1173.6 2842
1813.42 1177.73 2852
1829.17 1183.51 2866
1836.02 1183.51 2866
1849.31 1187.64 2876
1856.19 1187.64 2876
1863.06 1187.64 2876
1869.94 1187.64 2876
1852.83 1107.53 2682
1859.25 1107.53 2682
1880.96 1116.61 2704
1896.5 1121.98 2717
1903 1121.98 2717
1909.5 1121.98 2717
1916 1121.98 2717
-2002.21 1158.81 2790
-2001.97 1162.55 2799
-1995.28 1162.55 2799
-1988.59 1162.55 2799
-1985.43 1164.62 2804
-1978.73 1164.62 2804
-1972.02 1164.62 2804
-1955.51 1158.81 2790
-1941.85 1154.65 2780
-1935.2 1154.65 2780
-1925.78 1152.99 2776
-1404.27 1098.17 2644
-1397.95 1098.17 2644
-1402.68 1106.89 2665
-1398.4 1108.55 2669
-1412.36 1124.75 2708
-1405.88 1124.75 2708
-1420.08 1141.36 2748
-1413.51 1141.36 2748
-1406.94 1141.36 2748
-1400.36 1141.36 2748
-1393.79 1141.36 2748
-1373.51 1180.4 2842
-1366.71 1180.4 2842
-1359.92 1180.4 2842
-1162.14 1186.64 2857
-1155.3 1186.64 2857
-1148.47 1186.64 2857
-1116.47 1160.47 2794
-1109.79 1160.47 2794
-1103.1 1160.47 2794
-1096.42 1160.47 2794
-1089.74 1160.47 2794
-1035.24 1130.15 2721
-1042.35 1145.1 2757
-1037.63 1147.18 2762
-1031.03 1147.18 2762
-1031.1 1154.65 2780
-1028.14 1158.81 2790
-1021.46 1158.81 2790
-1014.79 1158.81 2790
-1008.12 1158.81 2790
-1001.45 1158.81 2790
-994.777 1158.81 2790
-984.563 1154.65 2780
-977.916 1154.65 2780
-960.088 1141.36 2748
-953.516 1141.36 2748
-945.567 1139.7 2744
-582.036 753.848 1815
-577.696 753.848 1815
-573.356 753.848 1815
-569.016 753.848 1815
-561.565 749.694 1805
-557.248 749.694 1805
-549.562 745.125 1794
-541.017 739.311 1780
-536.459 738.895 1779
-532.205 738.895 1779
-527.951 738.895 1779
-523.697 738.895 1779
-519.734 739.311 1780
-516.636 740.972 1784
-512.945 741.803 1786
-508.674 741.803 1786
-504.968 742.633 1788
-500.692 742.633 1788
-496.972 743.464 1790
-492.691 743.464 1790
-489.502 745.125 1794
-485.753 745.956 1796
-483.067 748.448 1802
-478.758 748.448 1802
-475.765 750.525 1807
-472.488 752.186 1811
-470.225 755.509 1819
-465.875 755.509 1819
-462.54 757.17 1823
-459.186 758.832 1827
-455.315 759.662 1829
-450.942 759.662 1829
-446.568 759.662 1829
-442.194 759.662 1829
-438.299 760.493 1831
-433.921 760.493 1831
-429.542 760.493 1831
-425.164 760.493 1831
-420.785 760.493 1831
-416.407 760.493 1831
-412.028 760.493 1831
-407.205 759.662 1829
-402.831 759.662 1829
-398.457 759.662 1829
-393.222 758.001 1825
-388.431 757.17 1823
-384.072 757.17 1823
-378.463 754.678 1817
-373.294 753.017 1813
-367.738 750.525 1807
-361.205 745.956 1796
-356.91 745.956 1796
-351.044 742.633 1788
-344.635 738.065 1777
-338.087 733.081 1765
-333.867 733.081 1765
-327.965 729.342 1756
-323.029 727.681 1752
-318.293 726.435 1749
-314.111 726.435 1749
-309.219 724.774 1745
-304.173 722.697 1740
-299.322 721.036 1736
-295.171 721.036 1736
-290.684 720.205 1734
-286.868 721.036 1736
-283.042 721.866 1738
-279.368 723.112 1741
-275.837 724.774 1745
-271.664 724.774 1745
-268.104 726.435 1749
-264.375 727.681 1752
-260.779 729.342 1756
-256.58 729.342 1756
-252.381 729.342 1756
-249.03 731.834 1762
-246.067 735.573 1771
-241.832 735.573 1771
-239.341 740.972 1784
-235.865 743.464 1790
-231.844 744.295 1792
-227.558 744.295 1792
-224.519 748.448 1802
-220.577 749.694 1805
-216.74 751.356 1809
-212.414 751.356 1809
-208.088 751.356 1809
-203.762 751.356 1809
-199.436 751.356 1809
-194.895 750.525 1807
-190.784 751.356 1809
-187.283 754.678 1817
-184.75 762.154 1835
-180.362 762.154 1835
-176.358 763.816 1839
-171.96 763.816 1839
-167.563 763.816 1839
-232.991 1186.64 2857
-226.159 1186.64 2857
-219.327 1186.64 2857
-212.495 1186.64 2857
-205.663 1186.64 2857
-198.831 1186.64 2857
-191.999 1186.64 2857
-186.075 1192.45 2871
-179.209 1192.45 2871
-172.344 1192.45 2871
-165.479 1192.45 2871
-158.613 1192.45 2871
-151.748 1192.45 2871
-144.63 1190.37 2866
-137.584 1188.71 2862
-130.74 1188.71 2862
-123.896 1188.71 2862
-116.234 1180.4 2842
-109.438 1180.4 2842
-102.642 1180.4 2842
-95.8462 1180.4 2842
-89.0501 1180.4 2842
-81.8488 1174.59 2828
-74.9535 1172.51 2823
-68.2028 1172.51 2823
-61.6481 1176.25 2832
-54.8759 1176.25 2832
-48.1037 1176.25 2832
-41.2732 1174.59 2828
-34.5106 1174.59 2828
-27.6989 1172.51 2823
-20.8741 1168.36 2813
-14.1725 1170.44 2818
-7.43378 1170.44 2818
-0.695092 1170.44 2818
6.05432 1172.51 2823
12.805 1172.51 2823
19.5556 1172.51 2823
26.3063 1172.51 2823
33.0569 1172.51 2823
39.7371 1170.44 2818
46.7066 1176.25 2832
53.4788 1176.25 2832
60.251 1176.25 2832
67.4965 1184.56 2852
74.4468 1186.64 2857
81.2787 1186.64 2857
88.1107 1186.64 2857
94.9426 1186.64 2857
101.418 1182.48 2847
108.607 1186.64 2857
115.438 1186.64 2857
122.27 1186.64 2857
129.102 1186.64 2857
135.934 1186.64 2857
142.267 1182.48 2847
148.289 1176.25 2832
155.061 1176.25 2832
162.691 1182.48 2847
169.499 1182.48 2847
176.307 1182.48 2847
184.08 1188.71 2862
190.924 1188.71 2862
197.767 1188.71 2862
204.611 1188.71 2862
211.455 1188.71 2862
218.299 1188.71 2862
224.356 1184.56 2852
230.366 1180.4 2842
237.162 1180.4 2842
245.246 1186.64 2857
252.078 1186.64 2857
258.909 1186.64 2857
265.741 1186.64 2857
272.573 1186.64 2857
278.916 1184.56 2852
285.736 1184.56 2852
293.582 1188.71 2862
300.846 1190.37 2866
308.773 1194.53 2876
315.65 1194.53 2876
322.528 1194.53 2876
328.833 1192.45 2871
335.698 1192.45 2871
341.967 1190.37 2866
348.333 1188.71 2862
359.397 1202.83 2896
366.322 1202.83 2896
373.247 1202.83 2896
378.203 1196.6 2881
385.093 1196.6 2881
391.982 1196.6 2881
398.179 1194.53 2876
458.014 1154.65 2780
466.333 1158.81 2790
473.005 1158.81 2790
479.677 1158.81 2790
498.899 1188.71 2862
505.743 1188.71 2862
512.587 1188.71 2862
516.709 1182.48 2847
523.517 1182.48 2847
531.256 1184.56 2852
538.076 1184.56 2852
545.852 1186.64 2857
552.683 1186.64 2857
561.278 1190.37 2866
568.131 1190.37 2866
575.988 1192.45 2871
586.914 1200.76 2891
593.827 1200.76 2891
600.74 1200.76 2891
607.654 1200.76 2891
614.567 1200.76 2891
622.555 1202.83 2896
629.48 1202.83 2896
636.405 1202.83 2896
644.441 1204.91 2901
651.378 1204.91 2901
658.316 1204.91 2901
665.253 1204.91 2901
668.714 1198.68 2886
673.275 1194.53 2876
680.152 1194.53 2876
685.835 1192.45 2871
690.529 1188.71 2862
692.5 1180.4 2842
699.296 1180.4 2842
706.092 1180.4 2842
715.396 1184.56 2852
723.482 1186.64 2857
730.314 1186.64 2857
737.146 1186.64 2857
743.978 1186.64 2857
748.182 1182.48 2847
754.99 1182.48 2847
761.798 1182.48 2847
768.606 1182.48 2847
776.776 1184.56 2852
783.596 1184.56 2852
790.416 1184.56 2852
794.441 1180.4 2842
799.827 1178.33 2837
806.611 1178.33 2837
813.395 1178.33 2837
820.18 1178.33 2837
822.883 1172.51 2823
860.328 1168.36 2813
867.055 1168.36 2813
873.782 1168.36 2813
874.561 1160.47 2794
884.397 1164.62 2804
892.691 1166.7 2809
899.408 1166.7 2809
907.415 1168.36 2813
917.392 1172.51 2823
931.999 1182.48 2847
938.807 1182.48 2847
956.908 1196.6 2881
967.143 1200.76 2891
974.056 1200.76 2891
980.969 1200.76 2891
993.008 1206.99 2906
999.957 1206.99 2906
1006.91 1206.99 2906
998.505 1188.71 2862
1005.35 1188.71 2862
998.4 1172.51 2823
1005.15 1172.51 2823
1011.9 1172.51 2823
1013.6 1166.7 2809
1033.98 1174.59 2828
1040.74 1174.59 2828
1093.81 1226.51 2953
1100.87 1226.51 2953
1107.93 1226.51 2953
1114.99 1226.51 2953
1079.88 1180.4 2842
1077.5 1170.44 2818
1082.31 1168.36 2813
1089.04 1168.36 2813
1086.8 1158.81 2790
1089.56 1154.65 2780
1094.63 1152.99 2776
1101.27 1152.99 2776
1107.9 1152.99 2776
1116.15 1154.65 2780
1138.14 1170.44 2818
1148.95 1174.59 2828
1155.71 1174.59 2828
1162.47 1174.59 2828
1165.1 1170.44 2818
1171.84 1170.44 2818
1178.58 1170.44 2818
1217.51 1188.71 2862
1230.34 1194.53 2876
1254.86 1211.56 2917
1266.16 1215.71 2927
1275.33 1217.79 2932
1286.72 1221.94 2942
1293.75 1221.94 2942
1300.79 1221.94 2942
1307.82 1221.94 2942
1317.09 1224.02 2947
1324.14 1224.02 2947
1338.42 1230.66 2963
1375.02 1257.66 3028
1382.26 1257.66 3028
1389.5 1257.66 3028
1357.07 1221.94 2942
1395.36 1154.65 2780
1407.05 1158.81 2790
1413.72 1158.81 2790
1420.39 1158.81 2790
1427.06 1158.81 2790
1433.73 1158.81 2790
1440.41 1158.81 2790
1454.34 1164.62 2804
1461.05 1164.62 2804
1472.46 1168.36 2813
1481.82 1170.44 2818
1488.56 1170.44 2818
1495.29 1170.44 2818
1502.03 1170.44 2818
1508.77 1170.44 2818
1515.51 1170.44 2818
1509.28 1160.47 2794
1513.8 1158.81 2790
1567.33 1194.53 2876
1582.42 1200.76 2891
1589.34 1200.76 2891
1596.25 1200.76 2891
1603.16 1200.76 2891
1610.08 1200.76 2891
1718.71 1180.4 2842
1728.54 1182.48 2847
1749.98 1192.45 2871
1756.84 1192.45 2871
1769.85 1196.6 2881
1776.74 1196.6 2881
1783.63 1196.6 2881
1784.3 1192.45 2871
1785.55 1188.71 2862
1779.87 1180.4 2842
1786.67 1180.4 2842
1787.15 1176.25 2832
1793.93 1176.25 2832
1800.7 1176.25 2832
1813.85 1180.4 2842
1820.65 1180.4 2842
1827.45 1180.4 2842
1849.73 1190.37 2866
1856.58 1190.37 2866
1863.44 1190.37 2866
1908.1 1147.18 2762
1914.7 1147.18 2762
1921.31 1147.18 2762
1909.07 1135.96 2735
1915.61 1135.96 2735
1922.15 1135.96 2735
1928.69 1135.96 2735
-1976.21 1124.13 2691
-1969.77 1124.13 2691
-1963.34 1124.13 2691
-1956.9 1124.13 2691
-1950.47 1124.13 2691
-2002.21 1165.49 2790
-2001.97 1169.25 2799
-1995.28 1169.25 2799
-1988.59 1169.25 2799
-1985.43 1171.34 2804
-1978.73 1171.34 2804
-1972.02 1171.34 2804
-1955.51 1165.49 2790
-1941.85 1161.31 2780
-1935.2 1161.31 2780
-1925.78 1159.64 2776
-1415.42 1113.27 2665
-1409.05 1113.27 2665
-1416.36 1124.13 2691
-1418.84 1131.24 2708
-1428.53 1144.19 2739
-1421.98 1144.19 2739
-1420.08 1147.95 2748
-1416.08 1150.03 2753
-1409.5 1150.03 2753
-1402.91 1150.03 2753
-1396.33 1150.03 2753
-1389.75 1150.03 2753
-1383.16 1150.03 2753
-1373.51 1187.21 2842
-1366.71 1187.21 2842
-1359.92 1187.21 2842
-1353.12 1187.21 2842
-1346.33 1187.21 2842
-1130.82 1161.31 2780
-1124.17 1161.31 2780
-1117.52 1161.31 2780
-1112.87 1163.4 2785
-1109.79 1167.16 2794
-1105.08 1169.25 2799
-1098.38 1169.25 2799
-1091.69 1169.25 2799
-1083.06 1167.16 2794
-1076.38 1167.16 2794
-1066.25 1163.4 2785
-1059.59 1163.4 2785
-1047.64 1157.55 2771
-1048.15 1165.49 2790
-1041.48 1165.49 2790
-1036.29 1167.16 2794
-1033.29 1171.34 2804
-1028.42 1173.43 2809
-1021.7 1173.43 2809
-1016.43 1175.1 2813
-1009.7 1175.1 2813
-1002.98 1175.1 2813
-993.063 1171.34 2804
-981.433 1165.49 2790
-971.268 1161.31 2780
-964.62 1161.31 2780
-946.945 1147.95 2748
-582.036 758.195 1815
-578.333 759.031 1817
-573.988 759.031 1817
-569.643 759.031 1817
-565.298 759.031 1817
-560.953 759.031 1817
-550.175 750.258 1796
-542.841 746.081 1786
-536.76 743.575 1780
-532.504 743.575 1780
-528.247 743.575 1780
-523.991 743.575 1780
-520.318 744.41 1782
-517.795 746.917 1788
-513.519 746.917 1788
-509.243 746.917 1788
-504.968 746.917 1788
-501.252 747.752 1790
-496.972 747.752 1790
-492.691 747.752 1790
-489.502 749.423 1794
-485.753 750.258 1796
-483.067 752.765 1802
-478.758 752.765 1802
-475.238 754.018 1805
-472.488 756.525 1811
-470.225 759.866 1819
-465.875 759.866 1819
-462.033 760.702 1821
-458.684 762.373 1825
-454.817 763.208 1827
-450.448 763.208 1827
-446.568 764.044 1829
-442.194 764.044 1829
-438.299 764.879 1831
-433.921 764.879 1831
-429.542 764.879 1831
-425.164 764.879 1831
-420.785 764.879 1831
-416.407 764.879 1831
-412.028 764.879 1831
-407.65 764.879 1831
-403.271 764.879 1831
-398.457 764.044 1829
-393.653 763.208 1827
-388.858 762.373 1825
-384.493 762.373 1825
-379.296 760.702 1821
-374.118 759.031 1817
-368.552 756.525 1811
-362.411 752.765 1802
-358.102 752.765 1802
-351.83 748.588 1792
-346.381 746.081 1786
-340.386 742.321 1777
-336.137 742.321 1777
-329.646 737.309 1765
-324.135 734.384 1758
-319.203 732.713 1754
-315.009 732.713 1754
-309.928 730.625 1749
-304.347 727.283 1741
-299.667 726.03 1738
-295.511 726.03 1738
-291.019 725.194 1736
-287.199 726.03 1738
-283.368 726.865 1740
-280.01 728.954 1745
-276.153 729.789 1747
-271.975 729.789 1747
-268.411 731.46 1751
-264.375 731.878 1752
-260.779 733.549 1756
-256.58 733.549 1756
-252.956 735.22 1760
-249.454 737.309 1765
-246.622 741.486 1775
-242.378 741.486 1775
-239.609 746.081 1786
-236.129 748.588 1792
-232.102 749.423 1794
-227.812 749.423 1794
-224.519 752.765 1802
-220.577 754.018 1805
-216.74 755.689 1809
-212.414 755.689 1809
-208.088 755.689 1809
-203.762 755.689 1809
-199.436 755.689 1809
-195.11 755.689 1809
-190.784 755.689 1809
-187.283 759.031 1817
-184.75 766.55 1835
-180.362 766.55 1835
-176.358 768.221 1839
-171.96 768.221 1839
-167.563 768.221 1839
-232.583 1191.39 2852
-225.763 1191.39 2852
-218.943 1191.39 2852
-212.123 1191.39 2852
-205.303 1191.39 2852
-198.135 1189.3 2847
-191.327 1189.3 2847
-185.167 1193.48 2857
-178.335 1193.48 2857
-171.504 1193.48 2857
-164.672 1193.48 2857
-157.84 1193.48 2857
-151.008 1193.48 2857
-143.923 1191.39 2852
-136.863 1189.3 2847
-129.827 1187.21 2842
-123.031 1187.21 2842
-116.234 1187.21 2842
-109.438 1187.21 2842
-102.137 1181.36 2828
-95.374 1181.36 2828
-88.6114 1181.36 2828
-81.4147 1175.1 2813
-74.5817 1173.43 2809
-67.9612 1175.1 2813
-61.3433 1177.19 2818
-54.6046 1177.19 2818
-47.8659 1177.19 2818
-41.1272 1177.19 2818
-34.3886 1177.19 2818
-27.6008 1175.1 2813
-20.8741 1175.1 2813
-14.1473 1175.1 2813
-7.42059 1175.1 2813
-0.693859 1175.1 2813
6.0436 1177.19 2818
12.7823 1177.19 2818
19.521 1177.19 2818
26.2597 1177.19 2818
32.9984 1177.19 2818
39.6101 1173.43 2809
46.3273 1173.43 2809
53.2144 1177.19 2818
59.9531 1177.19 2818
67.0232 1183.04 2832
74.0559 1187.21 2842
80.852 1187.21 2842
87.6481 1187.21 2842
94.4442 1187.21 2842
101.062 1185.12 2837
107.846 1185.12 2837
114.428 1183.04 2832
121.201 1183.04 2832
127.973 1183.04 2832
134.745 1183.04 2832
140.817 1177.19 2818
147.556 1177.19 2818
154.569 1179.28 2823
161.605 1181.36 2828
168.368 1181.36 2828
176.307 1189.3 2847
183.115 1189.3 2847
189.923 1189.3 2847
196.731 1189.3 2847
203.539 1189.3 2847
210.347 1189.3 2847
217.155 1189.3 2847
223.57 1187.21 2842
229.231 1181.36 2828
235.994 1181.36 2828
243.1 1183.04 2832
250.313 1185.12 2837
257.097 1185.12 2837
263.881 1185.12 2837
270.665 1185.12 2837
277.449 1185.12 2837
284.234 1185.12 2837
291.531 1187.21 2842
300.426 1195.57 2862
307.27 1195.57 2862
314.114 1195.57 2862
320.958 1195.57 2862
327.802 1195.57 2862
334.646 1195.57 2862
340.296 1191.39 2852
345.899 1187.21 2842
352.695 1187.21 2842
359.491 1187.21 2842
366.288 1187.21 2842
375.709 1195.57 2862
382.553 1195.57 2862
389.397 1195.57 2862
396.241 1195.57 2862
452.99 1165.49 2790
459.662 1165.49 2790
466.333 1165.49 2790
473.005 1165.49 2790
480.365 1167.16 2794
489.661 1173.43 2809
496.378 1173.43 2809
503.095 1173.43 2809
522.597 1187.21 2842
530.325 1189.3 2847
537.133 1189.3 2847
545.852 1193.48 2857
552.683 1193.48 2857
561.278 1197.24 2866
568.131 1197.24 2866
575.988 1199.33 2871
586.914 1207.68 2891
593.827 1207.68 2891
600.74 1207.68 2891
607.654 1207.68 2891
614.567 1207.68 2891
622.555 1209.77 2896
629.48 1209.77 2896
636.405 1209.77 2896
644.441 1211.86 2901
651.378 1211.86 2901
658.316 1211.86 2901
665.253 1211.86 2901
668.714 1205.59 2886
673.275 1201.42 2876
680.152 1201.42 2876
685.835 1199.33 2871
690.529 1195.57 2862
692.5 1187.21 2842
699.296 1187.21 2842
706.092 1187.21 2842
715.396 1191.39 2852
723.482 1193.48 2857
730.314 1193.48 2857
737.146 1193.48 2857
743.978 1193.48 2857
748.182 1189.3 2847
754.99 1189.3 2847
761.798 1189.3 2847
768.606 1189.3 2847
776.776 1191.39 2852
783.596 1191.39 2852
790.416 1191.39 2852
794.441 1187.21 2842
799.827 1185.12 2837
806.611 1185.12 2837
813.395 1185.12 2837
820.18 1185.12 2837
822.883 1179.28 2823
860.328 1175.1 2813
867.055 1175.1 2813
873.782 1175.1 2813
874.561 1167.16 2794
884.397 1171.34 2804
892.691 1173.43 2809
899.408 1173.43 2809
907.415 1175.1 2813
917.392 1179.28 2823
931.999 1189.3 2847
938.807 1189.3 2847
956.908 1203.5 2881
967.143 1207.68 2891
974.056 1207.68 2891
980.969 1207.68 2891
993.008 1213.95 2906
999.957 1213.95 2906
1006.91 1213.95 2906
998.505 1195.57 2862
1005.35 1195.57 2862
998.4 1179.28 2823
1005.15 1179.28 2823
1011.9 1179.28 2823
1013.6 1173.43 2809
1008.33 1159.64 2776
1033.98 1181.36 2828
1040.74 1181.36 2828
1093.81 1233.58 2953
1100.87 1233.58 2953
1107.93 1233.58 2953
1114.99 1233.58 2953
1079.88 1187.21 2842
1077.5 1177.19 2818
1082.31 1175.1 2813
1089.04 1175.1 2813
1086.8 1165.49 2790
1089.56 1161.31 2780
1094.63 1159.64 2776
1101.27 1159.64 2776
1107.9 1159.64 2776
1116.15 1161.31 2780
1138.14 1177.19 2818
1148.95 1181.36 2828
1155.71 1181.36 2828
1162.47 1181.36 2828
1165.1 1177.19 2818
1171.84 1177.19 2818
1178.58 1177.19 2818
1217.51 1195.57 2862
1230.34 1201.42 2876
1254.86 1218.54 2917
1266.16 1222.72 2927
1275.33 1224.81 2932
1286.72 1228.99 2942
1293.75 1228.99 2942
1300.79 1228.99 2942
1307.82 1228.99 2942
1317.09 1231.08 2947
1324.14 1231.08 2947
1338.42 1237.76 2963
1375.02 1264.91 3028
1382.26 1264.91 3028
1389.5 1264.91 3028
1357.07 1228.99 2942
1345.1 1211.86 2901
1352.03 1211.86 2901
1359.58 1147.95 2748
1366.15 1147.95 2748
1372.72 1147.95 2748
1395.36 1161.31 2780
1402 1161.31 2780
1408.65 1161.31 2780
1420.39 1165.49 2790
1427.06 1165.49 2790
1433.73 1165.49 2790
1440.41 1165.49 2790
1449.15 1167.16 2794
1455.83 1167.16 2794
1467.75 1171.34 2804
1479.19 1175.1 2813
1485.91 1175.1 2813
1492.64 1175.1 2813
1499.37 1175.1 2813
1495.92 1167.16 2794
1502.6 1167.16 2794
1499.56 1159.64 2776
1503.49 1157.55 2771
1528.1 1171.34 2804
1568.74 1197.24 2866
1575.59 1197.24 2866
1587.97 1201.42 2876
1594.84 1201.42 2876
1601.72 1201.42 2876
1670.92 1163.4 2785
1677.58 1163.4 2785
1698.75 1173.43 2809
1722.47 1185.12 2837
1732.3 1187.21 2842
1739.1 1187.21 2842
1748.96 1189.3 2847
1755.77 1189.3 2847
1762.58 1189.3 2847
1766.28 1187.21 2842
1773.08 1187.21 2842
1771.1 1181.36 2828
1777.87 1181.36 2828
1775.16 1175.1 2813
1773.02 1169.25 2799
1779.72 1169.25 2799
1801.73 1179.28 2823
1808.48 1179.28 2823
1821.02 1183.04 2832
1831.01 1185.12 2837
1837.8 1185.12 2837
1844.58 1185.12 2837
1848.1 1183.04 2832
1930.41 1171.34 2804
1937.12 1171.34 2804
1943.82 1171.34 2804
1940.79 1165.49 2790
1911.86 1144.19 2739
1918.41 1144.19 2739
1924.96 1144.19 2739
1931.51 1144.19 2739
-1976.21 1130.58 2691
-1969.77 1130.58 2691
-1963.34 1130.58 2691
-1956.9 1130.58 2691
-1950.47 1130.58 2691
-2002.21 1172.17 2790
-1995.54 1172.17 2790
-1988.87 1172.17 2790
-1982.19 1172.17 2790
-1985.43 1178.06 2804
-1978.73 1178.06 2804
-1972.02 1178.06 2804
-1948.5 1167.97 2780
-1941.85 1167.97 2780
-1935.2 1167.97 2780
-1925.78 1166.29 2776
-1429.23 1130.58 2691
-1422.8 1130.58 2691
-1423.21 1136.04 2704
-1428.27 1145.29 2726
-1428.53 1150.75 2739
-1421.98 1150.75 2739
-1422.66 1156.63 2753
-1425.34 1164.19 2771
-1418.71 1164.19 2771
-1412.09 1164.19 2771
-1405.46 1164.19 2771
-1398.83 1164.19 2771
-1392.21 1164.19 2771
-1398.23 1191.92 2837
-1391.45 1191.92 2837
-1387.1 1194.02 2842
-1380.31 1194.02 2842
-1373.51 1194.02 2842
-1366.71 1194.02 2842
-1359.92 1194.02 2842
-1353.12 1194.02 2842
-1346.33 1194.02 2842
-1130.82 1167.97 2780
-1124.17 1167.97 2780
-1117.52 1167.97 2780
-1112.87 1170.07 2785
-1109.79 1173.85 2794
-1105.08 1175.96 2799
-1098.38 1175.96 2799
-1091.69 1175.96 2799
-1083.06 1173.85 2794
-1076.38 1173.85 2794
-1068.17 1172.17 2790
-1061.49 1172.17 2790
-1054.82 1172.17 2790
-1049.65 1173.85 2794
-1042.97 1173.85 2794
-1040 1178.06 2804
-1035.14 1180.16 2809
-1029.88 1181.84 2813
-1023.16 1181.84 2813
-1016.43 1181.84 2813
-1009.7 1181.84 2813
-1002.98 1181.84 2813
-996.251 1181.84 2813
-989.524 1181.84 2813
-982.797 1181.84 2813
-976.07 1181.84 2813
-946.945 1154.53 2748
-580.879 766.745 1825
-576.515 766.745 1825
-572.151 766.745 1825
-567.165 765.904 1823
-562.805 765.904 1823
-552.932 758.342 1805
-544.664 752.88 1792
-538.57 750.359 1786
-533.701 749.519 1784
-529.435 749.519 1784
-524.58 748.679 1782
-520.902 749.519 1784
-517.795 751.2 1788
-513.519 751.2 1788
-509.243 751.2 1788
-505.533 752.04 1790
-501.252 752.04 1790
-496.972 752.04 1790
-492.691 752.04 1790
-489.502 753.721 1794
-485.753 754.561 1796
-483.067 757.082 1802
-478.758 757.082 1802
-475.238 758.342 1805
-472.488 760.863 1811
-469.708 763.384 1817
-465.363 763.384 1817
-462.033 765.064 1821
-459.186 767.585 1827
-454.817 767.585 1827
-450.448 767.585 1827
-446.568 768.425 1829
-442.194 768.425 1829
-438.299 769.266 1831
-433.921 769.266 1831
-429.542 769.266 1831
-425.164 769.266 1831
-420.785 769.266 1831
-416.407 769.266 1831
-412.028 769.266 1831
-407.65 769.266 1831
-403.271 769.266 1831
-398.457 768.425 1829
-393.653 767.585 1827
-388.858 766.745 1825
-384.493 766.745 1825
-379.713 765.904 1823
-374.942 765.064 1821
-368.959 761.703 1813
-362.411 757.082 1802
-358.102 757.082 1802
-353.008 755.401 1798
-347.544 752.88 1792
-341.344 748.679 1782
-337.082 748.679 1782
-331.514 745.738 1775
-325.057 740.696 1763
-319.567 737.755 1756
-315.368 737.755 1756
-310.814 736.915 1754
-305.047 733.134 1745
-300.012 731.033 1740
-295.851 731.033 1740
-291.355 730.193 1738
-287.529 731.033 1740
-283.531 731.453 1741
-280.01 733.134 1745
-276.469 734.815 1749
-272.287 734.815 1749
-268.411 735.655 1751
-264.978 737.755 1756
-261.373 739.436 1760
-257.164 739.436 1760
-253.243 740.276 1762
-249.454 741.537 1765
-246.622 745.738 1775
-242.378 745.738 1775
-239.609 750.359 1786
-236.129 752.88 1792
-232.102 753.721 1794
-227.812 753.721 1794
-224.519 757.082 1802
-220.577 758.342 1805
-216.74 760.023 1809
-212.414 760.023 1809
-208.088 760.023 1809
-203.762 760.023 1809
-199.436 760.023 1809
-195.11 760.023 1809
-190.784 760.023 1809
-187.283 763.384 1817
-184.75 770.946 1835
-180.362 770.946 1835
-176.358 772.627 1839
-171.96 772.627 1839
-167.563 772.627 1839
-231.768 1194.02 2842
-224.972 1194.02 2842
-218.176 1194.02 2842
-211.38 1194.02 2842
-204.584 1194.02 2842
-197.787 1194.02 2842
-190.991 1194.02 2842
-184.195 1194.02 2842
-177.399 1194.02 2842
-170.603 1194.02 2842
-163.519 1191.92 2837
-156.735 1191.92 2837
-149.951 1191.92 2837
-142.914 1189.82 2832
-136.142 1189.82 2832
-128.959 1186.04 2823
-122.208 1186.04 2823
-115.457 1186.04 2823
-108.707 1186.04 2823
-101.595 1181.84 2813
-94.7333 1180.16 2809
-88.0161 1180.16 2809
-80.8648 1173.85 2794
-74.0773 1172.17 2790
-67.5022 1173.85 2794
-60.9297 1175.96 2799
-54.2365 1175.96 2799
-47.5432 1175.96 2799
-40.8499 1175.96 2799
-34.1567 1175.96 2799
-27.4634 1175.96 2799
-20.7702 1175.96 2799
-14.0769 1175.96 2799
-7.38366 1175.96 2799
-0.689172 1173.85 2794
5.98355 1172.17 2790
12.6961 1175.96 2799
19.3894 1175.96 2799
26.0826 1175.96 2799
32.7759 1175.96 2799
39.3986 1173.85 2794
46.0799 1173.85 2794
52.8557 1175.96 2799
59.5489 1175.96 2799
66.6918 1183.94 2818
73.4305 1183.94 2818
80.1692 1183.94 2818
86.9079 1183.94 2818
93.6466 1183.94 2818
100.207 1181.84 2813
106.934 1181.84 2813
113.661 1181.84 2813
120.002 1178.06 2804
126.707 1178.06 2804
133.413 1178.06 2804
139.618 1173.85 2794
146.299 1173.85 2794
152.981 1173.85 2794
159.948 1175.96 2799
166.641 1175.96 2799
173.644 1178.06 2804
180.671 1180.16 2809
187.655 1181.84 2813
194.381 1181.84 2813
201.108 1181.84 2813
207.539 1180.16 2809
214.257 1180.16 2809
220.974 1180.16 2809
226.88 1175.96 2799
234.408 1180.16 2809
241.125 1180.16 2809
247.842 1180.16 2809
254.56 1180.16 2809
261.277 1180.16 2809
267.994 1180.16 2809
274.711 1180.16 2809
281.428 1180.16 2809
288.145 1180.16 2809
295.807 1183.94 2818
302.546 1183.94 2818
309.285 1183.94 2818
317.145 1188.14 2828
323.908 1188.14 2828
330.67 1188.14 2828
337.433 1188.14 2828
343.587 1186.04 2823
349.717 1183.94 2818
357.088 1186.04 2823
363.839 1186.04 2823
373.084 1194.02 2842
379.88 1194.02 2842
386.676 1194.02 2842
393.472 1194.02 2842
397.592 1186.04 2823
452.99 1172.17 2790
459.662 1172.17 2790
466.333 1172.17 2790
473.005 1172.17 2790
480.365 1173.85 2794
489.661 1180.16 2809
496.378 1180.16 2809
503.095 1180.16 2809
520.023 1188.14 2828
528.462 1191.92 2837
535.246 1191.92 2837
543.941 1196.12 2847
552.683 1200.32 2857
560.495 1202.42 2862
567.339 1202.42 2862
575.988 1206.2 2871
583.869 1208.31 2876
593.827 1214.61 2891
600.74 1214.61 2891
607.654 1214.61 2891
612.441 1210.41 2881
622.555 1216.71 2896
629.48 1216.71 2896
636.405 1216.71 2896
644.441 1218.81 2901
651.378 1218.81 2901
658.316 1218.81 2901
665.253 1218.81 2901
668.714 1212.51 2886
673.275 1208.31 2876
680.152 1208.31 2876
685.835 1206.2 2871
688.116 1198.22 2852
691.281 1191.92 2837
698.065 1191.92 2837
704.849 1191.92 2837
712.888 1194.02 2842
720.95 1196.12 2847
727.758 1196.12 2847
734.566 1196.12 2847
741.374 1196.12 2847
745.554 1191.92 2837
753.664 1194.02 2842
761.798 1196.12 2847
768.606 1196.12 2847
775.414 1196.12 2847
782.222 1196.12 2847
789.03 1196.12 2847
793.043 1191.92 2837
799.827 1191.92 2837
806.611 1191.92 2837
813.395 1191.92 2837
820.18 1191.92 2837
822.883 1186.04 2823
847.483 1164.19 2771
854.109 1164.19 2771
866.637 1172.17 2790
873.309 1172.17 2790
879.981 1172.17 2790
887.924 1173.85 2794
894.605 1173.85 2794
901.286 1173.85 2794
912.842 1180.16 2809
924.143 1186.04 2823
930.893 1186.04 2823
945.615 1196.12 2847
960.452 1206.2 2871
969.002 1208.31 2876
975.88 1208.31 2876
982.757 1208.31 2876
986.193 1204.1 2866
993.047 1204.1 2866
986.643 1188.14 2828
991.649 1186.04 2823
993.448 1180.16 2809
1000.17 1180.16 2809
1006.88 1180.16 2809
1013.6 1180.16 2809
1008.33 1166.29 2776
1033.98 1188.14 2828
1040.74 1188.14 2828
1052.69 1194.02 2842
1059.49 1194.02 2842
1066.28 1194.02 2842
1073.08 1194.02 2842
1079.88 1194.02 2842
1077.5 1183.94 2818
1082.31 1181.84 2813
1089.04 1181.84 2813
1086.8 1172.17 2790
1089.56 1167.97 2780
1092.66 1164.19 2771
1099.28 1164.19 2771
1105.91 1164.19 2771
1114.54 1166.29 2776
1132.49 1178.06 2804
1139.19 1178.06 2804
1145.9 1178.06 2804
1152.61 1178.06 2804
1159.31 1178.06 2804
1166.02 1178.06 2804
1172.72 1178.06 2804
1217.51 1202.42 2862
1230.34 1208.31 2876
1237.22 1208.31 2876
1246.26 1210.41 2881
1261.85 1218.81 2901
1273.16 1223.01 2911
1280.12 1223.01 2911
1287.08 1223.01 2911
1294.04 1223.01 2911
1308.16 1229.73 2927
1315.15 1229.73 2927
1328.93 1236.03 2942
1338.24 1238.14 2947
1345.28 1238.14 2947
1352.33 1238.14 2947
1357.07 1236.03 2942
1354.83 1227.63 2922
1361.82 1227.63 2922
1368.81 1227.63 2922
1360.35 1172.17 2790
1367.02 1172.17 2790
1373.69 1172.17 2790
1370.96 1164.19 2771
1377.59 1164.19 2771
1372.72 1154.53 2748
1395.36 1167.97 2780
1402 1167.97 2780
1408.65 1167.97 2780
1420.39 1172.17 2790
1427.06 1172.17 2790
1433.73 1172.17 2790
1440.41 1172.17 2790
1449.15 1173.85 2794
1455.83 1173.85 2794
1467.75 1178.06 2804
1479.19 1181.84 2813
1485.91 1181.84 2813
1492.64 1181.84 2813
1499.37 1181.84 2813
1495.92 1173.85 2794
1502.6 1173.85 2794
1499.56 1166.29 2776
1503.49 1164.19 2771
1528.1 1178.06 2804
1568.74 1204.1 2866
1575.59 1204.1 2866
1587.97 1208.31 2876
1594.84 1208.31 2876
1601.72 1208.31 2876
1642.15 1154.53 2748
1670.92 1170.07 2785
1677.58 1170.07 2785
1698.75 1180.16 2809
1722.47 1191.92 2837
1732.3 1194.02 2842
1739.1 1194.02 2842
1748.96 1196.12 2847
1755.77 1196.12 2847
1762.58 1196.12 2847
1766.28 1194.02 2842
1773.08 1194.02 2842
1771.1 1188.14 2828
1777.87 1188.14 2828
1775.16 1181.84 2813
1773.02 1175.96 2799
1779.72 1175.96 2799
1801.73 1186.04 2823
1808.48 1186.04 2823
1821.02 1189.82 2832
1831.01 1191.92 2837
1837.8 1191.92 2837
1844.58 1191.92 2837
1848.1 1189.82 2832
1839.81 1180.16 2809
1806.43 1154.53 2748
1813 1154.53 2748
1819.57 1154.53 2748
1826.14 1154.53 2748
1814.71 1143.18 2721
1821.21 1143.18 2721
1825.03 1141.5 2717
1930.41 1178.06 2804
1937.12 1178.06 2804
1943.82 1178.06 2804
1940.79 1172.17 2790
1918.14 1154.53 2748
1924.71 1154.53 2748
1924.96 1150.75 2739
1931.51 1150.75 2739
-1950.96 1118.86 2648
-1976.21 1137.03 2691
-1969.77 1137.03 2691
-1963.34 1137.03 2691
-1956.9 1137.03 2691
-1950.47 1137.03 2691
-1988.57 1170.83 2771
-1985.52 1172.94 2776
-1978.89 1172.94 2776
-1972.25 1172.94 2776
-1962.07 1170.83 2771
-1955.44 1170.83 2771
-1948.82 1170.83 2771
-1939.39 1169.14 2767
-1913.21 1157.31 2739
-1906.66 1157.31 2739
-1802.99 1098.15 2599
-1429.23 1137.03 2691
-1422.8 1137.03 2691
-1423.21 1142.52 2704
-1428.27 1151.82 2726
-1428.53 1157.31 2739
-1421.98 1157.31 2739
-1422.66 1163.22 2753
-1425.34 1170.83 2771
-1418.71 1170.83 2771
-1412.09 1170.83 2771
-1405.46 1170.83 2771
-1398.83 1170.83 2771
-1392.21 1170.83 2771
-1398.23 1198.72 2837
-1391.45 1198.72 2837
-1387.1 1200.83 2842
-1380.31 1200.83 2842
-1373.51 1200.83 2842
-1366.71 1200.83 2842
-1359.92 1200.83 2842
-1353.12 1200.83 2842
-1346.33 1200.83 2842
-1130.82 1174.63 2780
-1124.17 1174.63 2780
-1117.52 1174.63 2780
-1110.87 1174.63 2780
-1109.79 1180.55 2794
-1105.08 1182.66 2799
-1098.38 1182.66 2799
-1091.69 1182.66 2799
-1083.06 1180.55 2794
-1076.38 1180.55 2794
-1068.17 1178.86 2790
-1061.49 1178.86 2790
-1054.82 1178.86 2790
-1049.65 1180.55 2794
-1042.97 1180.55 2794
-1040 1184.77 2804
-1035.14 1186.89 2809
-1029.88 1188.58 2813
-1023.16 1188.58 2813
-1016.43 1188.58 2813
-1009.7 1188.58 2813
-1002.98 1188.58 2813
-996.251 1188.58 2813
-989.524 1188.58 2813
-982.797 1188.58 2813
-976.07 1188.58 2813
-969.344 1188.58 2813
-580.879 771.117 1825
-576.515 771.117 1825
-572.151 771.117 1825
-567.787 771.117 1825
-563.423 771.117 1825
-553.545 763.511 1807
-545.88 758.863 1796
-540.379 757.173 1792
-534.299 754.638 1786
-530.028 754.638 1786
-525.168 753.793 1784
-520.902 753.793 1784
-517.795 755.483 1788
-513.519 755.483 1788
-509.243 755.483 1788
-505.533 756.328 1790
-501.252 756.328 1790
-497.527 757.173 1792
-493.242 757.173 1792
-489.502 758.018 1794
-486.294 759.708 1798
-483.067 761.398 1802
-478.758 761.398 1802
-475.238 762.666 1805
-472.488 765.201 1811
-469.708 767.736 1817
-465.363 767.736 1817
-462.54 770.271 1823
-459.186 771.962 1827
-455.315 772.807 1829
-450.942 772.807 1829
-447.056 773.652 1831
-442.678 773.652 1831
-438.299 773.652 1831
-433.921 773.652 1831
-429.542 773.652 1831
-425.164 773.652 1831
-420.785 773.652 1831
-416.407 773.652 1831
-412.028 773.652 1831
-407.65 773.652 1831
-403.271 773.652 1831
-398.457 772.807 1829
-393.653 771.962 1827
-389.284 771.962 1827
-384.915 771.962 1827
-379.713 770.271 1823
-374.942 769.426 1821
-369.366 766.891 1815
-362.813 762.243 1804
-358.5 762.243 1804
-353.793 761.398 1802
-347.932 758.018 1794
-341.727 753.793 1784
-337.461 753.793 1784
-332.261 751.68 1779
-325.425 745.765 1765
-320.659 744.497 1762
-316.445 744.497 1762
-311.169 741.962 1756
-305.047 737.314 1745
-300.184 735.624 1741
-296.021 735.624 1741
-291.355 734.356 1738
-287.529 735.201 1740
-283.531 735.624 1741
-280.01 737.314 1745
-276.469 739.004 1749
-272.287 739.004 1749
-268.411 739.849 1751
-264.978 741.962 1756
-261.373 743.652 1760
-257.164 743.652 1760
-253.243 744.497 1762
-249.454 745.765 1765
-246.622 749.99 1775
-242.378 749.99 1775
-239.877 755.483 1788
-236.129 757.173 1792
-232.102 758.018 1794
-227.812 758.018 1794
-224.519 761.398 1802
-220.577 762.666 1805
-216.74 764.356 1809
-212.414 764.356 1809
-208.088 764.356 1809
-203.762 764.356 1809
-199.436 764.356 1809
-195.11 764.356 1809
-190.784 764.356 1809
-187.283 767.736 1817
-184.75 775.342 1835
-180.362 775.342 1835
-176.358 777.032 1839
-171.96 777.032 1839
-167.563 777.032 1839
-236.549 1190.69 2818
-230.626 1194.91 2828
-223.864 1194.91 2828
-217.101 1194.91 2828
-210.338 1194.91 2828
-203.864 1196.6 2832
-197.091 1196.6 2832
-190.319 1196.6 2832
-183.547 1196.6 2832
-176.775 1196.6 2832
-169.763 1194.91 2828
-162.136 1188.58 2813
-155.409 1188.58 2813
-148.682 1188.58 2813
-141.753 1186.89 2809
-135.036 1186.89 2809
-128.091 1184.77 2804
-121.385 1184.77 2804
-114.68 1184.77 2804
-107.975 1184.77 2804
-101.089 1182.66 2799
-94.0925 1178.86 2790
-87.4207 1178.86 2790
-80.3438 1172.94 2776
-73.8118 1174.63 2780
-67.1639 1174.63 2780
-60.5161 1174.63 2780
-53.8683 1174.63 2780
-47.2205 1174.63 2780
-40.7186 1178.86 2790
-34.0957 1180.55 2794
-27.4144 1180.55 2794
-20.7331 1180.55 2794
-14.0065 1176.74 2785
-7.34673 1176.74 2785
-0.685719 1174.63 2780
5.95353 1172.94 2776
12.5918 1172.94 2776
19.23 1172.94 2776
25.8217 1170.83 2771
32.448 1170.83 2771
38.9474 1167.03 2762
45.7006 1170.83 2771
52.4213 1172.94 2776
59.0596 1172.94 2776
66.0292 1178.86 2790
72.7009 1178.86 2790
79.3726 1178.86 2790
86.0444 1178.86 2790
92.7161 1178.86 2790
99.0316 1174.63 2780
105.679 1174.63 2780
112.327 1174.63 2780
118.975 1174.63 2780
125.442 1172.94 2776
132.08 1172.94 2776
138.719 1172.94 2776
145.566 1174.63 2780
152.488 1176.74 2785
159.433 1178.86 2790
166.105 1178.86 2790
173.334 1182.66 2799
180.028 1182.66 2799
187.054 1184.77 2804
193.76 1184.77 2804
200.465 1184.77 2804
207.17 1184.77 2804
213.875 1184.77 2804
220.187 1182.66 2799
226.88 1182.66 2799
233.156 1180.55 2794
240.267 1182.66 2799
247.401 1184.77 2804
254.106 1184.77 2804
260.812 1184.77 2804
267.04 1182.66 2799
273.733 1182.66 2799
280.426 1182.66 2799
287.12 1182.66 2799
294.338 1184.77 2804
301.58 1186.89 2809
308.297 1186.89 2809
316.023 1190.69 2818
322.762 1190.69 2818
329.501 1190.69 2818
336.24 1190.69 2818
341.883 1186.89 2809
348.6 1186.89 2809
355.317 1186.89 2809
362.034 1186.89 2809
370.589 1192.8 2823
377.34 1192.8 2823
384.091 1192.8 2823
390.841 1192.8 2823
397.592 1192.8 2823
398.184 1174.63 2780
404.831 1174.63 2780
410.147 1170.83 2771
453.639 1180.55 2794
460.321 1180.55 2794
467.002 1180.55 2794
473.005 1178.86 2790
480.365 1180.55 2794
489.661 1186.89 2809
497.085 1188.58 2813
503.811 1188.58 2813
511.445 1190.69 2818
520.023 1194.91 2828
527.531 1196.6 2832
534.303 1196.6 2832
542.03 1198.72 2837
551.716 1205.05 2852
559.515 1207.17 2857
566.347 1207.17 2857
573.179 1207.17 2857
581.838 1210.97 2866
588.692 1210.97 2866
595.545 1210.97 2866
602.399 1210.97 2866
610.315 1213.08 2871
618.255 1215.2 2876
626.22 1217.31 2881
633.109 1217.31 2881
641.109 1219.42 2886
648.01 1219.42 2886
654.912 1219.42 2886
660.666 1217.31 2881
665.239 1213.08 2871
667.656 1205.05 2852
674.476 1205.05 2852
681.296 1205.05 2852
684.497 1198.72 2837
689.088 1194.91 2828
695.851 1194.91 2828
702.613 1194.91 2828
711.634 1198.72 2837
718.418 1198.72 2837
725.202 1198.72 2837
745.554 1198.72 2837
753.664 1200.83 2842
761.798 1202.94 2847
768.606 1202.94 2847
775.414 1202.94 2847
782.222 1202.94 2847
789.03 1202.94 2847
793.043 1198.72 2837
799.827 1198.72 2837
802.631 1192.8 2823
809.382 1192.8 2823
816.132 1192.8 2823
821.425 1190.69 2818
840.857 1170.83 2771
847.483 1170.83 2771
854.109 1170.83 2771
863.531 1174.63 2780
870.179 1174.63 2780
876.827 1174.63 2780
885.064 1176.74 2785
891.723 1176.74 2785
898.383 1176.74 2785
905.043 1176.74 2785
919.559 1186.89 2809
926.277 1186.89 2809
943.955 1200.83 2842
954.096 1205.05 2852
960.916 1205.05 2852
967.736 1205.05 2852
974.556 1205.05 2852
974.494 1196.6 2832
981.266 1196.6 2832
986.643 1194.91 2828
986.731 1186.89 2809
991.68 1184.77 2804
1000.17 1186.89 2809
1006.88 1186.89 2809
1013.6 1186.89 2809
1008.33 1172.94 2776
1027.03 1186.89 2809
1038.9 1192.8 2823
1045.65 1192.8 2823
1052.4 1192.8 2823
1059.16 1192.8 2823
1065.91 1192.8 2823
1070.76 1190.69 2818
1075.58 1188.58 2813
1076.92 1182.66 2799
1083.62 1182.66 2799
1086.8 1178.86 2790
1084.46 1169.14 2767
1091.08 1169.14 2767
1097.7 1169.14 2767
1104.31 1169.14 2767
1114.54 1172.94 2776
1128.45 1180.55 2794
1135.13 1180.55 2794
1141.81 1180.55 2794
1148.49 1180.55 2794
1155.18 1180.55 2794
1161.86 1180.55 2794
1164.77 1176.74 2785
1223.47 1215.2 2876
1230.34 1215.2 2876
1237.22 1215.2 2876
1244.1 1215.2 2876
1261.85 1225.76 2901
1268.79 1225.76 2901
1275.72 1225.76 2901
1282.66 1225.76 2901
1289.6 1225.76 2901
1301 1229.98 2911
1307.97 1229.98 2911
1328.93 1243.08 2942
1335.96 1243.08 2942
1343 1243.08 2942
1350.04 1243.08 2942
1350.15 1236.74 2927
1354.83 1234.63 2922
1361.82 1234.63 2922
1368.81 1234.63 2922
1360.35 1178.86 2790
1367.02 1178.86 2790
1373.69 1178.86 2790
1370.96 1170.83 2771
1377.59 1170.83 2771
1372.72 1161.11 2748
1395.36 1174.63 2780
1402 1174.63 2780
1408.65 1174.63 2780
1415.3 1174.63 2780
1421.95 1174.63 2780
1433.73 1178.86 2790
1440.41 1178.86 2790
1447.08 1178.86 2790
1453.75 1178.86 2790
1462.52 1180.55 2794
1477.08 1186.89 2809
1483.8 1186.89 2809
1490.52 1186.89 2809
1489.24 1180.55 2794
1493.78 1178.86 2790
1500.45 1178.86 2790
1489.3 1164.91 2757
1491.01 1161.11 2748
1500.3 1163.22 2753
1534.8 1184.77 2804
1541.51 1184.77 2804
1582.45 1210.97 2866
1589.3 1210.97 2866
1596.15 1210.97 2866
1642.15 1161.11 2748
1670.92 1176.74 2785
1677.58 1176.74 2785
1692.7 1182.66 2799
1705.47 1186.89 2809
1720.72 1192.8 2823
1727.47 1192.8 2823
1739.75 1196.6 2832
1746.52 1196.6 2832
1753.29 1196.6 2832
1754.47 1192.8 2823
1761.22 1192.8 2823
1761.71 1188.58 2813
1768.44 1188.58 2813
1766.33 1182.66 2799
1773.02 1182.66 2799
1779.72 1182.66 2799
1801.73 1192.8 2823
1808.48 1192.8 2823
1818.44 1194.91 2828
1827.79 1196.6 2832
1834.56 1196.6 2832
1841.33 1196.6 2832
1848.1 1196.6 2832
1839.81 1186.89 2809
1806.43 1161.11 2748
1813 1161.11 2748
1819.57 1161.11 2748
1826.14 1161.11 2748
1814.71 1149.7 2721
1821.21 1149.7 2721
1825.03 1148.01 2717
1930.41 1184.77 2804
1937.12 1184.77 2804
1943.82 1184.77 2804
1940.79 1178.86 2790
1918.14 1161.11 2748
1924.71 1161.11 2748
1924.96 1157.31 2739
1931.51 1157.31 2739
-1988.56 1135.82 2673
-1982.16 1135.82 2673
-1975.77 1135.82 2673
-1966.43 1134.13 2669
-1960.05 1134.13 2669
-1947.81 1130.73 2661
-1941.45 1130.73 2661
-1935.09 1130.73 2661
-1928.72 1130.73 2661
-1959.15 1160.05 2730
-1965.5 1167.69 2748
-1958.93 1167.69 2748
-1952.35 1167.69 2748
-1945.78 1167.69 2748
-1939.21 1167.69 2748
-1932.64 1167.69 2748
-1853.18 1123.5 2644
-1834.98 1116.28 2627
-1828.7 1116.28 2627
-1802.99 1104.38 2599
-1782.26 1095.46 2578
-1760.25 1085.68 2555
-1754.14 1085.68 2555
-1440.92 1152.82 2713
-1434.43 1152.82 2713
-1434.78 1158.35 2726
-1432.98 1162.17 2735
-1428.53 1163.87 2739
-1421.98 1163.87 2739
-1429.9 1175.77 2767
-1425.34 1177.47 2771
-1418.71 1177.47 2771
-1412.09 1177.47 2771
-1405.46 1177.47 2771
-1398.83 1177.47 2771
-1392.21 1177.47 2771
-1398.23 1205.51 2837
-1391.45 1205.51 2837
-1387.1 1207.64 2842
-1380.31 1207.64 2842
-1373.51 1207.64 2842
-1366.71 1207.64 2842
-1359.92 1207.64 2842
-1353.12 1207.64 2842
-1346.33 1207.64 2842
-1339.53 1207.64 2842
-1330.39 1205.51 2837
-1323.6 1205.51 2837
-1316.82 1205.51 2837
-1121.46 1171.52 2757
-1114.87 1171.52 2757
-1108.27 1171.52 2757
-1105.68 1175.77 2767
-1108.2 1185.54 2790
-1103.1 1187.24 2794
-1096.42 1187.24 2794
-1089.74 1187.24 2794
-1083.06 1187.24 2794
-1076.38 1187.24 2794
-1068.17 1185.54 2790
-1061.49 1185.54 2790
-1054.82 1185.54 2790
-1049.65 1187.24 2794
-1042.97 1187.24 2794
-1040 1191.49 2804
-1035.14 1193.61 2809
-1029.88 1195.31 2813
-1023.16 1195.31 2813
-1016.43 1195.31 2813
-1009.7 1195.31 2813
-1002.98 1195.31 2813
-996.251 1195.31 2813
-989.524 1195.31 2813
-982.797 1195.31 2813
-976.07 1195.31 2813
-969.344 1195.31 2813
-580.879 775.488 1825
-576.515 775.488 1825
-572.151 775.488 1825
-567.787 775.488 1825
-563.423 775.488 1825
-553.545 767.84 1807
-545.88 763.165 1796
-540.379 761.466 1792
-534.299 758.916 1786
-530.028 758.916 1786
-525.168 758.066 1784
-520.902 758.066 1784
-517.795 759.766 1788
-513.519 759.766 1788
-509.243 759.766 1788
-505.533 760.616 1790
-501.252 760.616 1790
-497.527 761.466 1792
-493.242 761.466 1792
-489.502 762.316 1794
-486.294 764.015 1798
-483.067 765.715 1802
-478.758 765.715 1802
-475.238 766.99 1805
-472.488 769.539 1811
-469.708 772.089 1817
-465.363 772.089 1817
-462.54 774.638 1823
-459.186 776.338 1827
-455.315 777.188 1829
-450.942 777.188 1829
-447.056 778.038 1831
-442.678 778.038 1831
-438.299 778.038 1831
-433.921 778.038 1831
-429.542 778.038 1831
-425.164 778.038 1831
-420.785 778.038 1831
-416.407 778.038 1831
-412.028 778.038 1831
-407.65 778.038 1831
-403.271 778.038 1831
-398.457 777.188 1829
-393.653 776.338 1827
-389.284 776.338 1827
-384.915 776.338 1827
-379.713 774.638 1823
-374.942 773.789 1821
-369.366 771.239 1815
-362.813 766.565 1804
-358.5 766.565 1804
-353.793 765.715 1802
-347.932 762.316 1794
-341.727 758.066 1784
-337.461 758.066 1784
-332.261 755.942 1779
-325.425 749.993 1765
-320.659 748.718 1762
-316.445 748.718 1762
-311.169 746.168 1756
-305.047 741.494 1745
-300.184 739.795 1741
-296.021 739.795 1741
-291.355 738.52 1738
-287.529 739.37 1740
-283.531 739.795 1741
-280.01 741.494 1745
-276.469 743.194 1749
-272.287 743.194 1749
-268.411 744.044 1751
-264.978 746.168 1756
-261.373 747.868 1760
-257.164 747.868 1760
-253.243 748.718 1762
-249.454 749.993 1765
-246.622 754.242 1775
-242.378 754.242 1775
-239.877 759.766 1788
-236.129 761.466 1792
-232.102 762.316 1794
-227.812 762.316 1794
-224.519 765.715 1802
-220.577 766.99 1805
-216.74 768.69 1809
-212.414 768.69 1809
-208.088 768.69 1809
-203.762 768.69 1809
-199.436 768.69 1809
-195.11 768.69 1809
-190.784 768.69 1809
-187.283 772.089 1817
-183.542 774.638 1823
-179.183 774.638 1823
-176.358 781.437 1839
-171.96 781.437 1839
-167.563 781.437 1839
-236.549 1197.44 2818
-230.626 1201.69 2828
-223.864 1201.69 2828
-217.101 1201.69 2828
-210.338 1201.69 2828
-203.864 1203.39 2832
-197.091 1203.39 2832
-190.319 1203.39 2832
-183.547 1203.39 2832
-176.775 1203.39 2832
-169.763 1201.69 2828
-162.136 1195.31 2813
-155.409 1195.31 2813
-148.682 1195.31 2813
-141.753 1193.61 2809
-135.036 1193.61 2809
-128.091 1191.49 2804
-121.385 1191.49 2804
-114.68 1191.49 2804
-107.975 1191.49 2804
-101.089 1189.37 2799
-94.0925 1185.54 2790
-87.4207 1185.54 2790
-80.3438 1179.59 2776
-73.8118 1181.29 2780
-67.1639 1181.29 2780
-60.5161 1181.29 2780
-53.8683 1181.29 2780
-47.2205 1181.29 2780
-40.7186 1185.54 2790
-34.0957 1187.24 2794
-27.4144 1187.24 2794
-20.7331 1187.24 2794
-14.0065 1183.42 2785
-7.34673 1183.42 2785
-0.685719 1181.29 2780
5.95353 1179.59 2776
12.5918 1179.59 2776
19.23 1179.59 2776
25.8217 1177.47 2771
32.448 1177.47 2771
38.9474 1173.64 2762
45.7006 1177.47 2771
52.4213 1179.59 2776
59.0596 1179.59 2776
66.0292 1185.54 2790
72.7009 1185.54 2790
79.3726 1185.54 2790
86.0444 1185.54 2790
92.7161 1185.54 2790
99.0316 1181.29 2780
105.679 1181.29 2780
112.327 1181.29 2780
118.975 1181.29 2780
125.442 1179.59 2776
132.08 1179.59 2776
138.719 1179.59 2776
145.566 1181.29 2780
152.488 1183.42 2785
159.433 1185.54 2790
166.105 1185.54 2790
173.334 1189.37 2799
180.349 1191.49 2804
187.054 1191.49 2804
193.76 1191.49 2804
200.465 1191.49 2804
207.17 1191.49 2804
213.875 1191.49 2804
220.187 1189.37 2799
226.88 1189.37 2799
233.156 1187.24 2794
240.267 1189.37 2799
247.401 1191.49 2804
254.106 1191.49 2804
260.812 1191.49 2804
267.04 1189.37 2799
273.733 1189.37 2799
280.426 1189.37 2799
287.12 1189.37 2799
294.338 1191.49 2804
301.58 1193.61 2809
308.297 1193.61 2809
316.023 1197.44 2818
322.762 1197.44 2818
329.501 1197.44 2818
336.24 1197.44 2818
341.883 1193.61 2809
348.6 1193.61 2809
355.317 1193.61 2809
362.034 1193.61 2809
370.589 1199.56 2823
377.34 1199.56 2823
384.091 1199.56 2823
390.841 1199.56 2823
397.592 1199.56 2823
398.184 1181.29 2780
404.831 1181.29 2780
410.147 1177.47 2771
416.773 1177.47 2771
430.026 1177.47 2771
437.44 1179.59 2776
444.079 1179.59 2776
453.639 1187.24 2794
460.321 1187.24 2794
467.002 1187.24 2794
473.005 1185.54 2790
480.365 1187.24 2794
489.661 1193.61 2809
497.085 1195.31 2813
503.811 1195.31 2813
511.445 1197.44 2818
518.184 1197.44 2818
526.786 1201.69 2828
533.548 1201.69 2828
541.075 1203.39 2832
549.782 1207.64 2842
556.578 1207.64 2842
563.374 1207.64 2842
572.176 1211.89 2852
578.996 1211.89 2852
585.816 1211.89 2852
592.636 1211.89 2852
599.456 1211.89 2852
605.213 1209.76 2847
612.021 1209.76 2847
618.829 1209.76 2847
625.637 1209.76 2847
631.335 1207.64 2842
638.131 1207.64 2842
644.927 1207.64 2842
649.43 1203.39 2832
656.202 1203.39 2832
662.974 1203.39 2832
669.746 1203.39 2832
667.441 1187.24 2794
670.744 1181.29 2780
676.418 1179.59 2776
683.056 1179.59 2776
689.694 1179.59 2776
696.332 1179.59 2776
778.101 1203.39 2832
784.873 1203.39 2832
791.645 1203.39 2832
789.114 1189.37 2799
794.386 1187.24 2794
801.067 1187.24 2794
807.748 1187.24 2794
814.43 1187.24 2794
833.026 1175.77 2767
840.857 1177.47 2771
847.483 1177.47 2771
