ply
format ascii 1.0
comment File generated
element vertex 2239
property float x
property float y
property float z
end_header
-2297.8 3.32222 3611
-2289.16 3.32222 3611
-2280.53 3.32222 3611
-2271.89 3.32222 3611
-2263.26 3.32222 3611
-2264.61 3.33694 3627
-2260.92 3.3443 3635
-2252.22 3.3443 3635
-2243.53 3.3443 3635
-2239.14 3.35074 3642
-2230.43 3.35074 3642
-2221.73 3.35074 3642
-2213.02 3.35074 3642
-2200.07 3.3443 3635
-2191.38 3.3443 3635
-2182.69 3.3443 3635
-2178.18 3.35074 3642
-2179 3.36546 3658
-2175.59 3.37374 3667
-2166.82 3.37374 3667
-2158.06 3.37374 3667
-2149.29 3.37374 3667
-2140.52 3.37374 3667
-2126.52 3.36546 3658
-2113.14 3.3581 3650
-2104.41 3.3581 3650
-2095.68 3.3581 3650
-2073.8 3.33694 3627
-2065.13 3.33694 3627
-2021.3 3.2799 3565
-2012.78 3.2799 3565
-1982.89 3.24494 3527
-1953.74 3.2109 3490
-1925.33 3.17778 3454
-1917.07 3.17778 3454
-1858.52 3.09405 3363
-1832.32 3.06369 3330
-1817.24 3.05173 3317
-1809.3 3.05173 3317
-1801.37 3.05173 3317
-1793.44 3.05173 3317
-1774.74 3.03333 3297
-1759.89 3.02137 3284
-1752.04 3.02137 3284
-1744.18 3.02137 3284
-1739.5 3.02689 3290
-1731.64 3.02689 3290
-1723.77 3.02689 3290
-1705.99 3.00941 3271
-1695.06 3.00389 3265
-1693.97 3.01585 3278
-1695.9 3.03333 3297
-1688.02 3.03333 3297
-1683.19 3.03885 3303
-1678.84 3.04529 3310
-1674.46 3.05173 3317
-1666.53 3.05173 3317
-1661.6 3.05725 3323
-1660.62 3.07013 3337
-1652.64 3.07013 3337
-1644.66 3.07013 3337
-1639.62 3.07565 3343
-1635.04 3.08209 3350
-1636.75 3.10049 3370
-1628.69 3.10049 3370
-1620.63 3.10049 3370
-1612.57 3.10049 3370
-1604.51 3.10049 3370
-1583.66 3.07565 3343
-1569.54 3.06369 3330
-1561.58 3.06369 3330
-1553.61 3.06369 3330
-1539.62 3.05173 3317
-1531.68 3.05173 3317
-1517.32 3.03885 3303
-1509.42 3.03885 3303
-1501.52 3.03885 3303
-1502.67 3.05725 3323
-1494.72 3.05725 3323
-1486.78 3.05725 3323
-1478.83 3.05725 3323
-1470.89 3.05725 3323
-1462.94 3.05725 3323
-1454.99 3.05725 3323
-1447.05 3.05725 3323
-1436.5 3.05173 3317
-1428.57 3.05173 3317
-1420.64 3.05173 3317
-1409.72 3.04529 3310
-1401.81 3.04529 3310
-1393.89 3.04529 3310
-1385.98 3.04529 3310
-1378.06 3.04529 3310
-1370.15 3.04529 3310
-1362.23 3.04529 3310
-1354.32 3.04529 3310
-1346.4 3.04529 3310
-1335.66 3.03885 3303
-1325.35 3.03333 3297
-1317.46 3.03333 3297
-1309.58 3.03333 3297
-1301.69 3.03333 3297
-1288.71 3.02137 3284
-1280.86 3.02137 3284
-1273 3.02137 3284
-1260.14 3.00941 3271
-1247.34 2.99745 3258
-1237.27 2.99193 3252
-1229.49 2.99193 3252
-1221.72 2.99193 3252
-1209.09 2.97997 3239
-1199.12 2.97445 3233
-1191.38 2.97445 3233
-1181.46 2.96893 3227
-1171.56 2.96341 3221
-1163.85 2.96341 3221
-1156.15 2.96341 3221
-1145.95 2.95697 3214
-1138.27 2.95697 3214
-1130.58 2.95697 3214
-1122.9 2.95697 3214
-1111.05 2.94593 3202
-1101.32 2.94041 3196
-1095.73 2.94593 3202
-1088.08 2.94593 3202
-1082.44 2.95145 3208
-1076.78 2.95697 3214
-1069.1 2.95697 3214
-1061.41 2.95697 3214
-1049.79 2.94593 3202
-544.837 1.56313 1699
-540.775 1.56313 1699
-537.344 1.56497 1701
-533.276 1.56497 1701
-529.52 1.56589 1702
-526.067 1.56773 1704
-521.992 1.56773 1704
-517.917 1.56773 1704
-513.24 1.56589 1702
-508.87 1.56497 1701
-504.803 1.56497 1701
-499.558 1.56129 1697
-494.916 1.55945 1695
-490.573 1.55853 1694
-484.512 1.55209 1687
-480.477 1.55209 1687
-475.031 1.54749 1682
-469.609 1.54289 1677
-464.21 1.53829 1672
-460.212 1.53829 1672
-455.122 1.53461 1668
-449.781 1.53001 1663
-445.537 1.52909 1662
-441.562 1.52909 1662
-436.535 1.52541 1658
-431.266 1.52081 1653
-426.537 1.51805 1650
-422.592 1.51805 1650
-416.616 1.51069 1642
-412.187 1.50885 1640
-407.518 1.50609 1637
-403.604 1.50609 1637
-399.445 1.50517 1636
-395.533 1.50517 1636
-390.663 1.50149 1632
-386.761 1.50149 1632
-382.858 1.50149 1632
-378.723 1.50057 1631
-374.823 1.50057 1631
-370.241 1.49781 1628
-366.347 1.49781 1628
-362.009 1.49597 1626
-357.46 1.49321 1623
-353.143 1.49137 1621
-349.267 1.49137 1621
-345.178 1.49045 1620
-340.672 1.48769 1617
-336.805 1.48769 1617
-332.938 1.48769 1617
-328.664 1.48585 1615
-324.199 1.48309 1612
-319.947 1.48125 1610
-316.097 1.48125 1610
-311.665 1.47849 1607
-307.248 1.47572 1604
-303.223 1.4748 1603
-299.39 1.4748 1603
-295.188 1.47296 1601
-290.813 1.4702 1598
-286.453 1.46744 1595
-282.639 1.46744 1595
-278.475 1.4656 1593
-274.666 1.4656 1593
-270.686 1.46468 1592
-266.88 1.46468 1592
-263.073 1.46468 1592
-259.266 1.46468 1592
-255.459 1.46468 1592
-251.652 1.46468 1592
-247.845 1.46468 1592
-243.731 1.46284 1590
-239.929 1.46284 1590
-236.127 1.46284 1590
-232.617 1.46468 1592
-228.81 1.46468 1592
-225.003 1.46468 1592
-220.918 1.46284 1590
-217.116 1.46284 1590
-213.314 1.46284 1590
-209.512 1.46284 1590
-206.098 1.4656 1593
-202.669 1.46836 1596
-198.853 1.46836 1596
-195.403 1.47112 1599
-192.178 1.47572 1604
-188.93 1.48033 1609
-185.082 1.48033 1609
-181.685 1.48401 1613
-179.261 1.49597 1626
-176.451 1.50517 1636
-172.539 1.50517 1636
-170.276 1.51989 1652
-167.635 1.53185 1665
-164.341 1.53829 1672
-160.343 1.53829 1672
-157.56 1.55025 1685
-153.986 1.55485 1690
-150.3 1.55853 1694
-146.249 1.55853 1694
-143.038 1.56773 1704
-139.126 1.56957 1706
-135.838 1.57877 1716
-131.735 1.57877 1716
-128.077 1.58429 1722
-123.959 1.58429 1722
-119.842 1.58429 1722
-115.724 1.58429 1722
-111.606 1.58429 1722
-107.363 1.58245 1720
-103.25 1.58245 1720
-157.583 3.54487 3853
-148.369 3.54487 3853
-139.156 3.54487 3853
-129.942 3.54487 3853
-120.728 3.54487 3853
-110.733 3.52003 3826
-101.584 3.52003 3826
-92.2417 3.51267 3818
-81.9798 3.46483 3766
-72.7997 3.45655 3757
-63.8156 3.45655 3757
-53.7515 3.38846 3683
-45.347 3.41882 3716
-36.4609 3.41882 3716
-27.7529 3.4409 3740
-18.8095 3.4409 3740
-9.86599 3.4409 3740
-0.918567 3.42618 3724
7.98665 3.42618 3724
16.8919 3.42618 3724
25.7971 3.42618 3724
34.7023 3.42618 3724
43.6075 3.42618 3724
52.5127 3.42618 3724
60.7417 3.38846 3683
69.2468 3.37374 3667
77.8242 3.36546 3658
86.5716 3.36546 3658
94.902 3.35074 3642
103.412 3.3443 3635
112.104 3.3443 3635
121.029 3.35074 3642
129.739 3.35074 3642
138.752 3.3581 3650
147.48 3.3581 3650
156.208 3.3581 3650
164.937 3.3581 3650
173.284 3.35074 3642
181.644 3.3443 3635
190.336 3.3443 3635
199.028 3.3443 3635
206.806 3.32958 3619
215.46 3.32958 3619
224.61 3.33694 3627
233.283 3.33694 3627
241.957 3.33694 3627
251.183 3.3443 3635
260.947 3.3581 3650
270.932 3.37374 3667
279.701 3.37374 3667
289.099 3.3811 3675
298.535 3.38846 3683
308.678 3.40318 3699
317.523 3.40318 3699
327.868 3.41882 3716
336.755 3.41882 3716
345.641 3.41882 3716
354.527 3.41882 3716
363.413 3.41882 3716
371.397 3.41054 3707
380.262 3.41054 3707
387.447 3.39582 3691
396.273 3.39582 3691
404.221 3.38846 3683
413.029 3.38846 3683
420.003 3.37374 3667
425.03 3.3443 3635
433.723 3.3443 3635
440.468 3.32958 3619
449.122 3.32958 3619
455.752 3.31486 3603
463.337 3.3075 3595
471.015 3.30106 3588
479.595 3.30106 3588
485.998 3.28634 3572
493.57 3.2799 3565
498.856 3.25874 3542
507.326 3.25874 3542
512.592 3.2385 3520
517.605 3.21734 3497
525.968 3.21734 3497
534.33 3.21734 3497
540.52 3.20446 3483
548.849 3.20446 3483
553.658 3.18422 3461
561.935 3.18422 3461
569.058 3.17778 3454
574.977 3.1649 3440
585.577 3.17778 3454
595.04 3.18422 3461
605.931 3.19802 3476
614.243 3.19802 3476
629.003 3.23114 3512
642.846 3.25874 3542
659.775 3.30106 3588
668.355 3.30106 3588
678.255 3.3075 3595
688.38 3.31486 3603
700.092 3.32958 3619
708.746 3.32958 3619
717.4 3.32958 3619
726.054 3.32958 3619
736.332 3.33694 3627
745.005 3.33694 3627
758.458 3.3581 3650
770.759 3.37374 3667
782.93 3.38846 3683
791.737 3.38846 3683
805.761 3.41054 3707
816.603 3.41882 3716
825.489 3.41882 3716
834.375 3.41882 3716
843.261 3.41882 3716
852.147 3.41882 3716
861.033 3.41882 3716
860.321 3.3811 3675
867.217 3.37374 3667
1012.25 3.48047 3783
1021.3 3.48047 3783
1030.35 3.48047 3783
1039.39 3.48047 3783
1058.14 3.51267 3818
1074.54 3.53659 3844
1106.56 3.61111 3925
1115.95 3.61111 3925
1136.23 3.64607 3963
1151.2 3.66355 3982
1160.72 3.66355 3982
1170.24 3.66355 3982
1450.73 3.3443 3635
1459.42 3.3443 3635
1468.12 3.3443 3635
1476.81 3.3443 3635
1478.96 3.32958 3619
1465.42 3.2799 3565
1473.94 3.2799 3565
1475.82 3.26518 3549
1456.7 3.20446 3483
1470.92 3.21734 3497
1479.28 3.21734 3497
1487.64 3.21734 3497
1496 3.21734 3497
1479.85 3.1649 3440
1488.07 3.1649 3440
1496.3 3.1649 3440
1504.52 3.1649 3440
1512.75 3.1649 3440
1533.36 3.19066 3468
1541.65 3.19066 3468
1549.94 3.19066 3468
1558.24 3.19066 3468
1560.21 3.17778 3454
1568.46 3.17778 3454
1576.72 3.17778 3454
1598.29 3.20446 3483
1606.62 3.20446 3483
1614.95 3.20446 3483
1623.28 3.20446 3483
1631.61 3.20446 3483
1632.87 3.19066 3468
1641.17 3.19066 3468
1649.46 3.19066 3468
1627.64 3.1327 3405
1652.59 3.1649 3440
1670.96 3.18422 3461
1679.24 3.18422 3461
1687.51 3.18422 3461
1688.93 3.17134 3447
1697.17 3.17134 3447
1723.22 3.20446 3483
1731.55 3.20446 3483
1739.88 3.20446 3483
2429.28 3.52831 3835
2438.45 3.52831 3835
2447.62 3.52831 3835
2456.79 3.52831 3835
2465.96 3.52831 3835
2475.13 3.52831 3835
2461.63 3.49611 3800
2476.57 3.50439 3809
2485.67 3.50439 3809
2494.78 3.50439 3809
2503.89 3.50439 3809
2501.78 3.48875 3792
1844.75 2.554 2776
1851.39 2.554 2776
1858.03 2.554 2776
1864.67 2.554 2776
1858.5 2.53652 2757
1846.82 2.51168 2730
1862.86 2.52456 2744
1878.27 2.53652 2757
1884.87 2.53652 2757
1898.32 2.54572 2767
1907.69 2.5494 2771
1923.99 2.56228 2785
1930.65 2.56228 2785
1937.31 2.56228 2785
1943.97 2.56228 2785
1954.13 2.56688 2790
1960.8 2.56688 2790
1977.35 2.57976 2804
1990.42 2.58804 2813
2007.8 2.60184 2828
2014.56 2.60184 2828
2027.75 2.61012 2837
2038.12 2.61472 2842
2052.12 2.62392 2852
2058.94 2.62392 2852
2065.76 2.62392 2852
2082.75 2.6368 2866
2089.6 2.6368 2866
2096.46 2.6368 2866
2103.31 2.6368 2866
2110.16 2.6368 2866
2120.71 2.6414 2871
2127.58 2.6414 2871
2134.44 2.6414 2871
2137.58 2.6368 2866
2148.17 2.6414 2871
2189.57 2.68372 2917
2196.54 2.68372 2917
2218.62 2.70212 2937
2245.35 2.72604 2963
2252.44 2.72604 2963
2259.52 2.72604 2963
2266.61 2.72604 2963
-2554.65 11.3126 3412
-2546.49 11.3126 3412
-2538.33 11.3126 3412
-2540.55 11.359 3426
-2532.36 11.359 3426
-2524.17 11.359 3426
-2515.97 11.359 3426
-2502.66 11.3358 3419
-2494.48 11.3358 3419
-2486.31 11.3358 3419
-2478.13 11.3358 3419
-2480.07 11.3822 3433
-2497.06 11.4983 3468
-2488.77 11.4983 3468
-2486.2 11.5248 3476
-2477.88 11.5248 3476
-2469.57 11.5248 3476
-2461.26 11.5248 3476
-2452.95 11.5248 3476
-2444.64 11.5248 3476
-2436.32 11.5248 3476
-2422.42 11.4983 3468
-2414.13 11.4983 3468
-2405.84 11.4983 3468
-2392.7 11.4751 3461
-2384.43 11.4751 3461
-2376.15 11.4751 3461
-2382.93 11.548 3483
-2379.37 11.5712 3490
-2375.78 11.5944 3497
-2367.42 11.5944 3497
-2374.57 11.6707 3520
-2375.56 11.7171 3534
-2367.11 11.7171 3534
-2358.66 11.7171 3534
-2365.51 11.7934 3557
-2362.3 11.8199 3565
-2353.78 11.8199 3565
-2345.25 11.8199 3565
-2336.73 11.8199 3565
-2328.2 11.8199 3565
-2329.44 11.8696 3580
-2320.88 11.8696 3580
-2317.48 11.8961 3588
-2313.41 11.9194 3595
-2304.81 11.9194 3595
-2296.21 11.9194 3595
-2292.71 11.9459 3603
-2284.09 11.9459 3603
-2275.48 11.9459 3603
-2266.86 11.9459 3603
-2258.25 11.9459 3603
-2249.63 11.9459 3603
-2255.94 12.0255 3627
-2247.27 12.0255 3627
-2238.59 12.0255 3627
-2234.84 12.052 3635
-2226.15 12.052 3635
-2217.46 12.052 3635
-2208.76 12.052 3635
-2195.23 12.0255 3627
-2186.56 12.0255 3627
-2177.88 12.0255 3627
-2173.99 12.052 3635
-2174.24 12.1017 3650
-2165.51 12.1017 3650
-2156.78 12.1017 3650
-2152.76 12.1282 3658
-2144.01 12.1282 3658
-2135.26 12.1282 3658
-2126.52 12.1282 3658
-2113.14 12.1017 3650
-2099.8 12.0752 3642
-2091.09 12.0752 3642
-2069.23 11.9989 3619
-2060.57 11.9989 3619
-2012.23 11.7668 3549
-2003.74 11.7668 3549
-1966.02 11.5944 3497
-1937.51 11.4751 3461
-1913.62 11.3822 3433
-1905.41 11.3822 3433
-1858.52 11.1502 3363
-1825.17 10.9976 3317
-1817.24 10.9976 3317
-1809.3 10.9976 3317
-1801.37 10.9976 3317
-1789.65 10.9744 3310
-1767.74 10.8882 3284
-1759.89 10.8882 3284
-1752.04 10.8882 3284
-1741 10.8683 3278
-1729.46 10.8451 3271
-1721.64 10.8451 3271
-1713.81 10.8451 3271
-1702.86 10.8252 3265
-1691.42 10.802 3258
-1693.97 10.8683 3278
-1695.9 10.9313 3297
-1688.02 10.9313 3297
-1683.19 10.9512 3303
-1678.84 10.9744 3310
-1674.46 10.9976 3317
-1666.53 10.9976 3317
-1661.6 11.0175 3323
-1660.62 11.0639 3337
-1652.64 11.0639 3337
-1644.66 11.0639 3337
-1643.05 11.107 3350
-1641.39 11.1502 3363
-1643.55 11.2198 3384
-1635.45 11.2198 3384
-1627.36 11.2198 3384
-1619.27 11.2198 3384
-1611.18 11.2198 3384
-1586.98 11.107 3350
-1569.54 11.0407 3330
-1561.58 11.0407 3330
-1553.61 11.0407 3330
-1542.4 11.0175 3323
-1531.68 10.9976 3317
-1517.32 10.9512 3303
-1509.42 10.9512 3303
-1501.52 10.9512 3303
-1499.96 10.9976 3317
-1494.72 11.0175 3323
-1489.91 11.0407 3330
-1481.95 11.0407 3330
-1473.98 11.0407 3330
-1466.02 11.0407 3330
-1458.06 11.0407 3330
-1447.05 11.0175 3323
-1439.1 11.0175 3323
-1428.57 10.9976 3317
-1420.64 10.9976 3317
-1406.74 10.9512 3303
-1398.84 10.9512 3303
-1390.95 10.9512 3303
-1383.05 10.9512 3303
-1378.06 10.9744 3310
-1370.15 10.9744 3310
-1362.23 10.9744 3310
-1354.32 10.9744 3310
-1346.4 10.9744 3310
-1335.66 10.9512 3303
-1327.76 10.9512 3303
-1319.86 10.9512 3303
-1311.96 10.9512 3303
-1304.06 10.9512 3303
-1288.71 10.8882 3284
-1278.52 10.8683 3278
-1270.68 10.8683 3278
-1257.83 10.8252 3265
-1247.34 10.802 3258
-1237.27 10.7821 3252
-1229.49 10.7821 3252
-1216.83 10.739 3239
-1209.09 10.739 3239
-1199.12 10.7191 3233
-1191.38 10.7191 3233
-1181.46 10.6992 3227
-1171.56 10.6793 3221
-1161.33 10.6561 3214
-1153.64 10.6561 3214
-1145.95 10.6561 3214
-1138.27 10.6561 3214
-1130.58 10.6561 3214
-1122.9 10.6561 3214
-1111.05 10.6163 3202
-1101.32 10.5965 3196
-1093.68 10.5965 3196
-1088.08 10.6163 3202
-1082.44 10.6362 3208
-1074.77 10.6362 3208
-1067.1 10.6362 3208
-1057.45 10.6163 3202
-1049.79 10.6163 3202
-552.963 5.6331 1699
-548.9 5.6331 1699
-544.837 5.6331 1699
-540.775 5.6331 1699
-537.344 5.63973 1701
-533.276 5.63973 1701
-529.208 5.63973 1701
-525.45 5.64304 1702
-521.38 5.64304 1702
-517.31 5.64304 1702
-512.938 5.63973 1701
-507.674 5.62647 1697
-503.616 5.62647 1697
-498.969 5.61983 1695
-494.624 5.61652 1694
-489.994 5.60989 1692
-483.937 5.58668 1685
-479.908 5.58668 1685
-474.466 5.5701 1680
-469.049 5.55352 1675
-463.655 5.53695 1670
-459.662 5.53695 1670
-455.122 5.53032 1668
-449.511 5.51042 1662
-445.537 5.51042 1662
-441.562 5.51042 1662
-436.535 5.49716 1658
-431.005 5.47727 1652
-426.537 5.47064 1650
-422.592 5.47064 1650
-416.616 5.44411 1642
-412.187 5.43748 1640
-407.518 5.42753 1637
-403.604 5.42753 1637
-399.445 5.42422 1636
-395.533 5.42422 1636
-390.663 5.41096 1632
-386.524 5.40764 1631
-382.623 5.40764 1631
-378.723 5.40764 1631
-374.363 5.40101 1629
-370.241 5.39769 1628
-366.347 5.39769 1628
-361.564 5.38443 1624
-357.02 5.37449 1621
-352.926 5.37117 1620
-349.052 5.37117 1620
-344.538 5.36122 1617
-340.25 5.35459 1615
-336.388 5.35459 1615
-332.526 5.35459 1615
-328.257 5.34796 1613
-323.797 5.33801 1610
-319.351 5.32807 1607
-315.508 5.32807 1607
-311.665 5.32807 1607
-307.248 5.31812 1604
-302.845 5.30817 1601
-299.016 5.30817 1601
-294.634 5.29823 1598
-290.813 5.29823 1598
-286.453 5.28828 1595
-282.639 5.28828 1595
-278.475 5.28165 1593
-274.493 5.27833 1592
-270.686 5.27833 1592
-266.88 5.27833 1592
-263.073 5.27833 1592
-259.266 5.27833 1592
-255.459 5.27833 1592
-251.336 5.2717 1590
-247.533 5.2717 1590
-243.731 5.2717 1590
-239.929 5.2717 1590
-236.127 5.2717 1590
-232.617 5.27833 1592
-228.81 5.27833 1592
-225.003 5.27833 1592
-220.918 5.2717 1590
-217.116 5.2717 1590
-213.314 5.2717 1590
-209.512 5.2717 1590
-206.098 5.28165 1593
-202.669 5.2916 1596
-198.853 5.2916 1596
-195.403 5.30154 1599
-192.178 5.31812 1604
-188.93 5.3347 1609
-185.082 5.3347 1609
-181.685 5.34796 1613
-179.04 5.38443 1624
-176.451 5.42422 1636
-172.539 5.42422 1636
-170.07 5.47064 1650
-167.332 5.51042 1662
-164.341 5.54358 1672
-160.343 5.54358 1672
-157.373 5.58005 1683
-153.895 5.59994 1689
-150.3 5.61652 1694
-146.249 5.61652 1694
-142.786 5.63973 1701
-139.126 5.65631 1706
-135.759 5.68615 1715
-131.658 5.68615 1715
-127.929 5.70272 1720
-123.815 5.70272 1720
-119.842 5.70935 1722
-115.724 5.70935 1722
-111.606 5.70935 1722
-107.238 5.69609 1718
-103.13 5.69609 1718
-157.583 12.7748 3853
-148.369 12.7748 3853
-139.156 12.7748 3853
-129.942 12.7748 3853
-120.728 12.7748 3853
-110.733 12.6852 3826
-101.584 12.6852 3826
-92.2417 12.6587 3818
-81.9798 12.4863 3766
-72.7997 12.4565 3757
-63.8156 12.4565 3757
-53.7515 12.2111 3683
-45.0419 12.2376 3691
-36.3726 12.2907 3707
-27.5748 12.3205 3716
-18.729 12.3471 3724
-9.82378 12.3471 3724
-0.918567 12.3471 3724
7.98665 12.3471 3724
16.8919 12.3471 3724
25.7971 12.3471 3724
34.7023 12.3471 3724
43.6075 12.3471 3724
52.5127 12.3471 3724
60.7417 12.2111 3683
69.2468 12.1581 3667
77.8242 12.1282 3658
86.5716 12.1282 3658
94.902 12.0752 3642
103.412 12.052 3635
112.104 12.052 3635
121.029 12.0752 3642
129.739 12.0752 3642
138.752 12.1017 3650
147.48 12.1017 3650
156.208 12.1017 3650
164.575 12.0752 3642
173.284 12.0752 3642
181.644 12.052 3635
190.336 12.052 3635
198.152 11.9989 3619
206.806 11.9989 3619
215.46 11.9989 3619
224.61 12.0255 3627
233.283 12.0255 3627
241.957 12.0255 3627
250.63 12.0255 3627
259.875 12.052 3635
270.932 12.1581 3667
279.701 12.1581 3667
289.099 12.1846 3675
298.535 12.2111 3683
308.678 12.2642 3699
317.523 12.2642 3699
327.868 12.3205 3716
336.755 12.3205 3716
345.641 12.3205 3716
354.527 12.3205 3716
363.413 12.3205 3716
369.794 12.2376 3691
378.62 12.2376 3691
386.607 12.2111 3683
395.414 12.2111 3683
402.465 12.1581 3667
411.234 12.1581 3667
418.972 12.1282 3658
424.095 12.0255 3627
431.814 11.9989 3619
439.494 11.9724 3611
448.129 11.9724 3611
454.74 11.9194 3595
462.435 11.8961 3588
469.965 11.8696 3580
478.525 11.8696 3580
485.045 11.8199 3565
491.355 11.7668 3549
496.743 11.6939 3527
505.178 11.6939 3527
510.408 11.621 3505
516.569 11.5712 3490
523.862 11.548 3483
532.191 11.548 3483
539.434 11.5248 3476
546.485 11.4983 3468
552.539 11.4519 3454
560.798 11.4519 3454
565.598 11.3822 3433
573.807 11.3822 3433
584.39 11.4287 3447
593.836 11.4519 3454
603.316 11.4751 3461
611.593 11.4751 3461
627.749 11.621 3505
638.853 11.6707 3520
651.316 11.7436 3542
659.786 11.7436 3542
678.255 11.9194 3595
686.852 11.9194 3595
696.996 11.9459 3603
705.612 11.9459 3603
717.4 11.9989 3619
726.054 11.9989 3619
736.332 12.0255 3627
745.005 12.0255 3627
758.458 12.1017 3650
770.759 12.1581 3667
781.229 12.1846 3675
790.017 12.1846 3675
805.761 12.2907 3707
816.603 12.3205 3716
825.489 12.3205 3716
834.375 12.3205 3716
843.261 12.3205 3716
852.147 12.3205 3716
861.033 12.3205 3716
867.813 12.2907 3707
867.217 12.1581 3667
1003.15 12.4299 3749
1018.87 12.5128 3774
1027.89 12.5128 3774
1036.92 12.5128 3774
1058.14 12.6587 3818
1074.54 12.7449 3844
1106.56 13.0135 3925
1115.95 13.0135 3925
1133.36 13.1063 3953
1151.2 13.2025 3982
1160.72 13.2025 3982
1170.24 13.2025 3982
1473.08 12.2376 3691
1481.91 12.2376 3691
1490.73 12.2376 3691
1479.65 12.0752 3642
1485.5 12.052 3635
1471.59 11.8696 3580
1480.15 11.8696 3580
1475.82 11.7668 3549
1475.1 11.6939 3527
1474.28 11.621 3505
1482.66 11.621 3505
1491.05 11.621 3505
1499.43 11.621 3505
1482.86 11.4287 3447
1491.1 11.4287 3447
1496.3 11.4054 3440
1504.52 11.4054 3440
1525.06 11.4983 3468
1533.36 11.4983 3468
1541.65 11.4983 3468
1549.94 11.4983 3468
1558.24 11.4983 3468
1560.21 11.4519 3454
1568.46 11.4519 3454
1576.72 11.4519 3454
1601.5 11.5712 3490
1609.85 11.5712 3490
1618.19 11.5712 3490
1626.54 11.5712 3490
1631.61 11.548 3483
1636.64 11.5248 3476
1644.95 11.5248 3476
1653.26 11.5248 3476
1630.98 11.3126 3412
1652.59 11.4054 3440
1678.2 11.5248 3476
1686.51 11.5248 3476
1694.83 11.5248 3476
1699.22 11.4983 3468
1707.51 11.4983 3468
1715.8 11.4983 3468
1710.18 11.4054 3440
2429.28 12.7151 3835
2438.45 12.7151 3835
2459.1 12.7748 3853
2468.32 12.7748 3853
2477.53 12.7748 3853
2475.13 12.7151 3835
2456.44 12.5725 3792
2465.51 12.5725 3792
2485.67 12.6289 3809
2494.78 12.6289 3809
2503.89 12.6289 3809
2501.78 12.5725 3792
1844.75 9.20393 2776
1851.39 9.20393 2776
1858.03 9.20393 2776
1855.26 9.15751 2762
1840.3 9.05142 2730
1835.32 8.99505 2713
1853.35 9.05142 2730
1872.14 9.1111 2748
1878.71 9.1111 2748
1891.46 9.14093 2757
1904.94 9.17409 2767
1920.54 9.21719 2780
1927.18 9.21719 2780
1933.83 9.21719 2780
1940.48 9.21719 2780
1954.13 9.25035 2790
1960.8 9.25035 2790
1977.35 9.29677 2804
1990.42 9.3266 2813
2004.25 9.35976 2823
2011 9.35976 2823
2021.32 9.37634 2828
2034.54 9.40618 2837
2044.92 9.42276 2842
2051.72 9.42276 2842
2065.76 9.45591 2852
2072.58 9.45591 2852
2079.4 9.45591 2852
2086.22 9.45591 2852
2093.04 9.45591 2852
2099.86 9.45591 2852
2106.68 9.45591 2852
2113.5 9.45591 2852
2120.32 9.45591 2852
2130.86 9.47249 2857
2144.43 9.50233 2866
2173.8 9.6018 2896
2180.73 9.6018 2896
2203.52 9.67142 2917
2221.86 9.72115 2932
2228.87 9.72115 2932
2235.88 9.72115 2932
2242.89 9.72115 2932
-2533.68 19.3262 3384
-2525.59 19.3262 3384
-2517.5 19.3262 3384
-2514.6 19.3662 3391
-2506.49 19.3662 3391
-2498.38 19.3662 3391
-2490.27 19.3662 3391
-2482.16 19.3662 3391
-2463.84 19.2862 3377
-2465.94 19.3662 3391
-2457.84 19.3662 3391
-2469.95 19.5261 3419
-2461.78 19.5261 3419
-2463.65 19.606 3433
-2455.44 19.606 3433
-2447.23 19.606 3433
-2434.05 19.566 3426
-2425.86 19.566 3426
-2417.66 19.566 3426
-2389.78 19.4061 3398
-2381.65 19.4061 3398
-2373.53 19.4061 3398
-2355.66 19.3262 3384
-2347.56 19.3262 3384
-2344.31 19.3662 3391
-2336.2 19.3662 3391
-2328.09 19.3662 3391
-2339.14 19.5261 3419
-2335.74 19.566 3426
-2337.06 19.646 3440
-2328.83 19.646 3440
-2339.49 19.8059 3468
-2341.28 19.8916 3483
-2337.64 19.9315 3490
-2329.3 19.9315 3490
-2335.58 20.0572 3512
-2327.18 20.0572 3512
-2324.07 20.1029 3520
-2315.65 20.1029 3520
-2311.82 20.1429 3527
-2317.75 20.2685 3549
-2319.68 20.3599 3565
-2311.15 20.3599 3565
-2307.15 20.3999 3572
-2298.61 20.3999 3572
-2290.07 20.3999 3572
-2281.52 20.3999 3572
-2283.16 20.4912 3588
-2274.58 20.4912 3588
-2266 20.4912 3588
-2257.42 20.4912 3588
-2243.83 20.4455 3580
-2244.63 20.5312 3595
-2241.01 20.5769 3603
-2232.4 20.5769 3603
-2223.78 20.5769 3603
-2215.17 20.5769 3603
-2206.55 20.5769 3603
-2197.93 20.5769 3603
-2189.32 20.5769 3603
-2180.7 20.5769 3603
-2172.09 20.5769 3603
-2163.47 20.5769 3603
-2164.42 20.6683 3619
-2165.3 20.7597 3635
-2160.76 20.7996 3642
-2152.05 20.7996 3642
-2148.05 20.8453 3650
-2139.32 20.8453 3650
-2130.59 20.8453 3650
-2117.22 20.7996 3642
-2108.51 20.7996 3642
-2095.76 20.7597 3635
-2087.07 20.7597 3635
-2069.23 20.6683 3619
-2042.92 20.4912 3588
-1987.28 20.0172 3505
-1978.9 20.0172 3505
-1949.72 19.8059 3468
-1929.67 19.686 3447
-1909.72 19.566 3426
-1901.53 19.566 3426
-1855.2 19.172 3357
-1825.17 18.9435 3317
-1813.4 18.9036 3310
-1805.49 18.9036 3310
-1797.57 18.9036 3310
-1775.6 18.7551 3284
-1767.74 18.7551 3284
-1752.92 18.6808 3271
-1745.1 18.6808 3271
-1737.28 18.6808 3271
-1726.29 18.6466 3265
-1718.48 18.6466 3265
-1710.67 18.6466 3265
-1699.21 18.6066 3258
-1691.42 18.6066 3258
-1693.97 18.7208 3278
-1689.21 18.7551 3284
-1681.36 18.7551 3284
-1680.13 18.8293 3297
-1675.29 18.8636 3303
-1674.46 18.9435 3317
-1666.53 18.9435 3317
-1661.6 18.9778 3323
-1660.62 19.0578 3337
-1652.64 19.0578 3337
-1644.66 19.0578 3337
-1643.05 19.132 3350
-1641.39 19.2062 3363
-1643.55 19.3262 3384
-1635.45 19.3262 3384
-1627.36 19.3262 3384
-1619.27 19.3262 3384
-1611.18 19.3262 3384
-1586.98 19.132 3350
-1575.67 19.092 3343
-1567.67 19.092 3343
-1559.68 19.092 3343
-1542.4 18.9778 3323
-1531.68 18.9435 3317
-1517.32 18.8636 3303
-1509.42 18.8636 3303
-1501.52 18.8636 3303
-1496.79 18.9036 3310
-1494.72 18.9778 3323
-1489.91 19.0178 3330
-1481.95 19.0178 3330
-1473.98 19.0178 3330
-1466.02 19.0178 3330
-1458.06 19.0178 3330
-1447.05 18.9778 3323
-1439.1 18.9778 3323
-1431.15 18.9778 3323
-1423.21 18.9778 3323
-1409.72 18.9036 3310
-1396.3 18.8293 3297
-1388.42 18.8293 3297
-1380.54 18.8293 3297
-1378.06 18.9036 3310
-1370.15 18.9036 3310
-1362.23 18.9036 3310
-1354.32 18.9036 3310
-1346.4 18.9036 3310
-1335.66 18.8636 3303
-1327.76 18.8636 3303
-1319.86 18.8636 3303
-1311.96 18.8636 3303
-1304.06 18.8636 3303
-1288.71 18.7551 3284
-1278.52 18.7208 3278
-1270.68 18.7208 3278
-1257.83 18.6466 3265
-1247.34 18.6066 3258
-1237.27 18.5723 3252
-1229.49 18.5723 3252
-1216.83 18.4981 3239
-1206.85 18.4638 3233
-1199.12 18.4638 3233
-1191.38 18.4638 3233
-1181.46 18.4295 3227
-1171.56 18.3953 3221
-1161.33 18.3553 3214
-1153.64 18.3553 3214
-1145.95 18.3553 3214
-1136.14 18.321 3208
-1128.47 18.321 3208
-1120.8 18.321 3208
-1108.97 18.2525 3196
-1097.19 18.184 3184
-1089.57 18.184 3184
-1088.08 18.2868 3202
-1080.42 18.2868 3202
-1072.76 18.2868 3202
-1065.11 18.2868 3202
-1057.45 18.2868 3202
-1049.79 18.2868 3202
-555.241 9.74304 1706
-551.162 9.74304 1706
-545.479 9.71449 1701
-540.775 9.70307 1699
-536.712 9.70307 1699
-532.022 9.69164 1697
-528.586 9.70307 1699
-525.141 9.71449 1701
-521.073 9.71449 1701
-517.006 9.71449 1701
-512.335 9.70307 1699
-507.075 9.68022 1695
-503.022 9.68022 1695
-498.086 9.66309 1692
-493.456 9.65167 1690
-489.414 9.65167 1690
-483.363 9.61169 1683
-479.338 9.61169 1683
-473.901 9.58313 1678
-469.049 9.566 1675
-463.655 9.53745 1670
-459.662 9.53745 1670
-455.122 9.52602 1668
-449.511 9.49176 1662
-444.464 9.46891 1658
-440.5 9.46891 1658
-436.272 9.4632 1657
-430.483 9.42323 1650
-426.02 9.4118 1648
-422.079 9.4118 1648
-416.616 9.37754 1642
-411.936 9.3604 1639
-407.518 9.34898 1637
-403.604 9.34898 1637
-399.445 9.34327 1636
-395.049 9.33185 1634
-390.663 9.32043 1632
-386.524 9.31472 1631
-382.623 9.31472 1631
-378.259 9.30329 1629
-374.363 9.30329 1629
-369.786 9.28616 1626
-365.897 9.28616 1626
-361.341 9.26903 1623
-357.02 9.2576 1621
-352.272 9.23476 1617
-348.405 9.23476 1617
-344.112 9.22334 1615
-340.25 9.22334 1615
-335.972 9.21192 1613
-332.115 9.21192 1613
-328.054 9.20621 1612
-323.797 9.19478 1610
-319.351 9.17765 1607
-315.508 9.17765 1607
-311.083 9.16052 1604
-306.673 9.14338 1601
-302.466 9.13196 1599
-298.643 9.13196 1599
-294.634 9.12625 1598
-290.267 9.10912 1595
-286.094 9.0977 1593
-282.107 9.09198 1592
-278.3 9.09198 1592
-274.493 9.09198 1592
-270.686 9.09198 1592
-266.88 9.09198 1592
-263.073 9.09198 1592
-258.94 9.08056 1590
-255.138 9.08056 1590
-251.336 9.08056 1590
-247.533 9.08056 1590
-243.578 9.07485 1589
-239.929 9.08056 1590
-236.127 9.08056 1590
-232.325 9.08056 1590
-228.523 9.08056 1590
-224.72 9.08056 1590
-220.918 9.08056 1590
-217.116 9.08056 1590
-213.314 9.08056 1590
-209.512 9.08056 1590
-206.098 9.0977 1593
-202.669 9.11483 1596
-198.853 9.11483 1596
-195.403 9.13196 1599
-192.178 9.16052 1604
-188.93 9.18907 1609
-185.082 9.18907 1609
-181.685 9.21192 1613
-179.04 9.27474 1624
-176.236 9.33185 1634
-172.328 9.33185 1634
-169.555 9.39467 1645
-166.628 9.45178 1655
-163.653 9.50889 1665
-159.671 9.50889 1665
-156.906 9.58313 1678
-153.349 9.61169 1683
-149.945 9.65167 1690
-145.904 9.65167 1690
-142.45 9.69164 1697
-138.963 9.73162 1704
-135.601 9.78302 1713
-131.504 9.78302 1713
-127.631 9.80015 1716
-123.528 9.80015 1716
-119.702 9.823 1720
-115.589 9.823 1720
-111.476 9.823 1720
-107.114 9.80015 1716
-103.01 9.80015 1716
-155.415 21.702 3800
-148.369 22.0047 3853
-139.156 22.0047 3853
-129.942 22.0047 3853
-119.882 21.8505 3826
-110.502 21.8048 3818
-101.372 21.8048 3818
-90.9854 21.5078 3766
-81.7838 21.4564 3757
-71.8309 21.1708 3707
-62.9663 21.1708 3707
-53.7515 21.0338 3683
-44.9443 21.0338 3683
-36.1371 21.0338 3683
-27.5081 21.1708 3707
-18.6888 21.2222 3716
-9.80268 21.2222 3716
-0.918567 21.2679 3724
7.98665 21.2679 3724
16.8919 21.2679 3724
25.7971 21.2679 3724
34.7023 21.2679 3724
43.2211 21.0795 3691
52.0474 21.0795 3691
60.7417 21.0338 3683
68.9257 20.8453 3650
77.654 20.8453 3650
86.3822 20.8453 3650
94.7196 20.7597 3635
103.412 20.7597 3635
112.104 20.7597 3635
120.797 20.7597 3635
129.489 20.7597 3635
138.448 20.7996 3642
147.157 20.7996 3642
155.866 20.7996 3642
164.575 20.7996 3642
172.19 20.6683 3619
180.444 20.6226 3611
189.079 20.6226 3611
197.714 20.6226 3611
206.349 20.6226 3611
214.984 20.6226 3611
223.619 20.6226 3611
232.254 20.6226 3611
240.889 20.6226 3611
250.63 20.714 3627
259.303 20.714 3627
270.932 20.9424 3667
279.701 20.9424 3667
288.469 20.9424 3667
298.535 21.0338 3683
308.01 21.0795 3691
316.836 21.0795 3691
327.074 21.1708 3707
337.48 21.2679 3724
346.385 21.2679 3724
355.29 21.2679 3724
364.195 21.2679 3724
369.794 21.0795 3691
378.62 21.0795 3691
386.607 21.0338 3683
394.555 20.9881 3675
401.478 20.891 3658
410.225 20.891 3658
418.056 20.8453 3650
423.16 20.6683 3619
430.859 20.6226 3611
439.494 20.6226 3611
448.129 20.6226 3611
453.855 20.4912 3588
461.404 20.4455 3580
467.995 20.3599 3565
476.52 20.3599 3565
483.957 20.3142 3557
491.355 20.2685 3549
496.743 20.1429 3527
505.178 20.1429 3527
509.243 19.9715 3497
515.533 19.8916 3483
522.809 19.8516 3476
531.121 19.8516 3476
537.106 19.7659 3461
544.279 19.726 3454
551.419 19.686 3447
559.662 19.686 3447
565.598 19.606 3433
573.807 19.606 3433
584.39 19.686 3447
592.633 19.686 3447
603.316 19.7659 3461
611.593 19.7659 3461
625.063 19.9315 3490
636.131 20.0172 3505
649.845 20.1828 3534
658.296 20.1828 3534
673.916 20.3999 3572
686.852 20.5312 3595
696.996 20.5769 3603
705.612 20.5769 3603
717.4 20.6683 3619
726.054 20.6683 3619
734.708 20.6683 3619
743.362 20.6683 3619
758.458 20.8453 3650
774.122 21.0338 3683
782.93 21.0338 3683
791.737 21.0338 3683
805.761 21.1708 3707
814.625 21.1708 3707
825.489 21.2222 3716
834.375 21.2222 3716
843.261 21.2222 3716
852.147 21.2222 3716
861.033 21.2222 3716
867.813 21.1708 3707
869.109 20.9881 3675
987.635 21.0795 3691
996.461 21.0795 3691
1025.71 21.5078 3766
1034.72 21.5078 3766
1045.94 21.5535 3774
1067.27 21.8048 3818
1081.19 21.9019 3835
1090.36 21.9019 3835
1125.34 22.4159 3925
1142.82 22.5758 3953
1152.27 22.5758 3953
1161.72 22.5758 3953
1467.43 21.1252 3699
1476.27 21.1252 3699
1485.12 21.1252 3699
1493.97 21.1252 3699
1499.56 21.0795 3691
1488.36 20.7996 3642
1481.04 20.5769 3603
1489.66 20.5769 3603
1485.38 20.3999 3572
1484.3 20.2685 3549
1483.54 20.1429 3527
1491.97 20.1429 3527
1500.4 20.1429 3527
1508.84 20.1429 3527
1485.87 19.726 3454
1494.13 19.726 3454
1499.34 19.686 3447
1507.59 19.686 3447
1525.06 19.8059 3468
1533.36 19.8059 3468
1541.65 19.8059 3468
1549.94 19.8059 3468
1558.24 19.8059 3468
1560.21 19.726 3454
1568.46 19.726 3454
1576.72 19.726 3454
1601.5 19.9315 3490
1609.85 19.9315 3490
1618.19 19.9315 3490
1626.54 19.9315 3490
1628.33 19.8516 3476
1636.64 19.8516 3476
1644.95 19.8516 3476
1653.26 19.8516 3476
1657.75 19.8059 3468
1666.05 19.8059 3468
1678.2 19.8516 3476
1686.51 19.8516 3476
1694.83 19.8516 3476
1703.14 19.8516 3476
1743.95 20.2285 3542
1752.42 20.2285 3542
1760.89 20.2285 3542
2429.28 21.9019 3835
2438.45 21.9019 3835
2459.1 22.0047 3853
2468.32 22.0047 3853
2477.53 22.0047 3853
2475.13 21.9019 3835
2456.44 21.6563 3792
2459.66 21.6049 3783
2474.58 21.6563 3792
2483.65 21.6563 3792
2492.72 21.6563 3792
2484.63 21.5078 3766
2460.53 21.2222 3716
2469.41 21.2222 3716
1836.05 15.7225 2753
1842.63 15.7225 2753
1849.22 15.7225 2753
1814.01 15.3684 2691
1825.85 15.4141 2699
1850.64 15.5683 2726
1872.14 15.694 2748
1878.71 15.694 2748
1894.89 15.7739 2762
1911.13 15.8539 2776
1920.54 15.8767 2780
1927.18 15.8767 2780
1933.83 15.8767 2780
1940.48 15.8767 2780
1950.63 15.9053 2785
1957.29 15.9053 2785
1973.82 15.9852 2799
1987.59 16.0423 2809
2004.25 16.1223 2823
2011 16.1223 2823
2021.32 16.1508 2828
2030.95 16.1737 2832
2041.32 16.2022 2837
2048.11 16.2022 2837
2062.13 16.2593 2847
2068.94 16.2593 2847
2075.75 16.2593 2847
2082.56 16.2593 2847
2089.37 16.2593 2847
2099.86 16.2879 2852
2106.68 16.2879 2852
2113.5 16.2879 2852
2120.32 16.2879 2852
2127.14 16.2879 2852
2137.7 16.3165 2857
2173.8 16.5392 2896
2180.73 16.5392 2896
2198.98 16.6249 2911
2214.28 16.6877 2922
2221.27 16.6877 2922
2228.26 16.6877 2922
2226.83 16.6249 2911
-2533.68 27.4326 3384
-2525.59 27.4326 3384
-2517.5 27.4326 3384
-2514.6 27.4893 3391
-2506.49 27.4893 3391
-2498.38 27.4893 3391
-2490.27 27.4893 3391
-2482.16 27.4893 3391
-2463.84 27.3758 3377
-2465.94 27.4893 3391
-2457.84 27.4893 3391
-2469.95 27.7163 3419
-2461.78 27.7163 3419
-2463.65 27.8298 3433
-2455.44 27.8298 3433
-2447.23 27.8298 3433
-2434.05 27.7731 3426
-2425.86 27.7731 3426
-2417.66 27.7731 3426
-2389.78 27.5461 3398
-2381.65 27.5461 3398
-2373.53 27.5461 3398
-2355.66 27.4326 3384
-2347.56 27.4326 3384
-2344.31 27.4893 3391
-2336.2 27.4893 3391
-2328.09 27.4893 3391
-2339.14 27.7163 3419
-2335.74 27.7731 3426
-2337.06 27.8865 3440
-2328.83 27.8865 3440
-2339.49 28.1135 3468
-2341.28 28.2351 3483
-2337.64 28.2919 3490
-2329.3 28.2919 3490
-2335.58 28.4702 3512
-2327.18 28.4702 3512
-2324.07 28.5351 3520
-2315.65 28.5351 3520
-2311.82 28.5918 3527
-2317.75 28.7702 3549
-2319.68 28.8999 3565
-2311.15 28.8999 3565
-2307.15 28.9566 3572
-2298.61 28.9566 3572
-2290.07 28.9566 3572
-2281.52 28.9566 3572
-2283.16 29.0863 3588
-2274.58 29.0863 3588
-2266 29.0863 3588
-2257.42 29.0863 3588
-2243.83 29.0215 3580
-2244.63 29.1431 3595
-2241.01 29.2079 3603
-2232.4 29.2079 3603
-2223.78 29.2079 3603
-2215.17 29.2079 3603
-2206.55 29.2079 3603
-2197.93 29.2079 3603
-2189.32 29.2079 3603
-2180.7 29.2079 3603
-2172.09 29.2079 3603
-2163.47 29.2079 3603
-2164.42 29.3376 3619
-2165.3 29.4673 3635
-2160.76 29.5241 3642
-2152.05 29.5241 3642
-2148.05 29.5889 3650
-2139.32 29.5889 3650
-2130.59 29.5889 3650
-2117.22 29.5241 3642
-2108.51 29.5241 3642
-2095.76 29.4673 3635
-2087.07 29.4673 3635
-2069.23 29.3376 3619
-2042.92 29.0863 3588
-1987.28 28.4135 3505
-1978.9 28.4135 3505
-1949.72 28.1135 3468
-1929.67 27.9433 3447
-1909.72 27.7731 3426
-1901.53 27.7731 3426
-1855.2 27.2137 3357
-1825.17 26.8894 3317
-1813.4 26.8327 3310
-1805.49 26.8327 3310
-1797.57 26.8327 3310
-1775.6 26.6219 3284
-1767.74 26.6219 3284
-1752.92 26.5165 3271
-1745.1 26.5165 3271
-1737.28 26.5165 3271
-1726.29 26.4679 3265
-1718.48 26.4679 3265
-1710.67 26.4679 3265
-1699.21 26.4112 3258
-1691.42 26.4112 3258
-1693.97 26.5733 3278
-1689.21 26.6219 3284
-1681.36 26.6219 3284
-1680.13 26.7273 3297
-1675.29 26.7759 3303
-1674.46 26.8894 3317
-1666.53 26.8894 3317
-1661.6 26.9381 3323
-1660.62 27.0516 3337
-1652.64 27.0516 3337
-1644.66 27.0516 3337
-1643.05 27.157 3350
-1641.39 27.2623 3363
-1643.55 27.4326 3384
-1635.45 27.4326 3384
-1627.36 27.4326 3384
-1619.27 27.4326 3384
-1611.18 27.4326 3384
-1586.98 27.157 3350
-1575.67 27.1002 3343
-1567.67 27.1002 3343
-1559.68 27.1002 3343
-1542.4 26.9381 3323
-1531.68 26.8894 3317
-1517.32 26.7759 3303
-1509.42 26.7759 3303
-1501.52 26.7759 3303
-1496.79 26.8327 3310
-1494.72 26.9381 3323
-1489.91 26.9948 3330
-1481.95 26.9948 3330
-1473.98 26.9948 3330
-1466.02 26.9948 3330
-1458.06 26.9948 3330
-1450.09 26.9948 3330
-1442.13 26.9948 3330
-1431.15 26.9381 3323
-1423.21 26.9381 3323
-1409.72 26.8327 3310
-1396.3 26.7273 3297
-1388.42 26.7273 3297
-1380.54 26.7273 3297
-1378.06 26.8327 3310
-1370.15 26.8327 3310
-1362.23 26.8327 3310
-1354.32 26.8327 3310
-1346.4 26.8327 3310
-1335.66 26.7759 3303
-1327.76 26.7759 3303
-1319.86 26.7759 3303
-1311.96 26.7759 3303
-1304.06 26.7759 3303
-1288.71 26.6219 3284
-1278.52 26.5733 3278
-1270.68 26.5733 3278
-1257.83 26.4679 3265
-1247.34 26.4112 3258
-1237.27 26.3625 3252
-1229.49 26.3625 3252
-1216.83 26.2571 3239
-1206.85 26.2085 3233
-1199.12 26.2085 3233
-1191.38 26.2085 3233
-1181.46 26.1599 3227
-1171.56 26.1112 3221
-1161.33 26.0545 3214
-1153.64 26.0545 3214
-1145.95 26.0545 3214
-1136.14 26.0058 3208
-1128.47 26.0058 3208
-1120.8 26.0058 3208
-1108.97 25.9085 3196
-1097.19 25.8113 3184
-1089.57 25.8113 3184
-1088.08 25.9572 3202
-1080.42 25.9572 3202
-1072.76 25.9572 3202
-1065.11 25.9572 3202
-1057.45 25.9572 3202
-1049.79 25.9572 3202
-555.241 13.8298 1706
-551.162 13.8298 1706
-545.479 13.7892 1701
-540.775 13.773 1699
-536.712 13.773 1699
-532.022 13.7568 1697
-528.586 13.773 1699
-525.141 13.7892 1701
-521.073 13.7892 1701
-517.006 13.7892 1701
-512.335 13.773 1699
-507.075 13.7406 1695
-503.022 13.7406 1695
-498.086 13.7163 1692
-493.456 13.7001 1690
-489.414 13.7001 1690
-483.363 13.6433 1683
-479.338 13.6433 1683
-473.901 13.6028 1678
-469.049 13.5785 1675
-463.655 13.5379 1670
-459.662 13.5379 1670
-455.122 13.5217 1668
-449.511 13.4731 1662
-444.464 13.4407 1658
-440.5 13.4407 1658
-436.272 13.4326 1657
-430.483 13.3758 1650
-426.02 13.3596 1648
-422.079 13.3596 1648
-416.616 13.311 1642
-411.936 13.2866 1639
-407.518 13.2704 1637
-403.604 13.2704 1637
-399.445 13.2623 1636
-395.049 13.2461 1634
-390.663 13.2299 1632
-386.524 13.2218 1631
-382.623 13.2218 1631
-378.259 13.2056 1629
-374.363 13.2056 1629
-369.786 13.1813 1626
-365.897 13.1813 1626
-361.341 13.1569 1623
-357.02 13.1407 1621
-352.272 13.1083 1617
-348.405 13.1083 1617
-344.112 13.0921 1615
-340.25 13.0921 1615
-335.972 13.0759 1613
-332.115 13.0759 1613
-328.054 13.0678 1612
-323.797 13.0516 1610
-319.351 13.0272 1607
-315.508 13.0272 1607
-311.083 13.0029 1604
-306.673 12.9786 1601
-302.466 12.9624 1599
-298.643 12.9624 1599
-294.634 12.9543 1598
-290.267 12.93 1595
-286.094 12.9137 1593
-282.107 12.9056 1592
-278.3 12.9056 1592
-274.493 12.9056 1592
-270.686 12.9056 1592
-266.88 12.9056 1592
-263.073 12.9056 1592
-258.94 12.8894 1590
-255.138 12.8894 1590
-251.336 12.8894 1590
-247.533 12.8894 1590
-243.578 12.8813 1589
-239.929 12.8894 1590
-236.127 12.8894 1590
-232.325 12.8894 1590
-228.523 12.8894 1590
-224.72 12.8894 1590
-220.918 12.8894 1590
-217.116 12.8894 1590
-213.314 12.8894 1590
-209.775 12.9056 1592
-206.098 12.9137 1593
-202.669 12.9381 1596
-198.853 12.9381 1596
-195.403 12.9624 1599
-192.178 13.0029 1604
-189.047 13.0516 1610
-185.197 13.0516 1610
-181.91 13.0921 1615
-179.261 13.1813 1626
-176.775 13.2866 1639
-172.855 13.2866 1639
-169.555 13.3353 1645
-166.628 13.4163 1655
-163.653 13.4974 1665
-159.671 13.4974 1665
-156.906 13.6028 1678
-153.349 13.6433 1683
-149.945 13.7001 1690
-145.904 13.7001 1690
-142.45 13.7568 1697
-138.963 13.8136 1704
-135.601 13.8865 1713
-131.504 13.8865 1713
-127.631 13.9108 1716
-123.528 13.9108 1716
-119.702 13.9433 1720
-115.589 13.9433 1720
-111.476 13.9433 1720
-107.114 13.9108 1716
-103.01 13.9108 1716
-155.415 30.8049 3800
-148.369 31.2346 3853
-139.156 31.2346 3853
-129.942 31.2346 3853
-119.882 31.0157 3826
-110.502 30.9508 3818
-101.372 30.9508 3818
-90.9854 30.5293 3766
-81.7838 30.4563 3757
-71.8309 30.051 3707
-62.9663 30.051 3707
-53.7515 29.8564 3683
-44.9443 29.8564 3683
-36.1371 29.8564 3683
-27.5081 30.051 3707
-18.6888 30.124 3716
-9.80268 30.124 3716
-0.918567 30.1888 3724
7.98665 30.1888 3724
16.8919 30.1888 3724
25.7971 30.1888 3724
34.7023 30.1888 3724
43.2211 29.9213 3691
52.0474 29.9213 3691
60.7417 29.8564 3683
68.9257 29.5889 3650
77.654 29.5889 3650
86.3822 29.5889 3650
94.7196 29.4673 3635
103.412 29.4673 3635
112.104 29.4673 3635
120.797 29.4673 3635
129.489 29.4673 3635
138.448 29.5241 3642
147.157 29.5241 3642
155.866 29.5241 3642
164.575 29.5241 3642
172.19 29.3376 3619
180.444 29.2728 3611
189.079 29.2728 3611
197.714 29.2728 3611
206.349 29.2728 3611
214.984 29.2728 3611
223.619 29.2728 3611
232.254 29.2728 3611
240.889 29.2728 3611
250.63 29.4025 3627
259.303 29.4025 3627
270.932 29.7267 3667
279.701 29.7267 3667
288.469 29.7267 3667
298.535 29.8564 3683
308.01 29.9213 3691
316.836 29.9213 3691
327.074 30.051 3707
337.48 30.1888 3724
346.385 30.1888 3724
355.29 30.1888 3724
364.195 30.1888 3724
369.794 29.9213 3691
378.62 29.9213 3691
386.607 29.8564 3683
394.555 29.7916 3675
401.478 29.6538 3658
410.225 29.6538 3658
418.056 29.5889 3650
423.16 29.3376 3619
430.859 29.2728 3611
439.494 29.2728 3611
448.129 29.2728 3611
453.855 29.0863 3588
461.404 29.0215 3580
467.995 28.8999 3565
476.52 28.8999 3565
483.957 28.835 3557
491.355 28.7702 3549
496.743 28.5918 3527
505.178 28.5918 3527
509.243 28.3486 3497
515.533 28.2351 3483
522.809 28.1784 3476
531.121 28.1784 3476
537.106 28.0568 3461
544.279 28 3454
551.419 27.9433 3447
559.662 27.9433 3447
565.598 27.8298 3433
573.807 27.8298 3433
584.39 27.9433 3447
592.633 27.9433 3447
603.316 28.0568 3461
611.593 28.0568 3461
625.063 28.2919 3490
636.131 28.4135 3505
649.845 28.6486 3534
658.296 28.6486 3534
673.916 28.9566 3572
686.852 29.1431 3595
696.996 29.2079 3603
705.612 29.2079 3603
717.4 29.3376 3619
726.054 29.3376 3619
734.708 29.3376 3619
743.362 29.3376 3619
758.458 29.5889 3650
774.122 29.8564 3683
782.93 29.8564 3683
791.737 29.8564 3683
805.761 30.051 3707
814.625 30.051 3707
825.489 30.124 3716
834.375 30.124 3716
843.261 30.124 3716
852.147 30.124 3716
861.033 30.124 3716
867.813 30.051 3707
869.109 29.7916 3675
870.014 29.5241 3642
878.723 29.5241 3642
887.432 29.5241 3642
890.482 29.3376 3619
893.174 29.1431 3595
892.238 28.835 3557
900.744 28.835 3557
909.25 28.835 3557
917.756 28.835 3557
926.262 28.835 3557
940.812 29.0215 3580
949.373 29.0215 3580
987.635 29.9213 3691
996.461 29.9213 3691
1025.71 30.5293 3766
1034.72 30.5293 3766
1045.94 30.5941 3774
1067.27 30.9508 3818
1081.19 31.0886 3835
1090.36 31.0886 3835
1125.34 31.8182 3925
1142.82 32.0452 3953
1152.27 32.0452 3953
1161.72 32.0452 3953
1374.44 30.8779 3809
1386.82 30.9508 3818
1395.95 30.9508 3818
1405.08 30.9508 3818
1459.54 30.1888 3724
1468.44 30.1888 3724
1477.35 30.1888 3724
1476.27 29.9861 3699
1485.12 29.9861 3699
1493.97 29.9861 3699
1499.56 29.9213 3691
1488.36 29.5241 3642
1481.04 29.2079 3603
1489.66 29.2079 3603
1488.71 29.0215 3580
1484.3 28.7702 3549
1492.79 28.7702 3549
1501.28 28.7702 3549
1506.79 28.7134 3542
1508.84 28.5918 3527
1485.87 28 3454
1494.13 28 3454
1499.34 27.9433 3447
1507.59 27.9433 3447
1525.06 28.1135 3468
1533.36 28.1135 3468
1541.65 28.1135 3468
1549.94 28.1135 3468
1558.24 28.1135 3468
1560.21 28 3454
1568.46 28 3454
1576.72 28 3454
1601.5 28.2919 3490
1609.85 28.2919 3490
1618.19 28.2919 3490
1626.54 28.2919 3490
1628.33 28.1784 3476
1636.64 28.1784 3476
1644.95 28.1784 3476
1653.26 28.1784 3476
1664.92 28.2351 3483
1673.25 28.2351 3483
1699.44 28.5351 3520
1711.26 28.5918 3527
1719.69 28.5918 3527
1738.91 28.7702 3549
1747.39 28.7702 3549
1755.88 28.7702 3549
1760.89 28.7134 3542
2429.28 31.0886 3835
2438.45 31.0886 3835
2459.1 31.2346 3853
2468.32 31.2346 3853
2477.53 31.2346 3853
2475.13 31.0886 3835
2456.44 30.7401 3792
2459.66 30.6671 3783
2440.65 30.3185 3740
2449.59 30.3185 3740
2458.53 30.3185 3740
2462.2 30.2537 3732
2460.53 30.124 3716
2469.41 30.124 3716
1836.05 22.3173 2753
1842.63 22.3173 2753
1849.22 22.3173 2753
1814.01 21.8147 2691
1835.32 21.9931 2713
1865.57 22.2768 2748
1891.22 22.5038 2776
1897.86 22.5038 2776
1910.67 22.5768 2785
1920.77 22.6173 2790
1930.21 22.6497 2794
1936.89 22.6497 2794
1943.57 22.6497 2794
1947.46 22.6173 2790
1954.13 22.6173 2790
1960.8 22.6173 2790
1973.82 22.6902 2799
1987.59 22.7713 2809
2000.7 22.8443 2818
2007.44 22.8443 2818
2017.75 22.8848 2823
2028.08 22.9253 2828
2041.32 22.9983 2837
2048.11 22.9983 2837
2054.89 22.9983 2837
2068.94 23.0794 2847
2075.75 23.0794 2847
2082.56 23.0794 2847
2089.37 23.0794 2847
2096.17 23.0794 2847
2106.68 23.1199 2852
2113.5 23.1199 2852
2120.32 23.1199 2852
2127.14 23.1199 2852
2137.7 23.1604 2857
2170.05 23.436 2891
2176.96 23.436 2891
2198.98 23.5982 2911
2214.28 23.6874 2922
2221.27 23.6874 2922
2228.26 23.6874 2922
2226.83 23.5982 2911
-2498.49 35.0454 3337
-2490.51 35.0454 3337
-2482.53 35.0454 3337
-2489.39 35.2554 3357
-2490.97 35.392 3370
-2482.91 35.392 3370
-2474.85 35.392 3370
-2466.79 35.392 3370
-2458.73 35.392 3370
-2450.67 35.392 3370
-2442.61 35.392 3370
-2449.73 35.6125 3391
-2451.7 35.7595 3405
-2448.58 35.833 3412
-2440.42 35.833 3412
-2432.26 35.833 3412
-2424.1 35.833 3412
-2415.94 35.833 3412
-2397.9 35.686 3398
-2370.09 35.392 3370
-2348.01 35.1819 3350
-2340 35.1819 3350
-2327.12 35.1084 3343
-2319.12 35.1084 3343
-2311.13 35.1084 3343
-2316.91 35.3184 3363
-2308.87 35.3184 3363
-2315.2 35.539 3384
-2307.1 35.539 3384
-2327.54 35.9801 3426
-2319.35 35.9801 3426
-2315.88 36.0536 3433
-2317.08 36.2006 3447
-2313.53 36.2741 3454
-2305.27 36.2741 3454
-2311.64 36.5052 3476
-2303.33 36.5052 3476
-2304.26 36.6522 3490
-2295.91 36.6522 3490
-2301.99 36.8832 3512
-2303.39 37.0408 3527
-2309.27 37.2718 3549
-2300.78 37.2718 3549
-2297.46 37.3558 3557
-2288.96 37.3558 3557
-2280.45 37.3558 3557
-2271.94 37.3558 3557
-2268.53 37.4399 3565
-2260 37.4399 3565
-2251.48 37.4399 3565
-2242.95 37.4399 3565
-2238.82 37.5134 3572
-2230.27 37.5134 3572
-2226.71 37.5974 3580
-2218.15 37.5974 3580
-2209.59 37.5974 3580
-2201.03 37.5974 3580
-2192.46 37.5974 3580
-2183.9 37.5974 3580
-2180.2 37.6814 3588
-2171.62 37.6814 3588
-2167.26 37.7549 3595
-2158.67 37.7549 3595
-2150.07 37.7549 3595
-2151 37.923 3611
-2147.12 38.007 3619
-2138.46 38.007 3619
-2139.22 38.175 3635
-2134.63 38.2485 3642
-2125.93 38.2485 3642
-2117.22 38.2485 3642
-2108.51 38.2485 3642
-2095.76 38.175 3635
-2087.07 38.175 3635
-2051.5 37.6814 3588
-2038.37 37.5974 3580
-1982.75 36.7257 3497
-1974.39 36.7257 3497
-1941.85 36.2741 3454
-1921.83 36.0536 3433
-1901.92 35.833 3412
-1893.76 35.833 3412
-1847.47 35.1084 3343
-1821.32 34.7618 3310
-1799.16 34.4888 3284
-1791.3 34.4888 3284
-1783.45 34.4888 3284
-1768.57 34.3522 3271
-1760.75 34.3522 3271
-1739.53 34.0897 3246
-1731.76 34.0897 3246
-1720.28 34.0162 3239
-1716.24 34.0897 3246
-1708.48 34.0897 3246
-1700.72 34.0897 3246
-1692.95 34.0897 3246
-1691.42 34.2157 3258
-1683.63 34.2157 3258
-1686.13 34.4258 3278
-1678.29 34.4258 3278
-1670.45 34.4258 3278
-1672.25 34.6253 3297
-1667.39 34.6883 3303
-1659.49 34.6883 3303
-1658.6 34.8353 3317
-1657.13 34.9719 3330
-1649.17 34.9719 3330
-1641.21 34.9719 3330
-1639.62 35.1084 3343
-1638.46 35.2554 3357
-1636.75 35.392 3370
-1628.69 35.392 3370
-1620.63 35.392 3370
-1612.57 35.392 3370
-1604.51 35.392 3370
-1586.98 35.1819 3350
-1575.67 35.1084 3343
-1567.67 35.1084 3343
-1559.68 35.1084 3343
-1542.4 34.8984 3323
-1531.68 34.8353 3317
-1514.57 34.6253 3297
-1509.42 34.6883 3303
-1501.52 34.6883 3303
-1496.79 34.7618 3310
-1494.72 34.8984 3323
-1489.91 34.9719 3330
-1481.95 34.9719 3330
-1473.98 34.9719 3330
-1466.02 34.9719 3330
-1458.06 34.9719 3330
-1450.09 34.9719 3330
-1442.13 34.9719 3330
-1431.15 34.8984 3323
-1423.21 34.8984 3323
-1409.72 34.7618 3310
-1396.3 34.6253 3297
-1388.42 34.6253 3297
-1380.54 34.6253 3297
-1375.15 34.6883 3303
-1367.25 34.6883 3303
-1362.23 34.7618 3310
-1354.32 34.7618 3310
-1346.4 34.7618 3310
-1335.66 34.6883 3303
-1327.76 34.6883 3303
-1319.86 34.6883 3303
-1311.96 34.6883 3303
-1301.69 34.6253 3297
-1288.71 34.4888 3284
-1275.79 34.3522 3271
-1267.96 34.3522 3271
-1255.13 34.2157 3258
-1245.04 34.1527 3252
-1234.99 34.0897 3246
-1227.22 34.0897 3246
-1216.83 34.0162 3239
-1206.85 33.9532 3233
-1199.12 33.9532 3233
-1191.38 33.9532 3233
-1181.46 33.8902 3227
-1171.56 33.8271 3221
-1159.16 33.6906 3208
-1151.49 33.6906 3208
-1143.82 33.6906 3208
-1136.14 33.6906 3208
-1128.47 33.6906 3208
-1120.8 33.6906 3208
-1106.88 33.5016 3190
-1097.19 33.4386 3184
-1089.57 33.4386 3184
-1088.08 33.6276 3202
-1080.42 33.6276 3202
-1072.76 33.6276 3202
-1065.11 33.6276 3202
-1055.47 33.5646 3196
-1047.83 33.5646 3196
-555.241 17.9165 1706
-551.162 17.9165 1706
-545.479 17.864 1701
-540.775 17.843 1699
-536.712 17.843 1699
-531.395 17.801 1695
-527.342 17.801 1695
-523.906 17.822 1697
-519.848 17.822 1697
-515.79 17.822 1697
-511.129 17.801 1695
-506.178 17.7695 1692
-502.132 17.7695 1692
-497.497 17.7485 1690
-493.164 17.738 1689
-488.546 17.717 1687
-483.076 17.6645 1682
-479.053 17.6645 1682
-473.619 17.612 1677
-468.489 17.57 1673
-463.1 17.5174 1668
-459.111 17.5174 1668
-454.85 17.5069 1667
-448.97 17.4334 1660
-444.196 17.4019 1657
-440.234 17.4019 1657
-435.745 17.3809 1655
-429.961 17.3074 1648
