ply
format ascii 1.0
comment File generated
element vertex 2251
property float x
property float y
property float z
end_header
1455.34 138.154 3520
1463.76 138.154 3520
1472.17 138.154 3520
1477.23 137.84 3512
1485.63 137.84 3512
1491.05 137.565 3505
1499.43 137.565 3505
1514.26 138.154 3520
1522.68 138.154 3520
1537.19 138.703 3534
1545.64 138.703 3534
1554.09 138.703 3534
1559.44 138.428 3527
1570.99 138.703 3534
1579.44 138.703 3534
1591.49 139.017 3542
1603.12 139.292 3549
1622.05 140.194 3572
1630.59 140.194 3572
1639.13 140.194 3572
1647.67 140.194 3572
1656.22 140.194 3572
1664.76 140.194 3572
1680.79 140.822 3588
1689.37 140.822 3588
1697.95 140.822 3588
1706.53 140.822 3588
1707.47 140.194 3572
1712.64 139.92 3565
1721.17 139.92 3565
1721.93 139.292 3549
1730.42 139.292 3549
1738.91 139.292 3549
1743.95 139.017 3542
1752.42 139.017 3542
1760.89 139.017 3542
1769.36 139.017 3542
1777.83 139.017 3542
1786.3 139.017 3542
1776.02 137.565 3505
1784.4 137.565 3505
1796.36 137.84 3512
1804.76 137.84 3512
1813.16 137.84 3512
1821.56 137.84 3512
1829.95 137.84 3512
1838.35 137.84 3512
1846.75 137.84 3512
1866.77 138.703 3534
1887.42 139.606 3557
1900.19 139.92 3565
1916.75 140.508 3580
1925.31 140.508 3580
1933.87 140.508 3580
1942.43 140.508 3580
1959.17 141.097 3595
1967.77 141.097 3595
1980.76 141.411 3603
1998.21 142.039 3619
2011.3 142.353 3627
2019.97 142.353 3627
2028.65 142.353 3627
2037.32 142.353 3627
2068.56 143.923 3667
2077.33 143.923 3667
2095.2 144.551 3683
2104.01 144.551 3683
2112.81 144.551 3683
2112.4 143.923 3667
2121.17 143.923 3667
2129.94 143.923 3667
2138.71 143.923 3667
2142.21 143.57 3658
2150.95 143.57 3658
2154.98 143.256 3650
2163.71 143.256 3650
2172.44 143.256 3650
2181.16 143.256 3650
2189.89 143.256 3650
2193.8 142.942 3642
2202.51 142.942 3642
2211.22 142.942 3642
2229.68 143.57 3658
2243.94 143.923 3667
2252.71 143.923 3667
2261.47 143.923 3667
2264.67 143.57 3658
2268.45 143.256 3650
2277.17 143.256 3650
2280.89 142.942 3642
2289.6 142.942 3642
2308.41 143.57 3658
2322.86 143.923 3667
2341.8 144.551 3683
2350.61 144.551 3683
2359.41 144.551 3683
2368.22 144.551 3683
2377.03 144.551 3683
2385.83 144.551 3683
2399.84 144.865 3691
2408.67 144.865 3691
2417.5 144.865 3691
2426.32 144.865 3691
2424.59 144.237 3675
2428.08 143.923 3667
2436.85 143.923 3667
2434.28 143.256 3650
2443.01 143.256 3650
2451.74 143.256 3650
2455.08 142.942 3642
2463.78 142.942 3642
2462.31 142.353 3627
2460.08 141.725 3611
2463.25 141.411 3603
2471.86 141.411 3603
2448.81 139.606 3557
2011.04 113.466 2891
2017.96 113.466 2891
2024.87 113.466 2891
2000.86 111.74 2847
1990.74 110.798 2823
1993.96 110.601 2818
2000.7 110.601 2818
1997.46 110.052 2804
1997.02 109.659 2794
1997.25 109.306 2785
2003.91 109.306 2785
2010.57 109.306 2785
2017.23 109.306 2785
2023.89 109.306 2785
2040.75 109.856 2799
2054.76 110.248 2809
2061.48 110.248 2809
2071.14 110.405 2813
2081.56 110.601 2818
2092 110.798 2823
2098.76 110.798 2823
2109.24 110.994 2828
2118.99 111.151 2832
2125.76 111.151 2832
2132.54 111.151 2832
2143.08 111.347 2837
2149.87 111.347 2837
2160.45 111.543 2842
2167.25 111.543 2842
2174.05 111.543 2842
-2361.48 131.344 3154
-2353.94 131.344 3154
-2346.39 131.344 3154
-2338.85 131.344 3154
-2331.31 131.344 3154
-2332.61 131.844 3166
-2325.04 131.844 3166
-2321.86 132.094 3172
-2323.03 132.593 3184
-2319.78 132.843 3190
-2312.15 132.843 3190
-2308.85 133.093 3196
-2301.21 133.093 3196
-2293.57 133.093 3196
-2281.64 132.843 3190
-2274.01 132.843 3190
-2270.64 133.093 3196
-2263 133.093 3196
-2255.36 133.093 3196
-2247.71 133.093 3196
-2235.87 132.843 3190
-2228.24 132.843 3190
-2220.61 132.843 3190
-2212.98 132.843 3190
-2205.35 132.843 3190
-2197.72 132.843 3190
-2190.1 132.843 3190
-2182.47 132.843 3190
-2166.66 132.344 3178
-2159.06 132.344 3178
-2147.4 132.094 3172
-2139.81 132.094 3172
-2136.26 132.344 3178
-2136.7 132.843 3190
-2129.07 132.843 3190
-2129.42 133.343 3202
-2121.77 133.343 3202
-2114.11 133.343 3202
-2106.45 133.343 3202
-2094.86 133.093 3196
-2095.06 133.593 3208
-2095.84 134.134 3221
-2088.14 134.134 3221
-2084.31 134.384 3227
-2076.6 134.384 3227
-2068.88 134.384 3227
-2061.16 134.384 3227
-2053.45 134.384 3227
-2041.93 134.134 3221
-2034.22 134.134 3221
-2026.52 134.134 3221
-2022.58 134.384 3227
-2030.47 135.425 3252
-2022.7 135.425 3252
-2014.92 135.425 3252
-2007.14 135.425 3252
-1991.37 134.884 3239
-1991.59 135.425 3252
-1983.81 135.425 3252
-1995.48 136.758 3284
-1995.5 137.299 3297
-1987.61 137.299 3297
-1979.73 137.299 3297
-1971.84 137.299 3297
-1963.96 137.299 3297
-1956.08 137.299 3297
-1944.06 137.008 3290
-1936.19 137.008 3290
-1932.42 137.299 3297
-1924.54 137.299 3297
-1916.66 137.299 3297
-1908.77 137.299 3297
-1900.89 137.299 3297
-1893 137.299 3297
-1885.12 137.299 3297
-1877.24 137.299 3297
-1843.84 135.425 3252
-1832.67 135.175 3246
-1824.91 135.175 3246
-1813.23 134.884 3239
-1802.14 134.634 3233
-1783.86 133.843 3214
-1776.18 133.843 3214
-1768.49 133.843 3214
-1754.23 133.343 3202
-1746.57 133.343 3202
-1738.92 133.343 3202
-1731.26 133.343 3202
-1723.6 133.343 3202
-1715.95 133.343 3202
-1708.29 133.343 3202
-1694.26 132.843 3190
-1686.63 132.843 3190
-1675.85 132.593 3184
-1668.23 132.593 3184
-1660.62 132.593 3184
-1653 132.593 3184
-1645.39 132.593 3184
-1640.86 132.843 3190
-1633.23 132.843 3190
-1631.72 133.343 3202
-1630.15 133.843 3214
-1629.03 134.384 3227
-1621.31 134.384 3227
-1613.59 134.384 3227
-1605.88 134.384 3227
-1604.1 134.884 3239
-1596.36 134.884 3239
-1588.61 134.884 3239
-1580.87 134.884 3239
-1573.12 134.884 3239
-1565.38 134.884 3239
-1561 135.175 3246
-1553.23 135.175 3246
-1545.47 135.175 3246
-1537.71 135.175 3246
-1532.78 135.425 3252
-1525 135.425 3252
-1517.22 135.425 3252
-1509.45 135.425 3252
-1504.44 135.675 3258
-1496.65 135.675 3258
-1488.86 135.675 3258
-1481.07 135.675 3258
-1473.28 135.675 3258
-1468.64 135.967 3265
-1460.83 135.967 3265
-1453.02 135.967 3265
-1445.21 135.967 3265
-1440.05 136.216 3271
-1435.29 136.508 3278
-1427.45 136.508 3278
-1422.21 136.758 3284
-1414.36 136.758 3284
-1406.5 136.758 3284
-1398.65 136.758 3284
-1388.26 136.508 3278
-1380.42 136.508 3278
-1372.58 136.508 3278
-1367.24 136.758 3284
-1359.39 136.758 3284
-1351.53 136.758 3284
-1343.68 136.758 3284
-1335.83 136.758 3284
-1327.97 136.758 3284
-1312.48 135.967 3265
-1301.88 135.675 3258
-1294.09 135.675 3258
-1283.93 135.425 3252
-1271.05 134.884 3239
-1258.62 134.384 3227
-1250.91 134.384 3227
-1240.88 134.134 3221
-1233.18 134.134 3221
-1222.81 133.843 3214
-1215.13 133.843 3214
-1202.93 133.343 3202
-709.997 79.2063 1902
-705.449 79.2063 1902
-700.901 79.2063 1902
-690.129 78.4983 1885
-684.166 78.3318 1881
-678.223 78.1652 1877
-671.222 77.8737 1870
-666.75 77.8737 1870
-660.862 77.7071 1866
-654.992 77.5405 1862
-648.444 77.2907 1856
-644.005 77.2907 1856
-636.466 76.9159 1847
-630.68 76.7493 1843
-623.554 76.4162 1835
-619.166 76.4162 1835
-613.438 76.2496 1831
-606.399 75.9164 1823
-599.397 75.5833 1815
-595.057 75.5833 1815
-588.113 75.2501 1807
-581.531 74.9586 1800
-572.737 74.3756 1786
-563.692 73.751 1771
-559.457 73.751 1771
-552.714 73.4178 1763
-544.142 72.8348 1749
-538.107 72.5849 1743
-533.939 72.5849 1743
-527.036 72.2101 1734
-521.984 72.0852 1731
-516.649 71.9186 1727
-512.519 71.9186 1727
-507.211 71.7521 1723
-502.799 71.7104 1722
-497.523 71.5438 1718
-493.415 71.5438 1718
-488.452 71.4189 1715
-483.786 71.3356 1713
-478.29 71.1274 1708
-473.095 70.9608 1704
-469.02 70.9608 1704
-464.127 70.8359 1701
-458.166 70.5444 1694
-453.579 70.4611 1692
-449.533 70.4611 1692
-444.17 70.2529 1687
-438.832 70.0447 1682
-433 69.7532 1675
-428.994 69.7532 1675
-423.72 69.5449 1670
-419.224 69.4617 1668
-413.991 69.2534 1663
-410.014 69.2534 1663
-405.305 69.1285 1660
-400.126 68.9203 1655
-395.69 68.837 1653
-391.737 68.837 1653
-386.612 68.6288 1648
-382.438 68.5871 1647
-378.5 68.5871 1647
-374.561 68.5871 1647
-370.623 68.5871 1647
-366.685 68.5871 1647
-362.966 68.6288 1648
-359.461 68.7121 1650
-355.516 68.7121 1650
-351.57 68.7121 1650
-348.046 68.7954 1652
-344.72 68.9203 1655
-341.174 69.0036 1657
-337.212 69.0036 1657
-333.853 69.1285 1660
-330.281 69.2118 1662
-326.306 69.2118 1662
-322.332 69.2118 1662
-318.549 69.2534 1663
-314.572 69.2534 1663
-311.343 69.42 1667
-307.356 69.42 1667
-303.552 69.4617 1668
-299.563 69.4617 1668
-295.575 69.4617 1668
-291.586 69.4617 1668
-287.597 69.4617 1668
-283.609 69.4617 1668
-279.62 69.4617 1668
-275.631 69.4617 1668
-271.643 69.4617 1668
-267.493 69.42 1667
-263.507 69.42 1667
-259.521 69.42 1667
-255.535 69.42 1667
-251.246 69.3367 1665
-247.265 69.3367 1665
-243.283 69.3367 1665
-239.302 69.3367 1665
-235.32 69.3367 1665
-231.617 69.42 1667
-227.767 69.4617 1668
-223.778 69.4617 1668
-220.053 69.5449 1670
-216.318 69.6282 1672
-212.447 69.6699 1673
-208.446 69.6699 1673
-204.69 69.7532 1675
-200.685 69.7532 1675
-196.679 69.7532 1675
-192.674 69.7532 1675
-188.668 69.7532 1675
-184.884 69.8364 1677
-180.873 69.8364 1677
-176.863 69.8364 1677
-172.647 69.7532 1675
-168.843 69.8364 1677
-164.832 69.8364 1677
-160.822 69.8364 1677
-156.812 69.8364 1677
-152.802 69.8364 1677
-148.88 69.8781 1678
-144.868 69.8781 1678
-140.855 69.8781 1678
-136.843 69.8781 1678
-132.83 69.8781 1678
-128.741 69.8364 1677
-124.73 69.8364 1677
-120.792 69.8781 1678
-116.919 69.9614 1680
-112.901 69.9614 1680
-109.014 70.0447 1682
-105.054 70.0863 1683
-101.029 70.0863 1683
-97.0046 70.0863 1683
-92.9801 70.0863 1683
-89.2727 70.3362 1689
-85.2337 70.3362 1689
-81.1948 70.3362 1689
-77.293 70.4611 1692
-73.3335 70.5444 1694
-69.3235 70.586 1695
-65.2702 70.586 1695
-61.217 70.586 1695
-57.13 70.5444 1694
-53.0791 70.5444 1694
-49.0283 70.5444 1694
-44.9774 70.5444 1694
-40.9265 70.5444 1694
-59.0426 144.753 3476
-50.7304 144.753 3476
-42.4182 144.753 3476
-34.1061 144.753 3476
-25.7939 144.753 3476
-17.4817 144.753 3476
-9.16957 144.753 3476
-0.853696 144.129 3461
7.39258 143.546 3447
15.6354 143.546 3447
23.8782 143.546 3447
32.121 143.546 3447
40.1999 142.963 3433
48.4093 142.963 3433
56.6186 142.963 3433
64.4314 142.088 3412
72.5905 142.088 3412
80.7496 142.088 3412
88.9088 142.088 3412
97.0679 142.088 3412
104.795 141.505 3398
112.921 141.505 3398
121.296 141.797 3405
129.438 141.797 3405
137.864 142.088 3412
146.023 142.088 3412
154.182 142.088 3412
162.341 142.088 3412
171.2 142.671 3426
179.392 142.671 3426
187.585 142.671 3426
195.777 142.671 3426
204.387 142.963 3433
213.463 143.546 3447
221.706 143.546 3447
229.949 143.546 3447
239.159 144.129 3461
247.435 144.129 3461
257.337 145.045 3483
265.666 145.045 3483
273.995 145.045 3483
281.108 144.42 3468
289.401 144.42 3468
297.694 144.42 3468
305.987 144.42 3468
314.28 144.42 3468
322.573 144.42 3468
330.198 144.129 3461
338.475 144.129 3461
346.751 144.129 3461
355.027 144.129 3461
363.303 144.129 3461
370.828 143.837 3454
378.32 143.546 3447
384.207 142.671 3426
392.4 142.671 3426
399.774 142.38 3419
404.609 141.214 3391
412.718 141.214 3391
420.827 141.214 3391
428.936 141.214 3391
434.338 140.339 3370
440.69 139.798 3357
448.718 139.798 3357
454.841 139.215 3343
465.604 140.048 3363
473.646 140.048 3363
481.688 140.048 3363
487.836 139.506 3350
494.811 139.215 3343
499.797 138.382 3323
507.744 138.382 3323
515.69 138.382 3323
523.636 138.382 3323
533.822 138.965 3337
543.913 139.506 3350
559.832 141.505 3398
567.957 141.505 3398
578.456 142.088 3412
587.819 142.38 3419
595.995 142.38 3419
604.171 142.38 3419
612.347 142.38 3419
623.063 142.963 3433
632.56 143.254 3440
640.786 143.254 3440
650.333 143.546 3447
659.913 143.837 3454
668.172 143.837 3454
676.432 143.837 3454
687.467 144.42 3468
695.76 144.42 3468
704.053 144.42 3468
712.346 144.42 3468
720.639 144.42 3468
728.932 144.42 3468
737.225 144.42 3468
745.518 144.42 3468
750.768 143.837 3454
759.028 143.837 3454
767.287 143.837 3454
775.547 143.837 3454
777.452 142.671 3426
787.25 142.963 3433
800.325 143.837 3454
811.862 144.42 3468
820.155 144.42 3468
830.36 144.753 3476
838.672 144.753 3476
846.984 144.753 3476
855.296 144.753 3476
863.608 144.753 3476
873.676 145.045 3483
883.778 145.336 3490
892.123 145.336 3490
902.275 145.628 3497
912.721 145.961 3505
922.942 146.253 3512
931.34 146.253 3512
941.879 146.586 3520
950.296 146.586 3520
960.62 146.877 3527
969.055 146.877 3527
979.429 147.169 3534
994.309 148.127 3557
1002.81 148.127 3557
1011.32 148.127 3557
1019.83 148.127 3557
1028.33 148.127 3557
1034.51 147.793 3549
1045.34 148.127 3557
1053.85 148.127 3557
1073.71 149.709 3595
1087.12 150.375 3611
1095.75 150.375 3611
1104.39 150.375 3611
1113.02 150.375 3611
1121.66 150.375 3611
1130.29 150.375 3611
1138.93 150.375 3611
1150.11 150.708 3619
1158.76 150.708 3619
1174.83 151.666 3642
1183.54 151.666 3642
1192.25 151.666 3642
1200.96 151.666 3642
1209.67 151.666 3642
1218.38 151.666 3642
1227.09 151.666 3642
1238.51 151.999 3650
1249.97 152.333 3658
1258.72 152.333 3658
1270.59 152.707 3667
1279.36 152.707 3667
1288.12 152.707 3667
1293.71 152.333 3658
1299.61 151.999 3650
1305.47 151.666 3642
1311.65 151.375 3635
1320.35 151.375 3635
1329.04 151.375 3635
1337.73 151.375 3635
1346.42 151.375 3635
1355.12 151.375 3635
1363.81 151.375 3635
1369.48 151.042 3627
1375.11 150.708 3619
1383.77 150.708 3619
1386.27 150.042 3603
1391.78 149.709 3595
1400.38 149.709 3595
1408.98 149.709 3595
1414.81 149.418 3588
1417.05 148.751 3572
1422.79 148.46 3565
1428.11 148.127 3557
1436.61 148.127 3557
1439.03 147.502 3542
1441.37 146.877 3527
1446.92 146.586 3520
1455.34 146.586 3520
1463.76 146.586 3520
1472.17 146.586 3520
1477.23 146.253 3512
1485.63 146.253 3512
1491.05 145.961 3505
1499.43 145.961 3505
1514.26 146.586 3520
1522.68 146.586 3520
1537.19 147.169 3534
1545.64 147.169 3534
1554.09 147.169 3534
1559.44 146.877 3527
1570.99 147.169 3534
1579.44 147.169 3534
1591.49 147.502 3542
1603.12 147.793 3549
1622.05 148.751 3572
1630.59 148.751 3572
1639.13 148.751 3572
1647.67 148.751 3572
1656.22 148.751 3572
1664.76 148.751 3572
1680.79 149.418 3588
1689.37 149.418 3588
1697.95 149.418 3588
1706.53 149.418 3588
1707.47 148.751 3572
1712.64 148.46 3565
1721.17 148.46 3565
1721.93 147.793 3549
1723.1 147.169 3534
1735.48 147.502 3542
1743.95 147.502 3542
1752.42 147.502 3542
1760.89 147.502 3542
1769.36 147.502 3542
1777.83 147.502 3542
1786.3 147.502 3542
1776.02 145.961 3505
1784.4 145.961 3505
1788.69 145.628 3497
1797.05 145.628 3497
1805.41 145.628 3497
1813.78 145.628 3497
1822.14 145.628 3497
1830.5 145.628 3497
1838.86 145.628 3497
1866.77 147.169 3534
1887.42 148.127 3557
1900.19 148.46 3565
1916.75 149.084 3580
1925.31 149.084 3580
1933.87 149.084 3580
1942.43 149.084 3580
1959.17 149.709 3595
1967.77 149.709 3595
1980.76 150.042 3603
1998.21 150.708 3619
2011.3 151.042 3627
2019.97 151.042 3627
2028.65 151.042 3627
2037.32 151.042 3627
2068.56 152.707 3667
2077.33 152.707 3667
2095.2 153.374 3683
2104.01 153.374 3683
2112.81 153.374 3683
2112.4 152.707 3667
2121.17 152.707 3667
2129.94 152.707 3667
2138.71 152.707 3667
2142.21 152.333 3658
2150.95 152.333 3658
2154.98 151.999 3650
2163.71 151.999 3650
2172.44 151.999 3650
2181.16 151.999 3650
2189.89 151.999 3650
2193.8 151.666 3642
2202.51 151.666 3642
2211.22 151.666 3642
2229.68 152.333 3658
2243.94 152.707 3667
2252.71 152.707 3667
2261.47 152.707 3667
2264.67 152.333 3658
2268.45 151.999 3650
2277.17 151.999 3650
2280.89 151.666 3642
2289.6 151.666 3642
2308.41 152.333 3658
2322.86 152.707 3667
2341.8 153.374 3683
2350.61 153.374 3683
2359.41 153.374 3683
2368.22 153.374 3683
2377.03 153.374 3683
2385.83 153.374 3683
2399.84 153.707 3691
2408.67 153.707 3691
2417.5 153.707 3691
2426.32 153.707 3691
2424.59 153.041 3675
2428.08 152.707 3667
2436.85 152.707 3667
2434.28 151.999 3650
2443.01 151.999 3650
2451.74 151.999 3650
2455.08 151.666 3642
2463.78 151.666 3642
2462.31 151.042 3627
2460.08 150.375 3611
2463.25 150.042 3603
2471.86 150.042 3603
2448.81 148.127 3557
2011.04 120.392 2891
2017.96 120.392 2891
2024.87 120.392 2891
1993.83 118.143 2837
1983.69 117.144 2813
1984.05 116.769 2804
1990.76 116.769 2804
1990.34 116.352 2794
1990.59 115.978 2785
1987.21 115.395 2771
1993.83 115.395 2771
1997.57 115.228 2767
2004.19 115.228 2767
2017.35 115.603 2776
2030.55 115.978 2785
2047.45 116.561 2799
2054.14 116.561 2799
2068.2 116.977 2809
2077.87 117.144 2813
2088.3 117.352 2818
2095.04 117.352 2818
2105.51 117.56 2823
2116 117.768 2828
2122.76 117.768 2828
2129.52 117.768 2828
2139.31 117.935 2832
2149.87 118.143 2837
2156.65 118.143 2837
2163.44 118.143 2837
2170.22 118.143 2837
-2356.98 138.635 3148
-2349.46 138.635 3148
-2341.93 138.635 3148
-2334.4 138.635 3148
-2326.87 138.635 3148
-2323.77 138.9 3154
-2316.22 138.9 3154
-2317.47 139.428 3166
-2314.27 139.692 3172
-2315.41 140.221 3184
-2307.8 140.221 3184
-2300.19 140.221 3184
-2292.57 140.221 3184
-2284.96 140.221 3184
-2268.76 139.692 3172
-2269.73 140.221 3184
-2262.12 140.221 3184
-2254.5 140.221 3184
-2246.89 140.221 3184
-2235.05 139.957 3178
-2223.25 139.692 3172
-2215.66 139.692 3172
-2208.08 139.692 3172
-2200.49 139.692 3172
-2197.06 139.957 3178
-2189.46 139.957 3178
-2181.86 139.957 3178
-2174.26 139.957 3178
-2162.57 139.692 3172
-2154.98 139.692 3172
-2147.4 139.692 3172
-2135.77 139.428 3166
-2132.23 139.692 3172
-2132.68 140.221 3184
-2125.07 140.221 3184
-2125.43 140.749 3196
-2117.79 140.749 3196
-2110.15 140.749 3196
-2102.5 140.749 3196
-2090.93 140.485 3190
-2087.22 140.749 3196
-2095.84 141.85 3221
-2088.14 141.85 3221
-2080.44 141.85 3221
-2072.74 141.85 3221
-2065.03 141.85 3221
-2057.33 141.85 3221
-2049.63 141.85 3221
-2041.93 141.85 3221
-2034.22 141.85 3221
-2026.52 141.85 3221
-2022.58 142.114 3227
-2030.47 143.215 3252
-2022.7 143.215 3252
-2014.92 143.215 3252
-2007.14 143.215 3252
-1991.37 142.643 3239
-1991.59 143.215 3252
-1983.81 143.215 3252
-1995.48 144.625 3284
-1995.5 145.197 3297
-1987.61 145.197 3297
-1979.73 145.197 3297
-1971.84 145.197 3297
-1963.96 145.197 3297
-1956.08 145.197 3297
-1944.06 144.889 3290
-1936.19 144.889 3290
-1932.42 145.197 3297
-1924.54 145.197 3297
-1916.66 145.197 3297
-1908.77 145.197 3297
-1900.89 145.197 3297
-1893 145.197 3297
-1885.12 145.197 3297
-1877.24 145.197 3297
-1843.84 143.215 3252
-1832.67 142.951 3246
-1824.91 142.951 3246
-1813.23 142.643 3239
-1802.14 142.379 3233
-1791.08 142.114 3227
-1783.36 142.114 3227
-1772.34 141.85 3221
-1760.81 141.542 3214
-1749.85 141.278 3208
-1742.18 141.278 3208
-1734.51 141.278 3208
-1730.06 141.542 3214
-1722.38 141.542 3214
-1714.69 141.542 3214
-1700.63 141.013 3202
-1689.8 140.749 3196
-1685.32 141.013 3202
-1677.66 141.013 3202
-1670.01 141.013 3202
-1665.46 141.278 3208
-1660.89 141.542 3214
-1656.81 141.85 3221
-1649.11 141.85 3221
-1644.46 142.114 3227
-1649.42 143.215 3252
-1641.65 143.215 3252
-1633.87 143.215 3252
-1626.09 143.215 3252
-1618.32 143.215 3252
-1610.54 143.215 3252
-1602.76 143.215 3252
-1594.99 143.215 3252
-1587.21 143.215 3252
-1579.44 143.215 3252
-1571.66 143.215 3252
-1561 142.951 3246
-1553.23 142.951 3246
-1545.47 142.951 3246
-1537.71 142.951 3246
-1532.78 143.215 3252
-1525 143.215 3252
-1517.22 143.215 3252
-1509.45 143.215 3252
-1504.44 143.48 3258
-1496.65 143.48 3258
-1488.86 143.48 3258
-1481.07 143.48 3258
-1476.44 143.788 3265
-1468.64 143.788 3265
-1466.64 144.36 3278
-1458.81 144.36 3278
-1450.97 144.36 3278
-1445.77 144.625 3284
-1440.54 144.889 3290
-1432.68 144.889 3290
-1430.44 145.461 3303
-1422.54 145.461 3303
-1414.64 145.461 3303
-1406.74 145.461 3303
-1393.34 144.889 3290
-1388.42 145.197 3297
-1383.05 145.461 3303
-1378.06 145.77 3310
-1370.15 145.77 3310
-1362.23 145.77 3310
-1354.32 145.77 3310
-1346.4 145.77 3310
-1338.49 145.77 3310
-1320.12 144.625 3284
-1312.27 144.625 3284
-1304.41 144.625 3284
-1294.19 144.36 3278
-1276.15 143.215 3252
-1263.3 142.643 3239
-1255.56 142.643 3239
-1245.5 142.379 3233
-1237.77 142.379 3233
-1225.47 141.85 3221
-1217.77 141.85 3221
-1202.93 141.013 3202
-709.997 83.7625 1902
-705.449 83.7625 1902
-700.901 83.7625 1902
-690.129 83.0139 1885
-682.711 82.6616 1877
-674.971 82.2652 1868
-669.068 82.089 1864
-664.611 82.089 1864
-659.445 82.001 1862
-654.289 81.9129 1860
-648.444 81.7367 1856
-644.005 81.7367 1856
-636.466 81.3404 1847
-629.996 81.0761 1841
-623.554 80.8119 1835
-619.166 80.8119 1835
-613.438 80.6357 1831
-605.733 80.1954 1821
-598.737 79.843 1813
-594.401 79.843 1813
-587.462 79.4907 1805
-580.885 79.1825 1798
-571.454 78.4778 1782
-561.782 77.7292 1765
-557.561 77.7292 1765
-551.146 77.4209 1758
-542.898 76.8484 1745
-537.181 76.6282 1740
-533.02 76.6282 1740
-526.428 76.2759 1732
-521.381 76.1438 1729
-516.649 76.0557 1727
-512.519 76.0557 1727
-507.211 75.8795 1723
-502.799 75.8355 1722
-497.523 75.6593 1718
-493.415 75.6593 1718
-488.452 75.5272 1715
-483.221 75.3511 1711
-477.17 75.0428 1704
-472.54 74.9547 1702
-468.47 74.9547 1702
-463.581 74.8226 1699
-458.166 74.6024 1694
-453.043 74.4262 1690
-449.001 74.4262 1690
-443.644 74.206 1685
-438.832 74.0739 1682
-433 73.7656 1675
-428.994 73.7656 1675
-423.72 73.5454 1670
-419.224 73.4574 1668
-414.489 73.3252 1665
-410.507 73.3252 1665
-405.305 73.105 1660
-399.643 72.7968 1653
-395.69 72.7968 1653
-391.737 72.7968 1653
-386.377 72.5325 1647
-382.438 72.5325 1647
-378.5 72.5325 1647
-374.561 72.5325 1647
-370.623 72.5325 1647
-366.685 72.5325 1647
-362.966 72.5766 1648
-359.461 72.6647 1650
-355.516 72.6647 1650
-351.57 72.6647 1650
-348.046 72.7527 1652
-344.72 72.8849 1655
-341.38 73.017 1658
-337.415 73.017 1658
-333.853 73.105 1660
-330.281 73.1931 1662
-326.306 73.1931 1662
-322.332 73.1931 1662
-318.549 73.2372 1663
-314.572 73.2372 1663
-311.53 73.4574 1668
-307.541 73.4574 1668
-303.552 73.4574 1668
-299.563 73.4574 1668
-295.575 73.4574 1668
-291.586 73.4574 1668
-287.597 73.4574 1668
-283.609 73.4574 1668
-279.62 73.4574 1668
-275.631 73.4574 1668
-271.643 73.4574 1668
-267.654 73.4574 1668
-263.665 73.4574 1668
-259.521 73.4133 1667
-255.535 73.4133 1667
-251.548 73.4133 1667
-247.562 73.4133 1667
-243.283 73.3252 1665
-239.589 73.4133 1667
-235.603 73.4133 1667
-231.617 73.4133 1667
-227.63 73.4133 1667
-223.778 73.4574 1668
-220.053 73.5454 1670
-216.06 73.5454 1670
-212.447 73.6776 1673
-208.446 73.6776 1673
-204.69 73.7656 1675
-200.685 73.7656 1675
-196.679 73.7656 1675
-192.674 73.7656 1675
-188.668 73.7656 1675
-184.663 73.7656 1675
-180.658 73.7656 1675
-176.652 73.7656 1675
-172.647 73.7656 1675
-168.843 73.8537 1677
-164.832 73.8537 1677
-160.822 73.8537 1677
-156.812 73.8537 1677
-152.802 73.8537 1677
-148.792 73.8537 1677
-144.781 73.8537 1677
-140.771 73.8537 1677
-136.598 73.7656 1675
-132.751 73.8537 1677
-128.741 73.8537 1677
-124.805 73.8978 1678
-120.792 73.8978 1678
-117.058 74.0739 1682
-113.036 74.0739 1682
-109.078 74.118 1683
-105.054 74.118 1683
-101.029 74.118 1683
-97.0046 74.118 1683
-92.9801 74.118 1683
-89.1669 74.2941 1687
-85.2337 74.3822 1689
-81.1948 74.3822 1689
-77.293 74.5143 1692
-73.3335 74.6024 1694
-69.3235 74.6464 1695
-65.2702 74.6464 1695
-61.217 74.6464 1695
-57.13 74.6024 1694
-53.0791 74.6024 1694
-49.0283 74.6024 1694
-44.9774 74.6024 1694
-59.79 155.018 3520
-51.3726 155.018 3520
-42.9552 155.018 3520
-34.4593 154.666 3512
-26.0091 154.357 3505
-17.6276 154.357 3505
-9.22496 154.005 3497
-0.860849 153.697 3490
7.45477 153.08 3476
15.7669 153.08 3476
23.9752 152.42 3461
32.2515 152.42 3461
40.3639 151.803 3447
48.6067 151.803 3447
56.7341 151.495 3440
64.828 151.187 3433
73.0373 151.187 3433
81.2466 151.187 3433
89.2736 150.878 3426
97.4662 150.878 3426
105.227 150.262 3412
113.386 150.262 3412
121.545 150.262 3412
129.704 150.262 3412
138.146 150.57 3419
146.322 150.57 3419
154.814 150.878 3426
163.007 150.878 3426
171.549 151.187 3433
179.759 151.187 3433
187.968 151.187 3433
196.177 151.187 3433
204.387 151.187 3433
213.897 152.111 3454
222.156 152.111 3454
230.416 152.111 3454
238.675 152.111 3454
247.936 152.728 3468
257.337 153.388 3483
265.666 153.388 3483
273.995 153.388 3483
281.756 153.08 3476
290.069 153.08 3476
297.694 152.728 3468
305.987 152.728 3468
314.28 152.728 3468
322.573 152.728 3468
330.866 152.728 3468
339.159 152.728 3468
346.751 152.42 3461
355.027 152.42 3461
362.569 152.111 3454
370.077 151.803 3447
376.015 150.878 3426
384.207 150.878 3426
392.4 150.878 3426
395.682 149.029 3384
402.103 148.412 3370
409.31 148.104 3363
417.352 148.104 3363
425.394 148.104 3363
432.663 147.84 3357
438.065 146.959 3337
446.044 146.959 3337
453.072 146.65 3330
462.004 146.959 3337
469.984 146.959 3337
477.964 146.959 3337
485.943 146.959 3337
493.923 146.959 3337
499.797 146.342 3323
507.744 146.342 3323
516.776 146.65 3330
524.739 146.65 3330
533.822 146.959 3337
543.913 147.531 3350
559.832 149.645 3398
567.957 149.645 3398
582.017 151.187 3433
590.226 151.187 3433
598.435 151.187 3433
606.645 151.187 3433
616.108 151.495 3440
624.334 151.495 3440
635.134 152.111 3454
643.394 152.111 3454
651.653 152.111 3454
662.588 152.728 3468
670.881 152.728 3468
679.174 152.728 3468
690.44 153.388 3483
698.769 153.388 3483
707.098 153.388 3483
715.427 153.388 3483
723.756 153.388 3483
730.614 153.08 3476
738.926 153.08 3476
747.238 153.08 3476
755.55 153.08 3476
763.862 153.08 3476
772.174 153.08 3476
778.69 152.728 3468
786.983 152.728 3468
798.716 153.388 3483
808.667 153.697 3490
822.163 154.666 3512
830.561 154.666 3512
840.87 155.018 3520
849.288 155.018 3520
857.705 155.018 3520
866.123 155.018 3520
870.813 154.357 3505
879.195 154.357 3505
889.349 154.666 3512
897.747 154.666 3512
908.21 155.018 3520
918.45 155.326 3527
928.723 155.634 3534
937.174 155.634 3534
945.625 155.634 3534
954.076 155.634 3534
962.527 155.634 3534
970.978 155.634 3534
983.586 156.295 3549
994.309 156.647 3557
1002.81 156.647 3557
1011.32 156.647 3557
1019.83 156.647 3557
1028.33 156.647 3557
1036.84 156.647 3557
1045.34 156.647 3557
1053.85 156.647 3557
1071.61 158.013 3588
1084.71 158.673 3603
1095.75 159.025 3611
1104.39 159.025 3611
1113.02 159.025 3611
1121.66 159.025 3611
1130.29 159.025 3611
1138.93 159.025 3611
1150.11 159.378 3619
1158.76 159.378 3619
1174.83 160.391 3642
1183.54 160.391 3642
1192.25 160.391 3642
1203.6 160.743 3650
1212.33 160.743 3650
1221.06 160.743 3650
1229.78 160.743 3650
1244.28 161.492 3667
1255.78 161.844 3675
1264.57 161.844 3675
1273.36 161.844 3675
1282.15 161.844 3675
1290.94 161.844 3675
1296.89 161.492 3667
1305.66 161.492 3667
1308.34 160.743 3650
1317.07 160.743 3650
1325.79 160.743 3650
1334.52 160.743 3650
1343.25 160.743 3650
1351.98 160.743 3650
1360.71 160.743 3650
1366.43 160.391 3642
1372.5 160.082 3635
1375.11 159.378 3619
1383.77 159.378 3619
1392.42 159.378 3619
1401.08 159.378 3619
1409.73 159.378 3619
1418.38 159.378 3619
1420.73 158.673 3603
1423.39 158.013 3588
1425.59 157.308 3572
1431.32 157 3565
1439.84 157 3565
1441.87 156.295 3549
1447.5 155.987 3542
1452.68 155.634 3534
1461.13 155.634 3534
1469.58 155.634 3534
1478.03 155.634 3534
1483.54 155.326 3527
1491.97 155.326 3527
1497.43 155.018 3520
1505.84 155.018 3520
1520.28 155.634 3534
1528.73 155.634 3534
1537.19 155.634 3534
1549.14 155.987 3542
1560.68 156.295 3549
1569.17 156.295 3549
1577.66 156.295 3549
1586.14 156.295 3549
1598.23 156.647 3557
1610.34 157 3565
1625.68 157.66 3580
1634.24 157.66 3580
1642.8 157.66 3580
1655.05 158.013 3588
1663.63 158.013 3588
1672.21 158.013 3588
1684.07 158.321 3595
1692.67 158.321 3595
1701.27 158.321 3595
1709.86 158.321 3595
1711.29 157.66 3580
1712.64 157 3565
1721.17 157 3565
1721.93 156.295 3549
1723.1 155.634 3534
1731.56 155.634 3534
1743.95 155.987 3542
1752.42 155.987 3542
1760.89 155.987 3542
1769.36 155.987 3542
1770.3 155.326 3527
1778.73 155.326 3527
1776.02 154.357 3505
1773.2 153.388 3483
1781.53 153.388 3483
1789.86 153.388 3483
1798.19 153.388 3483
1806.51 153.388 3483
1814.84 153.388 3483
1830.5 154.005 3497
1838.86 154.005 3497
1859.37 155.018 3520
1879.47 155.987 3542
1900.19 157 3565
1916.75 157.66 3580
1925.31 157.66 3580
1933.87 157.66 3580
1942.43 157.66 3580
1959.17 158.321 3595
1967.77 158.321 3595
1980.76 158.673 3603
1998.21 159.378 3619
2011.3 159.73 3627
2019.97 159.73 3627
2028.65 159.73 3627
2037.32 159.73 3627
2077.58 162.196 3683
2086.39 162.196 3683
2099.75 162.549 3691
2108.58 162.549 3691
2117.4 162.549 3691
2121.62 162.196 3683
2125.8 161.844 3675
2129.94 161.492 3667
2138.71 161.492 3667
2147.48 161.492 3667
2150.95 161.095 3658
2154.98 160.743 3650
2168.45 161.095 3658
2177.2 161.095 3658
2185.94 161.095 3658
2194.69 161.095 3658
2198.62 160.743 3650
2212.19 161.095 3658
2220.93 161.095 3658
2235.17 161.492 3667
2248.83 161.844 3675
2257.62 161.844 3675
2266.41 161.844 3675
2275.2 161.844 3675
2273.42 161.095 3658
2282.17 161.095 3658
2296.55 161.492 3667
2305.32 161.492 3667
2314.09 161.492 3667
2327.92 161.844 3675
2341.8 162.196 3683
2350.61 162.196 3683
2359.41 162.196 3683
2368.22 162.196 3683
2377.03 162.196 3683
2385.83 162.196 3683
2405.04 162.901 3699
2413.89 162.901 3699
2422.74 162.901 3699
2426.32 162.549 3691
2429.87 162.196 3683
2428.08 161.492 3667
2436.85 161.492 3667
2439.62 161.095 3658
2443.01 160.743 3650
2451.74 160.743 3650
2460.47 160.743 3650
2469.2 160.743 3650
2472.49 160.391 3642
2465.53 159.378 3619
2463.25 158.673 3603
2471.86 158.673 3603
2459.14 157.308 3572
2426.23 154.666 3512
1980.27 124.939 2837
1987.05 124.939 2837
1993.83 124.939 2837
1983.69 123.882 2813
1990.42 123.882 2813
1997.15 123.882 2813
1993.9 123.266 2799
1984.15 122.253 2776
1980.75 121.636 2762
1987.36 121.636 2762
1990.35 121.416 2757
1996.95 121.416 2757
2007.17 121.636 2762
2023.98 122.253 2776
2043.79 123.045 2794
2050.47 123.045 2794
2064.51 123.486 2804
2074.91 123.706 2809
2088.3 124.102 2818
2095.04 124.102 2818
2105.51 124.323 2823
2116 124.543 2828
2122.76 124.543 2828
2129.52 124.543 2828
2136.29 124.543 2828
2146.08 124.719 2832
2156.65 124.939 2837
2163.44 124.939 2837
2170.22 124.939 2837
-2356.98 146.176 3148
-2349.46 146.176 3148
-2341.93 146.176 3148
-2334.4 146.176 3148
-2326.87 146.176 3148
-2323.77 146.455 3154
-2316.22 146.455 3154
-2317.47 147.012 3166
-2314.27 147.291 3172
-2315.41 147.848 3184
-2307.8 147.848 3184
-2300.19 147.848 3184
-2292.57 147.848 3184
-2284.96 147.848 3184
-2268.76 147.291 3172
-2269.73 147.848 3184
-2262.12 147.848 3184
-2254.5 147.848 3184
-2246.89 147.848 3184
-2235.05 147.569 3178
-2223.25 147.291 3172
-2215.66 147.291 3172
-2208.08 147.291 3172
-2200.49 147.291 3172
-2197.06 147.569 3178
-2189.46 147.569 3178
-2181.86 147.569 3178
-2174.26 147.569 3178
-2162.57 147.291 3172
-2154.98 147.291 3172
-2147.4 147.291 3172
-2135.77 147.012 3166
-2132.23 147.291 3172
-2132.68 147.848 3184
-2125.07 147.848 3184
-2125.43 148.405 3196
-2117.79 148.405 3196
-2110.15 148.405 3196
-2102.5 148.405 3196
-2090.93 148.127 3190
-2087.22 148.405 3196
-2095.84 149.566 3221
-2088.14 149.566 3221
-2080.44 149.566 3221
-2072.74 149.566 3221
-2065.03 149.566 3221
-2057.33 149.566 3221
-2049.63 149.566 3221
-2045.73 149.845 3227
-2038.01 149.845 3227
-2030.3 149.845 3227
-2026.34 150.123 3233
-2030.47 151.006 3252
-2022.7 151.006 3252
-2014.92 151.006 3252
-2007.14 151.006 3252
-1991.37 150.402 3239
-1991.59 151.006 3252
-1983.81 151.006 3252
-1995.48 152.492 3284
-1995.5 153.095 3297
-1987.61 153.095 3297
-1979.73 153.095 3297
-1971.84 153.095 3297
-1963.96 153.095 3297
-1956.08 153.095 3297
-1944.06 152.77 3290
-1936.19 152.77 3290
-1932.42 153.095 3297
-1924.54 153.095 3297
-1916.66 153.095 3297
-1908.77 153.095 3297
-1900.89 153.095 3297
-1893 153.095 3297
-1885.12 153.095 3297
-1877.24 153.095 3297
-1843.84 151.006 3252
-1832.67 150.727 3246
-1824.91 150.727 3246
-1813.23 150.402 3239
-1805.48 150.402 3239
-1794.41 150.123 3233
-1786.68 150.123 3233
-1778.95 150.123 3233
-1764.64 149.566 3221
-1756.94 149.566 3221
-1749.24 149.566 3221
-1741.53 149.566 3221
-1733.83 149.566 3221
-1726.13 149.566 3221
-1718.43 149.566 3221
-1707.01 149.241 3214
-1699.32 149.241 3214
-1691.64 149.241 3214
-1683.95 149.241 3214
-1676.26 149.241 3214
-1672.21 149.566 3221
-1670.71 150.123 3233
-1669.67 150.727 3246
-1661.91 150.727 3246
-1657.2 151.006 3252
-1656.02 151.609 3265
-1660.83 152.77 3290
-1652.96 152.77 3290
-1645.1 152.77 3290
-1631.26 152.213 3278
-1623.42 152.213 3278
-1615.58 152.213 3278
-1607.74 152.213 3278
-1599.9 152.213 3278
-1592.06 152.213 3278
-1580.84 151.888 3271
-1576.39 152.213 3278
-1568.55 152.213 3278
-1563.56 152.492 3284
-1555.71 152.492 3284
-1550.69 152.77 3290
-1542.82 152.77 3290
-1534.95 152.77 3290
-1527.08 152.77 3290
-1516.45 152.492 3284
-1508.59 152.492 3284
-1500.74 152.492 3284
-1490.16 152.213 3278
-1482.32 152.213 3278
-1474.48 152.213 3278
-1469.33 152.492 3284
-1461.48 152.492 3284
-1453.62 152.492 3284
-1451.49 153.095 3297
-1446.24 153.374 3303
-1438.34 153.374 3303
-1433.47 153.699 3310
-1425.55 153.699 3310
-1417.64 153.699 3310
-1409.72 153.699 3310
-1398.84 153.374 3303
-1393.89 153.699 3310
-1388.91 154.024 3317
-1383.48 154.302 3323
-1375.53 154.302 3323
-1373.34 154.953 3337
-1365.37 154.953 3337
-1357.39 154.953 3337
-1349.41 154.953 3337
-1330.57 153.699 3310
-1319.86 153.374 3303
-1311.96 153.374 3303
-1304.06 153.374 3303
-1286.35 152.213 3278
-1278.52 152.213 3278
-1270.68 152.213 3278
-1262.84 152.213 3278
-1255 152.213 3278
-1237.27 151.006 3252
-1229.49 151.006 3252
-1202.93 148.684 3202
-709.997 88.3188 1902
-705.449 88.3188 1902
-700.901 88.3188 1902
-690.129 87.5294 1885
-682.711 87.1579 1877
-674.971 86.74 1868
-669.068 86.5543 1864
-664.611 86.5543 1864
-659.445 86.4614 1862
-654.289 86.3685 1860
-648.444 86.1828 1856
-644.005 86.1828 1856
-636.466 85.7649 1847
-629.996 85.4863 1841
-623.554 85.2077 1835
-619.166 85.2077 1835
-613.438 85.0219 1831
-605.733 84.5576 1821
-598.737 84.1861 1813
-594.401 84.1861 1813
-587.462 83.8146 1805
-580.885 83.4896 1798
-571.454 82.7466 1782
-562.418 82.0501 1767
-558.193 82.0501 1767
-551.773 81.7251 1760
-542.898 81.0285 1745
-537.181 80.7964 1740
-533.02 80.7964 1740
-526.428 80.4249 1732
-521.381 80.2856 1729
-516.649 80.1927 1727
-512.519 80.1927 1727
-507.211 80.007 1723
-502.799 79.9605 1722
-497.523 79.7748 1718
-493.415 79.7748 1718
-488.452 79.6355 1715
-483.221 79.4498 1711
-477.17 79.1247 1704
-472.54 79.0319 1702
-468.47 79.0319 1702
-463.581 78.8925 1699
-458.166 78.6604 1694
-453.043 78.4746 1690
-449.001 78.4746 1690
-443.644 78.2425 1685
-438.832 78.1032 1682
-433 77.7781 1675
-428.994 77.7781 1675
-423.72 77.5459 1670
-419.224 77.4531 1668
-414.489 77.3138 1665
-410.507 77.3138 1665
-405.305 77.0816 1660
-399.643 76.7566 1653
-395.69 76.7566 1653
-391.737 76.7566 1653
-386.377 76.4779 1647
-382.438 76.4779 1647
-378.5 76.4779 1647
-374.561 76.4779 1647
-370.623 76.4779 1647
-366.685 76.4779 1647
-362.966 76.5244 1648
-359.461 76.6172 1650
-355.516 76.6172 1650
-351.57 76.6172 1650
-348.046 76.7101 1652
-344.72 76.8494 1655
-341.38 76.9887 1658
-337.415 76.9887 1658
-333.853 77.0816 1660
-330.281 77.1745 1662
-326.306 77.1745 1662
-322.332 77.1745 1662
-318.549 77.2209 1663
-314.572 77.2209 1663
-311.53 77.4531 1668
-307.541 77.4531 1668
-303.552 77.4531 1668
-299.563 77.4531 1668
-295.575 77.4531 1668
-291.586 77.4531 1668
-287.597 77.4531 1668
-283.609 77.4531 1668
-279.62 77.4531 1668
-275.631 77.4531 1668
-271.643 77.4531 1668
-267.654 77.4531 1668
-263.665 77.4531 1668
-259.677 77.4531 1668
-255.688 77.4531 1668
-251.548 77.4066 1667
-247.562 77.4066 1667
-243.283 77.3138 1665
-239.589 77.4066 1667
-235.603 77.4066 1667
-231.756 77.4531 1668
-227.767 77.4531 1668
-224.047 77.5459 1670
-220.053 77.5459 1670
-216.318 77.6388 1672
-212.447 77.6852 1673
-208.446 77.6852 1673
-204.69 77.7781 1675
-200.685 77.7781 1675
-196.679 77.7781 1675
-192.674 77.7781 1675
-188.668 77.7781 1675
-184.663 77.7781 1675
-180.658 77.7781 1675
-176.652 77.7781 1675
-172.647 77.7781 1675
-168.843 77.871 1677
-164.832 77.871 1677
-160.822 77.871 1677
-156.812 77.871 1677
-152.802 77.871 1677
-148.792 77.871 1677
-144.609 77.7781 1675
-140.603 77.7781 1675
-136.598 77.7781 1675
-132.751 77.871 1677
-128.741 77.871 1677
-124.805 77.9174 1678
-120.792 77.9174 1678
-117.058 78.1032 1682
-113.036 78.1032 1682
-109.078 78.1496 1683
-105.054 78.1496 1683
-101.149 78.2425 1685
-97.1199 78.2425 1685
-93.0906 78.2425 1685
-89.2727 78.4282 1689
-85.2842 78.4746 1690
-81.2429 78.4746 1690
-77.293 78.5675 1692
-73.3335 78.6604 1694
-69.3235 78.7068 1695
-65.2702 78.7068 1695
-61.217 78.7068 1695
-57.1637 78.7068 1695
-53.0791 78.6604 1694
-49.0283 78.6604 1694
-59.9089 163.775 3527
-51.4747 163.775 3527
-43.0406 163.775 3527
-34.6065 163.775 3527
-26.1204 163.45 3520
-17.703 163.45 3520
-9.26453 163.079 3512
-0.866275 163.079 3512
7.49981 162.382 3497
15.8622 162.382 3497
24.1761 162.057 3490
32.5217 162.057 3490
40.7035 161.407 3476
49.0156 161.407 3476
56.8495 160.06 3447
65.0923 160.06 3447
73.1862 159.735 3440
81.4123 159.735 3440
89.456 159.41 3433
97.6653 159.41 3433
105.659 159.085 3426
113.851 159.085 3426
122.044 159.085 3426
130.237 159.085 3426
138.995 159.735 3440
147.221 159.735 3440
155.447 159.735 3440
163.34 159.41 3433
171.549 159.41 3433
179.759 159.41 3433
187.968 159.41 3433
196.177 159.41 3433
204.387 159.41 3433
213.897 160.385 3454
222.156 160.385 3454
230.416 160.385 3454
238.675 160.385 3454
248.508 161.407 3476
257.337 161.732 3483
265.666 161.732 3483
273.995 161.732 3483
281.756 161.407 3476
290.069 161.407 3476
297.694 161.036 3468
305.987 161.036 3468
314.28 161.036 3468
322.573 161.036 3468
330.866 161.036 3468
339.159 161.036 3468
346.05 160.385 3454
354.309 160.385 3454
362.569 160.385 3454
367.822 159.085 3426
376.015 159.085 3426
383.422 158.76 3419
391.598 158.76 3419
394.045 156.485 3370
399.717 155.556 3350
407.728 155.556 3350
415.739 155.556 3350
423.75 155.556 3350
430.858 155.231 3343
436.227 154.302 3323
444.173 154.302 3323
451.303 154.024 3317
461.035 154.628 3330
469.984 154.953 3337
477.964 154.953 3337
485.943 154.953 3337
491.851 154.302 3323
497.842 153.699 3310
506.827 154.024 3317
516.776 154.628 3330
524.739 154.628 3330
533.822 154.953 3337
543.913 155.556 3350
559.832 157.785 3398
567.957 157.785 3398
582.017 159.41 3433
591.429 159.735 3440
599.656 159.735 3440
607.882 159.735 3440
616.108 159.735 3440
626.875 160.385 3454
637.709 161.036 3468
646.002 161.036 3468
654.295 161.036 3468
664.116 161.407 3476
673.782 161.732 3483
682.111 161.732 3483
693.216 162.382 3497
701.578 162.382 3497
709.94 162.382 3497
718.303 162.382 3497
726.665 162.382 3497
735.027 162.382 3497
743.39 162.382 3497
751.752 162.382 3497
760.115 162.382 3497
768.477 162.382 3497
776.839 162.382 3497
783.63 162.057 3490
791.976 162.057 3490
803.761 162.754 3505
813.765 163.079 3512
825.674 163.775 3527
834.109 163.775 3527
844.215 164.1 3534
852.666 164.1 3534
861.117 164.1 3534
869.567 164.1 3534
876.279 163.775 3527
882.957 163.45 3520
891.375 163.45 3520
899.792 163.45 3520
911.822 164.1 3534
924.179 164.797 3549
932.665 164.797 3549
941.152 164.797 3549
951.78 165.168 3557
960.285 165.168 3557
968.791 165.168 3557
975.099 164.797 3549
985.803 165.168 3557
996.545 165.54 3565
1005.07 165.54 3565
1013.6 165.54 3565
1022.12 165.54 3565
1028.33 165.168 3557
1036.84 165.168 3557
1047.7 165.54 3565
1056.22 165.54 3565
1071.61 166.608 3588
1084.71 167.304 3603
1095.75 167.676 3611
1104.39 167.676 3611
1113.02 167.676 3611
1121.66 167.676 3611
1130.29 167.676 3611
1138.93 167.676 3611
1150.11 168.047 3619
1158.76 168.047 3619
1174.83 169.115 3642
1183.54 169.115 3642
1192.25 169.115 3642
1203.6 169.487 3650
1212.33 169.487 3650
1221.06 169.487 3650
1232.48 169.858 3658
1246.99 170.648 3675
1258.52 171.019 3683
1267.32 171.019 3683
1276.13 171.019 3683
1282.15 170.648 3675
1290.94 170.648 3675
1299.72 170.648 3675
1308.51 170.648 3675
1314.43 170.276 3667
1323.2 170.276 3667
1331.97 170.276 3667
1340.74 170.276 3667
1352.45 170.648 3675
1361.24 170.648 3675
1370.03 170.648 3675
1372.44 169.858 3658
1378.16 169.487 3650
1381.19 168.79 3635
1389.89 168.79 3635
1398.58 168.79 3635
1404.17 168.419 3627
1412.85 168.419 3627
1421.52 168.419 3627
1427.04 168.047 3619
1423.39 166.608 3588
1425.59 165.865 3572
1431.32 165.54 3565
1439.84 165.54 3565
1441.87 164.797 3549
1450.36 164.797 3549
1452.68 164.1 3534
1461.13 164.1 3534
1469.58 164.1 3534
1478.03 164.1 3534
1483.54 163.775 3527
1491.97 163.775 3527
1500.4 163.775 3527
1508.84 163.775 3527
1520.28 164.1 3534
1528.73 164.1 3534
1537.19 164.1 3534
1549.14 164.472 3542
1560.68 164.797 3549
1569.17 164.797 3549
1577.66 164.797 3549
1586.14 164.797 3549
1598.23 165.168 3557
1613.51 165.865 3572
1629.31 166.608 3588
1637.89 166.608 3588
1646.47 166.608 3588
1655.05 166.608 3588
1666.88 166.933 3595
1675.48 166.933 3595
1687.82 167.304 3603
1700.2 167.676 3611
1708.84 167.676 3611
1717.47 167.676 3611
1718.46 166.933 3595
1716.01 165.865 3572
1724.55 165.865 3572
1729.69 165.54 3565
1730.42 164.797 3549
1735.48 164.472 3542
1743.95 164.472 3542
1755.88 164.797 3549
1764.37 164.797 3549
1772.85 164.797 3549
1773.81 164.1 3534
1782.26 164.1 3534
1783.62 163.45 3520
1776.76 162.057 3490
1781.53 161.732 3483
1789.86 161.732 3483
1798.19 161.732 3483
1806.51 161.732 3483
1814.84 161.732 3483
1826.84 162.057 3490
1835.18 162.057 3490
1859.37 163.45 3520
1879.47 164.472 3542
1900.19 165.54 3565
1912.47 165.865 3572
1921.01 165.865 3572
1933.87 166.236 3580
1942.43 166.236 3580
1950.99 166.236 3580
1959.56 166.236 3580
1980.76 167.304 3603
1993.79 167.676 3611
2006.86 168.047 3619
2015.52 168.047 3619
2028.65 168.419 3627
2041.81 168.79 3635
2082.1 171.39 3691
2090.92 171.39 3691
2099.75 171.39 3691
2108.58 171.39 3691
2117.4 171.39 3691
2126.23 171.39 3691
2130.43 171.019 3683
2134.59 170.648 3675
2143.38 170.648 3675
2152.16 170.648 3675
2160.95 170.648 3675
2159.7 169.858 3658
2168.45 169.858 3658
2177.2 169.858 3658
2185.94 169.858 3658
2194.69 169.858 3658
2203.44 169.858 3658
2217.63 170.276 3667
2226.4 170.276 3667
2244.92 171.019 3683
2258.62 171.39 3691
2267.45 171.39 3691
2276.27 171.39 3691
2285.1 171.39 3691
2283.98 170.648 3675
2292.77 170.648 3675
2296.55 170.276 3667
2310.35 170.648 3675
2319.14 170.648 3675
2332.99 171.019 3683
2346.89 171.39 3691
2355.71 171.39 3691
2364.54 171.39 3691
2373.36 171.39 3691
2387.35 171.762 3699
2396.2 171.762 3699
2416.1 172.551 3716
2424.98 172.551 3716
2433.87 172.551 3716
2442.76 172.551 3716
2435.15 171.39 3691
2433.38 170.648 3675
2442.17 170.648 3675
2445.62 170.276 3667
2448.37 169.858 3658
2457.11 169.858 3658
2465.86 169.858 3658
2474.61 169.858 3658
2472.49 169.115 3642
2476.43 168.79 3635
2468.72 167.676 3611
2477.35 167.676 3611
2464.65 166.236 3580
2426.23 163.079 3512
1987.05 131.735 2837
1993.83 131.735 2837
2000.62 131.735 2837
1990.42 130.621 2813
1997.15 130.621 2813
1993.9 129.971 2799
1984.15 128.903 2776
1977.17 128.02 2757
1983.76 128.02 2757
1987.46 127.835 2753
1994.05 127.835 2753
2003.54 128.02 2757
2020.34 128.671 2771
2037.21 129.321 2785
2043.87 129.321 2785
2057.15 129.739 2794
2074.91 130.435 2809
2084.59 130.621 2813
2091.32 130.621 2813
2105.51 131.085 2823
2112.26 131.085 2823
2122.76 131.317 2828
2129.52 131.317 2828
2139.31 131.503 2832
2149.87 131.735 2837
2160.45 131.967 2842
2167.25 131.967 2842
2174.05 131.967 2842
-2348 153.132 3136
-2340.5 153.132 3136
-2333 153.132 3136
-2325.5 153.132 3136
-2318 153.132 3136
-2310.5 153.132 3136
-2303.01 153.132 3136
-2304.29 153.717 3148
-2309.9 154.596 3166
-2306.69 154.889 3172
-2299.1 154.889 3172
-2291.52 154.889 3172
-2283.93 154.889 3172
-2276.35 154.889 3172
-2268.76 154.889 3172
-2261.18 154.889 3172
-2257.85 155.182 3178
-2250.25 155.182 3178
-2242.65 155.182 3178
-2230.84 154.889 3172
-2219.04 154.596 3166
-2211.47 154.596 3166
-2203.9 154.596 3166
-2200.49 154.889 3172
-2192.91 154.889 3172
-2185.32 154.889 3172
-2177.74 154.889 3172
-2170.15 154.889 3172
-2162.57 154.889 3172
-2154.98 154.889 3172
-2143.34 154.596 3166
-2135.77 154.596 3166
-2132.23 154.889 3172
-2132.68 155.475 3184
-2125.07 155.475 3184
-2125.43 156.061 3196
-2117.79 156.061 3196
-2110.15 156.061 3196
-2098.56 155.768 3190
-2090.93 155.768 3190
-2087.22 156.061 3196
-2091.29 156.94 3214
-2083.6 156.94 3214
-2080.44 157.282 3221
-2072.74 157.282 3221
-2065.03 157.282 3221
-2057.33 157.282 3221
-2049.63 157.282 3221
-2045.73 157.575 3227
-2038.01 157.575 3227
-2030.3 157.575 3227
-2026.34 157.868 3233
-2030.47 158.796 3252
-2022.7 158.796 3252
-2014.92 158.796 3252
-2003.44 158.503 3246
-1991.37 158.161 3239
-1987.92 158.503 3246
-1980.15 158.503 3246
-1987.58 159.724 3271
-1987.63 160.358 3284
-1987.61 160.993 3297
-1979.73 160.993 3297
-1971.84 160.993 3297
-1963.96 160.993 3297
-1956.08 160.993 3297
-1944.06 160.651 3290
-1936.19 160.651 3290
-1928.32 160.651 3290
-1920.45 160.651 3290
-1912.59 160.651 3290
-1908.77 160.993 3297
-1900.89 160.993 3297
-1893 160.993 3297
-1885.12 160.993 3297
-1866.42 160.065 3278
-1843.84 158.796 3252
-1832.67 158.503 3246
-1824.91 158.503 3246
-1813.23 158.161 3239
-1805.48 158.161 3239
-1794.41 157.868 3233
-1786.68 157.868 3233
-1778.95 157.868 3233
-1764.64 157.282 3221
-1756.94 157.282 3221
-1749.24 157.282 3221
-1741.53 157.282 3221
-1733.83 157.282 3221
-1726.13 157.282 3221
-1718.43 157.282 3221
-1707.01 156.94 3214
-1699.32 156.94 3214
-1691.64 156.94 3214
-1683.95 156.94 3214
-1676.26 156.94 3214
-1672.21 157.282 3221
-1670.71 157.868 3233
-1669.67 158.503 3246
-1661.91 158.503 3246
-1657.2 158.796 3252
-1656.02 159.431 3265
-1660.83 160.651 3290
-1652.96 160.651 3290
-1645.1 160.651 3290
-1631.26 160.065 3278
-1623.42 160.065 3278
-1615.58 160.065 3278
-1607.74 160.065 3278
-1599.9 160.065 3278
-1592.06 160.065 3278
-1580.84 159.724 3271
-1576.39 160.065 3278
-1568.55 160.065 3278
-1563.56 160.358 3284
-1555.71 160.358 3284
-1550.69 160.651 3290
-1542.82 160.651 3290
-1534.95 160.651 3290
-1527.08 160.651 3290
-1516.45 160.358 3284
-1508.59 160.358 3284
-1500.74 160.358 3284
-1490.16 160.065 3278
-1482.32 160.065 3278
-1474.48 160.065 3278
-1469.33 160.358 3284
-1461.48 160.358 3284
-1453.62 160.358 3284
-1451.49 160.993 3297
-1446.24 161.286 3303
-1438.34 161.286 3303
-1433.47 161.628 3310
-1425.55 161.628 3310
-1417.64 161.628 3310
-1409.72 161.628 3310
-1398.84 161.286 3303
-1393.89 161.628 3310
-1388.91 161.97 3317
-1383.48 162.263 3323
-1375.53 162.263 3323
-1373.34 162.946 3337
-1365.37 162.946 3337
-1357.39 162.946 3337
-1349.41 162.946 3337
-1330.57 161.628 3310
-1319.86 161.286 3303
-1311.96 161.286 3303
-1304.06 161.286 3303
-1286.35 160.065 3278
-1278.52 160.065 3278
-1270.68 160.065 3278
-1262.84 160.065 3278
-1255 160.065 3278
-1237.27 158.796 3252
-1229.49 158.796 3252
-710.413 92.3379 1891
-709.251 92.7774 1900
-704.707 92.7774 1900
-700.164 92.7774 1900
-690.129 92.0449 1885
-679.438 91.2148 1868
-673.526 91.0195 1864
-668.35 90.9218 1862
-663.898 90.9218 1862
-659.445 90.9218 1862
-652.882 90.6289 1856
-646.347 90.3359 1850
-641.923 90.3359 1850
-636.466 90.1894 1847
-629.996 89.8964 1841
-622.875 89.5058 1833
-618.492 89.5058 1833
-612.768 89.3104 1829
-605.733 88.9198 1821
-598.737 88.5292 1813
-594.401 88.5292 1813
-587.462 88.1385 1805
-580.885 87.7967 1798
-571.454 87.0154 1782
-562.418 86.283 1767
-558.193 86.283 1767
-551.773 85.9412 1760
-542.898 85.2087 1745
-537.181 84.9646 1740
-533.02 84.9646 1740
-526.428 84.5739 1732
-521.381 84.4274 1729
-516.649 84.3298 1727
-512.519 84.3298 1727
-507.211 84.1344 1723
-502.215 83.988 1720
-497.523 83.8903 1718
-493.415 83.8903 1718
-488.452 83.7438 1715
-483.221 83.5485 1711
-477.17 83.2067 1704
-472.54 83.109 1702
-468.47 83.109 1702
-463.581 82.9625 1699
-458.166 82.7184 1694
-453.043 82.523 1690
-449.001 82.523 1690
-443.644 82.2789 1685
-438.832 82.1324 1682
-433 81.7906 1675
-428.994 81.7906 1675
-423.72 81.5464 1670
-419.224 81.4488 1668
-414.489 81.3023 1665
-410.507 81.3023 1665
-405.305 81.0581 1660
-399.643 80.7163 1653
-395.451 80.6675 1652
-391.5 80.6675 1652
-386.377 80.4233 1647
-382.438 80.4233 1647
-378.5 80.4233 1647
-374.561 80.4233 1647
