ply
format ascii 1.0
comment File generated
element vertex 2251
property float x
property float y
property float z
end_header
-175.399 948.062 1829
-189.769 1206.2 2327
-184.442 1207.76 2330
-179.101 1209.31 2333
-173.522 1209.31 2333
-167.943 1209.31 2333
-162.364 1209.31 2333
-156.785 1209.31 2333
-151.206 1209.31 2333
-145.627 1209.31 2333
-140.048 1209.31 2333
-134.469 1209.31 2333
-128.89 1209.31 2333
-123.311 1209.31 2333
-117.934 1211.38 2337
-112.346 1211.38 2337
-106.757 1211.38 2337
-101.169 1211.38 2337
-95.5805 1211.38 2337
-90.3386 1216.05 2346
-84.7286 1216.05 2346
-79.3547 1219.68 2353
-74.3546 1230.04 2373
-69.0853 1237.3 2387
-63.3772 1237.3 2387
-57.7417 1238.86 2390
-52.0265 1238.86 2390
-46.505 1244.04 2400
-40.7659 1244.04 2400
-35.0268 1244.04 2400
-29.2876 1244.04 2400
-23.5485 1244.04 2400
-17.8094 1244.04 2400
-12.0904 1246.11 2404
-6.34167 1246.11 2404
-0.592974 1246.11 2404
5.14071 1242.48 2397
10.8727 1242.48 2397
16.4868 1233.67 2380
22.1782 1233.67 2380
27.8695 1233.67 2380
33.5608 1233.67 2380
39.1861 1231.6 2376
44.6223 1224.86 2363
50.273 1224.86 2363
55.9236 1224.86 2363
61.6525 1226.42 2366
67.3103 1226.42 2366
73.2765 1231.6 2376
78.9582 1231.6 2376
84.64 1231.6 2376
90.5878 1235.23 2383
96.2863 1235.23 2383
101.985 1235.23 2383
107.683 1235.23 2383
113.382 1235.23 2383
119.08 1235.23 2383
124.779 1235.23 2383
130.477 1235.23 2383
136.004 1233.67 2380
141.695 1233.67 2380
147.387 1233.67 2380
152.628 1230.04 2373
157.835 1226.42 2366
163.77 1228.49 2370
169.652 1230.04 2373
175.326 1230.04 2373
181.001 1230.04 2373
186.439 1228.49 2370
192.107 1228.49 2370
197.44 1226.42 2366
202.841 1224.86 2363
208.491 1224.86 2363
214.142 1224.86 2363
219.141 1221.23 2356
223.821 1216.05 2346
229.138 1214.49 2343
235.041 1216.05 2346
240.651 1216.05 2346
246.681 1218.12 2350
253.374 1223.31 2360
259.347 1224.86 2363
264.998 1224.86 2363
271.45 1228.49 2370
277.117 1228.49 2370
282.785 1228.49 2370
287.6 1224.86 2363
292.382 1221.23 2356
298.016 1221.23 2356
303.65 1221.23 2356
307.971 1216.05 2346
313.581 1216.05 2346
319.191 1216.05 2346
324.801 1216.05 2346
330.975 1218.12 2350
336.594 1218.12 2350
343.087 1221.23 2356
349.757 1224.86 2363
355.408 1224.86 2363
361.059 1224.86 2363
366.709 1224.86 2363
372.36 1224.86 2363
378.011 1224.86 2363
383.174 1223.31 2360
388.159 1221.23 2356
394.461 1223.31 2360
400.613 1224.86 2363
406.264 1224.86 2363
411.915 1224.86 2363
417.565 1224.86 2363
423.216 1224.86 2363
428.866 1224.86 2363
434.517 1224.86 2363
440.727 1226.42 2366
448.271 1231.6 2376
453.953 1231.6 2376
459.635 1231.6 2376
464.729 1230.04 2373
469.809 1228.49 2370
475.476 1228.49 2370
481.143 1228.49 2370
486.811 1228.49 2370
492.478 1228.49 2370
498.146 1228.49 2370
502.963 1226.42 2366
506.471 1221.23 2356
512.105 1221.23 2356
517.739 1221.23 2356
523.372 1221.23 2356
529.006 1221.23 2356
534.64 1221.23 2356
541.879 1224.86 2363
547.53 1224.86 2363
553.883 1226.42 2366
559.541 1226.42 2366
565.199 1226.42 2366
570.857 1226.42 2366
575.783 1224.86 2363
580.696 1223.31 2360
586.339 1223.31 2360
595.244 1230.04 2373
600.918 1230.04 2373
606.593 1230.04 2373
612.267 1230.04 2373
617.942 1230.04 2373
622.828 1228.49 2370
629.291 1230.04 2373
638.712 1237.3 2387
645.23 1238.86 2390
650.945 1238.86 2390
661.331 1247.67 2407
669.027 1251.3 2414
674.799 1251.3 2414
680.572 1251.3 2414
686.345 1251.3 2414
689.25 1246.11 2404
694.999 1246.11 2404
700.747 1246.11 2404
707.378 1247.67 2407
713.134 1247.67 2407
718.89 1247.67 2407
723.742 1246.11 2404
729.491 1246.11 2404
733.099 1242.48 2397
738.831 1242.48 2397
739.282 1233.67 2380
744.973 1233.67 2380
751.611 1235.23 2383
757.309 1235.23 2383
766.21 1240.41 2393
771.932 1240.41 2393
777.655 1240.41 2393
780.103 1235.23 2383
785.802 1235.23 2383
791.5 1235.23 2383
793.853 1230.04 2373
799.528 1230.04 2373
805.203 1230.04 2373
810.877 1230.04 2373
818.96 1233.67 2380
829.156 1240.41 2393
836.274 1242.48 2397
842.006 1242.48 2397
851.275 1247.67 2407
857.03 1247.67 2407
864.22 1249.74 2411
871.068 1251.3 2414
876.841 1251.3 2414
882.613 1251.3 2414
888.386 1251.3 2414
894.158 1251.3 2414
899.931 1251.3 2414
905.704 1251.3 2414
907.7 1246.11 2404
913.449 1246.11 2404
914.992 1240.41 2393
919.56 1238.86 2390
922.565 1235.23 2383
928.264 1235.23 2383
931.219 1231.6 2376
934.534 1228.49 2370
937.425 1224.86 2363
943.076 1224.86 2363
945.916 1221.23 2356
950.338 1219.68 2353
953.121 1216.05 2346
955.053 1211.38 2337
960.641 1211.38 2337
963.336 1207.76 2330
968.907 1207.76 2330
977.407 1211.38 2337
984.257 1212.94 2340
989.853 1212.94 2340
995.448 1212.94 2340
999.761 1211.38 2337
1005.35 1211.38 2337
1009.21 1209.31 2333
1014.79 1209.31 2333
1020.37 1209.31 2333
1025.94 1209.31 2333
1031.52 1209.31 2333
1035.77 1207.76 2330
1040 1206.2 2327
1043.77 1204.13 2323
1052.48 1207.76 2330
1058.06 1207.76 2330
1068.19 1212.94 2340
1076.54 1216.05 2346
1084 1218.12 2350
1089.62 1218.12 2350
1096.63 1219.68 2353
1102.26 1219.68 2353
1107.89 1219.68 2353
1113.51 1219.68 2353
1115.81 1216.05 2346
1121.42 1216.05 2346
1127.03 1216.05 2346
1132.64 1216.05 2346
1143.1 1221.23 2356
1153.61 1226.42 2366
1159.27 1226.42 2366
1164.93 1226.42 2366
1172.56 1228.49 2370
1178.23 1228.49 2370
1186.9 1231.6 2376
1196.09 1235.23 2383
1201.79 1235.23 2383
1207.49 1235.23 2383
1204.53 1226.42 2366
1210.19 1226.42 2366
1215.85 1226.42 2366
1221.51 1226.42 2366
1229.24 1228.49 2370
1240.12 1233.67 2380
1245.81 1233.67 2380
1253.08 1235.23 2383
1258.78 1235.23 2383
1264.47 1235.23 2383
1270.17 1235.23 2383
1275.87 1235.23 2383
1279.96 1233.67 2380
1285.65 1233.67 2380
1285.91 1228.49 2370
1286.13 1223.31 2360
1291.77 1223.31 2360
1291.92 1218.12 2350
1297.54 1218.12 2350
1292.07 1207.76 2330
1314.35 1223.31 2360
1323.35 1226.42 2366
1329 1226.42 2366
1334.66 1226.42 2366
1340.32 1226.42 2366
1355.65 1235.23 2383
1361.35 1235.23 2383
1367.05 1235.23 2383
1372.74 1235.23 2383
1372.66 1230.04 2373
1378.33 1230.04 2373
1384.01 1230.04 2373
1395.54 1235.23 2383
1407.12 1240.41 2393
1427.6 1253.37 2418
1433.38 1253.37 2418
1445.12 1258.55 2428
1450.92 1258.55 2428
1456.73 1258.55 2428
1462.53 1258.55 2428
1468.34 1258.55 2428
1457.15 1244.04 2400
1450.69 1233.67 2380
1456.39 1233.67 2380
1459.62 1231.6 2376
1469.62 1235.23 2383
1475.32 1235.23 2383
1485.37 1238.86 2390
1491.08 1238.86 2390
1496.8 1238.86 2390
1496.23 1233.67 2380
1501.92 1233.67 2380
1507.61 1233.67 2380
1510.76 1231.6 2376
1516.44 1231.6 2376
1518.28 1228.49 2370
1523.94 1228.49 2370
1525.09 1224.86 2363
1526.21 1221.23 2356
1529.89 1219.68 2353
1535.52 1219.68 2353
1539.18 1218.12 2350
1544.8 1218.12 2350
1545.8 1214.49 2343
1551.4 1214.49 2343
1557.01 1214.49 2343
1555.94 1209.31 2333
1561.52 1209.31 2333
1567.1 1209.31 2333
1572.68 1209.31 2333
1578.26 1209.31 2333
1575.01 1202.57 2320
1574.43 1197.91 2311
1579.95 1197.91 2311
1580.68 1194.28 2304
1582.05 1191.17 2298
1578.57 1184.43 2285
1584.03 1184.43 2285
1583.24 1179.76 2276
1582.4 1175.1 2267
1585.72 1173.54 2264
1591.13 1173.54 2264
1585.26 1165.25 2248
1580.02 1157.48 2233
1562.64 1140.89 2201
1563.63 1137.78 2195
1568.88 1137.78 2195
1632.61 1168.36 2254
1638 1168.36 2254
1650.68 1173.54 2264
1656.1 1173.54 2264
1661.51 1173.54 2264
1666.93 1173.54 2264
1701.89 1194.28 2304
1719.25 1202.57 2320
1727.03 1204.13 2323
1732.59 1204.13 2323
1743.38 1207.76 2330
1748.95 1207.76 2330
1754.52 1207.76 2330
1754.81 1204.13 2323
1760.36 1204.13 2323
1763.64 1202.57 2320
1766.9 1201.02 2317
1772.44 1201.02 2317
-1722.82 1198.24 2301
-1721.79 1201.36 2307
-1723.71 1206.57 2317
-1720.4 1208.13 2320
-1714.85 1208.13 2320
-1709.3 1208.13 2320
-1703.75 1208.13 2320
-1698.21 1208.13 2320
-1627.48 1221.67 2346
-1621.87 1221.67 2346
-1707.89 1290.93 2479
-1701.96 1290.93 2479
-1696.03 1290.93 2479
-1690.1 1290.93 2479
-1669.23 1279.47 2457
-1651.17 1270.1 2439
-1645.34 1270.1 2439
-1617.99 1253.43 2407
-1594.15 1239.37 2380
-1588.46 1239.37 2380
-1582.77 1239.37 2380
-1561.17 1226.88 2356
-1551.58 1223.75 2350
-1541.35 1220.11 2343
-1535.75 1220.11 2343
-1530.15 1220.11 2343
-1524.55 1220.11 2343
-1518.94 1220.11 2343
-1513.34 1220.11 2343
-1507.74 1220.11 2343
-1504.06 1221.67 2346
-1498.45 1221.67 2346
-1492.84 1221.67 2346
-1485.33 1220.11 2343
-1479.72 1220.11 2343
-1474.12 1220.11 2343
-1468.52 1220.11 2343
-1456.67 1214.9 2333
-1451.09 1214.9 2333
-1453.57 1221.67 2346
-1447.96 1221.67 2346
-1442.35 1221.67 2346
-1431.23 1216.98 2337
-1423.2 1214.9 2333
-1417.62 1214.9 2333
-1412.04 1214.9 2333
-1404.65 1213.34 2330
-1399.08 1213.34 2330
-1393.51 1213.34 2330
-1392.11 1216.98 2337
-1386.52 1216.98 2337
-1396.29 1230.52 2363
-1394.76 1234.17 2370
-1389.09 1234.17 2370
-1383.43 1234.17 2370
-1377.76 1234.17 2370
-1372.09 1234.17 2370
-1366.43 1234.17 2370
-1356.74 1230.52 2363
-1351.09 1230.52 2363
-1341.45 1226.88 2356
-1335.82 1226.88 2356
-1330.18 1226.88 2356
-1324.55 1226.88 2356
-1324.51 1232.08 2366
-1318.86 1232.08 2366
-1313.2 1232.08 2366
-1307.54 1232.08 2366
-1301.88 1232.08 2366
-1296.23 1232.08 2366
-1278.02 1220.11 2343
-1265.36 1213.34 2330
-1259.79 1213.34 2330
-1254.22 1213.34 2330
-1236.32 1201.36 2307
-1215.86 1186.78 2279
-1197.14 1173.76 2254
-1191.75 1173.76 2254
-1186.36 1173.76 2254
-1182.54 1175.32 2257
-1177.14 1175.32 2257
-1171.74 1175.32 2257
-1166.35 1175.32 2257
-1160.95 1175.32 2257
-1154.02 1173.76 2254
-1152.19 1177.41 2261
-1146.79 1177.41 2261
-1145.92 1182.09 2270
-1146.52 1188.34 2282
-1149.07 1196.67 2298
-1143.57 1196.67 2298
-1141.05 1199.8 2304
-1141.95 1206.57 2317
-1137.88 1208.13 2320
-1132.33 1208.13 2320
-1131.64 1213.34 2330
-1132.35 1220.11 2343
-1133 1226.88 2356
-1127.36 1226.88 2356
-1123.63 1228.96 2360
-1119.41 1230.52 2363
-1118.47 1235.73 2373
-1112.8 1235.73 2373
-1110.39 1239.37 2380
-1106.09 1240.94 2383
-1110.09 1251.87 2404
-1104.34 1251.87 2404
-1098.59 1251.87 2404
-1092.84 1251.87 2404
-1087.1 1251.87 2404
-1079.55 1249.79 2400
-1067.99 1243.02 2387
-1054.72 1234.17 2370
-1044.62 1228.96 2360
-1038.98 1228.96 2360
-1028.96 1223.75 2350
-1015.94 1214.9 2333
-1019.02 1225.31 2353
-1013.39 1225.31 2353
-1007.77 1225.31 2353
-1002.14 1225.31 2353
-993.548 1221.67 2346
-987.938 1221.67 2346
-979.816 1218.54 2340
-972.971 1216.98 2337
-967.383 1216.98 2337
-961.794 1216.98 2337
-953.342 1213.34 2330
-947.77 1213.34 2330
-942.198 1213.34 2330
-936.626 1213.34 2330
-931.055 1213.34 2330
-925.483 1213.34 2330
-926.228 1221.67 2346
-920.618 1221.67 2346
-915.008 1221.67 2346
-910.949 1223.75 2350
-915.346 1237.29 2376
-909.664 1237.29 2376
-903.982 1237.29 2376
-898.3 1237.29 2376
-886.608 1228.96 2360
-880.964 1228.96 2360
-871.612 1223.75 2350
-869.677 1228.96 2360
-864.034 1228.96 2360
-859.482 1230.52 2363
-853.831 1230.52 2363
-848.18 1230.52 2363
-843.599 1232.08 2366
-839.358 1234.17 2370
-833.691 1234.17 2370
-828.023 1234.17 2370
-820.968 1232.08 2366
-815.31 1232.08 2366
-808.626 1230.52 2363
-802.975 1230.52 2363
-797.324 1230.52 2363
-791.674 1230.52 2363
-786.023 1230.52 2363
-778.061 1226.88 2356
-772.427 1226.88 2356
-766.793 1226.88 2356
-761.159 1226.88 2356
-755.525 1226.88 2356
-574.032 953.485 1831
-570.898 955.568 1835
-566.51 955.568 1835
-562.122 955.568 1835
-557.734 955.568 1835
-552.743 954.526 1833
-548.359 954.526 1833
-543.976 954.526 1833
-539.593 954.526 1833
-535.21 954.526 1833
-530.826 954.526 1833
-526.443 954.526 1833
-522.06 954.526 1833
-516.547 952.443 1829
-513.293 954.526 1833
-508.91 954.526 1833
-504.527 954.526 1833
-500.689 955.568 1835
-496.301 955.568 1835
-491.913 955.568 1835
-487.525 955.568 1835
-483.664 956.609 1837
-479.271 956.609 1837
-475.395 957.651 1839
-470.997 957.651 1839
-466.6 957.651 1839
-462.705 958.692 1841
-458.303 958.692 1841
-453.9 958.692 1841
-449.498 958.692 1841
-445.579 959.734 1843
-441.172 959.734 1843
-436.765 959.734 1843
-432.357 959.734 1843
-427.486 958.692 1841
-423.083 958.692 1841
-418.681 958.692 1841
-414.279 958.692 1841
-409.876 958.692 1841
-405.474 958.692 1841
-401.072 958.692 1841
-396.238 957.651 1839
-391.841 957.651 1839
-387.443 957.651 1839
-383.045 957.651 1839
-378.236 956.609 1837
-372.622 953.485 1831
-368.244 953.485 1831
-363.07 951.402 1827
-357.916 949.319 1823
-353.169 948.277 1821
-348.431 947.236 1819
-344.081 947.236 1819
-339.358 946.194 1817
-333.907 943.07 1811
-328.484 939.946 1805
-324.168 939.946 1805
-319.852 939.946 1805
-314.661 937.342 1800
-309.322 934.217 1794
-305.032 934.217 1794
-300.407 933.176 1792
-295.791 932.134 1790
-290.86 930.051 1786
-286.589 930.051 1786
-282.002 929.01 1784
-277.424 927.968 1782
-273.163 927.968 1782
-269.807 931.093 1788
-265.531 931.093 1788
-261.84 933.176 1792
-257.842 934.217 1794
-254.966 939.425 1804
-250.652 939.425 1804
-246.474 939.946 1805
-242.695 942.029 1809
-238.369 942.029 1809
-234.043 942.029 1809
-229.717 942.029 1809
-225.641 943.07 1811
-222.043 946.194 1817
-217.698 946.194 1817
-213.353 946.194 1817
-209.238 947.236 1819
-205.339 949.319 1823
-202.303 955.568 1835
-197.914 955.568 1835
-193.737 956.609 1837
-189.345 956.609 1837
-184.952 956.609 1837
-180.559 956.609 1837
-189.198 1208.13 2320
-183.65 1208.13 2320
-178.64 1211.77 2327
-173.075 1211.77 2327
-167.727 1213.34 2330
-162.364 1214.9 2333
-156.785 1214.9 2333
-151.206 1214.9 2333
-145.253 1211.77 2327
-139.688 1211.77 2327
-134.296 1213.34 2330
-128.725 1213.34 2330
-123.153 1213.34 2330
-117.43 1211.77 2327
-111.865 1211.77 2327
-106.301 1211.77 2327
-100.433 1208.13 2320
-94.8852 1208.13 2320
-89.838 1214.9 2333
-84.2591 1214.9 2333
-78.8151 1216.98 2337
-73.728 1225.31 2353
-68.4775 1232.08 2366
-62.8197 1232.08 2366
-57.4034 1237.29 2376
-51.7217 1237.29 2376
-46.1175 1239.37 2380
-40.4262 1239.37 2380
-34.837 1243.02 2387
-29.251 1248.23 2397
-23.5191 1248.23 2397
-17.7871 1248.23 2397
-12.035 1246.14 2393
-6.31265 1246.14 2393
-0.590261 1246.14 2393
5.12569 1244.58 2390
10.7774 1237.29 2376
16.3899 1232.08 2366
22.0477 1232.08 2366
27.7055 1232.08 2366
33.3633 1232.08 2366
38.9717 1230.52 2363
44.6223 1230.52 2363
50.273 1230.52 2363
55.9236 1230.52 2363
61.5743 1230.52 2363
67.2249 1230.52 2363
72.9681 1232.08 2366
78.6259 1232.08 2366
84.64 1237.29 2376
90.4738 1239.37 2380
96.2863 1240.94 2383
101.985 1240.94 2383
107.683 1240.94 2383
113.382 1240.94 2383
119.08 1240.94 2383
124.412 1237.29 2376
130.094 1237.29 2376
135.776 1237.29 2376
141.457 1237.29 2376
147.139 1237.29 2376
152.178 1232.08 2366
157.435 1228.96 2360
163.493 1232.08 2366
169.151 1232.08 2366
174.809 1232.08 2366
180.467 1232.08 2366
186.125 1232.08 2366
191.782 1232.08 2366
197.19 1230.52 2363
202.583 1228.96 2360
207.609 1225.31 2353
213.236 1225.31 2353
218.862 1225.31 2353
223.535 1220.11 2343
228.551 1216.98 2337
234.14 1216.98 2337
239.728 1216.98 2337
245.946 1220.11 2343
252.301 1223.75 2350
258.579 1226.88 2356
264.213 1226.88 2356
269.847 1226.88 2356
275.48 1226.88 2356
281.114 1226.88 2356
286.383 1225.31 2353
291.141 1221.67 2346
295.992 1218.54 2340
301.201 1216.98 2337
306.79 1216.98 2337
312.378 1216.98 2337
317.422 1214.9 2333
323.001 1214.9 2333
329.144 1216.98 2337
334.732 1216.98 2337
342.214 1223.75 2350
348.721 1226.88 2356
354.355 1226.88 2356
359.989 1226.88 2356
366.244 1228.96 2360
371.887 1228.96 2360
377.531 1228.96 2360
382.525 1226.88 2356
388.159 1226.88 2356
393.793 1226.88 2356
400.105 1228.96 2360
405.748 1228.96 2360
411.392 1228.96 2360
417.035 1228.96 2360
422.679 1228.96 2360
428.322 1228.96 2360
433.23 1226.88 2356
439.609 1228.96 2360
446.384 1232.08 2366
452.042 1232.08 2366
457.7 1232.08 2366
463.358 1232.08 2366
468.421 1230.52 2363
474.072 1230.52 2363
479.113 1228.96 2360
483.935 1226.88 2356
489.569 1226.88 2356
495.203 1226.88 2356
500.199 1225.31 2353
505.826 1225.31 2353
511.453 1225.31 2353
517.079 1225.31 2353
522.706 1225.31 2353
528.333 1225.31 2353
533.96 1225.31 2353
540.274 1226.88 2356
545.908 1226.88 2356
553.181 1230.52 2363
558.831 1230.52 2363
564.482 1230.52 2363
570.133 1230.52 2363
575.783 1230.52 2363
580.696 1228.96 2360
586.339 1228.96 2360
590.979 1226.88 2356
595.854 1225.31 2353
604.803 1232.08 2366
610.461 1232.08 2366
616.119 1232.08 2366
621.777 1232.08 2366
628.496 1234.17 2370
634.966 1235.73 2373
644.42 1243.02 2387
650.128 1243.02 2387
655.836 1243.02 2387
666.255 1251.87 2404
672.004 1251.87 2404
677.753 1251.87 2404
681.511 1248.23 2397
687.243 1248.23 2397
692.975 1248.23 2397
698.707 1248.23 2397
704.439 1248.23 2397
703.949 1237.29 2376
709.631 1237.29 2376
715.313 1237.29 2376
720.994 1237.29 2376
724.841 1234.17 2370
729.276 1232.08 2366
734.933 1232.08 2366
738.713 1228.96 2360
749.403 1237.29 2376
756.356 1239.37 2380
762.047 1239.37 2380
767.739 1239.37 2380
773.43 1239.37 2380
775.848 1234.17 2370
781.515 1234.17 2370
787.182 1234.17 2370
790.508 1230.52 2363
796.159 1230.52 2363
801.809 1230.52 2363
806.435 1228.96 2360
815.519 1234.17 2370
827.077 1243.02 2387
832.785 1243.02 2387
838.493 1243.02 2387
846.323 1246.14 2393
852.046 1246.14 2393
857.768 1246.14 2393
863.49 1246.14 2393
869.213 1246.14 2393
876.398 1248.23 2397
882.13 1248.23 2397
887.862 1248.23 2397
893.594 1248.23 2397
899.325 1248.23 2397
901.282 1243.02 2387
906.99 1243.02 2387
910.021 1239.37 2380
915.712 1239.37 2380
917.532 1234.17 2370
923.2 1234.17 2370
928.867 1234.17 2370
931.774 1230.52 2363
936.235 1228.96 2360
941.878 1228.96 2360
945.916 1226.88 2356
947.511 1221.67 2346
953.121 1221.67 2346
955.053 1216.98 2337
960.641 1216.98 2337
963.336 1213.34 2330
968.907 1213.34 2330
977.407 1216.98 2337
984.257 1218.54 2340
989.853 1218.54 2340
995.448 1218.54 2340
999.761 1216.98 2337
1005.35 1216.98 2337
1009.21 1214.9 2333
1014.79 1214.9 2333
1020.37 1214.9 2333
1025.94 1214.9 2333
1028.87 1211.77 2327
1032.66 1209.69 2323
1038.21 1209.69 2323
1041.07 1206.57 2317
1049.32 1209.69 2323
1054.88 1209.69 2323
1063.63 1213.34 2330
1072.41 1216.98 2337
1082.15 1221.67 2346
1087.76 1221.67 2346
1093.37 1221.67 2346
1098.98 1221.67 2346
1104.59 1221.67 2346
1107.36 1218.54 2340
1111.53 1216.98 2337
1115.21 1214.9 2333
1125.59 1220.11 2343
1131.19 1220.11 2343
1136.8 1220.11 2343
1143.86 1221.67 2346
1151.43 1223.75 2350
1157.05 1223.75 2350
1169.1 1230.52 2363
1176.24 1232.08 2366
1181.9 1232.08 2366
1187.56 1232.08 2366
1193.22 1232.08 2366
1198.87 1232.08 2366
1204.53 1232.08 2366
1210.19 1232.08 2366
1215.85 1232.08 2366
1218.41 1228.96 2360
1224.05 1228.96 2360
1231.26 1230.52 2363
1236.91 1230.52 2363
1249.4 1237.29 2376
1255.08 1237.29 2376
1260.76 1237.29 2376
1266.44 1237.29 2376
1272.12 1237.29 2376
1269.2 1228.96 2360
1274.84 1228.96 2360
1280.49 1228.96 2360
1286.13 1228.96 2360
1291.77 1228.96 2360
1291.92 1223.75 2350
1297.54 1223.75 2350
1293.73 1214.9 2333
1314.35 1228.96 2360
1323.35 1232.08 2366
1329 1232.08 2366
1334.66 1232.08 2366
1340.32 1232.08 2366
1355.65 1240.94 2383
1361.35 1240.94 2383
1367.05 1240.94 2383
1372.74 1240.94 2383
1372.66 1235.73 2373
1378.33 1235.73 2373
1384.01 1235.73 2373
1395.54 1240.94 2383
1407.12 1246.14 2393
1427.6 1259.16 2418
1433.38 1259.16 2418
1445.12 1264.37 2428
1450.92 1264.37 2428
1456.73 1264.37 2428
1462.53 1264.37 2428
1468.34 1264.37 2428
1457.15 1249.79 2400
1450.69 1239.37 2380
1456.39 1239.37 2380
1459.62 1237.29 2376
1469.62 1240.94 2383
1475.32 1240.94 2383
1485.37 1244.58 2390
1491.08 1244.58 2390
1496.8 1244.58 2390
1496.23 1239.37 2380
1501.92 1239.37 2380
1507.61 1239.37 2380
1510.76 1237.29 2376
1516.44 1237.29 2376
1518.28 1234.17 2370
1523.94 1234.17 2370
1525.09 1230.52 2363
1526.21 1226.88 2356
1529.89 1225.31 2353
1535.52 1225.31 2353
1539.18 1223.75 2350
1544.8 1223.75 2350
1545.8 1220.11 2343
1551.4 1220.11 2343
1557.01 1220.11 2343
1555.94 1214.9 2333
1561.52 1214.9 2333
1567.1 1214.9 2333
1572.68 1214.9 2333
1578.26 1214.9 2333
1575.01 1208.13 2320
1574.43 1203.44 2311
1579.95 1203.44 2311
1580.68 1199.8 2304
1582.05 1196.67 2298
1578.57 1189.9 2285
1584.03 1189.9 2285
1583.24 1185.22 2276
1582.4 1180.53 2267
1585.72 1178.97 2264
1591.13 1178.97 2264
1585.26 1170.64 2248
1580.02 1162.82 2233
1562.64 1146.16 2201
1563.63 1143.04 2195
1568.88 1143.04 2195
1632.61 1173.76 2254
1638 1173.76 2254
1650.68 1178.97 2264
1656.1 1178.97 2264
1661.51 1178.97 2264
1666.93 1178.97 2264
1701.89 1199.8 2304
1719.25 1208.13 2320
1727.03 1209.69 2323
1732.59 1209.69 2323
1743.38 1213.34 2330
1748.95 1213.34 2330
1754.52 1213.34 2330
1754.81 1209.69 2323
1760.36 1209.69 2323
1763.64 1208.13 2320
1766.9 1206.57 2317
1772.44 1206.57 2317
-1730.3 1208.98 2311
-1727.02 1210.55 2314
-1723.71 1212.12 2317
-1720.4 1213.69 2320
-1714.85 1213.69 2320
-1743.19 1237.75 2366
-1747.82 1245.08 2380
-1742.13 1245.08 2380
-1736.43 1245.08 2380
-1634.51 1224.15 2340
-1628.91 1224.15 2340
-1627.48 1227.29 2346
-1621.87 1227.29 2346
-1661.04 1261.29 2411
-1655.27 1261.29 2411
-1649.51 1261.29 2411
-1643.74 1261.29 2411
-1630.5 1255.54 2400
-1615.96 1248.74 2387
-1610.26 1248.74 2387
-1597.15 1242.98 2376
-1580.76 1234.61 2360
-1570.44 1230.95 2353
-1564.81 1230.95 2353
-1559.19 1230.95 2353
-1548.94 1227.29 2346
-1532.8 1218.92 2330
-1527.23 1218.92 2330
-1519.7 1217.35 2327
-1511.53 1215.26 2323
-1508.57 1217.35 2327
-1504.94 1218.92 2330
-1499.37 1218.92 2330
-1493.8 1218.92 2330
-1488.23 1218.92 2330
-1487.11 1222.58 2337
-1481.52 1222.58 2337
-1475.93 1222.58 2337
-1465.94 1218.92 2330
-1460.37 1218.92 2330
-1454.8 1218.92 2330
-1443.01 1213.69 2320
-1437.46 1213.69 2320
-1431.91 1213.69 2320
-1426.36 1213.69 2320
-1420.81 1213.69 2320
-1415.27 1213.69 2320
-1406.07 1210.55 2314
-1400.54 1210.55 2314
-1395.01 1210.55 2314
-1389.47 1210.55 2314
-1385.73 1212.12 2317
-1381.98 1213.69 2320
-1376.43 1213.69 2320
-1375.02 1217.35 2327
-1369.46 1217.35 2327
-1367.41 1220.49 2333
-1361.83 1220.49 2333
-1356.25 1220.49 2333
-1350.67 1220.49 2333
-1345.09 1220.49 2333
-1339.51 1220.49 2333
-1323.07 1210.55 2314
-1317.54 1210.55 2314
-1312 1210.55 2314
-1306.47 1210.55 2314
-1300.94 1210.55 2314
-1300.44 1215.26 2323
-1294.89 1215.26 2323
-1289.33 1215.26 2323
-1283.78 1215.26 2323
-1278.22 1215.26 2323
-1272.67 1215.26 2323
-1260.57 1208.98 2311
-1246.35 1200.61 2295
-1235.46 1195.38 2285
-1229.99 1195.38 2285
-1222.92 1193.81 2282
-1212.66 1189.1 2273
-1204.04 1185.96 2267
-1200.2 1187.53 2270
-1194.78 1187.53 2270
-1189.35 1187.53 2270
-1183.92 1187.53 2270
-1178.49 1187.53 2270
-1171.51 1185.96 2267
-1160.95 1180.73 2257
-1154.02 1179.16 2254
-1152.19 1182.82 2261
-1146.79 1182.82 2261
-1145.92 1187.53 2270
-1146.52 1193.81 2282
-1146.07 1199.04 2292
-1140.59 1199.04 2292
-1139.56 1203.75 2301
-1137.02 1206.89 2307
-1131.5 1206.89 2307
-1125.98 1206.89 2307
-1123.87 1210.55 2314
-1126.07 1218.92 2330
-1128.19 1227.29 2346
-1122.58 1227.29 2346
-1120.3 1230.95 2353
-1116.1 1232.52 2356
-1112.35 1234.61 2360
-1106.7 1234.61 2360
-1103.86 1237.75 2366
-1101.45 1241.41 2373
-1099.01 1245.08 2380
-1093.32 1245.08 2380
-1087.63 1245.08 2380
-1081.93 1245.08 2380
-1076.24 1245.08 2380
-1070.55 1245.08 2380
-1060.39 1239.84 2370
-1047.15 1230.95 2353
-1040.2 1229.38 2350
-1034.58 1229.38 2350
-1023.27 1222.58 2337
-1015.94 1220.49 2333
-1014.69 1225.72 2343
-1013.39 1230.95 2353
-1007.77 1230.95 2353
-1002.14 1230.95 2353
-992.278 1225.72 2343
-986.675 1225.72 2343
-978.56 1222.58 2337
-971.306 1220.49 2333
-965.727 1220.49 2333
-960.148 1220.49 2333
-953.342 1218.92 2330
-947.77 1218.92 2330
-940.985 1217.35 2327
-935.42 1217.35 2327
-929.856 1217.35 2327
-925.483 1218.92 2330
-919.911 1218.92 2330
-919.441 1225.72 2343
-913.838 1225.72 2343
-910.949 1229.38 2350
-909.182 1234.61 2360
-903.538 1234.61 2360
-897.895 1234.61 2360
-892.251 1234.61 2360
-880.221 1225.72 2343
-875.738 1227.29 2346
-870.128 1227.29 2346
-864.518 1227.29 2346
-858.908 1227.29 2346
-854.753 1229.38 2350
-849.134 1229.38 2350
-843.514 1229.38 2350
-837.894 1229.38 2350
-832.275 1229.38 2350
-826.655 1229.38 2350
-821.036 1229.38 2350
-816.457 1230.95 2353
-810.83 1230.95 2353
-805.204 1230.95 2353
-799.577 1230.95 2353
-792.938 1229.38 2350
-787.318 1229.38 2350
-782.697 1230.95 2353
-777.07 1230.95 2353
-771.443 1230.95 2353
-766.793 1232.52 2356
-761.159 1232.52 2356
-755.525 1232.52 2356
-574.032 957.871 1831
-569.654 957.871 1831
-565.275 957.871 1831
-560.897 957.871 1831
-556.518 957.871 1831
-552.743 958.917 1833
-548.359 958.917 1833
-543.976 958.917 1833
-539.593 958.917 1833
-535.21 958.917 1833
-530.826 958.917 1833
-526.443 958.917 1833
-522.06 958.917 1833
-516.547 956.825 1829
-513.293 958.917 1833
-508.91 958.917 1833
-504.527 958.917 1833
-500.689 959.964 1835
-496.301 959.964 1835
-491.913 959.964 1835
-487.525 959.964 1835
-483.664 961.01 1837
-479.271 961.01 1837
-475.395 962.056 1839
-470.997 962.056 1839
-466.6 962.056 1839
-462.705 963.102 1841
-458.303 963.102 1841
-453.9 963.102 1841
-449.498 963.102 1841
-445.579 964.149 1843
-441.172 964.149 1843
-436.765 964.149 1843
-432.357 964.149 1843
-427.486 963.102 1841
-423.083 963.102 1841
-418.681 963.102 1841
-414.279 963.102 1841
-409.876 963.102 1841
-405.474 963.102 1841
-401.072 963.102 1841
-396.238 962.056 1839
-391.841 962.056 1839
-387.443 962.056 1839
-383.045 962.056 1839
-378.236 961.01 1837
-372.622 957.871 1831
-368.244 957.871 1831
-363.07 955.779 1827
-357.916 953.686 1823
-353.169 952.64 1821
-348.814 952.64 1821
-344.46 952.64 1821
-339.358 950.547 1817
-334.644 949.501 1815
-329.212 946.362 1809
-324.886 946.362 1809
-320.206 945.316 1807
-315.535 944.269 1805
-309.322 938.515 1794
-305.032 938.515 1794
-300.742 938.515 1794
-296.122 937.469 1792
-291.511 936.422 1790
-287.23 936.422 1790
-282.318 934.33 1786
-277.736 933.283 1784
-273.776 934.33 1786
-270.411 937.469 1792
-266.125 937.469 1792
-261.84 937.469 1792
-258.13 939.561 1796
-254.966 943.746 1804
-250.652 943.746 1804
-246.474 944.269 1805
-242.695 946.362 1809
-238.369 946.362 1809
-234.043 946.362 1809
-229.717 946.362 1809
-225.641 947.408 1811
-222.043 950.547 1817
-217.698 950.547 1817
-213.353 950.547 1817
-209.238 951.593 1819
-205.339 953.686 1823
-202.303 959.964 1835
-197.914 959.964 1835
-193.737 961.01 1837
-189.345 961.01 1837
-184.952 961.01 1837
-180.559 961.01 1837
-189.198 1213.69 2320
-183.65 1213.69 2320
-178.64 1217.35 2327
-173.075 1217.35 2327
-167.727 1218.92 2330
-162.364 1220.49 2333
-156.785 1220.49 2333
-151.206 1220.49 2333
-145.253 1217.35 2327
-139.688 1217.35 2327
-134.296 1218.92 2330
-128.725 1218.92 2330
-123.153 1218.92 2330
-117.43 1217.35 2327
-111.865 1217.35 2327
-106.301 1217.35 2327
-100.433 1213.69 2320
-94.8852 1213.69 2320
-89.838 1220.49 2333
-84.2591 1220.49 2333
-78.8151 1222.58 2337
-73.728 1230.95 2353
-68.4775 1237.75 2366
-62.8197 1237.75 2366
-57.4034 1242.98 2376
-51.7217 1242.98 2376
-46.1175 1245.08 2380
-40.4262 1245.08 2380
-34.837 1248.74 2387
-29.251 1253.97 2397
-23.5191 1253.97 2397
-17.7871 1253.97 2397
-12.035 1251.88 2393
-6.31265 1251.88 2393
-0.590261 1251.88 2393
5.12569 1250.31 2390
10.7774 1242.98 2376
16.3899 1237.75 2366
22.0477 1237.75 2366
27.7055 1237.75 2366
33.3633 1237.75 2366
38.9717 1236.18 2363
44.6223 1236.18 2363
50.273 1236.18 2363
55.9236 1236.18 2363
61.5743 1236.18 2363
67.2249 1236.18 2363
72.9681 1237.75 2366
78.6259 1237.75 2366
84.64 1242.98 2376
90.4738 1245.08 2380
96.2863 1246.64 2383
101.985 1246.64 2383
107.683 1246.64 2383
113.382 1246.64 2383
119.08 1246.64 2383
124.412 1242.98 2376
129.546 1237.75 2366
135.204 1237.75 2366
140.862 1237.75 2366
146.52 1237.75 2366
151.534 1232.52 2356
156.768 1229.38 2350
163.079 1234.61 2360
168.937 1236.18 2363
174.587 1236.18 2363
180.238 1236.18 2363
185.653 1234.61 2360
191.296 1234.61 2360
196.606 1232.52 2356
201.982 1230.95 2353
206.991 1227.29 2346
212.601 1227.29 2346
217.932 1225.72 2343
222.963 1222.58 2337
227.573 1217.35 2327
233.438 1218.92 2330
239.01 1218.92 2330
244.897 1220.49 2333
250.905 1222.58 2337
256.823 1224.15 2340
262.418 1224.15 2340
268.014 1224.15 2340
273.61 1224.15 2340
279.205 1224.15 2340
284.801 1224.15 2340
289.156 1218.92 2330
294.348 1217.35 2327
299.397 1215.26 2323
304.952 1215.26 2323
310.507 1215.26 2323
316.062 1215.26 2323
322.171 1217.35 2327
328.58 1220.49 2333
334.159 1220.49 2333
340.757 1224.15 2340
347.833 1229.38 2350
353.453 1229.38 2350
359.072 1229.38 2350
365.157 1230.95 2353
370.784 1230.95 2353
376.411 1230.95 2353
382.038 1230.95 2353
387.17 1229.38 2350
392.79 1229.38 2350
399.426 1232.52 2356
405.06 1232.52 2356
411.392 1234.61 2360
417.035 1234.61 2360
422.679 1234.61 2360
427.052 1230.95 2353
432.127 1229.38 2350
437.746 1229.38 2350
445.252 1234.61 2360
450.896 1234.61 2360
456.539 1234.61 2360
462.183 1234.61 2360
465.844 1229.38 2350
471.464 1229.38 2350
477.083 1229.38 2350
483.319 1230.95 2353
488.946 1230.95 2353
494.572 1230.95 2353
498.711 1227.29 2346
504.321 1227.29 2346
509.931 1227.29 2346
516.42 1229.38 2350
522.04 1229.38 2350
527.659 1229.38 2350
533.96 1230.95 2353
540.274 1232.52 2356
545.908 1232.52 2356
552.478 1234.61 2360
558.831 1236.18 2363
564.482 1236.18 2363
570.133 1236.18 2363
575.783 1236.18 2363
580.696 1234.61 2360
586.339 1234.61 2360
590.227 1230.95 2353
595.854 1230.95 2353
601.48 1230.95 2353
607.107 1230.95 2353
612.734 1230.95 2353
617.572 1229.38 2350
628.496 1239.84 2370
634.163 1239.84 2370
639.83 1239.84 2370
645.498 1239.84 2370
652.814 1242.98 2376
659.604 1245.08 2380
665.295 1245.08 2380
670.987 1245.08 2380
675.541 1242.98 2376
681.222 1242.98 2376
686.904 1242.98 2376
692.586 1242.98 2376
697.386 1241.41 2373
699.209 1234.61 2360
704.852 1234.61 2360
710.496 1234.61 2360
716.139 1234.61 2360
721.783 1234.61 2360
726.193 1232.52 2356
731.827 1232.52 2356
737.461 1232.52 2356
743.095 1232.52 2356
750.953 1236.18 2363
758.845 1239.84 2370
764.513 1239.84 2370
770.18 1239.84 2370
773.556 1236.18 2363
779.207 1236.18 2363
783.861 1234.61 2360
789.504 1234.61 2360
793.8 1232.52 2356
799.434 1232.52 2356
801.651 1227.29 2346
812.078 1234.61 2360
822.226 1241.41 2373
830.343 1245.08 2380
836.034 1245.08 2380
842.787 1246.64 2383
848.485 1246.64 2383
854.183 1246.64 2383
859.882 1246.64 2383
865.58 1246.64 2383
871.279 1246.64 2383
876.977 1246.64 2383
882.676 1246.64 2383
884.646 1241.41 2373
887.695 1237.75 2366
892.22 1236.18 2363
897.87 1236.18 2363
900.844 1232.52 2356
906.478 1232.52 2356
912.112 1232.52 2356
917.746 1232.52 2356
919.461 1227.29 2346
925.071 1227.29 2346
930.681 1227.29 2346
936.291 1227.29 2346
941.901 1227.29 2346
943.876 1222.58 2337
949.464 1222.58 2337
952.192 1218.92 2330
957.764 1218.92 2330
962.095 1217.35 2327
968.907 1218.92 2330
975.734 1220.49 2333
982.995 1222.58 2337
988.584 1222.58 2337
994.172 1222.58 2337
995.483 1217.35 2327
1001.05 1217.35 2327
1006.61 1217.35 2327
1012.18 1217.35 2327
1017.74 1217.35 2327
1023.31 1217.35 2327
1027.1 1215.26 2323
1029.99 1212.12 2317
1034.19 1210.55 2314
1038.37 1208.98 2311
1043.9 1208.98 2311
1047.61 1206.89 2307
1057.69 1212.12 2317
1065.99 1215.26 2323
1074.77 1218.92 2330
1080.34 1218.92 2330
1089.18 1222.58 2337
1094.76 1222.58 2337
1100.35 1222.58 2337
1099.32 1215.26 2323
1102.02 1212.12 2317
1107.56 1212.12 2317
1117.9 1217.35 2327
1123.47 1217.35 2327
1129.03 1217.35 2327
1134.6 1217.35 2327
1140.16 1217.35 2327
1152.13 1224.15 2340
1157.72 1224.15 2340
1164.81 1225.72 2343
1171.91 1227.29 2346
1177.52 1227.29 2346
1183.13 1227.29 2346
1188.74 1227.29 2346
1187.73 1220.49 2333
1193.31 1220.49 2333
1198.89 1220.49 2333
1202.92 1218.92 2330
1204.86 1215.26 2323
1219.27 1224.15 2340
1224.87 1224.15 2340
1230.47 1224.15 2340
1236.06 1224.15 2340
1241.66 1224.15 2340
1247.25 1224.15 2340
1252.85 1224.15 2340
1260.06 1225.72 2343
1265.66 1225.72 2343
1271.26 1225.72 2343
1273.6 1222.58 2337
1280.83 1224.15 2340
1286.42 1224.15 2340
1292.02 1224.15 2340
1293.73 1220.49 2333
1303.21 1224.15 2340
1316.08 1230.95 2353
1321.7 1230.95 2353
1327.33 1230.95 2353
1338.62 1236.18 2363
1353.94 1245.08 2380
1359.63 1245.08 2380
1365.33 1245.08 2380
1371.02 1245.08 2380
1370.92 1239.84 2370
1376.59 1239.84 2370
1379.93 1237.75 2366
1385.58 1237.75 2366
1401.24 1246.64 2383
1412.84 1251.88 2393
1418.56 1251.88 2393
1439.16 1264.95 2418
1446.74 1266.52 2421
1452.53 1266.52 2421
1458.32 1266.52 2421
1455.64 1259.2 2407
1451.07 1250.31 2390
1448.26 1242.98 2376
1453.94 1242.98 2376
1457.78 1241.41 2373
1469.62 1246.64 2383
1475.32 1246.64 2383
1481.02 1246.64 2383
1484.84 1245.08 2380
1490.53 1245.08 2380
1496.23 1245.08 2380
1501.92 1245.08 2380
1505.07 1242.98 2376
1510.76 1242.98 2376
1516.44 1242.98 2376
1518.28 1239.84 2370
1523.94 1239.84 2370
1523.16 1234.61 2360
1526.21 1232.52 2356
1527.94 1229.38 2350
1533.56 1229.38 2350
1536.56 1227.29 2346
1542.17 1227.29 2346
1545.8 1225.72 2343
1551.4 1225.72 2343
1555.01 1224.15 2340
1553.94 1218.92 2330
1559.51 1218.92 2330
1565.08 1218.92 2330
1570.65 1218.92 2330
1571.49 1215.26 2323
1572.97 1212.12 2317
1569.66 1205.32 2304
1575.17 1205.32 2304
1576.56 1202.18 2298
1579.99 1200.61 2295
1578.57 1195.38 2285
1584.03 1195.38 2285
1579.06 1187.53 2270
1580.3 1184.39 2264
1578.71 1179.16 2254
1579.89 1176.02 2248
1585.26 1176.02 2248
1580.02 1168.17 2233
1558.38 1148.29 2195
1563.63 1148.29 2195
1568.88 1148.29 2195
1615.23 1166.6 2230
1620.56 1166.6 2230
1632.46 1171.31 2239
1637.81 1171.31 2239
1643.16 1171.31 2239
1661.77 1180.73 2257
1678.99 1189.1 2273
1707.4 1205.32 2304
1724.8 1213.69 2320
1730.35 1213.69 2320
1735.9 1213.69 2320
1741.44 1213.69 2320
1746.99 1213.69 2320
1752.54 1213.69 2320
1755.81 1212.12 2317
1759.07 1210.55 2314
1759.27 1206.89 2307
1764.79 1206.89 2307
-1730.3 1214.51 2311
-1727.02 1216.09 2314
-1723.71 1217.67 2317
-1720.4 1219.24 2320
-1714.85 1219.24 2320
-1743.19 1243.42 2366
-1747.82 1250.78 2380
-1742.13 1250.78 2380
-1736.43 1250.78 2380
-1640.78 1226.08 2333
-1635.2 1226.08 2333
-1634.51 1229.76 2340
-1628.91 1229.76 2340
-1627.48 1232.91 2346
-1621.87 1232.91 2346
-1661.04 1267.07 2411
-1655.27 1267.07 2411
-1649.51 1267.07 2411
-1643.74 1267.07 2411
-1630.5 1261.29 2400
-1615.96 1254.46 2387
-1610.26 1254.46 2387
-1597.15 1248.67 2376
-1580.76 1240.27 2360
-1570.44 1236.59 2353
-1564.81 1236.59 2353
-1559.19 1236.59 2353
-1548.94 1232.91 2346
-1528.2 1220.82 2323
-1522.64 1220.82 2323
-1515.13 1219.24 2320
-1509.58 1219.24 2320
-1504.03 1219.24 2320
-1500.42 1220.82 2323
-1494.87 1220.82 2323
-1491.88 1222.92 2327
-1486.31 1222.92 2327
-1480.75 1222.92 2327
-1472.65 1220.82 2323
-1467.09 1220.82 2323
-1459.65 1219.24 2320
-1454.1 1219.24 2320
-1448.55 1219.24 2320
-1443.01 1219.24 2320
-1437.46 1219.24 2320
-1431.91 1219.24 2320
-1426.36 1219.24 2320
-1417.14 1216.09 2314
-1409.78 1214.51 2311
-1404.25 1214.51 2311
-1398.72 1214.51 2311
-1387.17 1209.26 2301
-1381.67 1209.26 2301
-1382.15 1214.51 2311
-1376.62 1214.51 2311
-1371.09 1214.51 2311
-1367.34 1216.09 2314
-1361.81 1216.09 2314
-1356.27 1216.09 2314
-1346.65 1212.41 2307
-1341.14 1212.41 2307
-1335.62 1212.41 2307
-1330.1 1212.41 2307
-1317.7 1206.11 2295
-1312.21 1206.11 2295
-1311.84 1210.84 2304
-1306.33 1210.84 2304
-1300.83 1210.84 2304
-1297 1212.41 2307
-1293.72 1214.51 2311
-1289.87 1216.09 2314
-1284.34 1216.09 2314
-1282.12 1219.24 2320
-1276.57 1219.24 2320
-1271.02 1219.24 2320
-1256.75 1210.84 2304
-1247.98 1207.68 2298
-1235.46 1200.85 2285
-1229.99 1200.85 2285
-1224.53 1200.85 2285
-1214.26 1196.12 2276
-1207.23 1194.54 2273
-1201.79 1194.54 2273
-1196.36 1194.54 2273
-1190.92 1194.54 2273
-1183.92 1192.97 2270
-1178.49 1192.97 2270
-1171.51 1191.39 2267
-1163.01 1188.24 2261
-1154.02 1184.56 2254
-1152.19 1188.24 2261
-1146.79 1188.24 2261
-1144.41 1191.39 2267
-1145.02 1197.7 2279
-1144.07 1202.43 2288
-1138.6 1202.43 2288
-1139.56 1209.26 2301
-1134.06 1209.26 2301
-1128.56 1209.26 2301
-1123.05 1209.26 2301
-1117.55 1209.26 2301
-1121.23 1219.24 2320
-1120.49 1224.5 2330
-1114.92 1224.5 2330
-1114.11 1229.76 2340
-1111.36 1232.91 2346
-1107.63 1235.01 2350
-1102.01 1235.01 2350
-1101.06 1240.27 2360
-1098.2 1243.42 2366
-1095.78 1247.1 2373
-1090.1 1247.1 2373
-1085.8 1248.67 2376
-1080.12 1248.67 2376
-1074.43 1248.67 2376
-1067.4 1247.1 2373
-1057.25 1241.84 2363
-1045.82 1235.01 2350
-1038.43 1232.91 2346
-1032.82 1232.91 2346
-1020.2 1224.5 2330
-1013.32 1222.92 2327
-1013.39 1229.76 2340
-1009.09 1231.33 2343
-1003.48 1231.33 2343
-997.88 1231.33 2343
-988.043 1226.08 2333
-982.464 1226.08 2333
-974.372 1222.92 2327
-965.893 1219.24 2320
-960.346 1219.24 2320
-954.798 1219.24 2320
-949.25 1219.24 2320
-943.702 1219.24 2320
-938.154 1219.24 2320
-932.607 1219.24 2320
-927.059 1219.24 2320
-921.511 1219.24 2320
-918.727 1222.92 2327
-913.162 1222.92 2327
-907.598 1222.92 2327
-905.909 1228.18 2337
-902.632 1231.33 2343
-897.03 1231.33 2343
-891.427 1231.33 2343
-885.824 1231.33 2343
-876.464 1226.08 2333
-870.885 1226.08 2333
-865.307 1226.08 2333
-861.202 1228.18 2337
-857.81 1231.33 2343
-852.207 1231.33 2343
-846.604 1231.33 2343
-839.925 1229.76 2340
-834.329 1229.76 2340
-828.733 1229.76 2340
-823.138 1229.76 2340
-817.542 1229.76 2340
-811.946 1229.76 2340
-806.351 1229.76 2340
-800.755 1229.76 2340
-795.159 1229.76 2340
-789.564 1229.76 2340
-783.968 1229.76 2340
-778.372 1229.76 2340
-772.777 1229.76 2340
-767.181 1229.76 2340
-766.793 1238.16 2356
-761.159 1238.16 2356
-755.525 1238.16 2356
-749.891 1238.16 2356
-574.032 962.257 1831
-569.654 962.257 1831
-565.275 962.257 1831
-560.897 962.257 1831
-556.518 962.257 1831
-552.743 963.308 1833
-548.359 963.308 1833
-543.976 963.308 1833
-539.593 963.308 1833
-535.21 963.308 1833
-530.826 963.308 1833
-526.443 963.308 1833
-522.06 963.308 1833
-516.547 961.206 1829
-513.293 963.308 1833
-508.91 963.308 1833
-504.527 963.308 1833
-500.689 964.359 1835
-496.301 964.359 1835
-491.913 964.359 1835
-487.525 964.359 1835
-483.664 965.41 1837
-479.271 965.41 1837
-475.912 967.513 1841
-471.51 967.513 1841
-467.107 967.513 1841
-462.705 967.513 1841
-458.303 967.513 1841
-453.9 967.513 1841
-449.498 967.513 1841
-445.095 967.513 1841
-440.693 967.513 1841
-436.291 967.513 1841
-431.888 967.513 1841
-427.486 967.513 1841
-423.083 967.513 1841
-418.681 967.513 1841
-414.279 967.513 1841
-409.876 967.513 1841
-405.474 967.513 1841
-401.072 967.513 1841
-396.238 966.462 1839
-391.841 966.462 1839
-387.443 966.462 1839
-383.045 966.462 1839
-378.236 965.41 1837
-372.622 962.257 1831
-368.244 962.257 1831
-363.07 960.155 1827
-357.916 958.053 1823
-353.169 957.002 1821
-348.814 957.002 1821
-344.46 957.002 1821
-339.358 954.9 1817
-334.644 953.849 1815
-329.212 950.695 1809
-324.886 950.695 1809
-320.206 949.644 1807
-315.535 948.593 1805
-309.322 942.812 1794
-305.032 942.812 1794
-300.742 942.812 1794
-296.122 941.761 1792
-291.511 940.71 1790
-287.23 940.71 1790
-282.318 938.608 1786
-277.736 937.557 1784
-273.776 938.608 1786
-270.411 941.761 1792
-266.125 941.761 1792
-261.84 941.761 1792
-258.13 943.863 1796
-254.966 948.068 1804
-250.652 948.068 1804
-246.474 948.593 1805
-242.695 950.695 1809
-238.369 950.695 1809
-234.043 950.695 1809
-229.717 950.695 1809
-225.641 951.747 1811
-222.043 954.9 1817
-217.698 954.9 1817
-213.353 954.9 1817
-209.238 955.951 1819
-205.339 958.053 1823
-202.303 964.359 1835
-197.914 964.359 1835
-193.737 965.41 1837
-189.345 965.41 1837
-184.952 965.41 1837
-180.559 965.41 1837
-188.709 1216.09 2314
-183.175 1216.09 2314
-177.642 1216.09 2314
-172.109 1216.09 2314
-166.791 1217.67 2317
-161.668 1220.82 2323
-156.113 1220.82 2323
-150.558 1220.82 2323
-145.003 1220.82 2323
-139.448 1220.82 2323
-133.893 1220.82 2323
-128.338 1220.82 2323
-122.783 1220.82 2323
-117.077 1219.24 2320
-111.529 1219.24 2320
-105.844 1217.67 2317
-100.043 1214.51 2311
-94.6399 1216.09 2314
-89.3374 1219.24 2320
-83.7896 1219.24 2320
-78.6802 1226.08 2333
-73.2266 1228.18 2337
-68.1881 1238.16 2356
-62.5541 1238.16 2356
-57.0169 1240.27 2360
-51.4387 1241.84 2363
-46.04 1248.67 2376
-40.3582 1248.67 2376
-34.6765 1248.67 2376
-29.0436 1250.78 2380
-23.3817 1252.35 2383
-17.6832 1252.35 2383
-12.0049 1254.46 2387
-6.29682 1254.46 2387
-0.588781 1254.46 2387
5.11068 1252.35 2383
10.7774 1248.67 2376
16.3206 1238.16 2356
21.9545 1238.16 2356
27.5884 1238.16 2356
33.2223 1238.16 2356
38.8562 1238.16 2356
44.3768 1235.01 2350
49.9964 1235.01 2350
55.616 1235.01 2350
61.2355 1235.01 2350
66.9404 1236.59 2353
72.7831 1240.27 2360
78.4265 1240.27 2360
84.07 1240.27 2360
89.9416 1243.42 2366
95.761 1245.52 2370
101.428 1245.52 2370
107.096 1245.52 2370
112.763 1245.52 2370
118.431 1245.52 2370
123.731 1241.84 2363
129.546 1243.42 2366
135.204 1243.42 2366
140.862 1243.42 2366
146.52 1243.42 2366
151.534 1238.16 2356
156.768 1235.01 2350
163.079 1240.27 2360
168.937 1241.84 2363
174.587 1241.84 2363
180.238 1241.84 2363
185.653 1240.27 2360
191.296 1240.27 2360
196.606 1238.16 2356
201.982 1236.59 2353
206.991 1232.91 2346
212.601 1232.91 2346
217.932 1231.33 2343
222.963 1228.18 2337
227.573 1222.92 2327
233.438 1224.5 2330
239.01 1224.5 2330
244.897 1226.08 2333
250.905 1228.18 2337
256.823 1229.76 2340
262.418 1229.76 2340
268.014 1229.76 2340
273.61 1229.76 2340
279.205 1229.76 2340
284.801 1229.76 2340
289.156 1224.5 2330
294.348 1222.92 2327
299.397 1220.82 2323
304.952 1220.82 2323
310.507 1220.82 2323
316.062 1220.82 2323
322.171 1222.92 2327
328.58 1226.08 2333
334.159 1226.08 2333
340.757 1229.76 2340
347.833 1235.01 2350
353.453 1235.01 2350
359.072 1235.01 2350
365.157 1236.59 2353
370.784 1236.59 2353
376.411 1236.59 2353
382.038 1236.59 2353
387.17 1235.01 2350
392.79 1235.01 2350
399.426 1238.16 2356
405.06 1238.16 2356
411.392 1240.27 2360
417.035 1240.27 2360
422.679 1240.27 2360
427.052 1236.59 2353
432.127 1235.01 2350
437.746 1235.01 2350
445.252 1240.27 2360
450.896 1240.27 2360
456.539 1240.27 2360
462.183 1240.27 2360
465.844 1235.01 2350
471.464 1235.01 2350
477.083 1235.01 2350
483.319 1236.59 2353
488.946 1236.59 2353
494.572 1236.59 2353
498.711 1232.91 2346
504.321 1232.91 2346
509.931 1232.91 2346
516.42 1235.01 2350
522.04 1235.01 2350
527.659 1235.01 2350
533.96 1236.59 2353
540.274 1238.16 2356
545.908 1238.16 2356
552.478 1240.27 2360
558.831 1241.84 2363
564.482 1241.84 2363
570.133 1241.84 2363
575.783 1241.84 2363
580.696 1240.27 2360
586.339 1240.27 2360
590.227 1236.59 2353
595.854 1236.59 2353
601.48 1236.59 2353
607.107 1236.59 2353
612.734 1236.59 2353
617.572 1235.01 2350
628.496 1245.52 2370
634.163 1245.52 2370
639.83 1245.52 2370
645.498 1245.52 2370
652.814 1248.67 2376
658.495 1248.67 2376
664.177 1248.67 2376
664.22 1238.16 2356
669.854 1238.16 2356
675.488 1238.16 2356
681.122 1238.16 2356
685.881 1236.59 2353
690.627 1235.01 2350
695.061 1232.91 2346
702.762 1236.59 2353
708.388 1236.59 2353
714.015 1236.59 2353
719.642 1236.59 2353
724.344 1235.01 2350
729.963 1235.01 2350
734.331 1232.91 2346
739.941 1232.91 2346
745.551 1232.91 2346
753.402 1236.59 2353
759.029 1236.59 2353
764.656 1236.59 2353
770.282 1236.59 2353
776.898 1238.16 2356
782.532 1238.16 2356
788.166 1238.16 2356
790.431 1232.91 2346
796.041 1232.91 2346
800.626 1231.33 2343
806.229 1231.33 2343
817.722 1240.27 2360
825.459 1243.42 2366
832.521 1245.52 2370
838.189 1245.52 2370
843.856 1245.52 2370
847.015 1241.84 2363
852.665 1241.84 2363
857.226 1240.27 2360
862.87 1240.27 2360
864.833 1235.01 2350
870.453 1235.01 2350
869.734 1226.08 2333
873.062 1222.92 2327
872.586 1214.51 2311
878.112 1214.51 2311
879.815 1209.26 2301
885.317 1209.26 2301
889.658 1207.68 2298
895.153 1207.68 2298
904.176 1212.41 2307
909.692 1212.41 2307
915.209 1212.41 2307
922.322 1214.51 2311
927.849 1214.51 2311
933.375 1214.51 2311
938.901 1214.51 2311
944.427 1214.51 2311
949.954 1214.51 2311
951.346 1209.26 2301
956.848 1209.26 2301
964.86 1212.41 2307
970.377 1212.41 2307
975.893 1212.41 2307
981.41 1212.41 2307
986.927 1212.41 2307
994.164 1214.51 2311
999.691 1214.51 2311
1005.22 1214.51 2311
1010.74 1214.51 2311
1016.27 1214.51 2311
1018.7 1210.84 2304
1022.88 1209.26 2301
1025.7 1206.11 2295
1028.04 1202.43 2288
1040.74 1210.84 2304
1046.25 1210.84 2304
1051.76 1210.84 2304
1063.23 1217.67 2317
1070.16 1219.24 2320
1075.71 1219.24 2320
1081.25 1219.24 2320
1086.8 1219.24 2320
1092.35 1219.24 2320
1096.48 1217.67 2317
1100.59 1216.09 2314
1104.69 1214.51 2311
1110.22 1214.51 2311
1115.74 1214.51 2311
1121.27 1214.51 2311
1128.26 1216.09 2314
1133.79 1216.09 2314
1139.33 1216.09 2314
1143.37 1214.51 2311
1153.38 1219.24 2320
1160.42 1220.82 2323
1165.98 1220.82 2323
1171.53 1220.82 2323
1177.09 1220.82 2323
1181.11 1219.24 2320
1186.66 1219.24 2320
1187.58 1214.51 2311
1189.5 1210.84 2304
1200.19 1216.09 2314
1205.73 1216.09 2314
1211.26 1216.09 2314
1216.79 1216.09 2314
1222.33 1216.09 2314
1234.76 1222.92 2327
1240.32 1222.92 2327
1245.89 1222.92 2327
1253.07 1224.5 2330
1258.64 1224.5 2330
1264.21 1224.5 2330
1269.78 1224.5 2330
1276.99 1226.08 2333
1282.57 1226.08 2333
1288.15 1226.08 2333
1293.73 1226.08 2333
1297.64 1224.5 2330
1308.8 1229.76 2340
1314.4 1229.76 2340
1320 1229.76 2340
1331.26 1235.01 2350
1348.25 1245.52 2370
1353.92 1245.52 2370
1359.59 1245.52 2370
1365.26 1245.52 2370
1368.61 1243.42 2366
1374.27 1243.42 2366
1370.59 1235.01 2350
1377.97 1236.59 2353
1389.48 1241.84 2363
1399.26 1245.52 2370
1404.93 1245.52 2370
1410.6 1245.52 2370
1416.26 1245.52 2370
1415.93 1240.27 2360
1421.57 1240.27 2360
1418.75 1232.91 2346
1410.4 1220.82 2323
1415.95 1220.82 2323
1421.51 1220.82 2323
1425.22 1219.24 2320
1430.77 1219.24 2320
1438.17 1220.82 2323
1446.21 1222.92 2327
1451.78 1222.92 2327
1457.34 1222.92 2327
1462.91 1222.92 2327
1468.47 1222.92 2327
1474.04 1222.92 2327
1479.6 1222.92 2327
1485.16 1222.92 2327
1490.73 1222.92 2327
1498.22 1224.5 2330
1503.79 1224.5 2330
1511.31 1226.08 2333
1516.89 1226.08 2333
1525.08 1228.18 2337
1530.67 1228.18 2337
1536.25 1228.18 2337
1541.84 1228.18 2337
1547.43 1228.18 2337
1550.36 1226.08 2333
1551.94 1222.92 2327
1557.5 1222.92 2327
1563.07 1222.92 2327
1565.94 1220.82 2323
1571.49 1220.82 2323
1572.97 1217.67 2317
1569.66 1210.84 2304
1575.17 1210.84 2304
1574.5 1206.11 2295
1575.17 1202.43 2288
1570.28 1194.54 2273
1575.71 1194.54 2273
1576.98 1191.39 2267
1571.23 1182.98 2251
1574.51 1181.41 2248
1569.34 1173.52 2233
1574.68 1173.52 2233
1553.14 1153.55 2195
1558.38 1153.55 2195
1563.63 1153.55 2195
1568.88 1153.55 2195
1583.36 1148.82 2186
1592.95 1151.98 2192
1598.19 1151.98 2192
1603.43 1151.98 2192
1613.08 1155.13 2198
1661.77 1186.14 2257
1667.17 1186.14 2257
1691.09 1199.27 2282
1701.01 1202.43 2288
1706.48 1202.43 2288
1711.95 1202.43 2288
1717.42 1202.43 2288
1725.91 1204.53 2292
1733.65 1206.11 2295
1739.14 1206.11 2295
1744.63 1206.11 2295
1752.41 1207.68 2298
1757.9 1207.68 2298
-1730.3 1220.05 2311
-1727.02 1221.63 2314
-1723.71 1223.22 2317
-1720.4 1224.8 2320
-1714.85 1224.8 2320
-1743.19 1249.09 2366
-1747.82 1256.48 2380
-1742.13 1256.48 2380
-1736.43 1256.48 2380
-1640.78 1231.67 2333
-1635.2 1231.67 2333
-1634.51 1235.36 2340
-1628.91 1235.36 2340
-1623.32 1235.36 2340
-1617.72 1235.36 2340
-1612.12 1235.36 2340
-1613.39 1240.64 2350
-1609.83 1242.22 2353
-1604.2 1242.22 2353
-1598.57 1242.22 2353
-1592.95 1242.22 2353
-1587.32 1242.22 2353
-1581.69 1242.22 2353
-1574.06 1240.64 2350
-1568.44 1240.64 2350
-1562.82 1240.64 2350
-1552.56 1236.94 2343
-1538.37 1230.08 2330
-1528.2 1226.39 2323
-1522.64 1226.39 2323
-1515.13 1224.8 2320
-1509.58 1224.8 2320
-1504.03 1224.8 2320
-1500.42 1226.39 2323
-1494.87 1226.39 2323
-1491.88 1228.5 2327
-1486.31 1228.5 2327
-1480.75 1228.5 2327
-1472.65 1226.39 2323
-1467.09 1226.39 2323
-1459.65 1224.8 2320
-1454.1 1224.8 2320
-1448.55 1224.8 2320
-1443.01 1224.8 2320
-1437.46 1224.8 2320
-1431.91 1224.8 2320
-1426.36 1224.8 2320
-1417.14 1221.63 2314
-1409.78 1220.05 2311
-1404.25 1220.05 2311
-1398.72 1220.05 2311
-1387.17 1214.77 2301
-1381.67 1214.77 2301
-1382.15 1220.05 2311
-1376.62 1220.05 2311
-1371.09 1220.05 2311
-1367.34 1221.63 2314
-1361.81 1221.63 2314
-1356.27 1221.63 2314
-1346.65 1217.94 2307
-1341.14 1217.94 2307
-1335.62 1217.94 2307
-1330.1 1217.94 2307
-1317.7 1211.6 2295
-1312.21 1211.6 2295
