ply
format ascii 1.0
comment File generated
element vertex 2147
property float x
property float y
property float z
end_header
-2384.14 -398.883 3497
-2406.35 -404.016 3542
-2397.88 -404.016 3542
-2404.93 -406.64 3565
-2401.11 -407.438 3572
-2397.93 -408.351 3580
-2389.36 -408.351 3580
-2386.12 -409.263 3588
-2392.78 -411.887 3611
-2389.43 -412.799 3619
-2380.78 -412.799 3619
-2372.12 -412.799 3619
-2363.47 -412.799 3619
-2374.99 -416.335 3650
-2366.26 -416.335 3650
-2400.16 -423.863 3716
-2391.27 -423.863 3716
-2382.39 -423.863 3716
-2373.5 -423.863 3716
-2358.89 -422.837 3707
-2350.02 -422.837 3707
-2351.89 -424.776 3724
-2342.99 -424.776 3724
-2334.08 -424.776 3724
-2325.18 -424.776 3724
-2316.27 -424.776 3724
-1240.07 -369.455 3239
-1232.32 -369.455 3239
-1224.58 -369.455 3239
-1214.58 -368.77 3233
-1199.75 -366.603 3214
-1194.66 -367.401 3221
-1186.96 -367.401 3221
-1179.26 -367.401 3221
-1171.56 -367.401 3221
-1159.16 -365.919 3208
-1151.49 -365.919 3208
-1143.82 -365.919 3208
-1136.14 -365.919 3208
-1126.36 -365.234 3202
-1118.7 -365.234 3202
-1106.88 -363.865 3190
-1101.32 -364.55 3196
-1102.24 -367.401 3221
-1098.61 -368.77 3233
-1090.88 -368.77 3233
-1083.15 -368.77 3233
-1073.42 -368.086 3227
-1061.41 -366.603 3214
-1053.73 -366.603 3214
-1044.09 -365.919 3208
-1032.54 -364.55 3196
-559.554 -200.525 1758
-555.35 -200.525 1758
-551.146 -200.525 1758
-546.942 -200.525 1758
-542.121 -200.297 1756
-537.922 -200.297 1756
-532.507 -199.841 1752
-526.809 -199.27 1747
-522.632 -199.27 1747
-518.454 -199.27 1747
-513.688 -199.042 1745
-508.931 -198.814 1743
-502.736 -198.016 1736
-498.584 -198.016 1736
-493.294 -197.56 1732
-488.305 -197.217 1729
-483.61 -196.989 1727
-479.481 -196.989 1727
-474.25 -196.533 1723
-469.311 -196.191 1720
-463.846 -195.62 1715
-458.672 -195.164 1711
-454.581 -195.164 1711
-449.699 -194.822 1708
-445.093 -194.594 1706
-439.721 -194.024 1701
-435.653 -194.024 1701
-430.571 -193.567 1697
-424.754 -192.769 1690
-420.463 -192.655 1689
-416.424 -192.655 1689
-411.409 -192.199 1685
-406.654 -191.856 1682
-401.675 -191.4 1678
-397.662 -191.4 1678
-393.415 -191.286 1677
-388.94 -191.058 1675
-384.245 -190.716 1672
-380.247 -190.716 1672
-376.249 -190.716 1672
-371.137 -190.145 1667
-367.151 -190.145 1667
-362.075 -189.575 1662
-358.101 -189.575 1662
-353.274 -189.119 1658
-349.099 -189.005 1657
-345.137 -189.005 1657
-341.174 -189.005 1657
-336.805 -188.777 1655
-332.445 -188.548 1653
-328.293 -188.434 1652
-324.343 -188.434 1652
-320.393 -188.434 1652
-316.442 -188.434 1652
-312.492 -188.434 1652
-308.728 -188.548 1653
-304.775 -188.548 1653
-300.822 -188.548 1653
-296.87 -188.548 1653
-293.271 -188.777 1655
-289.314 -188.777 1655
-285.701 -189.005 1657
-282.589 -189.575 1662
-279.452 -190.145 1667
-275.466 -190.145 1667
-272.294 -190.716 1672
-268.777 -191.058 1675
-265.562 -191.628 1680
-261.545 -191.628 1680
-257.834 -191.856 1682
-253.963 -191.97 1683
-249.938 -191.97 1683
-245.913 -191.97 1683
-242.176 -192.199 1685
-238.147 -192.199 1685
-234.118 -192.199 1685
-229.815 -191.97 1683
-226.059 -192.199 1685
-222.03 -192.199 1685
-218 -192.199 1685
-213.971 -192.199 1685
-209.942 -192.199 1685
-205.668 -191.97 1683
-201.523 -191.856 1682
-197.501 -191.856 1682
-193.249 -191.628 1680
-189.232 -191.628 1680
-184.994 -191.4 1678
-180.981 -191.4 1678
-176.863 -191.286 1677
-172.647 -191.058 1675
-168.138 -190.488 1670
-164.144 -190.488 1670
-159.959 -190.259 1668
-155.877 -190.145 1667
-151.708 -189.917 1665
-147.727 -189.917 1665
-143.486 -189.575 1662
-139.512 -189.575 1662
-135.375 -189.347 1660
-131.405 -189.347 1660
-127.435 -189.347 1660
-123.466 -189.347 1660
-119.496 -189.347 1660
-115.527 -189.347 1660
-111.557 -189.347 1660
-107.458 -189.119 1658
-103.431 -189.005 1657
-99.1683 -188.434 1652
-95.2179 -188.434 1652
-91.1569 -188.206 1650
-87.1056 -187.978 1648
-83.1647 -187.978 1648
-79.2238 -187.978 1648
-75.283 -187.978 1648
-71.5586 -188.548 1653
-67.6057 -188.548 1653
-63.8069 -189.005 1657
-59.8446 -189.005 1657
-55.8822 -189.005 1657
-51.6064 -187.864 1647
-47.668 -187.864 1647
-72.3153 -425.688 3732
-63.3909 -425.688 3732
-54.4666 -425.688 3732
-45.6399 -426.601 3740
-36.6964 -426.601 3740
-27.7529 -426.601 3740
-18.8095 -426.601 3740
-9.84488 -425.688 3732
-0.920541 -425.688 3732
8.0038 -425.688 3732
16.9281 -425.688 3732
25.8525 -425.688 3732
34.7768 -425.688 3732
43.7012 -425.688 3732
52.6255 -425.688 3732
61.5499 -425.688 3732
70.4742 -425.688 3732
79.0581 -423.863 3716
87.9442 -423.863 3716
96.8303 -423.863 3716
105.716 -423.863 3716
114.602 -423.863 3716
123.489 -423.863 3716
132.375 -423.863 3716
141.261 -423.863 3716
150.147 -423.863 3716
159.033 -423.863 3716
167.512 -422.837 3707
175.996 -421.924 3699
184.442 -421.012 3691
193.268 -421.012 3691
201.656 -420.099 3683
209.549 -418.274 3667
217.782 -417.248 3658
226.53 -417.248 3658
235.277 -417.248 3658
244.025 -417.248 3658
252.772 -417.248 3658
260.947 -416.335 3650
269.676 -416.335 3650
278.404 -416.335 3650
287.132 -416.335 3650
295.86 -416.335 3650
304.589 -416.335 3650
313.317 -416.335 3650
322.045 -416.335 3650
330.048 -415.423 3642
338.758 -415.423 3642
347.467 -415.423 3642
356.176 -415.423 3642
364.885 -415.423 3642
373.594 -415.423 3642
382.303 -415.423 3642
391.871 -416.335 3650
400.599 -416.335 3650
410.225 -417.248 3658
418.972 -417.248 3658
428.772 -418.274 3667
438.495 -419.187 3675
447.284 -419.187 3675
458.057 -421.012 3691
466.883 -421.012 3691
475.71 -421.012 3691
483.486 -420.099 3683
494.432 -421.924 3699
503.277 -421.924 3699
512.123 -421.924 3699
522.095 -422.837 3707
530.959 -422.837 3707
539.824 -422.837 3707
548.688 -422.837 3707
557.553 -422.837 3707
566.417 -422.837 3707
965.778 -419.187 3675
974.566 -419.187 3675
985.495 -420.099 3683
1007.53 -425.688 3732
1021.08 -427.627 3749
1030.05 -427.627 3749
1043.73 -429.567 3766
1062.24 -433.445 3800
1073.86 -434.471 3809
1082.97 -434.471 3809
1094.66 -435.498 3818
1108.7 -437.437 3835
1128.37 -441.543 3871
1137.62 -441.543 3871
1160.21 -446.676 3916
1177.94 -449.87 3944
1193.09 -452.037 3963
1202.57 -452.037 3963
1212.04 -452.037 3963
1221.52 -452.037 3963
1231 -452.037 3963
1246.42 -454.204 3982
1255.94 -454.204 3982
1268.33 -455.231 3991
1277.87 -455.231 3991
1293.54 -457.398 4010
1303.13 -457.398 4010
1319.27 -459.68 4030
1345.06 -465.269 4079
1354.82 -465.269 4079
1364.57 -465.269 4079
1374.33 -465.269 4079
1384.08 -465.269 4079
1397.25 -466.409 4089
1407.03 -466.409 4089
1416.81 -466.409 4089
1426.58 -466.409 4089
1436.36 -466.409 4089
1446.14 -466.409 4089
1455.92 -466.409 4089
1462.11 -465.269 4079
1471.87 -465.269 4079
2505.8 -465.269 4079
2515.56 -465.269 4079
2525.31 -465.269 4079
2535.07 -465.269 4079
2551.06 -466.409 4089
2560.84 -466.409 4089
2570.62 -466.409 4089
2580.39 -466.409 4089
2590.17 -466.409 4089
2599.95 -466.409 4089
2603.35 -465.269 4079
2581.71 -459.68 4030
2591.35 -459.68 4030
2594.53 -458.539 4020
2604.14 -458.539 4020
2613.75 -458.539 4020
2623.37 -458.539 4020
2632.98 -458.539 4020
2642.59 -458.539 4020
2652.21 -458.539 4020
2661.82 -458.539 4020
2671.43 -458.539 4020
2681.05 -458.539 4020
2690.66 -458.539 4020
2668.03 -453.064 3972
2697.08 -456.372 4001
2706.65 -456.372 4001
2716.21 -456.372 4001
2725.78 -456.372 4001
2735.35 -456.372 4001
2757.14 -455.231 3991
2773.62 -456.372 4001
2783.19 -456.372 4001
2792.75 -456.372 4001
2698.66 -439.49 3853
2720.53 -441.543 3871
2729.78 -441.543 3871
2739.04 -441.543 3871
2748.3 -441.543 3871
2757.55 -441.543 3871
2773.24 -442.57 3880
2782.52 -442.57 3880
2791.8 -442.57 3880
2801.08 -442.57 3880
2816.87 -443.596 3889
2826.17 -443.596 3889
2835.47 -443.596 3889
2844.77 -443.596 3889
2854.07 -443.596 3889
2903.87 -449.87 3944
2913.3 -449.87 3944
2922.73 -449.87 3944
2932.16 -449.87 3944
2941.59 -449.87 3944
2951.02 -449.87 3944
2932.68 -445.65 3907
2942.02 -445.65 3907
2958.17 -446.676 3916
2967.53 -446.676 3916
2976.9 -446.676 3916
2993.12 -447.703 3925
3002.51 -447.703 3925
-2363.09 -385.704 3454
-2364.37 -387.268 3468
-2385.97 -392.181 3512
-2377.57 -392.181 3512
-2389.41 -395.531 3542
-2396.4 -398.1 3565
-2387.88 -398.1 3565
-2379.35 -398.1 3565
-2375.48 -398.881 3572
-2387.48 -402.343 3603
-2384.15 -403.236 3611
-2375.51 -403.236 3611
-2366.88 -403.236 3611
-2363.47 -404.13 3619
-2374.99 -407.591 3650
-2366.26 -407.591 3650
-2389.18 -413.063 3699
-2385.48 -413.957 3707
-2376.62 -413.957 3707
-2367.75 -413.957 3707
-2353.8 -413.063 3699
-2339.88 -412.17 3691
-2351.89 -415.855 3724
-2353.06 -417.642 3740
-2344.11 -417.642 3740
-2335.17 -417.642 3740
-2326.23 -417.642 3740
-1242.75 -362.477 3246
-1234.99 -362.477 3246
-1227.22 -362.477 3246
-1216.83 -361.696 3239
-1204.61 -360.355 3227
-1194.66 -359.685 3221
-1186.96 -359.685 3221
-1179.26 -359.685 3221
-1171.56 -359.685 3221
-1161.33 -358.904 3214
-1153.64 -358.904 3214
-1143.82 -358.234 3208
-1136.14 -358.234 3208
-1126.36 -357.564 3202
-1118.7 -357.564 3202
-1106.88 -356.224 3190
-1097.19 -355.554 3184
-1099.84 -358.904 3214
-1092.15 -358.904 3214
-1084.47 -358.904 3214
-1076.78 -358.904 3214
-1069.1 -358.904 3214
-1061.41 -358.904 3214
-1053.73 -358.904 3214
-1040.18 -356.894 3196
-1032.54 -356.894 3196
-560.827 -196.761 1762
-556.929 -196.872 1763
-552.714 -196.872 1763
-548.498 -196.872 1763
-543.973 -196.761 1762
-539.76 -196.761 1762
-533.115 -195.867 1754
-526.206 -194.862 1745
-522.033 -194.862 1745
-517.861 -194.862 1745
-513.099 -194.639 1743
-508.347 -194.416 1741
-502.736 -193.857 1736
-498.584 -193.857 1736
-493.009 -193.299 1731
-488.305 -193.076 1729
-483.61 -192.852 1727
-479.481 -192.852 1727
-474.25 -192.405 1723
-469.311 -192.07 1720
-463.846 -191.512 1715
-458.672 -191.065 1711
-454.581 -191.065 1711
-449.699 -190.73 1708
-445.093 -190.507 1706
-439.721 -189.949 1701
-435.653 -189.949 1701
-430.571 -189.502 1697
-424.754 -188.72 1690
-419.965 -188.385 1687
-415.931 -188.385 1687
-411.409 -188.162 1685
-406.171 -187.604 1680
-401.435 -187.269 1677
-397.425 -187.269 1677
-392.946 -187.045 1675
-388.476 -186.822 1673
-384.245 -186.71 1672
-380.247 -186.71 1672
-376.249 -186.71 1672
-371.137 -186.152 1667
-366.711 -185.929 1665
-362.075 -185.594 1662
-358.101 -185.594 1662
-353.274 -185.147 1658
-349.31 -185.147 1658
-345.137 -185.035 1657
-341.174 -185.035 1657
-336.805 -184.812 1655
-332.445 -184.589 1653
-328.293 -184.477 1652
-324.343 -184.477 1652
-320.393 -184.477 1652
-316.442 -184.477 1652
-312.681 -184.589 1653
-308.728 -184.589 1653
-304.775 -184.589 1653
-300.822 -184.589 1653
-296.87 -184.589 1653
-293.271 -184.812 1655
-289.314 -184.812 1655
-285.701 -185.035 1657
-282.589 -185.594 1662
-279.452 -186.152 1667
-275.466 -186.152 1667
-272.294 -186.71 1672
-268.777 -187.045 1675
-265.562 -187.604 1680
-261.545 -187.604 1680
-257.834 -187.827 1682
-253.963 -187.939 1683
-249.938 -187.939 1683
-245.913 -187.939 1683
-242.176 -188.162 1685
-238.147 -188.162 1685
-234.118 -188.162 1685
-230.088 -188.162 1685
-226.059 -188.162 1685
-222.03 -188.162 1685
-218 -188.162 1685
-213.971 -188.162 1685
-209.942 -188.162 1685
-205.668 -187.939 1683
-201.643 -187.939 1683
-197.619 -187.939 1683
-193.479 -187.827 1682
-189.232 -187.604 1680
-184.994 -187.38 1678
-180.981 -187.38 1678
-176.863 -187.269 1677
-172.647 -187.045 1675
-168.138 -186.487 1670
-164.144 -186.487 1670
-159.959 -186.264 1668
-155.877 -186.152 1667
-151.708 -185.929 1665
-147.727 -185.929 1665
-143.486 -185.594 1662
-139.512 -185.594 1662
-135.375 -185.37 1660
-131.405 -185.37 1660
-127.435 -185.37 1660
-123.466 -185.37 1660
-119.496 -185.37 1660
-115.527 -185.37 1660
-111.557 -185.37 1660
-107.458 -185.147 1658
-103.431 -185.035 1657
-99.1683 -184.477 1652
-95.2179 -184.477 1652
-91.1569 -184.254 1650
-87.2113 -184.254 1650
-83.2656 -184.254 1650
-79.32 -184.254 1650
-75.3743 -184.254 1650
-71.5586 -184.589 1653
-67.7693 -185.035 1657
-63.8069 -185.035 1657
-59.8446 -185.035 1657
-55.8822 -185.035 1657
-51.9198 -185.035 1657
-47.9574 -185.035 1657
-72.3153 -416.748 3732
-63.3909 -416.748 3732
-54.4666 -416.748 3732
-45.6399 -417.642 3740
-36.6964 -417.642 3740
-27.7529 -417.642 3740
-18.8095 -417.642 3740
-9.84488 -416.748 3732
-0.920541 -416.748 3732
8.0038 -416.748 3732
16.9281 -416.748 3732
25.8525 -416.748 3732
34.7768 -416.748 3732
43.7012 -416.748 3732
52.6255 -416.748 3732
61.5499 -416.748 3732
70.4742 -416.748 3732
79.0581 -414.962 3716
87.9442 -414.962 3716
96.8303 -414.962 3716
105.716 -414.962 3716
114.602 -414.962 3716
123.489 -414.962 3716
132.375 -414.962 3716
141.261 -414.962 3716
150.147 -414.962 3716
159.033 -414.962 3716
167.512 -413.957 3707
175.996 -413.063 3699
184.442 -412.17 3691
193.268 -412.17 3691
201.656 -411.277 3683
209.549 -409.49 3667
217.782 -408.485 3658
226.53 -408.485 3658
235.277 -408.485 3658
244.025 -408.485 3658
252.772 -408.485 3658
261.519 -408.485 3658
270.267 -408.485 3658
279.014 -408.485 3658
287.132 -407.591 3650
295.86 -407.591 3650
305.256 -408.485 3658
314.004 -408.485 3658
322.751 -408.485 3658
330.048 -406.698 3642
338.758 -406.698 3642
347.467 -406.698 3642
356.176 -406.698 3642
364.885 -406.698 3642
373.594 -406.698 3642
382.303 -406.698 3642
391.871 -407.591 3650
400.599 -407.591 3650
410.225 -408.485 3658
418.972 -408.485 3658
428.772 -409.49 3667
438.495 -410.383 3675
447.284 -410.383 3675
458.057 -412.17 3691
466.883 -412.17 3691
475.71 -412.17 3691
483.486 -411.277 3683
494.432 -413.063 3699
503.277 -413.063 3699
512.123 -413.063 3699
522.095 -413.957 3707
530.959 -413.957 3707
539.824 -413.957 3707
548.688 -413.957 3707
557.553 -413.957 3707
566.417 -413.957 3707
991.795 -421.438 3774
1000.82 -421.438 3774
1021.62 -426.352 3818
1030.75 -426.352 3818
1044.51 -428.25 3835
1053.68 -428.25 3835
1065.34 -429.255 3844
1082.08 -432.27 3871
1091.34 -432.27 3871
1100.6 -432.27 3871
1109.85 -432.27 3871
1113.91 -430.26 3853
1130.99 -433.275 3880
1140.27 -433.275 3880
1162.88 -438.3 3925
1177.94 -440.422 3944
1193.09 -442.544 3963
1202.57 -442.544 3963
1212.04 -442.544 3963
1221.52 -442.544 3963
1233.79 -443.549 3972
1246.42 -444.665 3982
1255.94 -444.665 3982
1268.33 -445.671 3991
1283.95 -447.792 4010
1296.77 -448.909 4020
1306.38 -448.909 4020
1322.21 -451.031 4039
1348.36 -456.614 4089
1358.14 -456.614 4089
1367.92 -456.614 4089
1377.69 -456.614 4089
1384.08 -455.497 4079
1397.25 -456.614 4089
1407.03 -456.614 4089
1416.81 -456.614 4089
1426.58 -456.614 4089
1436.36 -456.614 4089
1446.14 -456.614 4089
1455.92 -456.614 4089
1462.11 -455.497 4079
1471.87 -455.497 4079
2457.03 -455.497 4079
2466.79 -455.497 4079
2476.54 -455.497 4079
2492.39 -456.614 4089
2502.17 -456.614 4089
2511.95 -456.614 4089
2515.56 -455.497 4079
2525.31 -455.497 4079
2535.07 -455.497 4079
2551.06 -456.614 4089
2560.84 -456.614 4089
2570.62 -456.614 4089
2580.39 -456.614 4089
2590.17 -456.614 4089
2599.95 -456.614 4089
2603.35 -455.497 4079
2581.71 -450.026 4030
2591.35 -450.026 4030
2594.53 -448.909 4020
2604.14 -448.909 4020
2613.75 -448.909 4020
2623.37 -448.909 4020
2632.98 -448.909 4020
2642.59 -448.909 4020
2658.8 -450.026 4030
2668.44 -450.026 4030
2678.08 -450.026 4030
2687.72 -450.026 4030
2697.35 -450.026 4030
2706.99 -450.026 4030
2722.69 -451.031 4039
2732.35 -451.031 4039
2748.8 -452.147 4049
2758.48 -452.147 4049
2768.16 -452.147 4049
2744.92 -446.787 4001
2747.6 -445.671 3991
2790.3 -451.031 4039
2806.89 -452.147 4049
2816.58 -452.147 4049
2826.26 -452.147 4049
2802.32 -446.787 4001
2804.86 -445.671 3991
2814.4 -445.671 3991
2784.32 -439.417 3935
2786.63 -438.3 3925
2796.02 -438.3 3925
2805.41 -438.3 3925
2801.88 -436.29 3907
2804.75 -435.285 3898
2801.08 -433.275 3880
2816.87 -434.28 3889
2826.17 -434.28 3889
2835.47 -434.28 3889
2844.77 -434.28 3889
2854.07 -434.28 3889
2903.87 -440.422 3944
2913.3 -440.422 3944
2922.73 -440.422 3944
2932.16 -440.422 3944
2941.59 -440.422 3944
2951.02 -440.422 3944
2932.68 -436.29 3907
2942.02 -436.29 3907
2958.17 -437.295 3916
2967.53 -437.295 3916
2976.9 -437.295 3916
2993.12 -438.3 3925
3002.51 -438.3 3925
-2363.09 -377.43 3454
-2364.37 -378.96 3468
-2385.97 -383.768 3512
-2377.57 -383.768 3512
-2389.41 -387.046 3542
-2396.4 -389.56 3565
-2387.88 -389.56 3565
-2379.35 -389.56 3565
-2375.48 -390.324 3572
-2387.48 -393.712 3603
-2384.15 -394.586 3611
-2375.51 -394.586 3611
-2366.88 -394.586 3611
-2363.47 -395.46 3619
-2374.99 -398.848 3650
-2366.26 -398.848 3650
-2389.18 -404.202 3699
-2385.48 -405.076 3707
-2376.62 -405.076 3707
-2367.75 -405.076 3707
-2353.8 -404.202 3699
-2339.88 -403.328 3691
-2351.89 -406.934 3724
-2353.06 -408.682 3740
-2349.75 -409.666 3749
-2340.79 -409.666 3749
-2331.82 -409.666 3749
-1260.6 -355.357 3252
-1252.82 -355.357 3252
-1245.04 -355.357 3252
-1237.27 -355.357 3252
-1229.49 -355.357 3252
-1219.46 -354.701 3246
-1206.85 -353.281 3233
-1196.89 -352.625 3227
-1189.17 -352.625 3227
-1181.46 -352.625 3227
-1173.74 -352.625 3227
-1163.85 -351.97 3221
-1156.15 -351.97 3221
-1145.95 -351.205 3214
-1136.14 -350.549 3208
-1126.36 -349.893 3202
-1118.7 -349.893 3202
-1108.97 -349.238 3196
-1099.26 -348.582 3190
-1099.84 -351.205 3214
-1092.15 -351.205 3214
-1084.47 -351.205 3214
-1076.78 -351.205 3214
-1069.1 -351.205 3214
-1061.41 -351.205 3214
-1053.73 -351.205 3214
-1040.18 -349.238 3196
-1032.54 -349.238 3196
-560.827 -192.54 1762
-556.929 -192.649 1763
-552.714 -192.649 1763
-548.498 -192.649 1763
-543.973 -192.54 1762
-539.76 -192.54 1762
-533.115 -191.666 1754
-526.206 -190.682 1745
-522.033 -190.682 1745
-517.861 -190.682 1745
-513.099 -190.464 1743
-508.347 -190.245 1741
-502.736 -189.699 1736
-498.584 -189.699 1736
-493.009 -189.152 1731
-488.305 -188.934 1729
-483.61 -188.715 1727
-479.481 -188.715 1727
-474.25 -188.278 1723
-469.311 -187.95 1720
-463.846 -187.404 1715
-458.672 -186.967 1711
-454.581 -186.967 1711
-449.699 -186.639 1708
-445.093 -186.42 1706
-439.721 -185.874 1701
-435.653 -185.874 1701
-430.571 -185.437 1697
-424.754 -184.672 1690
-419.965 -184.344 1687
-415.931 -184.344 1687
-411.409 -184.126 1685
-406.171 -183.579 1680
-401.435 -183.251 1677
-397.425 -183.251 1677
-392.946 -183.033 1675
-388.476 -182.814 1673
-384.245 -182.705 1672
-380.247 -182.705 1672
-376.249 -182.705 1672
-371.137 -182.159 1667
-366.711 -181.94 1665
-362.075 -181.612 1662
-358.101 -181.612 1662
-353.274 -181.175 1658
-349.31 -181.175 1658
-345.137 -181.066 1657
-341.174 -181.066 1657
-336.805 -180.847 1655
-332.445 -180.629 1653
-328.293 -180.52 1652
-324.343 -180.52 1652
-320.005 -180.301 1650
-316.059 -180.301 1650
-312.681 -180.629 1653
-308.728 -180.629 1653
-304.775 -180.629 1653
-300.822 -180.629 1653
-296.87 -180.629 1653
-293.271 -180.847 1655
-289.314 -180.847 1655
-285.701 -181.066 1657
-282.589 -181.612 1662
-279.452 -182.159 1667
-275.466 -182.159 1667
-272.294 -182.705 1672
-268.777 -183.033 1675
-265.562 -183.579 1680
-261.545 -183.579 1680
-257.834 -183.798 1682
-253.963 -183.907 1683
-249.938 -183.907 1683
-245.913 -183.907 1683
-242.176 -184.126 1685
-238.147 -184.126 1685
-234.118 -184.126 1685
-230.088 -184.126 1685
-226.059 -184.126 1685
-222.03 -184.126 1685
-218 -184.126 1685
-213.971 -184.126 1685
-209.942 -184.126 1685
-205.912 -184.126 1685
-201.643 -183.907 1683
-197.619 -183.907 1683
-193.479 -183.798 1682
-189.457 -183.798 1682
-184.994 -183.361 1678
-180.981 -183.361 1678
-176.863 -183.251 1677
-172.441 -182.814 1673
-167.937 -182.268 1668
-163.948 -182.268 1668
-159.863 -182.159 1667
-155.69 -181.94 1665
-151.526 -181.722 1663
-147.549 -181.722 1663
-143.486 -181.612 1662
-139.512 -181.612 1662
-135.375 -181.394 1660
-131.405 -181.394 1660
-127.282 -181.175 1658
-123.317 -181.175 1658
-119.352 -181.175 1658
-115.388 -181.175 1658
-111.423 -181.175 1658
-107.458 -181.175 1658
-103.306 -180.847 1655
-99.1683 -180.52 1652
-95.2179 -180.52 1652
-91.1569 -180.301 1650
-87.2113 -180.301 1650
-83.2656 -180.301 1650
-79.4642 -180.629 1653
-75.5114 -180.629 1653
-71.6451 -180.847 1655
-67.7693 -181.066 1657
-63.9995 -181.612 1662
-60.0251 -181.612 1662
-56.0508 -181.612 1662
-51.9198 -181.066 1657
-47.9574 -181.066 1657
-72.1603 -406.934 3724
-63.2551 -406.934 3724
-54.3498 -406.934 3724
-45.4446 -406.934 3724
-36.5394 -406.934 3724
-27.6342 -406.934 3724
-18.729 -406.934 3724
-9.82378 -406.934 3724
-0.918567 -406.934 3724
7.98665 -406.934 3724
16.8919 -406.934 3724
25.7971 -406.934 3724
34.7023 -406.934 3724
43.6075 -406.934 3724
52.5127 -406.934 3724
61.286 -406.06 3716
70.1721 -406.06 3716
79.0581 -406.06 3716
87.9442 -406.06 3716
96.3873 -404.202 3699
105.233 -404.202 3699
114.078 -404.202 3699
123.189 -405.076 3707
132.054 -405.076 3707
140.919 -405.076 3707
149.783 -405.076 3707
158.648 -405.076 3707
167.151 -404.202 3699
175.616 -403.328 3691
184.042 -402.454 3683
192.849 -402.454 3683
201.218 -401.58 3675
209.549 -400.705 3667
217.782 -399.722 3658
226.53 -399.722 3658
235.277 -399.722 3658
244.025 -399.722 3658
252.772 -399.722 3658
261.519 -399.722 3658
270.267 -399.722 3658
279.014 -399.722 3658
287.761 -399.722 3658
296.509 -399.722 3658
305.256 -399.722 3658
314.004 -399.722 3658
322.751 -399.722 3658
330.048 -397.974 3642
338.758 -397.974 3642
347.467 -397.974 3642
356.176 -397.974 3642
364.885 -397.974 3642
373.594 -397.974 3642
382.303 -397.974 3642
391.012 -397.974 3642
399.721 -397.974 3642
409.328 -398.848 3650
418.972 -399.722 3658
427.72 -399.722 3658
437.541 -400.705 3667
447.284 -401.58 3675
456.072 -401.58 3675
464.86 -401.58 3675
473.648 -401.58 3675
483.486 -402.454 3683
492.293 -402.454 3683
501.1 -402.454 3683
509.907 -402.454 3683
519.841 -403.328 3691
528.668 -403.328 3691
537.494 -403.328 3691
546.32 -403.328 3691
1010.19 -420.047 3844
1019.38 -420.047 3844
1030.98 -421.03 3853
1040.2 -421.03 3853
1054.31 -422.997 3871
1063.57 -422.997 3871
1075.32 -423.981 3880
1087.11 -424.964 3889
1096.41 -424.964 3889
1105.71 -424.964 3889
1115.01 -424.964 3889
1129.52 -426.931 3907
1144.11 -428.898 3925
1153.49 -428.898 3925
1168.51 -430.974 3944
1186.3 -434.034 3972
1195.8 -434.034 3972
1205.3 -434.034 3972
1214.8 -434.034 3972
1227.38 -435.127 3982
1236.9 -435.127 3982
1246.42 -435.127 3982
1258.78 -436.11 3991
1274.36 -438.186 4010
1287.16 -439.279 4020
1302.9 -441.355 4039
1312.56 -441.355 4039
1328.76 -443.541 4059
1348.36 -446.819 4089
1358.14 -446.819 4089
1367.92 -446.819 4089
1377.69 -446.819 4089
1387.47 -446.819 4089
1397.25 -446.819 4089
1407.03 -446.819 4089
1416.81 -446.819 4089
1426.58 -446.819 4089
1436.36 -446.819 4089
1446.14 -446.819 4089
1455.92 -446.819 4089
2457.03 -445.726 4079
2466.79 -445.726 4079
2476.54 -445.726 4079
2492.39 -446.819 4089
2502.17 -446.819 4089
2511.95 -446.819 4089
2515.56 -445.726 4079
2525.31 -445.726 4079
2535.07 -445.726 4079
2551.06 -446.819 4089
2560.84 -446.819 4089
2570.62 -446.819 4089
2580.39 -446.819 4089
2590.17 -446.819 4089
2599.95 -446.819 4089
2577.82 -441.355 4039
2526.62 -430.974 3944
2541.83 -431.958 3953
2588.07 -438.186 4010
2597.66 -438.186 4010
2613.75 -439.279 4020
2623.37 -439.279 4020
2632.98 -439.279 4020
2642.59 -439.279 4020
2658.8 -440.372 4030
2668.44 -440.372 4030
2678.08 -440.372 4030
2687.72 -440.372 4030
2697.35 -440.372 4030
2706.99 -440.372 4030
2722.69 -441.355 4039
2732.35 -441.355 4039
2748.8 -442.448 4049
2758.48 -442.448 4049
2768.16 -442.448 4049
2744.92 -437.203 4001
2747.6 -436.11 3991
2790.3 -441.355 4039
2806.89 -442.448 4049
2816.58 -442.448 4049
2826.26 -442.448 4049
2802.32 -437.203 4001
2804.86 -436.11 3991
2814.4 -436.11 3991
2784.32 -429.991 3935
2786.63 -428.898 3925
2796.02 -428.898 3925
2805.41 -428.898 3925
2801.88 -426.931 3907
2804.75 -425.948 3898
2801.08 -423.981 3880
2810.35 -423.981 3880
2819.63 -423.981 3880
2809.23 -421.03 3853
2818.44 -421.03 3853
2840.86 -422.997 3871
2883.25 -427.915 3916
2892.62 -427.915 3916
2922.73 -430.974 3944
2932.16 -430.974 3944
2941.59 -430.974 3944
2936.81 -428.898 3925
2932.68 -426.931 3907
2942.02 -426.931 3907
2958.17 -427.915 3916
2967.53 -427.915 3916
2976.9 -427.915 3916
2993.12 -428.898 3925
3002.51 -428.898 3925
-2343.93 -366.164 3426
-2354.83 -369.156 3454
-2371.02 -373.004 3490
-2362.68 -373.004 3490
-2369.17 -375.355 3512
-2370.86 -376.958 3527
-2377.16 -379.31 3549
-2368.67 -379.31 3549
-2370.83 -381.02 3565
-2377.54 -383.478 3588
-2378.87 -385.081 3603
-2370.25 -385.081 3603
-2361.64 -385.081 3603
-2353.02 -385.081 3603
-2374.99 -390.104 3650
-2366.26 -390.104 3650
-2389.18 -395.341 3699
-2385.48 -396.196 3707
-2376.62 -396.196 3707
-2367.75 -396.196 3707
-2353.8 -395.341 3699
-2339.88 -394.486 3691
-2331.05 -394.486 3691
-2353.06 -399.723 3740
-2349.75 -400.685 3749
-2340.79 -400.685 3749
-2331.82 -400.685 3749
-1260.6 -347.567 3252
-1252.82 -347.567 3252
-1245.04 -347.567 3252
-1237.27 -347.567 3252
-1229.49 -347.567 3252
-1219.46 -346.926 3246
-1206.85 -345.536 3233
-1196.89 -344.895 3227
-1189.17 -344.895 3227
-1181.46 -344.895 3227
-1173.74 -344.895 3227
-1163.85 -344.254 3221
-1156.15 -344.254 3221
-1145.95 -343.505 3214
-1136.14 -342.864 3208
-1126.36 -342.223 3202
-1118.7 -342.223 3202
-1108.97 -341.582 3196
-1099.26 -340.94 3190
-1095.73 -342.223 3202
-1092.15 -343.505 3214
-1084.47 -343.505 3214
-1076.78 -343.505 3214
-1065.11 -342.223 3202
-1055.47 -341.582 3196
-1047.83 -341.582 3196
-1038.23 -340.94 3190
-1022.85 -338.375 3166
-560.827 -188.319 1762
-556.929 -188.426 1763
-552.714 -188.426 1763
-548.498 -188.426 1763
-543.973 -188.319 1762
-539.76 -188.319 1762
-533.115 -187.464 1754
-526.206 -186.502 1745
-522.033 -186.502 1745
-517.861 -186.502 1745
-513.099 -186.288 1743
-508.347 -186.074 1741
-502.736 -185.54 1736
-498.584 -185.54 1736
-492.439 -184.792 1729
-487.74 -184.578 1727
-482.49 -184.151 1723
-477.537 -183.83 1720
-473.424 -183.83 1720
-468.22 -183.402 1716
-463.305 -183.082 1713
-458.136 -182.654 1709
-454.049 -182.654 1709
-449.173 -182.334 1706
-444.05 -181.906 1702
-439.204 -181.585 1699
-435.141 -181.585 1699
-429.81 -181.051 1694
-424.502 -180.517 1689
-419.965 -180.303 1687
-415.931 -180.303 1687
-410.921 -179.875 1683
-405.687 -179.341 1678
-401.435 -179.234 1677
-397.425 -179.234 1677
-392.476 -178.807 1673
-388.244 -178.7 1672
-384.245 -178.7 1672
-380.247 -178.7 1672
-375.799 -178.486 1670
-371.137 -178.165 1667
-366.711 -177.952 1665
-362.075 -177.631 1662
-358.101 -177.631 1662
-353.274 -177.204 1658
-349.31 -177.204 1658
-345.137 -177.097 1657
-341.174 -177.097 1657
-336.805 -176.883 1655
-332.445 -176.669 1653
-328.293 -176.562 1652
-324.343 -176.562 1652
-320.005 -176.348 1650
-316.059 -176.348 1650
-312.681 -176.669 1653
-308.728 -176.669 1653
-304.775 -176.669 1653
-300.822 -176.669 1653
-296.87 -176.669 1653
-293.271 -176.883 1655
-289.314 -176.883 1655
-285.701 -177.097 1657
-282.589 -177.631 1662
-279.452 -178.165 1667
-275.466 -178.165 1667
-272.294 -178.7 1672
-268.777 -179.02 1675
-265.246 -179.341 1678
-261.233 -179.341 1678
-257.527 -179.555 1680
-253.963 -179.875 1683
-249.938 -179.875 1683
-245.913 -179.875 1683
-241.889 -179.875 1683
-238.147 -180.089 1685
-234.118 -180.089 1685
-230.088 -180.089 1685
-226.059 -180.089 1685
-222.03 -180.089 1685
-218 -180.089 1685
-213.971 -180.089 1685
-209.942 -180.089 1685
-205.912 -180.089 1685
-201.643 -179.875 1683
-197.619 -179.875 1683
-193.479 -179.769 1682
-189.457 -179.769 1682
-184.994 -179.341 1678
-180.981 -179.341 1678
-176.863 -179.234 1677
-172.441 -178.807 1673
-167.937 -178.272 1668
-163.948 -178.272 1668
-159.863 -178.165 1667
-155.69 -177.952 1665
-151.435 -177.631 1662
-147.461 -177.631 1662
-143.314 -177.417 1660
-139.344 -177.417 1660
-135.212 -177.204 1658
-131.247 -177.204 1658
-127.282 -177.204 1658
-123.317 -177.204 1658
-119.352 -177.204 1658
-115.388 -177.204 1658
-111.423 -177.204 1658
-107.393 -177.097 1657
-103.306 -176.883 1655
-99.0482 -176.348 1650
-95.1026 -176.348 1650
-91.1569 -176.348 1650
-87.2113 -176.348 1650
-83.2656 -176.348 1650
-79.4642 -176.669 1653
-75.5114 -176.669 1653
-71.6451 -176.883 1655
-67.7693 -177.097 1657
-63.9995 -177.631 1662
-60.0251 -177.631 1662
-56.0508 -177.631 1662
-51.9198 -177.097 1657
-47.9574 -177.097 1657
-71.3658 -393.631 3683
-62.5586 -393.631 3683
-53.7515 -393.631 3683
-44.9443 -393.631 3683
-36.1371 -393.631 3683
-27.33 -393.631 3683
-18.5228 -393.631 3683
-9.71562 -393.631 3683
-0.908454 -393.631 3683
7.89872 -393.631 3683
16.7422 -394.486 3691
25.5685 -394.486 3691
34.3948 -394.486 3691
43.2211 -394.486 3691
52.0474 -394.486 3691
60.8737 -394.486 3691
69.5489 -393.631 3683
78.3561 -393.631 3683
87.1632 -393.631 3683
95.9704 -393.631 3683
104.778 -393.631 3683
113.585 -393.631 3683
122.658 -394.486 3691
131.484 -394.486 3691
140.31 -394.486 3691
149.137 -394.486 3691
157.963 -394.486 3691
166.789 -394.486 3691
175.235 -393.631 3683
184.042 -393.631 3683
192.849 -393.631 3683
200.78 -391.921 3667
209.549 -391.921 3667
217.782 -390.959 3658
226.53 -390.959 3658
235.277 -390.959 3658
244.025 -390.959 3658
252.772 -390.959 3658
261.519 -390.959 3658
270.267 -390.959 3658
279.014 -390.959 3658
287.761 -390.959 3658
296.509 -390.959 3658
305.256 -390.959 3658
314.004 -390.959 3658
322.751 -390.959 3658
330.048 -389.249 3642
338.758 -389.249 3642
347.467 -389.249 3642
356.176 -389.249 3642
364.885 -389.249 3642
373.594 -389.249 3642
382.303 -389.249 3642
391.012 -389.249 3642
399.721 -389.249 3642
408.431 -389.249 3642
417.14 -389.249 3642
425.849 -389.249 3642
436.467 -390.959 3658
445.214 -390.959 3658
453.962 -390.959 3658
462.709 -390.959 3658
471.457 -390.959 3658
480.204 -390.959 3658
488.951 -390.959 3658
497.699 -390.959 3658
506.446 -390.959 3658
517.588 -392.776 3675
528.668 -394.486 3691
537.494 -394.486 3691
546.32 -394.486 3691
1010.19 -410.839 3844
1019.38 -410.839 3844
1030.98 -411.8 3853
1040.2 -411.8 3853
1054.31 -413.724 3871
1063.57 -413.724 3871
1075.32 -414.686 3880
1087.11 -415.648 3889
1096.41 -415.648 3889
1105.71 -415.648 3889
1115.01 -415.648 3889
1129.52 -417.572 3907
1144.11 -419.496 3925
1153.49 -419.496 3925
1168.51 -421.526 3944
1186.3 -424.519 3972
1195.8 -424.519 3972
1205.3 -424.519 3972
1214.8 -424.519 3972
1227.38 -425.588 3982
1236.9 -425.588 3982
1246.42 -425.588 3982
1258.78 -426.55 3991
1274.36 -428.58 4010
1287.16 -429.649 4020
1302.9 -431.68 4039
1312.56 -431.68 4039
1328.76 -433.817 4059
1348.36 -437.024 4089
1358.14 -437.024 4089
1367.92 -437.024 4089
1377.69 -437.024 4089
1387.47 -437.024 4089
1397.25 -437.024 4089
1407.03 -437.024 4089
1416.81 -437.024 4089
1426.58 -437.024 4089
1436.36 -437.024 4089
1446.14 -437.024 4089
1455.92 -437.024 4089
2447.28 -435.955 4079
2457.03 -435.955 4079
2466.79 -435.955 4079
2476.54 -435.955 4079
2492.39 -437.024 4089
2502.17 -437.024 4089
2511.95 -437.024 4089
2509.39 -434.886 4069
2512.93 -433.817 4059
2510.21 -431.68 4039
2519.87 -431.68 4039
2529.52 -431.68 4039
2570.62 -437.024 4089
2580.39 -437.024 4089
2590.17 -437.024 4089
2587.23 -434.886 4069
2572.07 -430.718 4030
2520.85 -420.564 3935
2541.83 -422.488 3953
2588.07 -428.58 4010
2597.66 -428.58 4010
2607.25 -428.58 4010
2623.37 -429.649 4020
2632.98 -429.649 4020
2642.59 -429.649 4020
2658.8 -430.718 4030
2668.44 -430.718 4030
2678.08 -430.718 4030
2687.72 -430.718 4030
2697.35 -430.718 4030
2706.99 -430.718 4030
2722.69 -431.68 4039
2732.35 -431.68 4039
2748.8 -432.749 4049
2758.48 -432.749 4049
2768.16 -432.749 4049
2744.92 -427.618 4001
2760.68 -428.58 4010
2797.21 -432.749 4049
2806.89 -432.749 4049
2816.58 -432.749 4049
2826.26 -432.749 4049
2815.63 -429.649 4020
2804.86 -426.55 3991
2814.4 -426.55 3991
2784.32 -420.564 3935
2793.73 -420.564 3935
2803.14 -420.564 3935
2812.55 -420.564 3935
2801.88 -417.572 3907
2804.75 -416.61 3898
2801.08 -414.686 3880
2810.35 -414.686 3880
2819.63 -414.686 3880
2809.23 -411.8 3853
2798.69 -408.915 3826
2827.65 -411.8 3853
2870 -416.61 3898
2879.32 -416.61 3898
2901.98 -418.534 3916
2911.34 -418.534 3916
2920.71 -418.534 3916
2930.07 -418.534 3916
2925.93 -416.61 3898
2935.25 -416.61 3898
2958.17 -418.534 3916
2967.53 -418.534 3916
2976.9 -418.534 3916
2986.26 -418.534 3916
2995.62 -418.534 3916
-2343.93 -357.957 3426
-2335.74 -357.957 3426
-2366.27 -363.912 3483
-2357.94 -363.912 3483
-2359.06 -365.375 3497
-2360.78 -366.942 3512
-2367.11 -369.241 3534
-2358.66 -369.241 3534
-2365.51 -371.644 3557
-2372.24 -374.047 3580
-2373.59 -375.614 3595
-2364.99 -375.614 3595
-2361.64 -376.45 3603
-2358.24 -377.286 3611
-2380.19 -382.196 3658
-2371.44 -382.196 3658
-2389.18 -386.48 3699
-2396.42 -389.092 3724
-2387.52 -389.092 3724
-2378.61 -389.092 3724
-2364.61 -388.256 3716
-2355.73 -388.256 3716
-2331.05 -385.644 3691
-2353.06 -390.764 3740
-2365.42 -394.316 3774
-2356.4 -394.316 3774
-2347.37 -394.316 3774
-1267.96 -341.762 3271
-1260.14 -341.762 3271
-1252.32 -341.762 3271
-1244.5 -341.762 3271
-1236.68 -341.762 3271
-1221.72 -339.777 3252
-1211.7 -339.15 3246
-1199.12 -337.791 3233
-1191.38 -337.791 3233
-1181.46 -337.165 3227
-1173.74 -337.165 3227
-1163.85 -336.538 3221
-1156.15 -336.538 3221
-1148.45 -336.538 3221
-1138.27 -335.806 3214
-1128.47 -335.179 3208
-1120.8 -335.179 3208
-1108.97 -333.926 3196
-1101.32 -333.926 3196
-1093.68 -333.926 3196
-1088.08 -334.553 3202
-1080.42 -334.553 3202
-1072.76 -334.553 3202
-1063.11 -333.926 3196
-1055.47 -333.926 3196
-1047.83 -333.926 3196
-1034.32 -332.045 3178
-1022.85 -330.791 3166
-1011.43 -329.537 3154
-1003.89 -329.537 3154
-557.561 -184.411 1765
-553.341 -184.411 1765
-549.12 -184.411 1765
-543.973 -184.098 1762
-539.76 -184.098 1762
-533.115 -183.262 1754
-526.206 -182.322 1745
-522.033 -182.322 1745
-517.861 -182.322 1745
-513.099 -182.113 1743
-508.347 -181.904 1741
-502.736 -181.381 1736
-498.584 -181.381 1736
-492.439 -180.65 1729
-487.175 -180.232 1725
-482.21 -179.919 1722
-476.427 -179.292 1716
-472.323 -179.292 1716
-467.401 -178.978 1713
-462.223 -178.56 1709
-457.868 -178.456 1708
-453.784 -178.456 1708
-448.646 -178.038 1704
-443.789 -177.725 1701
-438.687 -177.307 1697
-434.629 -177.307 1697
-429.81 -176.993 1694
-424 -176.262 1687
-419.468 -176.053 1685
-415.438 -176.053 1685
-410.921 -175.844 1683
-405.445 -175.217 1677
-401.435 -175.217 1677
-397.425 -175.217 1677
-392.476 -174.799 1673
-388.244 -174.695 1672
-383.786 -174.486 1670
-379.792 -174.486 1670
-375.349 -174.277 1668
-370.692 -173.963 1665
-366.711 -173.963 1665
-362.075 -173.65 1662
-358.101 -173.65 1662
-353.274 -173.232 1658
-349.31 -173.232 1658
-345.137 -173.127 1657
-341.174 -173.127 1657
-336.805 -172.918 1655
-332.445 -172.709 1653
-328.293 -172.605 1652
-324.343 -172.605 1652
-320.005 -172.396 1650
-316.059 -172.396 1650
-312.492 -172.605 1652
-308.728 -172.709 1653
-304.775 -172.709 1653
-300.822 -172.709 1653
-296.87 -172.709 1653
-293.271 -172.918 1655
-289.314 -172.918 1655
-285.701 -173.127 1657
-282.248 -173.441 1660
-278.782 -173.754 1663
-274.805 -173.754 1663
-271.968 -174.486 1670
-268.296 -174.695 1672
-265.088 -175.217 1677
-261.078 -175.217 1677
-257.527 -175.53 1680
-253.963 -175.844 1683
-249.938 -175.844 1683
-245.913 -175.844 1683
-241.889 -175.844 1683
-238.147 -176.053 1685
-234.118 -176.053 1685
-230.088 -176.053 1685
-226.059 -176.053 1685
-222.03 -176.053 1685
-218 -176.053 1685
-213.971 -176.053 1685
-209.942 -176.053 1685
-205.912 -176.053 1685
-201.643 -175.844 1683
-197.619 -175.844 1683
-193.479 -175.739 1682
-189.457 -175.739 1682
-184.994 -175.321 1678
-180.981 -175.321 1678
-176.863 -175.217 1677
-172.441 -174.799 1673
-167.836 -174.172 1667
-163.85 -174.172 1667
-159.671 -173.963 1665
-155.503 -173.754 1663
-151.253 -173.441 1660
-147.283 -173.441 1660
-143.141 -173.232 1658
-139.176 -173.232 1658
-135.13 -173.127 1657
-131.168 -173.127 1657
-127.205 -173.127 1657
-123.243 -173.127 1657
-119.28 -173.127 1657
-115.318 -173.127 1657
-111.356 -173.127 1657
-107.393 -173.127 1657
-103.181 -172.709 1653
-99.0482 -172.396 1650
-95.1026 -172.396 1650
-91.1569 -172.396 1650
-87.317 -172.605 1652
-83.417 -172.709 1653
-79.5604 -172.918 1655
-75.6028 -172.918 1655
-71.8616 -173.441 1660
-67.9738 -173.65 1662
-64.115 -173.963 1665
-60.1335 -173.963 1665
-56.152 -173.963 1665
-52.1704 -173.963 1665
-48.1889 -173.963 1665
-70.7264 -381.361 3650
-61.9981 -381.361 3650
-53.3866 -382.196 3658
-44.6392 -382.196 3658
-35.8918 -382.196 3658
-27.1444 -382.196 3658
-18.4423 -383.137 3667
-9.67342 -383.137 3667
-0.904508 -383.137 3667
7.8644 -383.137 3667
16.6333 -383.137 3667
25.4022 -383.137 3667
34.2457 -383.973 3675
43.0337 -383.973 3675
51.8218 -383.973 3675
60.4779 -383.137 3667
69.2468 -383.137 3667
78.1859 -383.973 3675
86.9739 -383.973 3675
95.7619 -383.973 3675
104.55 -383.973 3675
113.338 -383.973 3675
122.392 -384.809 3683
131.199 -384.809 3683
140.006 -384.809 3683
148.813 -384.809 3683
157.621 -384.809 3683
166.428 -384.809 3683
174.854 -383.973 3675
183.642 -383.973 3675
192.43 -383.973 3675
200.288 -382.196 3658
209.035 -382.196 3658
217.782 -382.196 3658
226.53 -382.196 3658
235.277 -382.196 3658
244.025 -382.196 3658
252.772 -382.196 3658
261.519 -382.196 3658
270.267 -382.196 3658
279.014 -382.196 3658
287.761 -382.196 3658
296.509 -382.196 3658
305.256 -382.196 3658
314.004 -382.196 3658
322.751 -382.196 3658
330.048 -380.525 3642
338.758 -380.525 3642
347.467 -380.525 3642
356.176 -380.525 3642
364.885 -380.525 3642
373.594 -380.525 3642
382.303 -380.525 3642
391.012 -380.525 3642
399.721 -380.525 3642
408.431 -380.525 3642
416.338 -379.793 3635
425.03 -379.793 3635
435.513 -381.361 3650
444.241 -381.361 3650
452.969 -381.361 3650
461.697 -381.361 3650
470.426 -381.361 3650
479.154 -381.361 3650
488.951 -382.196 3658
497.699 -382.196 3658
506.446 -382.196 3658
520.968 -386.48 3699
529.813 -386.48 3699
538.659 -386.48 3699
547.504 -386.48 3699
1031.48 -410.093 3925
1040.86 -410.093 3925
1050.25 -410.093 3925
1059.63 -410.093 3925
1069.02 -410.093 3925
1078.41 -410.093 3925
1090.56 -411.138 3935
1099.97 -411.138 3935
1109.38 -411.138 3935
1118.79 -411.138 3935
1128.2 -411.138 3935
1140.21 -412.078 3944
1155.18 -414.064 3963
1164.66 -414.064 3963
1182.43 -416.989 3991
1191.98 -416.989 3991
1204.53 -418.034 4001
1214.1 -418.034 4001
1223.67 -418.034 4001
1233.23 -418.034 4001
1245.6 -418.974 4010
1255.19 -418.974 4010
1264.78 -418.974 4010
1280.72 -421.064 4030
1293.24 -422.004 4039
1309.35 -424.094 4059
1319.06 -424.094 4059
1335.31 -426.184 4079
1348.36 -427.228 4089
1358.14 -427.228 4089
1367.92 -427.228 4089
1377.69 -427.228 4089
1387.47 -427.228 4089
1397.25 -427.228 4089
1407.03 -427.228 4089
1416.81 -427.228 4089
1423.1 -426.184 4079
1436.36 -427.228 4089
1446.14 -427.228 4089
1455.92 -427.228 4089
1465.7 -427.228 4089
1475.48 -427.228 4089
2447.28 -426.184 4079
2457.03 -426.184 4079
2466.79 -426.184 4079
2476.54 -426.184 4079
2486.3 -426.184 4079
2496.05 -426.184 4079
2499.66 -425.139 4069
2503.22 -424.094 4059
2506.74 -423.049 4049
2504.61 -421.064 4030
2514.25 -421.064 4030
2523.89 -421.064 4030
2539.18 -422.004 4039
2548.84 -422.004 4039
2558.5 -422.004 4039
2562.44 -421.064 4030
2565.69 -420.019 4020
2520.85 -411.138 3935
2541.83 -413.019 3953
2563.55 -415.004 3972
2573.05 -415.004 3972
2607.25 -418.974 4010
2616.84 -418.974 4010
2626.43 -418.974 4010
2636.02 -418.974 4010
2658.8 -421.064 4030
2668.44 -421.064 4030
2678.08 -421.064 4030
2687.72 -421.064 4030
2697.35 -421.064 4030
2706.99 -421.064 4030
2722.69 -422.004 4039
2732.35 -422.004 4039
2748.8 -423.049 4049
2758.48 -423.049 4049
2768.16 -423.049 4049
2744.92 -418.034 4001
2760.68 -418.974 4010
2797.21 -423.049 4049
2806.89 -423.049 4049
2816.58 -423.049 4049
2826.26 -423.049 4049
2815.63 -420.019 4020
2804.86 -416.989 3991
2814.4 -416.989 3991
2784.32 -411.138 3935
2793.73 -411.138 3935
2803.14 -411.138 3935
2812.55 -411.138 3935
2801.88 -408.213 3907
2804.75 -407.272 3898
2794.58 -404.451 3871
2803.84 -404.451 3871
2806.55 -403.511 3862
2783.71 -398.914 3818
2773.82 -396.197 3792
2814.44 -400.69 3835
2850.12 -404.451 3871
2859.38 -404.451 3871
2888.64 -407.272 3898
2897.96 -407.272 3898
2907.28 -407.272 3898
2916.61 -407.272 3898
2912.42 -405.392 3880
2921.69 -405.392 3880
2930.97 -405.392 3880
2933.43 -404.451 3871
2963.21 -407.272 3898
2972.53 -407.272 3898
2981.85 -407.272 3898
-2343.93 -349.75 3426
-2340.51 -350.464 3433
-2366.27 -355.569 3483
-2357.94 -355.569 3483
-2359.06 -356.998 3497
-2360.78 -358.529 3512
-2367.11 -360.775 3534
-2358.66 -360.775 3534
-2365.51 -363.123 3557
-2372.24 -365.471 3580
-2373.59 -367.002 3595
-2364.99 -367.002 3595
-2361.64 -367.819 3603
-2358.24 -368.636 3611
-2380.19 -373.434 3658
-2371.44 -373.434 3658
-2389.18 -377.619 3699
-2396.42 -380.171 3724
-2387.52 -380.171 3724
-2378.61 -380.171 3724
-2364.61 -379.355 3716
-2355.73 -379.355 3716
-2331.05 -376.803 3691
-2353.06 -381.805 3740
-2365.42 -385.276 3774
-2356.4 -385.276 3774
-2347.37 -385.276 3774
-1278.52 -334.641 3278
-1270.68 -334.641 3278
-1262.84 -334.641 3278
-1255 -334.641 3278
-1244.5 -333.926 3271
-1236.68 -333.926 3271
-1221.72 -331.986 3252
-1213.94 -331.986 3252
-1199.12 -330.047 3233
-1191.38 -330.047 3233
-1181.46 -329.434 3227
-1173.74 -329.434 3227
-1166.02 -329.434 3227
-1158.31 -329.434 3227
-1148.45 -328.822 3221
-1138.27 -328.107 3214
-1128.47 -327.495 3208
-1120.8 -327.495 3208
-1108.97 -326.27 3196
-1101.32 -326.27 3196
-1093.68 -326.27 3196
-1086.04 -326.27 3196
-1078.4 -326.27 3196
-1070.75 -326.27 3196
-1063.11 -326.27 3196
-1053.49 -325.657 3190
-1045.86 -325.657 3190
-1034.32 -324.432 3178
-1020.91 -322.594 3160
-1011.43 -321.982 3154
-1003.89 -321.982 3154
-557.561 -180.183 1765
-553.341 -180.183 1765
-549.12 -180.183 1765
-544.899 -180.183 1765
-540.679 -180.183 1765
-534.33 -179.469 1758
-526.206 -178.142 1745
-522.033 -178.142 1745
-517.861 -178.142 1745
-512.51 -177.733 1741
-508.055 -177.631 1740
-502.736 -177.223 1736
-498.584 -177.223 1736
-492.439 -176.508 1729
-487.175 -176.1 1725
-482.21 -175.794 1722
-476.427 -175.181 1716
-472.323 -175.181 1716
-467.401 -174.875 1713
-462.223 -174.466 1709
-457.868 -174.364 1708
-453.784 -174.364 1708
-448.646 -173.956 1704
-443.789 -173.65 1701
-438.687 -173.241 1697
-434.629 -173.241 1697
-429.81 -172.935 1694
-424 -172.221 1687
-419.468 -172.016 1685
-415.438 -172.016 1685
-410.921 -171.812 1683
-405.445 -171.2 1677
-401.435 -171.2 1677
-397.425 -171.2 1677
-392.242 -170.689 1672
-387.779 -170.485 1670
-383.786 -170.485 1670
-379.792 -170.485 1670
-375.349 -170.281 1668
-370.692 -169.975 1665
-366.711 -169.975 1665
-362.075 -169.668 1662
-358.101 -169.668 1662
-353.701 -169.464 1660
-349.31 -169.26 1658
-345.137 -169.158 1657
-341.174 -169.158 1657
-336.805 -168.954 1655
-332.445 -168.75 1653
-328.293 -168.647 1652
-324.343 -168.647 1652
-320.005 -168.443 1650
-315.676 -168.239 1648
-312.113 -168.443 1650
-308.168 -168.443 1650
-304.222 -168.443 1650
-300.276 -168.443 1650
-296.331 -168.443 1650
-292.74 -168.647 1652
-288.789 -168.647 1652
-285.356 -168.954 1655
-281.908 -169.26 1658
-278.614 -169.668 1662
-274.64 -169.668 1662
-271.643 -170.281 1668
-267.975 -170.485 1670
-264.772 -170.995 1675
-260.766 -170.995 1675
-257.067 -171.2 1677
-253.51 -171.506 1680
-249.493 -171.506 1680
-245.475 -171.506 1680
-241.889 -171.812 1683
-237.864 -171.812 1683
-233.84 -171.812 1683
-229.815 -171.812 1683
-226.059 -172.016 1685
-222.03 -172.016 1685
-218 -172.016 1685
-213.971 -172.016 1685
-209.942 -172.016 1685
-205.668 -171.812 1683
-201.643 -171.812 1683
-197.619 -171.812 1683
-193.479 -171.71 1682
-189.457 -171.71 1682
-184.884 -171.2 1677
-180.873 -171.2 1677
-176.652 -170.995 1675
-172.131 -170.485 1670
-167.836 -170.179 1667
-163.85 -170.179 1667
-159.48 -169.77 1663
-155.409 -169.668 1662
-151.071 -169.26 1658
-147.106 -169.26 1658
-143.055 -169.158 1657
-139.092 -169.158 1657
-134.967 -168.954 1655
-131.009 -168.954 1655
-127.052 -168.954 1655
-123.094 -168.954 1655
-119.136 -168.954 1655
-115.179 -168.954 1655
-111.221 -168.954 1655
-107.264 -168.954 1655
-103.119 -168.647 1652
-99.0482 -168.443 1650
-95.2179 -168.647 1652
-91.2674 -168.647 1652
-87.3699 -168.75 1653
-83.417 -168.75 1653
-79.6565 -169.158 1657
-75.6941 -169.158 1657
-71.8616 -169.464 1660
-68.0147 -169.77 1663
-64.115 -169.975 1665
-60.1335 -169.975 1665
-56.152 -169.975 1665
-52.1704 -169.975 1665
-48.1889 -169.975 1665
-70.7264 -372.617 3650
-61.9981 -372.617 3650
-53.2699 -372.617 3650
-44.5416 -372.617 3650
-35.8918 -373.434 3658
-27.1444 -373.434 3658
-18.4423 -374.352 3667
-9.67342 -374.352 3667
-0.904508 -374.352 3667
7.8644 -374.352 3667
16.6333 -374.352 3667
25.4022 -374.352 3667
34.2457 -375.169 3675
43.0337 -375.169 3675
51.8218 -375.169 3675
60.4779 -374.352 3667
69.2468 -374.352 3667
78.0157 -374.352 3667
86.7846 -374.352 3667
95.5535 -374.352 3667
104.55 -375.169 3675
113.338 -375.169 3675
122.126 -375.169 3675
130.914 -375.169 3675
139.702 -375.169 3675
148.49 -375.169 3675
157.278 -375.169 3675
166.066 -375.169 3675
174.854 -375.169 3675
183.642 -375.169 3675
192.43 -375.169 3675
200.288 -373.434 3658
209.035 -373.434 3658
217.782 -373.434 3658
226.53 -373.434 3658
235.277 -373.434 3658
244.025 -373.434 3658
252.772 -373.434 3658
261.519 -373.434 3658
270.267 -373.434 3658
279.014 -373.434 3658
287.761 -373.434 3658
296.509 -373.434 3658
305.256 -373.434 3658
314.004 -373.434 3658
322.751 -373.434 3658
330.048 -371.8 3642
338.758 -371.8 3642
347.467 -371.8 3642
356.176 -371.8 3642
364.885 -371.8 3642
373.594 -371.8 3642
382.303 -371.8 3642
390.261 -371.086 3635
398.953 -371.086 3635
407.646 -371.086 3635
416.338 -371.086 3635
425.03 -371.086 3635
433.723 -371.086 3635
444.241 -372.617 3650
452.969 -372.617 3650
461.697 -372.617 3650
470.426 -372.617 3650
479.154 -372.617 3650
487.882 -372.617 3650
496.61 -372.617 3650
507.692 -374.352 3667
520.968 -377.619 3699
529.813 -377.619 3699
538.659 -377.619 3699
547.504 -377.619 3699
1043.83 -405.489 3972
1053.33 -405.489 3972
1062.82 -405.489 3972
1072.32 -405.489 3972
1081.82 -405.489 3972
1088.85 -404.57 3963
1098.32 -404.57 3963
1105.01 -403.549 3953
1119.81 -405.489 3972
1129.31 -405.489 3972
1138.81 -405.489 3972
1148.31 -405.489 3972
1163.35 -407.429 3991
1172.89 -407.429 3991
1188.06 -409.368 4010
1200.64 -410.389 4020
1210.25 -410.389 4020
1219.86 -410.389 4020
1229.48 -410.389 4020
1239.09 -410.389 4020
1248.7 -410.389 4020
1258.32 -410.389 4020
1271.08 -411.41 4030
1280.72 -411.41 4030
1299.64 -414.371 4059
1309.35 -414.371 4059
1319.06 -414.371 4059
1335.31 -416.412 4079
1345.06 -416.412 4079
1354.82 -416.412 4079
1377.69 -417.433 4089
1387.47 -417.433 4089
1397.25 -417.433 4089
1407.03 -417.433 4089
1416.81 -417.433 4089
1419.61 -415.391 4069
1436.36 -417.433 4089
1446.14 -417.433 4089
1455.92 -417.433 4089
1465.7 -417.433 4089
1475.48 -417.433 4089
1485.25 -417.433 4089
2447.28 -416.412 4079
2457.03 -416.412 4079
2466.79 -416.412 4079
2476.54 -416.412 4079
2486.3 -416.412 4079
2496.05 -416.412 4079
2499.66 -415.391 4069
2503.22 -414.371 4059
2506.74 -413.35 4049
2504.61 -411.41 4030
2514.25 -411.41 4030
2523.89 -411.41 4030
2539.18 -412.329 4039
2548.84 -412.329 4039
2558.5 -412.329 4039
2562.44 -411.41 4030
2565.69 -410.389 4020
2520.85 -401.712 3935
2541.83 -403.549 3953
2563.55 -405.489 3972
2573.05 -405.489 3972
2607.25 -409.368 4010
2616.84 -409.368 4010
2626.43 -409.368 4010
2636.02 -409.368 4010
2658.8 -411.41 4030
2668.44 -411.41 4030
2678.08 -411.41 4030
2687.72 -411.41 4030
2697.35 -411.41 4030
2706.99 -411.41 4030
2722.69 -412.329 4039
2732.35 -412.329 4039
2748.8 -413.35 4049
2758.48 -413.35 4049
2768.16 -413.35 4049
2744.92 -408.449 4001
2760.68 -409.368 4010
2797.21 -413.35 4049
2806.89 -413.35 4049
2816.58 -413.35 4049
2826.26 -413.35 4049
2815.63 -410.389 4020
2804.86 -407.429 3991
2814.4 -407.429 3991
2784.32 -401.712 3935
2793.73 -401.712 3935
2803.14 -401.712 3935
2812.55 -401.712 3935
2801.88 -398.853 3907
2804.75 -397.935 3898
2794.58 -395.178 3871
2803.84 -395.178 3871
2806.55 -394.259 3862
2783.71 -389.768 3818
2773.82 -387.113 3792
2814.44 -391.503 3835
2850.12 -395.178 3871
2859.38 -395.178 3871
2888.64 -397.935 3898
2897.96 -397.935 3898
2907.28 -397.935 3898
2916.61 -397.935 3898
2912.42 -396.097 3880
2921.69 -396.097 3880
2930.97 -396.097 3880
2933.43 -395.178 3871
2963.21 -397.935 3898
2972.53 -397.935 3898
