ply
format ascii 1.0
comment File generated
element vertex 2136
property float x
property float y
property float z
end_header
-2413.33 -118.791 3642
-2404.62 -118.791 3642
-2395.91 -118.791 3642
-2387.2 -118.791 3642
-2378.49 -118.791 3642
-2365.23 -118.563 3635
-2371.44 -119.313 3658
-2373.68 -119.868 3675
-2364.89 -119.868 3675
-2356.1 -119.868 3675
-2347.31 -119.868 3675
-2343.62 -120.129 3683
-2334.81 -120.129 3683
-2326 -120.129 3683
-2317.19 -120.129 3683
-2308.39 -120.129 3683
-2289.59 -119.607 3667
-2280.82 -119.607 3667
-2272.05 -119.607 3667
-2263.28 -119.607 3667
-2248.98 -119.313 3658
-2240.23 -119.313 3658
-2003.72 -112.888 3461
-1999.48 -113.116 3468
-2012.43 -114.323 3505
-2004.05 -114.323 3505
-1995.67 -114.323 3505
-1966.31 -113.116 3468
-1958.01 -113.116 3468
-1933.98 -112.203 3440
-1852.98 -107.963 3310
-1823.32 -106.691 3271
-1808.28 -106.266 3258
-1807.68 -106.691 3271
-1799.86 -106.691 3271
-1792.03 -106.691 3271
-1777.12 -106.266 3258
-1769.33 -106.266 3258
-1761.54 -106.266 3258
-1750.52 -106.071 3252
-1742.74 -106.071 3252
-1734.97 -106.071 3252
-1727.19 -106.071 3252
-1726.29 -106.495 3265
-1718.48 -106.495 3265
-1710.67 -106.495 3265
-1702.86 -106.495 3265
-1691.42 -106.266 3258
-1683.63 -106.266 3258
-1679.44 -106.495 3265
-1671.63 -106.495 3265
-1670.45 -106.919 3278
-1665.65 -107.115 3284
-1657.8 -107.115 3284
-1649.95 -107.115 3284
-1639.1 -106.919 3278
-1631.26 -106.919 3278
-1629.36 -107.31 3290
-1621.49 -107.31 3290
-1613.63 -107.31 3290
-1605.76 -107.31 3290
-1601.29 -107.539 3297
-1593.41 -107.539 3297
-1598.03 -108.387 3323
-1590.08 -108.387 3323
-1582.13 -108.387 3323
-1574.19 -108.387 3323
-1556.81 -107.734 3303
-1548.92 -107.734 3303
-1541.02 -107.734 3303
-1533.12 -107.734 3303
-1525.22 -107.734 3303
-1511.35 -107.31 3290
-1506.68 -107.539 3297
-1498.8 -107.539 3297
-1490.91 -107.539 3297
-1477.18 -107.115 3284
-1472.01 -107.31 3290
-1464.15 -107.31 3290
-1459.38 -107.539 3297
-1454.13 -107.734 3303
-1446.24 -107.734 3303
-1438.34 -107.734 3303
-1436.5 -108.191 3317
-1428.57 -108.191 3317
-1423.21 -108.387 3323
-1415.26 -108.387 3323
-1407.31 -108.387 3323
-1402.32 -108.615 3330
-1399.8 -109.039 3343
-1400.13 -109.691 3363
-1392.09 -109.691 3363
-1389.81 -110.148 3377
-1387.46 -110.605 3391
-1385.05 -111.061 3405
-1376.9 -111.061 3405
-1380.02 -111.974 3433
-1371.81 -111.974 3433
-1366.38 -112.203 3440
-1358.15 -112.203 3440
-1349.93 -112.203 3440
-1338.97 -111.974 3433
-1330.76 -111.974 3433
-1317.16 -111.518 3419
-1303.62 -111.061 3405
-1298.14 -111.29 3412
-1289.98 -111.29 3412
-1281.82 -111.29 3412
-1273.67 -111.29 3412
-1260.31 -110.833 3398
-1252.19 -110.833 3398
-1244.06 -110.833 3398
-1221.02 -109.496 3357
-691.231 -62.3965 1913
-685.221 -62.266 1909
-680.656 -62.266 1909
-676.091 -62.266 1909
-670.822 -62.2008 1907
-659.274 -61.5485 1887
-654.762 -61.5485 1887
-643.702 -60.9287 1868
-635.813 -60.6026 1858
-630.011 -60.4721 1854
-625.577 -60.4721 1854
-617.459 -60.1133 1843
-611.056 -59.9176 1837
-605.342 -59.7871 1833
-600.959 -59.7871 1833
-593.972 -59.5262 1825
-585.731 -59.1348 1813
-578.509 -58.8412 1804
-570.376 -58.4498 1792
-566.09 -58.4498 1792
-558.043 -58.0584 1780
-548.187 -57.4713 1762
-540.577 -57.1125 1751
-536.39 -57.1125 1751
-529.163 -56.7864 1741
-523.492 -56.6233 1736
-518.144 -56.4928 1732
-514.003 -56.4928 1732
-507.8 -56.2645 1725
-502.799 -56.1666 1722
-497.523 -56.0362 1718
-493.415 -56.0362 1718
-488.737 -55.9709 1716
-484.351 -55.9383 1715
-479.13 -55.8078 1711
-474.483 -55.7426 1709
-470.396 -55.7426 1709
-466.037 -55.71 1708
-461.411 -55.6448 1706
-456.26 -55.5143 1702
-452.19 -55.5143 1702
-447.33 -55.4164 1699
-443.267 -55.4164 1699
-438.17 -55.286 1695
-434.117 -55.286 1695
-428.034 -55.025 1687
-424 -55.025 1687
-418.721 -54.862 1682
-414.699 -54.862 1682
-409.7 -54.7315 1678
-405.687 -54.7315 1678
-400.956 -54.6336 1675
-396.951 -54.6336 1675
-392.242 -54.5358 1672
-387.779 -54.4706 1670
-381.947 -54.2096 1662
-377.973 -54.2096 1662
-373.548 -54.1444 1660
-369.134 -54.0791 1658
-365.169 -54.0791 1658
-360.986 -54.0465 1657
-357.024 -54.0465 1657
-352.635 -53.9813 1655
-348.256 -53.9161 1653
-344.303 -53.9161 1653
-340.351 -53.9161 1653
-336.398 -53.9161 1653
-332.847 -53.9813 1655
-328.89 -53.9813 1655
-324.932 -53.9813 1655
-320.974 -53.9813 1655
-317.017 -53.9813 1655
-313.059 -53.9813 1655
-309.102 -53.9813 1655
-305.144 -53.9813 1655
-301.55 -54.0465 1657
-297.768 -54.0791 1658
-293.803 -54.0791 1658
-289.838 -54.0791 1658
-285.873 -54.0791 1658
-281.738 -54.0465 1657
-277.776 -54.0465 1657
-273.814 -54.0465 1657
-270.014 -54.0791 1658
-266.37 -54.1444 1660
-262.875 -54.2422 1663
-258.898 -54.2422 1663
-255.228 -54.3075 1665
-251.548 -54.3727 1667
-247.71 -54.4053 1668
-243.722 -54.4053 1668
-240.308 -54.5358 1672
-236.451 -54.5684 1673
-233.006 -54.6989 1677
-228.996 -54.6989 1677
-225.388 -54.7967 1680
-221.766 -54.8946 1683
-218.259 -55.025 1687
-214.225 -55.025 1687
-210.44 -55.0903 1689
-206.768 -55.1881 1692
-203.081 -55.286 1695
-199.497 -55.4164 1699
-195.435 -55.4164 1699
-191.372 -55.4164 1699
-187.309 -55.4164 1699
-183.462 -55.4817 1701
-179.394 -55.4817 1701
-175.327 -55.4817 1701
-171.259 -55.4817 1701
-167.191 -55.4817 1701
-162.932 -55.4164 1699
-158.869 -55.4164 1699
-154.624 -55.3512 1697
-150.566 -55.3512 1697
-146.508 -55.3512 1697
-142.282 -55.286 1695
-138.147 -55.2534 1694
-134.096 -55.2534 1694
-129.892 -55.1881 1692
-125.623 -55.0903 1689
-121.584 -55.0903 1689
-117.545 -55.0903 1689
-113.506 -55.0903 1689
-109.467 -55.0903 1689
-105.428 -55.0903 1689
-101.569 -55.1881 1692
-97.5234 -55.1881 1692
-93.643 -55.286 1695
-89.9069 -55.4817 1701
-85.8898 -55.5143 1702
-81.8198 -55.5143 1702
-77.7498 -55.5143 1702
-73.6798 -55.5143 1702
-69.6916 -55.5795 1704
-65.6168 -55.5795 1704
-61.542 -55.5795 1704
-57.5347 -55.6448 1706
-53.5178 -55.71 1708
-49.4624 -55.7426 1709
-45.3757 -55.7426 1709
-41.3372 -55.8078 1711
-37.2457 -55.8078 1711
-33.2317 -55.9383 1715
-29.1306 -55.9383 1715
-25.0441 -55.9709 1716
-20.9651 -56.0362 1718
-16.8568 -56.0362 1718
-12.7485 -56.0362 1718
7.98665 -121.466 3724
16.8919 -121.466 3724
25.7971 -121.466 3724
34.4693 -120.651 3699
43.3148 -120.651 3699
52.1602 -120.651 3699
60.8737 -120.39 3691
69.7 -120.39 3691
78.1859 -119.868 3675
86.9739 -119.868 3675
95.7619 -119.868 3675
104.55 -119.868 3675
113.338 -119.868 3675
122.392 -120.129 3683
131.199 -120.129 3683
140.006 -120.129 3683
148.813 -120.129 3683
157.621 -120.129 3683
166.066 -119.868 3675
174.474 -119.607 3667
182.793 -119.313 3658
191.54 -119.313 3658
199.85 -119.052 3650
208.578 -119.052 3650
217.306 -119.052 3650
226.034 -119.052 3650
234.763 -119.052 3650
243.491 -119.052 3650
252.219 -119.052 3650
260.947 -119.052 3650
270.267 -119.313 3658
279.014 -119.313 3658
287.761 -119.313 3658
296.509 -119.313 3658
305.256 -119.313 3658
314.004 -119.313 3658
322.751 -119.313 3658
331.498 -119.313 3658
340.246 -119.313 3658
348.993 -119.313 3658
357.741 -119.313 3658
366.488 -119.313 3658
376.159 -119.607 3667
384.927 -119.607 3667
393.696 -119.607 3667
401.478 -119.313 3658
410.225 -119.313 3658
418.972 -119.313 3658
426.784 -119.052 3650
435.513 -119.052 3650
444.241 -119.052 3650
451.976 -118.791 3642
459.8 -118.563 3635
467.461 -118.302 3627
475.084 -118.041 3619
483.738 -118.041 3619
492.393 -118.041 3619
498.831 -117.519 3603
505.335 -117.03 3588
513.915 -117.03 3588
519.145 -116.28 3565
525.302 -115.758 3549
532.736 -115.53 3542
541.206 -115.53 3542
547.348 -115.04 3527
555.782 -115.04 3527
564.216 -115.04 3527
572.651 -115.04 3527
581.085 -115.04 3527
589.519 -115.04 3527
599.14 -115.269 3534
610.169 -115.758 3549
618.656 -115.758 3549
627.143 -115.758 3549
638.495 -116.28 3565
647.02 -116.28 3565
655.545 -116.28 3565
664.07 -116.28 3565
1474.87 -117.03 3588
1483.45 -117.03 3588
1492.03 -117.03 3588
1493.92 -116.508 3572
1502.46 -116.508 3572
1511.01 -116.508 3572
1509.76 -115.758 3549
1511.83 -115.269 3534
1488.88 -112.888 3461
1497.16 -112.888 3461
1508.48 -113.116 3468
1516.77 -113.116 3468
1528.58 -113.377 3476
1543.08 -113.834 3490
1558.1 -114.323 3505
1566.48 -114.323 3505
1581.6 -114.812 3520
1593.18 -115.04 3527
1604.79 -115.269 3534
1613.24 -115.269 3534
1625.37 -115.53 3542
1637.06 -115.758 3549
1649.26 -116.019 3557
1657.77 -116.019 3557
1673.3 -116.508 3572
1681.84 -116.508 3572
1694.17 -116.769 3580
1702.73 -116.769 3580
1711.29 -116.769 3580
1712.64 -116.28 3565
1721.17 -116.28 3565
2414.17 -133.371 4089
2423.94 -133.371 4089
2433.72 -133.371 4089
2443.5 -133.371 4089
2423.28 -131.74 4039
2432.94 -131.74 4039
2425.06 -130.795 4010
2417.65 -129.881 3982
2409.49 -128.935 3953
2413.44 -128.642 3944
2422.87 -128.642 3944
2409.48 -127.435 3907
2402.11 -126.554 3880
2405.8 -126.261 3871
2415.05 -126.261 3871
2418.67 -125.967 3862
2416.59 -125.38 3844
2420.1 -125.087 3835
2429.28 -125.087 3835
2432.72 -124.793 3826
2453.36 -125.38 3844
2474.08 -125.967 3862
2483.32 -125.967 3862
2492.55 -125.967 3862
2501.79 -125.967 3862
2493.47 -125.087 3835
2526.13 -126.261 3871
2535.39 -126.261 3871
2544.65 -126.261 3871
1814.71 -88.7511 2721
1836.61 -89.5013 2744
1843.17 -89.5013 2744
1849.73 -89.5013 2744
1865.09 -89.9253 2757
1875.08 -90.0884 2762
1900.76 -91.0017 2790
1907.43 -91.0017 2790
1920.27 -91.2952 2799
1930.41 -91.4583 2804
1943.33 -91.7519 2813
1950.06 -91.7519 2813
1963.74 -92.0781 2823
1973.98 -92.2411 2828
1983.55 -92.3716 2832
1990.32 -92.3716 2832
2011.2 -93.024 2852
2027.92 -93.4806 2866
2048.97 -94.1329 2886
2055.88 -94.1329 2886
2062.78 -94.1329 2886
2091.91 -95.1441 2917
2124.79 -96.3183 2953
2131.85 -96.3183 2953
2154.12 -97.0032 2974
2172.86 -97.5251 2990
2180.01 -97.5251 2990
2187.16 -97.5251 2990
2194.31 -97.5251 2990
2229.44 -98.7646 3028
2236.68 -98.7646 3028
2243.92 -98.7646 3028
2259.34 -99.1234 3039
2266.61 -99.1234 3039
2273.87 -99.1234 3039
2212.08 -96.1226 2947
2725.16 -118.041 3619
2745.9 -118.563 3635
2772.02 -119.313 3658
2780.77 -119.313 3658
2802.48 -119.868 3675
2811.27 -119.868 3675
-2635.51 -106.38 3520
-2627.09 -106.38 3520
-2612.72 -106.138 3512
-2599.14 -105.927 3505
-2590.75 -105.927 3505
-2576.48 -105.685 3497
-2568.12 -105.685 3497
-2576.59 -106.38 3520
-2568.17 -106.38 3520
-2559.75 -106.38 3520
-2551.34 -106.38 3520
-2542.92 -106.38 3520
-2534.5 -106.38 3520
-2526.08 -106.38 3520
-2506.94 -105.927 3505
-2492.85 -105.685 3497
-2484.49 -105.685 3497
-2476.13 -105.685 3497
-2478.35 -106.138 3512
-2469.95 -106.138 3512
-2472.07 -106.592 3527
-2463.63 -106.592 3527
-2460.07 -106.803 3534
-2467.58 -107.498 3557
-2469.44 -107.952 3572
-2460.9 -107.952 3572
-2457.85 -108.193 3580
-2449.29 -108.193 3580
-2446.18 -108.435 3588
-2437.6 -108.435 3588
-2433.76 -108.647 3595
-2435.96 -109.13 3611
-2432.7 -109.372 3619
-2424.05 -109.372 3619
-2420.73 -109.614 3627
-2417.38 -109.855 3635
-2413.33 -110.067 3642
-2404.62 -110.067 3642
-2395.91 -110.067 3642
-2387.2 -110.067 3642
-2378.49 -110.067 3642
-2354.81 -109.372 3619
-2371.44 -110.551 3658
-2368.51 -110.823 3667
-2359.74 -110.823 3667
-2350.97 -110.823 3667
-2347.31 -111.064 3675
-2338.52 -111.064 3675
-2329.74 -111.064 3675
-2320.95 -111.064 3675
-2312.16 -111.064 3675
-2303.37 -111.064 3675
-2289.59 -110.823 3667
-2280.82 -110.823 3667
-2272.05 -110.823 3667
-2263.28 -110.823 3667
-2248.98 -110.551 3658
-2240.23 -110.551 3658
-2221.73 -110.067 3642
-2203.9 -109.614 3627
-2175.86 -108.647 3595
-2167.26 -108.647 3595
-2158.67 -108.647 3595
-2154.85 -108.888 3603
-2146.24 -108.888 3603
-2137.62 -108.888 3603
-2120.14 -108.435 3588
-2088.61 -107.256 3549
-2058.44 -106.138 3512
-2050.04 -106.138 3512
-2011.99 -104.597 3461
-2003.72 -104.597 3461
-1999.48 -104.808 3468
-2012.43 -105.927 3505
-2004.05 -105.927 3505
-1995.67 -105.927 3505
-1966.31 -104.808 3468
-1958.01 -104.808 3468
-1933.98 -103.962 3440
-1856.9 -100.245 3317
-1833.91 -99.429 3290
-1812.17 -98.6735 3265
-1804.36 -98.6735 3265
-1792.7 -98.4619 3258
-1784.91 -98.4619 3258
-1773.85 -98.2806 3252
-1766.07 -98.2806 3252
-1758.3 -98.2806 3252
-1750.52 -98.2806 3252
-1742.74 -98.2806 3252
-1734.97 -98.2806 3252
-1727.19 -98.2806 3252
-1719.41 -98.2806 3252
-1711.64 -98.2806 3252
-1703.86 -98.2806 3252
-1696.08 -98.2806 3252
-1685.19 -98.0993 3246
-1677.43 -98.0993 3246
-1679.44 -98.6735 3265
-1671.63 -98.6735 3265
-1666.88 -98.8548 3271
-1659.06 -98.8548 3271
-1651.24 -98.8548 3271
-1643.42 -98.8548 3271
-1635.59 -98.8548 3271
-1624.79 -98.6735 3265
-1619.95 -98.8548 3271
-1612.13 -98.8548 3271
-1610.68 -99.2477 3284
-1602.83 -99.2477 3284
-1597.89 -99.429 3290
-1590.02 -99.429 3290
-1585.52 -99.6406 3297
-1580.51 -99.8219 3303
-1572.61 -99.8219 3303
-1564.71 -99.8219 3303
-1550.69 -99.429 3290
-1542.82 -99.429 3290
-1534.95 -99.429 3290
-1527.08 -99.429 3290
-1519.22 -99.429 3290
-1505.84 -99.0664 3278
-1498 -99.0664 3278
-1486.98 -98.8548 3271
-1479.16 -98.8548 3271
-1471.33 -98.8548 3271
-1466.64 -99.0664 3278
-1458.81 -99.0664 3278
-1462.03 -99.8219 3303
-1454.13 -99.8219 3303
-1446.24 -99.8219 3303
-1438.34 -99.8219 3303
-1433.47 -100.033 3310
-1428.57 -100.245 3317
-1423.21 -100.426 3323
-1415.26 -100.426 3323
-1407.31 -100.426 3323
-1402.32 -100.638 3330
-1399.8 -101.031 3343
-1400.13 -101.635 3363
-1392.09 -101.635 3363
-1389.81 -102.058 3377
-1387.46 -102.481 3391
-1385.05 -102.905 3405
-1376.9 -102.905 3405
-1380.02 -103.751 3433
-1371.81 -103.751 3433
-1366.38 -103.962 3440
-1358.15 -103.962 3440
-1349.93 -103.962 3440
-1338.97 -103.751 3433
-1330.76 -103.751 3433
-1317.16 -103.328 3419
-1303.62 -102.905 3405
-1295.48 -102.905 3405
-1287.34 -102.905 3405
-1279.19 -102.905 3405
-1271.05 -102.905 3405
-1260.31 -102.693 3398
-1252.19 -102.693 3398
-1229.05 -101.454 3357
-695.805 -57.8139 1913
-691.231 -57.8139 1913
-685.221 -57.693 1909
-680.656 -57.693 1909
-676.091 -57.693 1909
-670.822 -57.6326 1907
-659.274 -57.0281 1887
-654.762 -57.0281 1887
-643.702 -56.4539 1868
-635.813 -56.1517 1858
-630.011 -56.0308 1854
-625.577 -56.0308 1854
-617.459 -55.6984 1843
-611.056 -55.5171 1837
-605.342 -55.3962 1833
-600.959 -55.3962 1833
-595.273 -55.2753 1829
-585.731 -54.7917 1813
-578.509 -54.5197 1804
-570.376 -54.1571 1792
-566.09 -54.1571 1792
-559.924 -53.9758 1786
-550.987 -53.5224 1771
-541.503 -53.0087 1754
-537.309 -53.0087 1754
-529.163 -52.6158 1741
-524.698 -52.5856 1740
-518.144 -52.3438 1732
-514.003 -52.3438 1732
-508.389 -52.1927 1727
-502.799 -52.0416 1722
-498.102 -51.9811 1720
-493.989 -51.9811 1720
-488.452 -51.83 1715
-484.351 -51.83 1715
-479.13 -51.7091 1711
-475.038 -51.7091 1711
-470.947 -51.7091 1711
-466.037 -51.6185 1708
-461.411 -51.558 1706
-456.26 -51.4371 1702
-452.19 -51.4371 1702
-447.33 -51.3465 1699
-443.267 -51.3465 1699
-438.17 -51.2256 1695
-434.117 -51.2256 1695
-428.034 -50.9838 1687
-424 -50.9838 1687
-418.721 -50.8327 1682
-414.699 -50.8327 1682
-409.7 -50.7118 1678
-405.687 -50.7118 1678
-400.956 -50.6212 1675
-396.951 -50.6212 1675
-392.242 -50.5305 1672
-387.779 -50.4701 1670
-381.947 -50.2283 1662
-377.973 -50.2283 1662
-373.098 -50.1074 1658
-368.911 -50.0772 1657
-364.949 -50.0772 1657
-360.55 -50.0167 1655
-356.593 -50.0167 1655
-352.209 -49.9563 1653
-348.256 -49.9563 1653
-344.095 -49.9261 1652
-340.351 -49.9563 1653
-336.398 -49.9563 1653
-332.445 -49.9563 1653
-328.89 -50.0167 1655
-324.932 -50.0167 1655
-320.974 -50.0167 1655
-317.017 -50.0167 1655
-312.681 -49.9563 1653
-309.102 -50.0167 1655
-305.144 -50.0167 1655
-301.55 -50.0772 1657
-297.588 -50.0772 1657
-293.626 -50.0772 1657
-289.663 -50.0772 1657
-285.701 -50.0772 1657
-281.738 -50.0772 1657
-277.776 -50.0772 1657
-273.814 -50.0772 1657
-269.851 -50.0772 1657
-266.37 -50.1678 1660
-262.401 -50.1678 1660
-258.431 -50.1678 1660
-254.921 -50.2585 1663
-251.246 -50.3189 1665
-247.562 -50.3794 1667
-243.576 -50.3794 1667
-240.02 -50.4701 1670
-236.31 -50.5305 1672
-232.728 -50.6212 1675
-228.723 -50.6212 1675
-225.12 -50.7118 1678
-221.634 -50.8327 1682
-218.259 -50.9838 1687
-214.225 -50.9838 1687
-210.44 -51.0443 1689
-206.768 -51.1349 1692
-203.081 -51.2256 1695
-199.263 -51.286 1697
-195.205 -51.286 1697
-191.372 -51.3465 1699
-187.309 -51.3465 1699
-183.246 -51.3465 1699
-179.183 -51.3465 1699
-175.121 -51.3465 1699
-171.058 -51.3465 1699
-166.995 -51.3465 1699
-162.74 -51.286 1697
-158.495 -51.2256 1695
-154.442 -51.2256 1695
-150.389 -51.2256 1695
-146.335 -51.2256 1695
-142.198 -51.1954 1694
-137.984 -51.1349 1692
-133.938 -51.1349 1692
-129.739 -51.0745 1690
-125.623 -51.0443 1689
-121.584 -51.0443 1689
-117.545 -51.0443 1689
-113.506 -51.0443 1689
-109.467 -51.0443 1689
-105.428 -51.0443 1689
-101.569 -51.1349 1692
-97.5234 -51.1349 1692
-93.643 -51.2256 1695
-89.9069 -51.4069 1701
-85.8898 -51.4371 1702
-81.8198 -51.4371 1702
-77.7498 -51.4371 1702
-73.6798 -51.4371 1702
-69.6916 -51.4976 1704
-65.6168 -51.4976 1704
-61.542 -51.4976 1704
-57.5347 -51.558 1706
-53.5178 -51.6185 1708
-49.4624 -51.6487 1709
-45.3757 -51.6487 1709
-41.3372 -51.7091 1711
-37.2457 -51.7091 1711
-33.2317 -51.83 1715
-29.1306 -51.83 1715
-25.0441 -51.8602 1716
-20.9651 -51.9207 1718
-16.8568 -51.9207 1718
-12.7485 -51.9207 1718
7.98665 -112.545 3724
16.8919 -112.545 3724
25.7971 -112.545 3724
34.5439 -112.031 3707
43.3148 -111.79 3699
52.1602 -111.79 3699
60.8737 -111.548 3691
69.7 -111.548 3691
78.1859 -111.064 3675
86.9739 -111.064 3675
95.7619 -111.064 3675
104.55 -111.064 3675
113.338 -111.064 3675
122.392 -111.306 3683
131.199 -111.306 3683
140.006 -111.306 3683
148.813 -111.306 3683
157.621 -111.306 3683
166.066 -111.064 3675
174.474 -110.823 3667
182.793 -110.551 3658
191.54 -110.551 3658
199.85 -110.309 3650
208.578 -110.309 3650
217.782 -110.551 3658
226.53 -110.551 3658
235.277 -110.551 3658
243.491 -110.309 3650
252.219 -110.309 3650
261.519 -110.551 3658
270.932 -110.823 3667
279.701 -110.823 3667
288.469 -110.823 3667
297.238 -110.823 3667
306.007 -110.823 3667
314.776 -110.823 3667
323.545 -110.823 3667
332.314 -110.823 3667
341.083 -110.823 3667
349.852 -110.823 3667
358.621 -110.823 3667
367.39 -110.823 3667
376.159 -110.823 3667
384.927 -110.823 3667
393.696 -110.823 3667
402.465 -110.823 3667
411.234 -110.823 3667
418.972 -110.551 3658
426.784 -110.309 3650
435.513 -110.309 3650
444.241 -110.309 3650
451.976 -110.067 3642
459.8 -109.855 3635
467.461 -109.614 3627
475.084 -109.372 3619
483.738 -109.372 3619
492.393 -109.372 3619
498.831 -108.888 3603
505.335 -108.435 3588
513.915 -108.435 3588
519.145 -107.74 3565
525.302 -107.256 3549
532.736 -107.045 3542
541.206 -107.045 3542
547.348 -106.592 3527
555.782 -106.592 3527
564.216 -106.592 3527
572.651 -106.592 3527
581.085 -106.592 3527
593.196 -107.256 3549
603.039 -107.498 3557
612.92 -107.74 3565
621.445 -107.74 3565
629.97 -107.74 3565
638.495 -107.74 3565
649.743 -108.193 3580
661.062 -108.647 3595
669.659 -108.647 3595
678.255 -108.647 3595
1498.58 -110.823 3667
1507.35 -110.823 3667
1516.12 -110.823 3667
1492.03 -108.435 3588
1493.92 -107.952 3572
1502.46 -107.952 3572
1511.01 -107.952 3572
1509.76 -107.256 3549
1518.25 -107.256 3549
1488.88 -104.597 3461
1497.16 -104.597 3461
1508.48 -104.808 3468
1516.77 -104.808 3468
1528.58 -105.05 3476
1543.08 -105.473 3490
1558.1 -105.927 3505
1566.48 -105.927 3505
1581.6 -106.38 3520
1593.18 -106.592 3527
1604.79 -106.803 3534
1613.24 -106.803 3534
1625.37 -107.045 3542
1637.06 -107.256 3549
1649.26 -107.498 3557
1657.77 -107.498 3557
1673.3 -107.952 3572
1681.84 -107.952 3572
1694.17 -108.193 3580
1702.73 -108.193 3580
1711.29 -108.193 3580
1712.64 -107.74 3565
1721.17 -107.74 3565
2414.17 -123.576 4089
2423.94 -123.576 4089
2433.72 -123.576 4089
2443.5 -123.576 4089
2423.28 -122.065 4039
2432.94 -122.065 4039
2425.06 -121.189 4010
2417.65 -120.342 3982
2415.59 -119.768 3963
2413.44 -119.194 3944
2422.87 -119.194 3944
2409.48 -118.076 3907
2407.68 -117.532 3889
2405.8 -116.988 3871
2415.05 -116.988 3871
2418.67 -116.716 3862
2416.59 -116.172 3844
2420.1 -115.9 3835
2429.28 -115.9 3835
2432.72 -115.628 3826
2459.1 -116.444 3853
2474.08 -116.716 3862
2483.32 -116.716 3862
2492.55 -116.716 3862
2501.79 -116.716 3862
2493.47 -115.9 3835
2526.13 -116.988 3871
2535.39 -116.988 3871
2544.65 -116.988 3871
1805.54 -82.1121 2717
1814.71 -82.2329 2721
1836.61 -82.928 2744
1843.17 -82.928 2744
1849.73 -82.928 2744
1865.09 -83.3209 2757
1875.08 -83.472 2762
1900.76 -84.3182 2790
1907.43 -84.3182 2790
1920.27 -84.5902 2799
1930.41 -84.7413 2804
1943.33 -85.0133 2813
1950.06 -85.0133 2813
1963.74 -85.3155 2823
1973.98 -85.4666 2828
1983.55 -85.5875 2832
1990.32 -85.5875 2832
2011.2 -86.192 2852
2027.92 -86.6151 2866
2048.97 -87.2195 2886
2055.88 -87.2195 2886
2062.78 -87.2195 2886
2091.91 -88.1564 2917
2124.79 -89.2443 2953
2131.85 -89.2443 2953
2154.12 -89.879 2974
2172.86 -90.3625 2990
2180.01 -90.3625 2990
2187.16 -90.3625 2990
2194.31 -90.3625 2990
2229.44 -91.511 3028
2236.68 -91.511 3028
2243.92 -91.511 3028
2259.34 -91.8434 3039
2266.61 -91.8434 3039
2273.87 -91.8434 3039
2212.08 -89.063 2947
2725.16 -109.372 3619
2745.9 -109.855 3635
2772.02 -110.551 3658
2780.77 -110.551 3658
2802.48 -111.064 3675
2811.27 -111.064 3675
-2640.75 -98.1426 3527
-2632.32 -98.1426 3527
-2618.68 -97.9478 3520
-2588.01 -97.113 3490
-2584.84 -97.3078 3497
-2576.48 -97.3078 3497
-2568.12 -97.3078 3497
-2565.61 -97.5304 3505
-2573.28 -98.1426 3527
-2564.84 -98.1426 3527
-2556.41 -98.1426 3527
-2547.98 -98.1426 3527
-2539.54 -98.1426 3527
-2526.08 -97.9478 3520
-2506.94 -97.5304 3505
-2492.85 -97.3078 3497
-2490.18 -97.5304 3505
-2481.79 -97.5304 3505
-2478.35 -97.7252 3512
-2469.95 -97.7252 3512
-2467.16 -97.9478 3520
-2458.75 -97.9478 3520
-2455.2 -98.1426 3527
-2462.03 -98.7548 3549
-2459.07 -98.9774 3557
-2450.57 -98.9774 3557
-2452.36 -99.3948 3572
-2443.82 -99.3948 3572
-2440.73 -99.6174 3580
-2432.17 -99.6174 3580
-2429.02 -99.84 3588
-2425.17 -100.035 3595
-2427.32 -100.48 3611
-2418.69 -100.48 3611
-2415.39 -100.703 3619
-2412.06 -100.925 3627
-2403.39 -100.925 3627
-2394.71 -100.925 3627
-2386.04 -100.925 3627
-2377.37 -100.925 3627
-2368.69 -100.925 3627
-2354.81 -100.703 3619
-2371.44 -101.788 3658
-2368.51 -102.038 3667
-2359.74 -102.038 3667
-2350.97 -102.038 3667
-2347.31 -102.261 3675
-2338.52 -102.261 3675
-2329.74 -102.261 3675
-2326 -102.483 3683
-2317.19 -102.483 3683
-2308.39 -102.483 3683
-2294.58 -102.261 3675
-2285.8 -102.261 3675
-2272.05 -102.038 3667
-2263.28 -102.038 3667
-2248.98 -101.788 3658
-2240.23 -101.788 3658
-2221.73 -101.343 3642
-2203.9 -100.925 3627
-2175.86 -100.035 3595
-2167.26 -100.035 3595
-2158.67 -100.035 3595
-2154.85 -100.257 3603
-2146.24 -100.257 3603
-2137.62 -100.257 3603
-2120.14 -99.84 3588
-2088.61 -98.7548 3549
-2058.44 -97.7252 3512
-2050.04 -97.7252 3512
-2011.99 -96.3061 3461
-2003.72 -96.3061 3461
-1999.48 -96.5008 3468
-2007.84 -97.3078 3497
-1999.47 -97.3078 3497
-1991.11 -97.3078 3497
-1966.31 -96.5008 3468
-1958.01 -96.5008 3468
-1933.98 -95.7217 3440
-1856.9 -92.2991 3317
-1833.91 -91.5478 3290
-1812.17 -90.8521 3265
-1804.36 -90.8521 3265
-1786.1 -90.3234 3246
-1778.34 -90.3234 3246
-1770.58 -90.3234 3246
-1762.81 -90.3234 3246
-1755.05 -90.3234 3246
-1747.29 -90.3234 3246
-1742.74 -90.4904 3252
-1734.97 -90.4904 3252
-1727.19 -90.4904 3252
-1719.41 -90.4904 3252
-1711.64 -90.4904 3252
-1703.86 -90.4904 3252
-1696.08 -90.4904 3252
-1681.56 -90.1287 3239
-1677.43 -90.3234 3246
-1669.67 -90.3234 3246
-1661.91 -90.3234 3246
-1657.2 -90.4904 3252
-1652.47 -90.6574 3258
-1644.68 -90.6574 3258
-1636.89 -90.6574 3258
-1629.09 -90.6574 3258
-1624.79 -90.8521 3265
-1616.98 -90.8521 3265
-1609.17 -90.8521 3265
-1604.31 -91.0191 3271
-1596.49 -91.0191 3271
-1592.06 -91.2139 3278
-1584.22 -91.2139 3278
-1576.39 -91.2139 3278
-1574.29 -91.5478 3290
-1566.42 -91.5478 3290
-1558.55 -91.5478 3290
-1545.03 -91.2139 3278
-1537.19 -91.2139 3278
-1529.35 -91.2139 3278
-1521.51 -91.2139 3278
-1513.68 -91.2139 3278
-1499.87 -90.8521 3265
-1494.8 -91.0191 3271
-1486.98 -91.0191 3271
-1479.16 -91.0191 3271
-1471.33 -91.0191 3271
-1466.64 -91.2139 3278
-1458.81 -91.2139 3278
-1462.03 -91.9095 3303
-1454.13 -91.9095 3303
-1446.24 -91.9095 3303
-1438.34 -91.9095 3303
-1433.47 -92.1043 3310
-1428.57 -92.2991 3317
-1423.21 -92.4661 3323
-1415.26 -92.4661 3323
-1407.31 -92.4661 3323
-1402.32 -92.6608 3330
-1399.8 -93.0226 3343
-1400.13 -93.5791 3363
-1392.09 -93.5791 3363
-1389.81 -93.9687 3377
-1387.46 -94.3582 3391
-1385.05 -94.7478 3405
-1376.9 -94.7478 3405
-1380.02 -95.5269 3433
-1371.81 -95.5269 3433
-1366.38 -95.7217 3440
-1358.15 -95.7217 3440
-1349.93 -95.7217 3440
-1338.97 -95.5269 3433
-1330.76 -95.5269 3433
-1314.46 -94.9426 3412
-1300.94 -94.553 3398
-1290.15 -94.3582 3391
-1282.04 -94.3582 3391
-1273.94 -94.3582 3391
-1265.83 -94.3582 3391
-1249.93 -93.7739 3370
-1241.87 -93.7739 3370
-1226.49 -93.2174 3350
-695.805 -53.2313 1913
-691.231 -53.2313 1913
-685.221 -53.12 1909
-680.656 -53.12 1909
-676.091 -53.12 1909
-669.063 -52.9252 1902
-659.274 -52.5078 1887
-654.762 -52.5078 1887
-643.702 -51.9791 1868
-635.813 -51.7009 1858
-630.011 -51.5896 1854
-625.577 -51.5896 1854
-617.459 -51.2835 1843
-611.056 -51.1165 1837
-605.342 -51.0052 1833
-600.959 -51.0052 1833
-595.273 -50.8939 1829
-585.731 -50.4487 1813
-578.509 -50.1982 1804
-570.376 -49.8643 1792
-566.09 -49.8643 1792
-559.924 -49.6974 1786
-550.987 -49.28 1771
-541.503 -48.8069 1754
-537.309 -48.8069 1754
-529.163 -48.4452 1741
-524.698 -48.4174 1740
-518.144 -48.1948 1732
-514.003 -48.1948 1732
-508.389 -48.0556 1727
-502.799 -47.9165 1722
-498.102 -47.8609 1720
-493.989 -47.8609 1720
-488.452 -47.7217 1715
-484.351 -47.7217 1715
-479.13 -47.6104 1711
-475.038 -47.6104 1711
-470.947 -47.6104 1711
-466.037 -47.5269 1708
-461.411 -47.4713 1706
-456.26 -47.36 1702
-452.19 -47.36 1702
-447.33 -47.2765 1699
-443.267 -47.2765 1699
-438.17 -47.1652 1695
-434.117 -47.1652 1695
-428.034 -46.9426 1687
-424 -46.9426 1687
-418.721 -46.8035 1682
-414.699 -46.8035 1682
-409.7 -46.6922 1678
-405.687 -46.6922 1678
-400.956 -46.6087 1675
-396.951 -46.6087 1675
-392.242 -46.5252 1672
-387.779 -46.4696 1670
-381.947 -46.2469 1662
-377.973 -46.2469 1662
-372.873 -46.1078 1657
-368.911 -46.1078 1657
-364.949 -46.1078 1657
-360.55 -46.0522 1655
-356.593 -46.0522 1655
-352.209 -45.9965 1653
-348.046 -45.9687 1652
-344.095 -45.9687 1652
-340.145 -45.9687 1652
-336.194 -45.9687 1652
-332.445 -45.9965 1653
-328.89 -46.0522 1655
-324.932 -46.0522 1655
-320.974 -46.0522 1655
-317.017 -46.0522 1655
-312.681 -45.9965 1653
-309.102 -46.0522 1655
-305.144 -46.0522 1655
-301.186 -46.0522 1655
-297.588 -46.1078 1657
-293.626 -46.1078 1657
-289.663 -46.1078 1657
-285.701 -46.1078 1657
-281.738 -46.1078 1657
-277.776 -46.1078 1657
-273.814 -46.1078 1657
-269.851 -46.1078 1657
-266.37 -46.1913 1660
-262.401 -46.1913 1660
-258.431 -46.1913 1660
-254.462 -46.1913 1660
-250.945 -46.2748 1663
-247.265 -46.3304 1665
-243.283 -46.3304 1665
-239.589 -46.3861 1667
-236.027 -46.4696 1670
-232.311 -46.5252 1672
-228.313 -46.5252 1672
-225.12 -46.6922 1678
-221.634 -46.8035 1682
-218.259 -46.9426 1687
-214.225 -46.9426 1687
-210.44 -46.9982 1689
-206.523 -47.0261 1690
-203.081 -47.1652 1695
-199.263 -47.2209 1697
-195.205 -47.2209 1697
-191.147 -47.2209 1697
-187.088 -47.2209 1697
-183.03 -47.2209 1697
-178.972 -47.2209 1697
-174.914 -47.2209 1697
-170.655 -47.1652 1695
-166.602 -47.1652 1695
-162.548 -47.1652 1695
-158.495 -47.1652 1695
-154.442 -47.1652 1695
-150.389 -47.1652 1695
-146.249 -47.1374 1694
-142.198 -47.1374 1694
-137.984 -47.0817 1692
-133.938 -47.0817 1692
-129.739 -47.0261 1690
-125.623 -46.9982 1689
-121.44 -46.9426 1687
-117.545 -46.9982 1689
-113.506 -46.9982 1689
-109.467 -46.9982 1689
-105.428 -46.9982 1689
-101.569 -47.0817 1692
-97.5234 -47.0817 1692
-93.643 -47.1652 1695
-89.9069 -47.3322 1701
-85.8898 -47.36 1702
-81.8198 -47.36 1702
-77.7498 -47.36 1702
-73.6798 -47.36 1702
-69.6098 -47.36 1702
-65.6168 -47.4156 1704
-61.542 -47.4156 1704
-57.5347 -47.4713 1706
-53.4551 -47.4713 1706
-49.4624 -47.5548 1709
-45.3757 -47.5548 1709
-41.2889 -47.5548 1709
-37.2457 -47.6104 1711
-33.1929 -47.6661 1713
-29.0966 -47.6661 1713
-25.0295 -47.7217 1715
-20.9407 -47.7495 1716
-16.8372 -47.7495 1716
-12.7337 -47.7495 1716
7.98665 -103.624 3724
16.8919 -103.624 3724
25.7971 -103.624 3724
34.5439 -103.151 3707
43.3148 -102.929 3699
52.1602 -102.929 3699
60.8737 -102.706 3691
69.7 -102.706 3691
78.1859 -102.261 3675
86.9739 -102.261 3675
95.7619 -102.261 3675
104.55 -102.261 3675
113.338 -102.261 3675
122.392 -102.483 3683
131.199 -102.483 3683
140.006 -102.483 3683
148.813 -102.483 3683
157.621 -102.483 3683
166.066 -102.261 3675
174.474 -102.038 3667
182.793 -101.788 3658
191.54 -101.788 3658
199.85 -101.565 3650
208.578 -101.565 3650
217.782 -101.788 3658
226.53 -101.788 3658
235.277 -101.788 3658
243.491 -101.565 3650
252.219 -101.565 3650
261.519 -101.788 3658
270.932 -102.038 3667
279.701 -102.038 3667
288.469 -102.038 3667
297.238 -102.038 3667
306.007 -102.038 3667
314.776 -102.038 3667
323.545 -102.038 3667
332.314 -102.038 3667
341.083 -102.038 3667
349.852 -102.038 3667
358.621 -102.038 3667
367.39 -102.038 3667
376.159 -102.038 3667
384.927 -102.038 3667
393.696 -102.038 3667
402.465 -102.038 3667
411.234 -102.038 3667
418.972 -101.788 3658
426.784 -101.565 3650
435.513 -101.565 3650
444.241 -101.565 3650
451.107 -101.148 3635
458.788 -100.925 3627
466.43 -100.703 3619
474.034 -100.48 3611
482.669 -100.48 3611
490.216 -100.257 3603
496.755 -99.84 3588
502.095 -99.2 3565
510.62 -99.2 3565
516.815 -98.7548 3549
524.266 -98.56 3542
531.533 -98.3374 3534
539.984 -98.3374 3534
547.348 -98.1426 3527
555.782 -98.1426 3527
564.216 -98.1426 3527
572.651 -98.1426 3527
581.085 -98.1426 3527
593.196 -98.7548 3549
603.039 -98.9774 3557
612.92 -99.2 3565
621.445 -99.2 3565
629.97 -99.2 3565
638.495 -99.2 3565
649.743 -99.6174 3580
661.062 -100.035 3595
669.659 -100.035 3595
678.255 -100.035 3595
1498.58 -102.038 3667
1507.35 -102.038 3667
1516.12 -102.038 3667
1492.03 -99.84 3588
1493.92 -99.3948 3572
1502.46 -99.3948 3572
1511.01 -99.3948 3572
1509.76 -98.7548 3549
1518.25 -98.7548 3549
1485.87 -96.1113 3454
1494.13 -96.1113 3454
1508.48 -96.5008 3468
1516.77 -96.5008 3468
1528.58 -96.7234 3476
1543.08 -97.113 3490
1558.1 -97.5304 3505
1566.48 -97.5304 3505
1581.6 -97.9478 3520
1590.02 -97.9478 3520
1601.61 -98.1426 3527
1610.05 -98.1426 3527
1621.69 -98.3374 3534
1630.15 -98.3374 3534
1645.55 -98.7548 3549
1654.04 -98.7548 3549
1666.27 -98.9774 3557
1674.78 -98.9774 3557
1687.07 -99.2 3565
1695.59 -99.2 3565
1704.12 -99.2 3565
1704.96 -98.7548 3549
1713.44 -98.7548 3549
2402.36 -113.224 4069
2412.09 -113.224 4069
2421.82 -113.224 4069
2431.55 -113.224 4069
2411.88 -111.861 4020
2421.49 -111.861 4020
2413.57 -111.054 3991
2411.58 -110.525 3972
2415.59 -110.275 3963
2413.44 -109.746 3944
2422.87 -109.746 3944
2409.48 -108.716 3907
2407.68 -108.216 3889
2400.2 -107.464 3862
2409.44 -107.464 3862
2418.67 -107.464 3862
2416.59 -106.963 3844
2420.1 -106.713 3835
2429.28 -106.713 3835
2432.72 -106.463 3826
2459.1 -107.214 3853
2474.08 -107.464 3862
2483.32 -107.464 3862
2492.55 -107.464 3862
2501.79 -107.464 3862
2493.47 -106.713 3835
2479.8 -105.739 3800
2488.89 -105.739 3800
1805.54 -75.6035 2717
1814.71 -75.7148 2721
1830.59 -76.1043 2735
1837.13 -76.1043 2735
1849.73 -76.3548 2744
1856.29 -76.3548 2744
1871.68 -76.7165 2757
1881.68 -76.8556 2762
1888.29 -76.8556 2762
1901.06 -77.1061 2771
1913.89 -77.3565 2780
1930.21 -77.7461 2794
1936.89 -77.7461 2794
1947.05 -77.8852 2799
1957.23 -78.0243 2804
1977.24 -78.553 2823
1983.99 -78.553 2823
1994.27 -78.6921 2828
2014.48 -79.2208 2847
2024.84 -79.36 2852
2031.66 -79.36 2852
2042.05 -79.4991 2857
2062.51 -80.0278 2876
2080.18 -80.4452 2891
2087.09 -80.4452 2891
2097.63 -80.5843 2896
2123.45 -81.3078 2922
2130.43 -81.3078 2922
2137.42 -81.3078 2922
2144.41 -81.3078 2922
2166.12 -81.8643 2942
2176.85 -82.0034 2947
2183.9 -82.0034 2947
2190.94 -82.0034 2947
2197.99 -82.0034 2947
2205.04 -82.0034 2947
2212.08 -82.0034 2947
2733.81 -100.703 3619
2772.02 -101.788 3658
2780.77 -101.788 3658
2802.48 -102.261 3675
2811.27 -102.261 3675
-2640.75 -89.6936 3527
-2632.32 -89.6936 3527
-2618.68 -89.5156 3520
-2588.01 -88.7527 3490
-2579.67 -88.7527 3490
-2571.32 -88.7527 3490
-2562.97 -88.7527 3490
-2565.61 -89.1341 3505
-2573.28 -89.6936 3527
-2564.84 -89.6936 3527
-2556.41 -89.6936 3527
-2547.98 -89.6936 3527
-2539.54 -89.6936 3527
-2526.08 -89.5156 3520
-2506.94 -89.1341 3505
-2492.85 -88.9307 3497
-2490.18 -89.1341 3505
-2481.79 -89.1341 3505
-2478.35 -89.3122 3512
-2469.95 -89.3122 3512
-2461.56 -89.3122 3512
-2448.27 -89.1341 3505
-2444.76 -89.3122 3512
-2446.77 -89.6936 3527
-2448.7 -90.0751 3542
-2440.23 -90.0751 3542
-2431.76 -90.0751 3542
-2423.29 -90.0751 3542
-2425.05 -90.4565 3557
-2416.54 -90.4565 3557
-2413.45 -90.66 3565
-2415.05 -91.0414 3580
-2411.86 -91.2449 3588
-2403.28 -91.2449 3588
-2404.72 -91.6263 3603
-2401.42 -91.8298 3611
-2403.39 -92.2367 3627
-2394.71 -92.2367 3627
-2386.04 -92.2367 3627
-2377.37 -92.2367 3627
-2368.69 -92.2367 3627
-2365.23 -92.4401 3635
-2361.07 -92.6181 3642
-2362.7 -93.025 3658
-2353.95 -93.025 3658
-2350.97 -93.2539 3667
-2347.31 -93.4573 3675
-2338.52 -93.4573 3675
-2334.81 -93.6608 3683
-2326 -93.6608 3683
-2317.19 -93.6608 3683
-2308.39 -93.6608 3683
-2294.58 -93.4573 3675
-2285.8 -93.4573 3675
-2272.05 -93.2539 3667
-2257.73 -93.025 3658
-2248.98 -93.025 3658
-2240.23 -93.025 3658
-2221.73 -92.6181 3642
-2203.9 -92.2367 3627
-2175.86 -91.4229 3595
-2167.26 -91.4229 3595
-2158.67 -91.4229 3595
-2154.85 -91.6263 3603
-2146.24 -91.6263 3603
-2137.62 -91.6263 3603
-2120.14 -91.2449 3588
-2088.61 -90.2531 3549
-2071.33 -89.8716 3534
-2062.88 -89.8716 3534
-2028.85 -88.7527 3490
-2003.72 -88.0152 3461
-1999.48 -88.1932 3468
-2007.84 -88.9307 3497
-1999.47 -88.9307 3497
-1991.11 -88.9307 3497
-1962.34 -88.0152 3461
-1954.06 -88.0152 3461
-1933.98 -87.4812 3440
-1879.29 -85.3704 3357
-1845.06 -84.1752 3310
-1826.05 -83.6666 3290
-1818.18 -83.6666 3290
-1796.55 -83.0308 3265
-1778.34 -82.5476 3246
-1770.58 -82.5476 3246
-1766.07 -82.7002 3252
-1758.3 -82.7002 3252
-1750.52 -82.7002 3252
-1742.74 -82.7002 3252
-1734.97 -82.7002 3252
-1727.19 -82.7002 3252
-1719.41 -82.7002 3252
-1711.64 -82.7002 3252
-1703.86 -82.7002 3252
-1692.95 -82.5476 3246
-1681.56 -82.3696 3239
-1673.81 -82.3696 3239
-1669.67 -82.5476 3246
-1661.91 -82.5476 3246
-1657.2 -82.7002 3252
-1649.42 -82.7002 3252
-1644.68 -82.8528 3258
-1636.89 -82.8528 3258
-1629.09 -82.8528 3258
-1624.79 -83.0308 3265
-1616.98 -83.0308 3265
-1609.17 -83.0308 3265
-1604.31 -83.1834 3271
-1596.49 -83.1834 3271
-1592.06 -83.3614 3278
-1584.22 -83.3614 3278
-1576.39 -83.3614 3278
-1568.55 -83.3614 3278
-1560.71 -83.3614 3278
-1552.87 -83.3614 3278
-1541.73 -83.1834 3271
-1537.19 -83.3614 3278
-1529.35 -83.3614 3278
-1521.51 -83.3614 3278
-1513.68 -83.3614 3278
-1499.87 -83.0308 3265
-1494.8 -83.1834 3271
-1486.98 -83.1834 3271
-1482.32 -83.3614 3278
-1474.48 -83.3614 3278
-1472.01 -83.6666 3290
-1464.15 -83.6666 3290
-1462.03 -83.9972 3303
-1454.13 -83.9972 3303
-1449.3 -84.1752 3310
-1441.39 -84.1752 3310
-1436.5 -84.3532 3317
-1431.15 -84.5058 3323
-1423.21 -84.5058 3323
-1415.26 -84.5058 3323
-1407.31 -84.5058 3323
-1405.26 -84.8618 3337
-1399.8 -85.0144 3343
-1400.13 -85.523 3363
-1392.09 -85.523 3363
-1389.81 -85.879 3377
-1387.46 -86.2351 3391
-1385.05 -86.5911 3405
-1376.9 -86.5911 3405
-1374.39 -86.9471 3419
-1371.81 -87.3031 3433
-1363.6 -87.3031 3433
-1355.39 -87.3031 3433
-1347.18 -87.3031 3433
-1333.51 -86.9471 3419
-1325.33 -86.9471 3419
-1311.76 -86.5911 3405
-1295.58 -86.057 3384
-1284.83 -85.879 3377
-1276.75 -85.879 3377
-1268.68 -85.879 3377
-1257.99 -85.701 3370
-1242.51 -85.1924 3350
-1234.5 -85.1924 3350
-1219.17 -84.6838 3330
-694.351 -48.547 1909
-689.786 -48.547 1909
-685.221 -48.547 1909
-680.656 -48.547 1909
-674.32 -48.4198 1904
-667.656 -48.2672 1898
-659.274 -47.9875 1887
-654.762 -47.9875 1887
-643.702 -47.5043 1868
-635.813 -47.25 1858
-628.652 -47.0466 1850
-624.228 -47.0466 1850
-617.459 -46.8685 1843
-611.056 -46.716 1837
-605.342 -46.6142 1833
-600.959 -46.6142 1833
-595.273 -46.5125 1829
-585.731 -46.1056 1813
-578.509 -45.8767 1804
-570.376 -45.5716 1792
-566.09 -45.5716 1792
-559.924 -45.419 1786
-550.987 -45.0375 1771
-541.503 -44.6052 1754
-537.309 -44.6052 1754
-529.771 -44.3255 1743
-524.698 -44.2492 1740
-518.144 -44.0457 1732
-514.003 -44.0457 1732
-508.389 -43.9186 1727
-502.799 -43.7914 1722
-498.102 -43.7406 1720
-493.989 -43.7406 1720
-488.452 -43.6134 1715
-484.351 -43.6134 1715
-479.13 -43.5117 1711
-475.038 -43.5117 1711
-470.947 -43.5117 1711
-466.037 -43.4354 1708
-461.411 -43.3846 1706
-456.26 -43.2828 1702
-452.19 -43.2828 1702
-447.33 -43.2065 1699
-443.267 -43.2065 1699
-438.17 -43.1048 1695
-434.117 -43.1048 1695
-428.034 -42.9014 1687
-424 -42.9014 1687
-418.721 -42.7742 1682
-414.699 -42.7742 1682
-409.7 -42.6725 1678
-405.687 -42.6725 1678
-400.478 -42.5453 1673
-396.477 -42.5453 1673
-392.242 -42.5199 1672
-387.779 -42.4691 1670
-381.488 -42.2147 1660
-377.518 -42.2147 1660
-372.873 -42.1385 1657
-368.911 -42.1385 1657
-364.508 -42.0876 1655
-360.55 -42.0876 1655
-356.593 -42.0876 1655
-352.209 -42.0367 1653
-348.046 -42.0113 1652
-344.095 -42.0113 1652
-340.145 -42.0113 1652
-336.194 -42.0113 1652
-332.445 -42.0367 1653
-328.89 -42.0876 1655
-324.932 -42.0876 1655
-320.974 -42.0876 1655
-317.017 -42.0876 1655
-312.681 -42.0367 1653
-309.102 -42.0876 1655
-305.144 -42.0876 1655
-301.186 -42.0876 1655
-297.588 -42.1385 1657
-293.626 -42.1385 1657
-289.663 -42.1385 1657
-285.701 -42.1385 1657
-281.738 -42.1385 1657
-277.776 -42.1385 1657
-273.483 -42.0876 1655
-269.525 -42.0876 1655
-266.049 -42.1639 1658
-262.401 -42.2147 1660
-258.431 -42.2147 1660
-254.462 -42.2147 1660
-250.945 -42.291 1663
-246.968 -42.291 1663
-242.991 -42.291 1663
-239.302 -42.3419 1665
-235.744 -42.4182 1668
-232.311 -42.5199 1672
-228.313 -42.5199 1672
-224.986 -42.6471 1677
-221.371 -42.7234 1680
-218 -42.8505 1685
-214.225 -42.9014 1687
-210.191 -42.9014 1687
-206.523 -42.9777 1690
-202.722 -43.0285 1692
-199.028 -43.1048 1695
-194.975 -43.1048 1695
-190.921 -43.1048 1695
-186.868 -43.1048 1695
-182.815 -43.1048 1695
-178.761 -43.1048 1695
-174.708 -43.1048 1695
-170.655 -43.1048 1695
-166.602 -43.1048 1695
-162.548 -43.1048 1695
-158.402 -43.0794 1694
-154.351 -43.0794 1694
-150.3 -43.0794 1694
-146.249 -43.0794 1694
-142.03 -43.0285 1692
-137.821 -42.9777 1690
-133.78 -42.9777 1690
-129.662 -42.9522 1689
-125.474 -42.9014 1687
-121.44 -42.9014 1687
-117.545 -42.9522 1689
-113.506 -42.9522 1689
-109.467 -42.9522 1689
-105.428 -42.9522 1689
-101.569 -43.0285 1692
-97.5234 -43.0285 1692
-93.643 -43.1048 1695
-89.9069 -43.2574 1701
-85.8898 -43.2828 1702
-81.8198 -43.2828 1702
-77.7498 -43.2828 1702
-73.6798 -43.2828 1702
-69.6098 -43.2828 1702
-65.6168 -43.3337 1704
-61.542 -43.3337 1704
-57.5347 -43.3846 1706
-53.5178 -43.4354 1708
-49.4624 -43.4608 1709
-45.3757 -43.4608 1709
-41.2889 -43.4608 1709
-37.2457 -43.5117 1711
-33.1929 -43.5626 1713
-29.0966 -43.5626 1713
-25.0295 -43.6134 1715
-20.9407 -43.6389 1716
-16.8372 -43.6389 1716
-12.7337 -43.6389 1716
-8.62519 -43.6134 1715
7.98665 -94.7034 3724
16.8919 -94.7034 3724
25.7971 -94.7034 3724
34.5439 -94.2711 3707
43.3148 -94.0677 3699
52.1602 -94.0677 3699
60.8737 -93.8642 3691
69.5489 -93.6608 3683
78.1859 -93.4573 3675
86.9739 -93.4573 3675
95.7619 -93.4573 3675
104.55 -93.4573 3675
113.338 -93.4573 3675
122.392 -93.6608 3683
131.199 -93.6608 3683
140.006 -93.6608 3683
148.813 -93.6608 3683
157.621 -93.6608 3683
166.066 -93.4573 3675
174.474 -93.2539 3667
183.243 -93.2539 3667
192.011 -93.2539 3667
199.85 -92.8216 3650
208.578 -92.8216 3650
217.782 -93.025 3658
226.53 -93.025 3658
235.277 -93.025 3658
243.491 -92.8216 3650
252.219 -92.8216 3650
261.519 -93.025 3658
270.932 -93.2539 3667
279.701 -93.2539 3667
288.469 -93.2539 3667
297.238 -93.2539 3667
306.675 -93.4573 3675
315.463 -93.4573 3675
324.251 -93.4573 3675
333.039 -93.4573 3675
341.827 -93.4573 3675
350.615 -93.4573 3675
360.185 -93.6608 3683
368.993 -93.6608 3683
378.62 -93.8642 3691
387.447 -93.8642 3691
396.273 -93.8642 3691
405.099 -93.8642 3691
413.926 -93.8642 3691
420.919 -93.4573 3675
427.72 -93.025 3658
435.513 -92.8216 3650
444.241 -92.8216 3650
451.976 -92.6181 3642
459.8 -92.4401 3635
467.461 -92.2367 3627
475.084 -92.0332 3619
483.738 -92.0332 3619
491.304 -91.8298 3611
496.755 -91.2449 3588
502.095 -90.66 3565
510.62 -90.66 3565
515.796 -90.0751 3542
524.266 -90.0751 3542
531.533 -89.8716 3534
539.984 -89.8716 3534
547.348 -89.6936 3527
555.782 -89.6936 3527
564.216 -89.6936 3527
572.651 -89.6936 3527
581.085 -89.6936 3527
594.533 -90.4565 3557
604.395 -90.66 3565
612.92 -90.66 3565
621.445 -90.66 3565
629.97 -90.66 3565
641.182 -91.0414 3580
652.465 -91.4229 3595
662.533 -91.6263 3603
671.149 -91.6263 3603
691.839 -93.2539 3667
709.97 -94.5 3716
718.856 -94.5 3716
727.742 -94.5 3716
736.628 -94.5 3716
742.104 -94.0677 3699
756.025 -94.7034 3724
764.93 -94.7034 3724
779.03 -95.3392 3749
795.141 -96.2038 3783
809.715 -96.865 3809
818.823 -96.865 3809
827.932 -96.865 3809
829.349 -95.975 3774
838.373 -95.975 3774
1501.85 -93.4573 3675
1510.64 -93.4573 3675
1519.42 -93.4573 3675
1492.03 -91.2449 3588
1493.92 -90.838 3572
1502.46 -90.838 3572
1511.01 -90.838 3572
1509.76 -90.2531 3549
1518.25 -90.2531 3549
1485.87 -87.8372 3454
1494.13 -87.8372 3454
1508.48 -88.1932 3468
1516.77 -88.1932 3468
1525.06 -88.1932 3468
1539.99 -88.5747 3483
1554.54 -88.9307 3497
1562.9 -88.9307 3497
1571.27 -88.9307 3497
1579.63 -88.9307 3497
1587.99 -88.9307 3497
1593.16 -88.7527 3490
1604.72 -88.9307 3497
1616.77 -89.1341 3505
1635.35 -89.6936 3527
1643.78 -89.6936 3527
1662.52 -90.2531 3549
1671.01 -90.2531 3549
1679.5 -90.2531 3549
1687.98 -90.2531 3549
1696.47 -90.2531 3549
1701.6 -90.0751 3542
1710.07 -90.0751 3542
2412.09 -103.477 4069
2421.82 -103.477 4069
2431.55 -103.477 4069
2411.88 -102.231 4020
2421.49 -102.231 4020
2431.11 -102.231 4020
2429.18 -101.748 4001
2421.08 -101.01 3972
2418.95 -100.527 3953
2428.4 -100.527 3953
2420.58 -99.815 3925
2407.68 -98.8995 3889
2416.98 -98.8995 3889
2426.28 -98.8995 3889
2424.31 -98.4417 3871
2422.25 -97.984 3853
2420.1 -97.5262 3835
2429.28 -97.5262 3835
2438.45 -97.5262 3835
2464.85 -98.2129 3862
2502.91 -99.3572 3907
2512.26 -99.3572 3907
2521.6 -99.3572 3907
2530.94 -99.3572 3907
2505.17 -97.984 3853
2485.67 -96.865 3809
2494.78 -96.865 3809
1805.54 -69.0949 2717
1836.05 -70.0104 2753
1842.63 -70.0104 2753
1849.22 -70.0104 2753
1849.73 -69.7815 2744
1856.29 -69.7815 2744
1868.97 -70.0104 2753
1881.68 -70.2392 2762
1888.29 -70.2392 2762
1901.06 -70.4681 2771
1913.89 -70.697 2780
1927.44 -70.9513 2790
1934.12 -70.9513 2790
1947.05 -71.1802 2799
1957.23 -71.3073 2804
1963.94 -71.3073 2804
1970.64 -71.3073 2804
1990.74 -71.7905 2823
2003.86 -72.0194 2832
2017.74 -72.2737 2842
2024.53 -72.2737 2842
2034.9 -72.4008 2847
2048.88 -72.6551 2857
2062.19 -72.884 2866
2069.04 -72.884 2866
2086.76 -73.2655 2881
2100.92 -73.5198 2891
2111.48 -73.6469 2896
2122.06 -73.7741 2901
2129 -73.7741 2901
2147.71 -74.181 2917
2162.08 -74.4353 2927
2172.78 -74.5624 2932
2179.79 -74.5624 2932
2197.99 -74.9439 2947
2213.27 -75.2236 2958
2220.34 -75.2236 2958
2227.41 -75.2236 2958
2736.4 -91.8298 3611
2745.04 -91.8298 3611
2796.38 -93.2539 3667
2805.15 -93.2539 3667
-2640.75 -81.2447 3527
-2632.32 -81.2447 3527
-2618.68 -81.0834 3520
-2588.01 -80.3924 3490
-2579.67 -80.3924 3490
-2571.32 -80.3924 3490
-2562.97 -80.3924 3490
-2565.61 -80.7379 3505
-2573.28 -81.2447 3527
-2564.84 -81.2447 3527
-2556.41 -81.2447 3527
-2547.98 -81.2447 3527
-2539.54 -81.2447 3527
-2526.08 -81.0834 3520
-2506.94 -80.7379 3505
-2492.85 -80.5536 3497
-2490.18 -80.7379 3505
-2481.79 -80.7379 3505
-2478.35 -80.8991 3512
-2469.95 -80.8991 3512
-2461.56 -80.8991 3512
-2448.27 -80.7379 3505
-2444.76 -80.8991 3512
-2446.77 -81.2447 3527
-2448.7 -81.5902 3542
-2440.23 -81.5902 3542
-2431.76 -81.5902 3542
-2423.29 -81.5902 3542
-2425.05 -81.9357 3557
-2416.54 -81.9357 3557
-2413.45 -82.12 3565
-2415.05 -82.4655 3580
-2411.86 -82.6498 3588
-2403.28 -82.6498 3588
-2404.72 -82.9953 3603
-2401.42 -83.1796 3611
-2403.39 -83.5482 3627
-2394.71 -83.5482 3627
-2386.04 -83.5482 3627
-2377.37 -83.5482 3627
-2368.69 -83.5482 3627
-2365.23 -83.7324 3635
-2361.07 -83.8937 3642
-2362.7 -84.2623 3658
-2353.95 -84.2623 3658
-2350.97 -84.4696 3667
-2347.31 -84.6538 3675
-2338.52 -84.6538 3675
-2334.81 -84.8381 3683
-2331.05 -85.0224 3691
-2322.23 -85.0224 3691
-2313.4 -85.0224 3691
-2299.58 -84.8381 3683
-2290.77 -84.8381 3683
-2272.05 -84.4696 3667
-2257.73 -84.2623 3658
-2248.98 -84.2623 3658
-2240.23 -84.2623 3658
-2221.73 -83.8937 3642
-2203.9 -83.5482 3627
-2175.86 -82.811 3595
-2167.26 -82.811 3595
-2158.67 -82.811 3595
-2154.85 -82.9953 3603
-2146.24 -82.9953 3603
-2137.62 -82.9953 3603
-2120.14 -82.6498 3588
-2088.61 -81.7514 3549
-2076.02 -81.5902 3542
-2067.55 -81.5902 3542
-2028.85 -80.3924 3490
-2020.51 -80.3924 3490
-2012.16 -80.3924 3490
-2003.82 -80.3924 3490
-1991.47 -80.2311 3483
-1983.14 -80.2311 3483
-1962.34 -79.7243 3461
-1954.06 -79.7243 3461
-1941.85 -79.5631 3454
-1902.24 -78.2731 3398
-1863.46 -77.0062 3343
-1855.46 -77.0062 3343
-1829.23 -76.246 3310
-1814.16 -75.9466 3297
-1799.16 -75.6471 3284
-1791.3 -75.6471 3284
-1783.45 -75.6471 3284
-1772.35 -75.5089 3278
-1760.75 -75.3477 3271
-1745.96 -75.0482 3258
-1738.17 -75.0482 3258
-1727.19 -74.91 3252
-1716.24 -74.7718 3246
-1708.48 -74.7718 3246
-1700.72 -74.7718 3246
-1692.95 -74.7718 3246
-1678.44 -74.4724 3233
-1670.71 -74.4724 3233
-1666.07 -74.6106 3239
-1658.32 -74.6106 3239
-1654.14 -74.7718 3246
-1649.42 -74.91 3252
-1641.65 -74.91 3252
-1633.87 -74.91 3252
-1629.09 -75.0482 3258
-1621.3 -75.0482 3258
-1616.98 -75.2095 3265
-1609.17 -75.2095 3265
-1601.36 -75.2095 3265
-1593.56 -75.2095 3265
-1588.66 -75.3477 3271
-1580.84 -75.3477 3271
-1576.39 -75.5089 3278
-1568.55 -75.5089 3278
-1560.71 -75.5089 3278
-1552.87 -75.5089 3278
-1538.9 -75.2095 3265
-1540.01 -75.6471 3284
-1532.15 -75.6471 3284
-1524.3 -75.6471 3284
-1516.45 -75.6471 3284
-1502.62 -75.3477 3271
-1498 -75.5089 3278
-1490.16 -75.5089 3278
-1485.03 -75.6471 3284
-1477.18 -75.6471 3284
-1475.14 -75.9466 3297
-1467.26 -75.9466 3297
-1468.23 -76.4073 3317
-1460.3 -76.4073 3317
-1452.37 -76.4073 3317
-1444.43 -76.4073 3317
-1439.1 -76.5455 3323
-1431.15 -76.5455 3323
-1423.21 -76.5455 3323
-1415.26 -76.5455 3323
-1407.31 -76.5455 3323
-1405.26 -76.868 3337
-1399.8 -77.0062 3343
-1400.13 -77.4669 3363
-1392.09 -77.4669 3363
-1386.93 -77.6282 3370
-1384.6 -77.9506 3384
-1385.05 -78.4344 3405
-1376.9 -78.4344 3405
-1371.57 -78.5956 3412
-1363.42 -78.5956 3412
-1358.04 -78.7569 3419
-1349.86 -78.7569 3419
-1341.69 -78.7569 3419
-1330.78 -78.5956 3412
-1322.62 -78.5956 3412
-1309.07 -78.2731 3398
-1290.22 -77.6282 3370
-1279.5 -77.4669 3363
-1271.46 -77.4669 3363
-1261.16 -77.3287 3357
-1250.52 -77.1674 3350
-1235.09 -76.7067 3330
-1227.13 -76.7067 3330
-1214.41 -76.4073 3317
-694.351 -43.9739 1909
-689.786 -43.9739 1909
-683.426 -43.8588 1904
-678.873 -43.8588 1904
-673.611 -43.8127 1902
-665.194 -43.5593 1891
-657.178 -43.3289 1881
-652.68 -43.3289 1881
-642.324 -42.9374 1864
-633.76 -42.6609 1852
-626.273 -42.4536 1843
-621.866 -42.4536 1843
-616.119 -42.3615 1839
-610.39 -42.2693 1835
-604.681 -42.1772 1831
-600.303 -42.1772 1831
-593.972 -42.039 1825
-585.731 -41.7626 1813
-578.509 -41.5552 1804
-570.376 -41.2788 1792
-566.09 -41.2788 1792
-559.924 -41.1406 1786
-550.987 -40.7951 1771
-541.503 -40.4035 1754
-537.309 -40.4035 1754
-529.771 -40.1501 1743
-524.698 -40.081 1740
-518.144 -39.8967 1732
-514.003 -39.8967 1732
-508.389 -39.7815 1727
-502.799 -39.6664 1722
-498.102 -39.6203 1720
-493.989 -39.6203 1720
-488.452 -39.5051 1715
-484.351 -39.5051 1715
-479.13 -39.413 1711
-475.038 -39.413 1711
-470.947 -39.413 1711
-466.037 -39.3439 1708
-461.411 -39.2978 1706
-456.26 -39.2057 1702
