ply
format ascii 1.0
comment File generated
element vertex 2251
property float x
property float y
property float z
end_header
793.062 439.231 3953
800.688 438.231 3944
810.119 438.231 3944
813.732 435.12 3916
819.313 433.12 3898
828.634 433.12 3898
830.217 429.12 3862
845.32 432.12 3889
866.707 438.231 3944
878.137 439.231 3953
887.59 439.231 3953
897.043 439.231 3953
906.496 439.231 3953
915.949 439.231 3953
925.401 439.231 3953
943.841 443.454 3991
955.773 444.565 4001
981.748 452.121 4069
991.478 452.121 4069
1001.21 452.121 4069
1010.94 452.121 4069
1020.67 452.121 4069
1030.4 452.121 4069
1040.13 452.121 4069
1049.86 452.121 4069
1059.59 452.121 4069
1069.32 452.121 4069
1076.4 451.009 4059
1086.1 451.009 4059
1095.81 451.009 4059
1102.79 449.898 4049
1109.73 448.787 4039
1114.12 446.676 4020
1123.73 446.676 4020
1138.7 448.787 4039
1148.36 448.787 4039
1163.75 451.009 4059
1176.35 452.121 4069
1186.08 452.121 4069
1195.81 452.121 4069
1205.54 452.121 4069
1212.29 451.009 4059
1221.99 451.009 4059
1231.7 451.009 4059
1247.52 453.232 4079
1257.28 453.232 4079
1267.03 453.232 4079
1276.78 453.232 4079
1289.69 454.343 4089
1299.47 454.343 4089
1309.25 454.343 4089
1501.13 453.232 4079
1510.88 453.232 4079
1520.64 453.232 4079
1530.39 453.232 4079
1540.15 453.232 4079
1549.9 453.232 4079
1631.92 454.343 4089
1641.7 454.343 4089
1651.48 454.343 4089
1661.26 454.343 4089
1662.86 452.121 4069
1672.59 452.121 4069
1682.32 452.121 4069
1692.05 452.121 4069
1697.6 451.009 4059
1707.31 451.009 4059
1704.75 447.787 4030
1714.38 447.787 4030
1715.46 445.565 4010
1716.88 443.454 3991
1726.42 443.454 3991
1727.7 441.343 3972
1716.65 436.12 3925
1718.12 434.12 3907
1727.46 434.12 3907
1728.8 432.12 3889
1730.05 430.12 3871
1735.27 429.12 3862
1744.5 429.12 3862
1745.56 427.12 3844
1754.76 427.12 3844
1784.6 432.12 3889
1793.9 432.12 3889
1807.37 433.12 3898
1816.69 433.12 3898
1826.01 433.12 3898
1822.62 430.12 3871
1831.88 430.12 3871
1828.29 427.12 3844
1820.76 423.231 3809
1796.72 415.564 3740
1805.66 415.564 3740
1802.96 412.898 3716
1807.46 411.897 3707
1812.4 411.009 3699
1821.25 411.009 3699
1818.22 408.342 3675
1807.12 403.897 3635
1784.34 396.897 3572
1792.88 396.897 3572
1801.42 396.897 3572
1809.97 396.897 3572
1818.51 396.897 3572
1823.47 396.119 3565
1831.99 396.119 3565
1824.52 392.675 3534
1817.92 389.453 3505
1822.14 388.564 3497
1830.5 388.564 3497
1838.86 388.564 3497
1839.83 387.008 3483
1836.48 384.564 3461
1844.76 384.564 3461
1856.79 385.341 3468
1865.08 385.341 3468
1873.37 385.341 3468
1881.66 385.341 3468
1889.96 385.341 3468
1886.76 383.008 3447
1895 383.008 3447
1899.38 382.23 3440
1907.6 382.23 3440
530.347 82.4462 742
532.838 82.5573 743
534.615 82.5573 743
536.392 82.5573 743
538.168 82.5573 743
539.945 82.5573 743
541.722 82.5573 743
543.499 82.5573 743
545.275 82.5573 743
547.052 82.5573 743
548.829 82.5573 743
550.606 82.5573 743
552.382 82.5573 743
554.159 82.5573 743
555.936 82.5573 743
557.713 82.5573 743
559.489 82.5573 743
562.021 82.6684 744
564.558 82.7795 745
567.1 82.8906 746
568.884 82.8906 746
570.668 82.8906 746
-2326.29 352.672 3107
-2318.86 352.672 3107
-2311.43 352.672 3107
-2304 352.672 3107
-2292.13 351.991 3101
-2284.72 351.991 3101
-2268.49 350.629 3089
-2248.66 348.699 3072
-2241.31 348.699 3072
-2233.97 348.699 3072
-2226.62 348.699 3072
-2219.27 348.699 3072
-2228.49 351.31 3095
-2221.09 351.31 3095
-2213.69 351.31 3095
-2218.4 353.24 3112
-2210.96 353.24 3112
-2203.52 353.24 3112
-2188.32 351.991 3101
-2180.9 351.991 3101
-2169.28 351.31 3095
-2161.88 351.31 3095
-2387.73 400.346 3527
-2409.65 405.454 3572
-2401.11 405.454 3572
-2392.57 405.454 3572
-2389.36 406.362 3580
-2380.8 406.362 3580
-2372.24 406.362 3580
-2358.4 405.454 3572
-2349.86 405.454 3572
-2336.73 404.659 3565
-2338 406.362 3580
-2329.44 406.362 3580
-2320.88 406.362 3580
-2317.48 407.27 3588
-2313.41 408.065 3595
-2315.07 409.881 3611
-2306.43 409.881 3611
-2302.89 410.789 3619
-2294.24 410.789 3619
-2290.63 411.697 3627
-2281.96 411.697 3627
-2287.7 414.308 3650
-2278.98 414.308 3650
-2275.22 415.216 3658
-2266.48 415.216 3658
-2257.73 415.216 3658
-2248.98 415.216 3658
-2240.23 415.216 3658
-1913.45 410.789 3619
-1904.8 410.789 3619
-1896.15 410.789 3619
-1887.49 410.789 3619
-1887.14 412.605 3635
-1886.2 414.308 3650
-1877.48 414.308 3650
-1881.55 417.145 3675
-1876.84 418.053 3683
-1901.5 425.545 3749
-1892.54 425.545 3749
-1887.59 426.453 3757
-1891.61 429.404 3783
-1882.56 429.404 3783
-1873.52 429.404 3783
-1864.47 429.404 3783
-1842.67 426.453 3757
-1833.69 426.453 3757
-1792.65 418.962 3691
-1803.64 423.615 3732
-1794.71 423.615 3732
-1856.61 440.415 3880
-1847.33 440.415 3880
-1850.84 443.479 3907
-1841.5 443.479 3907
-1832.16 443.479 3907
-1822.81 443.479 3907
-1813.47 443.479 3907
-1799.97 442.458 3898
-1790.65 442.458 3898
-1773.1 440.415 3880
-1735.64 433.377 3818
-1734.2 435.307 3835
-1753.37 442.458 3898
-1744.04 442.458 3898
-1734.72 442.458 3898
-1725.4 442.458 3898
-1716.08 442.458 3898
-1702.82 441.436 3889
-1721.39 448.701 3953
-1711.94 448.701 3953
-1702.48 448.701 3953
-1693.03 448.701 3953
-1660.15 442.458 3898
-1631.77 437.35 3853
-1607.82 433.377 3818
-1598.69 433.377 3818
-1578.74 430.426 3792
-1576.71 432.356 3809
-1567.6 432.356 3809
-1558.49 432.356 3809
-1549.38 432.356 3809
-1497.13 430.426 3792
-1488.06 430.426 3792
-1478.99 430.426 3792
-1469.92 430.426 3792
-1460.85 430.426 3792
-616.467 207.381 1827
-612.098 207.381 1827
-607.729 207.381 1827
-603.36 207.381 1827
-598.991 207.381 1827
-594.622 207.381 1827
-587.669 206.473 1819
-580.754 205.565 1811
-576.423 205.565 1811
-569.881 204.77 1804
-563.059 203.862 1796
-555.031 202.5 1784
-544.282 200.116 1763
-540.066 200.116 1763
-532.507 198.868 1752
-524.698 197.506 1740
-518.743 196.825 1734
-514.596 196.825 1734
-508.389 196.03 1727
-502.215 195.235 1720
-496.944 194.781 1716
-492.84 194.781 1716
-488.737 194.781 1716
-483.221 194.214 1711
-477.73 193.646 1706
-471.151 192.625 1697
-467.093 192.625 1697
-461.125 191.83 1690
-455.732 191.263 1685
-450.362 190.695 1680
-446.345 190.695 1680
-441.801 190.468 1678
-437.527 190.354 1677
-433 190.127 1675
-428.994 190.127 1675
-424.482 189.9 1673
-420.481 189.9 1673
-416.48 189.9 1673
-412.48 189.9 1673
-408.235 189.787 1672
-403.753 189.56 1670
-399.281 189.333 1668
-395.292 189.333 1668
-391.069 189.219 1667
-387.082 189.219 1667
-381.947 188.652 1662
-377.973 188.652 1662
-373.998 188.652 1662
-369.579 188.425 1660
-365.169 188.198 1658
-360.115 187.63 1653
-356.162 187.63 1653
-352.209 187.63 1653
-348.046 187.517 1652
-344.095 187.517 1652
-340.145 187.517 1652
-335.787 187.29 1650
-331.439 187.063 1648
-327.499 187.063 1648
-323.558 187.063 1648
-319.423 186.949 1647
-315.484 186.949 1647
-311.546 186.949 1647
-307.607 186.949 1647
-303.669 186.949 1647
-299.366 186.722 1645
-295.792 186.949 1647
-292.031 187.063 1648
-288.09 187.063 1648
-284.149 187.063 1648
-280.548 187.29 1650
-276.603 187.29 1650
-272.657 187.29 1650
-268.385 187.063 1648
-264.445 187.063 1648
-260.504 187.063 1648
-256.407 186.949 1647
-252.469 186.949 1647
-247.474 186.155 1640
-243.552 186.155 1640
-239.63 186.155 1640
-235.709 186.155 1640
-231.787 186.155 1640
-227.448 185.814 1637
-223.534 185.814 1637
-219.485 185.701 1636
-215.309 185.474 1634
-211.143 185.247 1632
-207.241 185.247 1632
-203.338 185.247 1632
-199.435 185.247 1632
-195.413 185.133 1631
-191.63 185.247 1632
-187.728 185.247 1632
-184.05 185.474 1634
-181.025 186.382 1642
-177.422 186.722 1645
-173.488 186.722 1645
-169.864 187.063 1648
-166.93 188.198 1658
-164.144 189.56 1670
-160.151 189.56 1670
-156.625 190.127 1675
-152.893 190.468 1678
-149.501 191.263 1685
-145.472 191.263 1685
-141.778 191.717 1689
-138.147 192.284 1694
-134.176 192.398 1695
-130.122 192.398 1695
-126.59 193.192 1702
-122.808 193.646 1706
-118.728 193.646 1706
-114.649 193.646 1706
-214.357 440.415 3880
-205.079 440.415 3880
-195.8 440.415 3880
-186.522 440.415 3880
-177.244 440.415 3880
-167.576 439.393 3871
-157.583 437.35 3853
-148.023 436.328 3844
-138.831 436.328 3844
-129.031 434.285 3826
-120.446 436.328 3844
-111.775 438.372 3862
-103.257 441.436 3889
-93.957 441.436 3889
-85.245 444.501 3916
-76.4232 447.679 3944
-67.3147 449.836 3963
-57.8379 449.836 3963
-49.5327 460.733 4059
-39.8264 460.733 4059
-30.1201 460.733 4059
311.126 463.003 4079
320.88 463.003 4079
330.634 463.003 4079
338.719 460.733 4059
345.078 456.306 4020
353.014 454.149 4001
362.582 454.149 4001
370.382 451.993 3982
379.905 451.993 3982
389.427 451.993 3982
397.045 449.836 3963
406.522 449.836 3963
410.12 443.479 3907
414.632 438.372 3862
413.331 427.475 3766
422.337 427.475 3766
427.448 423.615 3732
431.578 418.962 3691
432.768 411.697 3627
441.441 411.697 3627
446.143 408.065 3595
447.024 401.141 3534
452.64 398.643 3512
460.119 397.849 3505
468.5 397.849 3505
474.841 396.146 3490
485.263 397.849 3505
499.842 402.843 3549
510.62 404.659 3565
519.145 404.659 3565
528.706 405.454 3572
537.248 405.454 3572
548.235 407.27 3588
556.815 407.27 3588
577.843 416.237 3667
598.29 424.523 3740
607.234 424.523 3740
616.177 424.523 3740
663.898 450.858 3972
683.229 457.441 4030
694.414 458.463 4039
704.072 458.463 4039
713.731 458.463 4039
723.389 458.463 4039
733.048 458.463 4039
739.212 456.306 4020
746.963 455.171 4010
751.269 451.993 3982
760.791 451.993 3982
770.313 451.993 3982
783.557 454.149 4001
793.124 454.149 4001
802.692 454.149 4001
810.229 453.014 3991
819.773 453.014 3991
829.317 453.014 3991
838.86 453.014 3991
840.326 448.701 3953
845.909 446.658 3935
857.275 447.679 3944
872.86 450.858 3972
882.358 450.858 3972
891.856 450.858 3972
901.355 450.858 3972
906.496 448.701 3953
915.949 448.701 3953
925.401 448.701 3953
943.841 453.014 3991
955.773 454.149 4001
967.513 455.171 4010
977.102 455.171 4010
996.287 459.598 4049
1005.97 459.598 4049
1015.65 459.598 4049
1025.33 459.598 4049
1035.02 459.598 4049
1044.7 459.598 4049
1054.38 459.598 4049
1064.06 459.598 4049
1073.75 459.598 4049
1080.75 458.463 4039
1090.41 458.463 4039
1100.07 458.463 4039
1101.76 455.171 4010
1108.86 454.149 4001
1118.42 454.149 4001
1136.17 457.441 4030
1145.8 457.441 4030
1155.44 457.441 4030
1167.68 458.463 4039
1177.34 458.463 4039
1187 458.463 4039
1196.65 458.463 4039
1206.31 458.463 4039
1221.99 460.733 4059
1231.7 460.733 4059
1241.41 460.733 4059
1257.28 463.003 4079
1267.03 463.003 4079
1276.78 463.003 4079
1289.69 464.138 4089
1299.47 464.138 4089
1309.25 464.138 4089
1319.03 464.138 4089
1631.92 464.138 4089
1641.7 464.138 4089
1651.48 464.138 4089
1661.26 464.138 4089
1662.86 461.868 4069
1672.59 461.868 4069
1682.32 461.868 4069
1687.89 460.733 4059
1697.6 460.733 4059
1707.31 460.733 4059
1704.75 457.441 4030
1710.13 456.306 4020
1711.61 454.149 4001
1716.88 453.014 3991
1726.42 453.014 3991
1723.79 449.836 3963
1716.65 445.523 3925
1714.16 442.458 3898
1723.48 442.458 3898
1728.8 441.436 3889
1730.05 439.393 3871
1735.27 438.372 3862
1744.5 438.372 3862
1745.56 436.328 3844
1762.97 438.372 3862
1788.73 442.458 3898
1798.05 442.458 3898
1811.54 443.479 3907
1820.89 443.479 3907
1830.23 443.479 3907
1839.57 443.479 3907
1848.91 443.479 3907
1853.98 442.458 3898
1837.49 436.328 3844
1796.72 424.523 3740
1805.66 424.523 3740
1814.6 424.523 3740
1823.55 424.523 3740
1828.57 423.615 3732
1837.49 423.615 3732
1826.13 418.962 3691
1818.55 415.216 3658
1788.34 406.362 3580
1792.88 405.454 3572
1805.46 406.362 3580
1814.02 406.362 3580
1822.58 406.362 3580
1827.05 405.454 3572
1835.59 405.454 3572
1832.26 402.843 3549
1825.7 399.551 3520
1829.95 398.643 3512
1838.35 398.643 3512
1846.75 398.643 3512
1851.45 397.849 3505
1855.59 396.941 3497
1863.95 396.941 3497
1880.34 398.643 3512
1888.74 398.643 3512
1897.14 398.643 3512
1897.4 396.941 3497
1905.76 396.941 3497
1910.29 396.146 3490
1910.94 394.557 3476
1919.25 394.557 3476
1927.57 394.557 3476
531.061 84.3371 743
532.838 84.3371 743
534.615 84.3371 743
536.392 84.3371 743
537.444 84.2236 742
539.218 84.2236 742
541.722 84.3371 743
543.499 84.3371 743
545.275 84.3371 743
547.052 84.3371 743
548.09 84.2236 742
549.865 84.2236 742
551.639 84.2236 742
553.413 84.2236 742
555.936 84.3371 743
557.713 84.3371 743
559.489 84.3371 743
561.266 84.3371 743
563.801 84.4507 744
566.34 84.5642 745
568.121 84.5642 745
569.903 84.5642 745
-2326.29 360.115 3107
-2318.86 360.115 3107
-2311.43 360.115 3107
-2304 360.115 3107
-2292.13 359.42 3101
-2284.72 359.42 3101
-2268.49 358.029 3089
-2248.66 356.058 3072
-2241.31 356.058 3072
-2233.97 356.058 3072
-2226.62 356.058 3072
-2219.27 356.058 3072
-2228.49 358.724 3095
-2229.7 360.115 3107
-2222.27 360.115 3107
-2218.4 360.695 3112
-2210.96 360.695 3112
-2203.52 360.695 3112
-2196.08 360.695 3112
-2188.64 360.695 3112
-2181.2 360.695 3112
-2173.75 360.695 3112
-2387.73 408.795 3527
-2415.05 414.938 3580
-2416.57 416.677 3595
-2407.97 416.677 3595
-2404.72 417.604 3603
-2396.1 417.604 3603
-2387.48 417.604 3603
-2378.87 417.604 3603
-2360.38 415.865 3588
-2351.8 415.865 3588
-2353.02 417.604 3603
-2344.4 417.604 3603
-2335.79 417.604 3603
-2332.34 418.531 3611
-2323.7 418.531 3611
-2320.2 419.458 3619
-2311.54 419.458 3619
-2307.98 420.385 3627
-2304.38 421.313 3635
-2305.16 423.051 3650
-2296.43 423.051 3650
-2298.36 425.022 3667
-2289.59 425.022 3667
-2280.82 425.022 3667
-2272.05 425.022 3667
-2263.28 425.022 3667
-2254.51 425.022 3667
-2245.75 425.022 3667
-2226.61 423.051 3650
-1913.45 419.458 3619
-1904.8 419.458 3619
-1896.15 419.458 3619
-1887.49 419.458 3619
-1887.14 421.313 3635
-1886.2 423.051 3650
-1877.48 423.051 3650
-1881.55 425.949 3675
-1876.84 426.876 3683
-1901.5 434.526 3749
-1892.54 434.526 3749
-1887.59 435.453 3757
-1891.61 438.467 3783
-1882.56 438.467 3783
-1873.52 438.467 3783
-1864.47 438.467 3783
-1842.67 435.453 3757
-1833.69 435.453 3757
-1792.65 427.803 3691
-1803.64 432.555 3732
-1794.71 432.555 3732
-1856.61 449.709 3880
-1847.33 449.709 3880
-1850.84 452.839 3907
-1841.5 452.839 3907
-1832.16 452.839 3907
-1822.81 452.839 3907
-1813.47 452.839 3907
-1799.97 451.796 3898
-1790.65 451.796 3898
-1773.1 449.709 3880
-1735.64 442.523 3818
-1734.2 444.494 3835
-1753.37 451.796 3898
-1744.04 451.796 3898
-1734.72 451.796 3898
-1725.4 451.796 3898
-1716.08 451.796 3898
-1702.82 450.752 3889
-1721.39 458.17 3953
-1711.94 458.17 3953
-1702.48 458.17 3953
-1693.03 458.17 3953
-1660.15 451.796 3898
-1631.77 446.58 3853
-1607.82 442.523 3818
-1598.69 442.523 3818
-1578.74 439.51 3792
-1576.71 441.48 3809
-1567.6 441.48 3809
-1558.49 441.48 3809
-1549.38 441.48 3809
-1526.12 437.423 3774
-1497.13 439.51 3792
-1488.06 439.51 3792
-1478.99 439.51 3792
-1469.92 439.51 3792
-1460.85 439.51 3792
-1431.88 433.483 3740
-1422.93 433.483 3740
-1401.51 429.658 3707
-1377.62 425.022 3667
-1380.8 428.731 3699
-1378.26 430.701 3716
-1369.37 430.701 3716
-1360.49 430.701 3716
-619.841 212.916 1837
-615.448 212.916 1837
-611.056 212.916 1837
-603.36 211.757 1827
-598.991 211.757 1827
-594.622 211.757 1827
-587.669 210.83 1819
-582.036 210.367 1815
-577.696 210.367 1815
-570.829 209.439 1807
-564.313 208.628 1800
-558.142 207.933 1794
-548.604 205.962 1777
-544.355 205.962 1777
-535.546 204.224 1762
-525.603 202.021 1743
-519.939 201.442 1738
-515.783 201.442 1738
-510.45 200.978 1734
-503.675 199.935 1725
-498.681 199.587 1722
-494.564 199.587 1722
-489.876 199.356 1720
-484.633 198.892 1716
-479.13 198.313 1711
-475.038 198.313 1711
-469.571 197.733 1706
-463.035 196.69 1697
-457.084 195.879 1690
-451.702 195.299 1685
-447.673 195.299 1685
-443.644 195.299 1685
-438.832 194.951 1682
-434.292 194.719 1680
-430.275 194.719 1680
-426.258 194.719 1680
-422.24 194.719 1680
-417.725 194.488 1678
-413.712 194.488 1678
-409.7 194.488 1678
-404.478 193.908 1673
-400.238 193.792 1672
-396.24 193.792 1672
-391.773 193.56 1670
-387.315 193.329 1668
-382.637 192.981 1665
-378.655 192.981 1665
-373.998 192.633 1662
-370.024 192.633 1662
-365.609 192.401 1660
-361.64 192.401 1660
-357.024 192.054 1657
-352.209 191.59 1653
-348.256 191.59 1653
-344.303 191.59 1653
-340.351 191.59 1653
-336.194 191.474 1652
-331.842 191.242 1650
-327.896 191.242 1650
-323.95 191.242 1650
-319.617 191.011 1648
-315.484 190.895 1647
-311.546 190.895 1647
-307.607 190.895 1647
-303.669 190.895 1647
-299.366 190.663 1645
-295.792 190.895 1647
-292.031 191.011 1648
-288.09 191.011 1648
-284.149 191.011 1648
-280.548 191.242 1650
-276.603 191.242 1650
-272.657 191.242 1650
-268.385 191.011 1648
-264.445 191.011 1648
-260.504 191.011 1648
-256.407 190.895 1647
-252.469 190.895 1647
-247.474 190.083 1640
-243.552 190.083 1640
-239.63 190.083 1640
-235.709 190.083 1640
-231.787 190.083 1640
-227.448 189.736 1637
-223.534 189.736 1637
-219.485 189.62 1636
-215.309 189.388 1634
-211.143 189.156 1632
-207.241 189.156 1632
-203.338 189.156 1632
-199.435 189.156 1632
-195.413 189.04 1631
-191.63 189.156 1632
-187.728 189.156 1632
-184.05 189.388 1634
-181.025 190.315 1642
-177.422 190.663 1645
-173.488 190.663 1645
-169.864 191.011 1648
-167.131 192.401 1660
-164.144 193.56 1670
-160.151 193.56 1670
-156.625 194.14 1675
-152.893 194.488 1678
-149.501 195.299 1685
-145.472 195.299 1685
-141.778 195.763 1689
-138.147 196.342 1694
-134.176 196.458 1695
-130.122 196.458 1695
-126.59 197.269 1702
-122.808 197.733 1706
-118.728 197.733 1706
-114.649 197.733 1706
-225.71 453.882 3916
-216.346 453.882 3916
-206.981 453.882 3916
-196.709 451.796 3898
-186.522 449.709 3880
-177.244 449.709 3880
-167.576 448.666 3871
-157.583 446.58 3853
-148.023 445.537 3844
-138.831 445.537 3844
-128.762 442.523 3818
-119.882 443.45 3826
-111.254 445.537 3844
-102.54 447.623 3862
-93.3047 447.623 3862
-84.6573 450.752 3889
-75.8807 453.882 3916
-66.9919 457.127 3944
-57.5606 457.127 3944
-49.2886 468.138 4039
-39.6302 468.138 4039
-29.9717 468.138 4039
311.126 472.774 4079
320.88 472.774 4079
330.634 472.774 4079
335.465 465.936 4020
344.219 464.777 4010
349.662 459.329 3963
360.86 461.532 3982
370.382 461.532 3982
379.905 461.532 3982
389.427 461.532 3982
397.947 460.372 3972
407.445 460.372 3972
410.12 452.839 3907
414.632 447.623 3862
413.331 436.496 3766
422.337 436.496 3766
427.448 432.555 3732
431.578 427.803 3691
432.768 420.385 3627
441.441 420.385 3627
446.143 416.677 3595
448.036 410.534 3542
452.64 407.056 3512
461.038 407.056 3512
469.436 407.056 3512
477.834 407.056 3512
485.263 406.245 3505
500.969 412.272 3557
511.623 414.011 3572
520.165 414.011 3572
528.706 414.011 3572
538.451 414.938 3580
548.235 415.865 3588
556.815 415.865 3588
577.843 425.022 3667
586.612 425.022 3667
595.381 425.022 3667
668.745 463.734 4001
684.755 468.138 4039
699.572 471.615 4069
709.302 471.615 4069
719.032 471.615 4069
726.971 470.456 4059
736.678 470.456 4059
742.706 468.138 4039
750.688 467.095 4030
756.552 464.777 4010
766.141 464.777 4010
775.73 464.777 4010
787.278 465.936 4020
796.891 465.936 4020
806.504 465.936 4020
814.087 464.777 4010
823.676 464.777 4010
833.265 464.777 4010
842.854 464.777 4010
850.53 463.734 4001
851.929 459.329 3963
857.275 457.127 3944
872.86 460.372 3972
882.358 460.372 3972
891.856 460.372 3972
901.355 460.372 3972
906.496 458.17 3953
915.949 458.17 3953
925.401 458.17 3953
937.219 459.329 3963
953.385 462.575 3991
962.928 462.575 3991
972.472 462.575 3991
986.691 464.777 4010
996.28 464.777 4010
1005.87 464.777 4010
1010.65 462.575 3991
1025.05 464.777 4010
1034.64 464.777 4010
1044.23 464.777 4010
1053.81 464.777 4010
1061.02 463.734 4001
1070.58 463.734 4001
1080.15 463.734 4001
1089.72 463.734 4001
1094.07 461.532 3982
1100.82 460.372 3972
1110.32 460.372 3972
1127.99 463.734 4001
1137.56 463.734 4001
1149.71 464.777 4010
1165.08 467.095 4030
1174.71 467.095 4030
1184.35 467.095 4030
1193.99 467.095 4030
1203.62 467.095 4030
1215.97 468.138 4039
1225.63 468.138 4039
1238.35 469.297 4049
1251.11 470.456 4059
1267.03 472.774 4079
1276.78 472.774 4079
1289.69 473.933 4089
1299.47 473.933 4089
1309.25 473.933 4089
1319.03 473.933 4089
1631.92 473.933 4089
1641.7 473.933 4089
1651.48 473.933 4089
1661.26 473.933 4089
1658.78 470.456 4059
1668.48 470.456 4059
1678.19 470.456 4059
1687.89 470.456 4059
1697.6 470.456 4059
1707.31 470.456 4059
1688.25 462.575 3991
1697.79 462.575 3991
1703.49 461.532 3982
1708.71 460.372 3972
1718.2 460.372 3972
1723.79 459.329 3963
1728.89 458.17 3953
1714.16 451.796 3898
1723.48 451.796 3898
1732.8 451.796 3898
1738.1 450.752 3889
1739.31 448.666 3871
1760.76 451.796 3898
1770.09 451.796 3898
1779.41 451.796 3898
1792.86 452.839 3907
1806.35 453.882 3916
1815.72 453.882 3916
1825.08 453.882 3916
1843.35 456.084 3935
1852.76 456.084 3935
1862.17 456.084 3935
1871.58 456.084 3935
1863.3 451.796 3898
1821.7 439.51 3792
1830.76 439.51 3792
1839.83 439.51 3792
1836.22 436.496 3766
1836.9 434.526 3749
1845.86 434.526 3749
1846.42 432.555 3732
1834.96 427.803 3691
1792.33 415.865 3588
1800.91 415.865 3588
1809.49 415.865 3588
1814.02 414.938 3580
1822.58 414.938 3580
1827.05 414.011 3572
1835.59 414.011 3572
1832.26 411.345 3549
1825.7 407.984 3520
1834.12 407.984 3520
1842.54 407.984 3520
1850.96 407.984 3520
1851.45 406.245 3505
1859.83 406.245 3505
1868.21 406.245 3505
1880.34 407.056 3512
1888.74 407.056 3512
1897.14 407.056 3512
1905.54 407.056 3512
1913.94 407.056 3512
1910.29 404.507 3490
1918.64 404.507 3490
1926.98 404.507 3490
1935.33 404.507 3490
2496.05 472.774 4079
2505.8 472.774 4079
2515.56 472.774 4079
2525.31 472.774 4079
531.061 86.117 743
532.838 86.117 743
534.615 86.117 743
536.392 86.117 743
537.444 86.0011 742
539.218 86.0011 742
541.722 86.117 743
543.499 86.117 743
545.275 86.117 743
547.052 86.117 743
548.09 86.0011 742
549.865 86.0011 742
551.639 86.0011 742
553.413 86.0011 742
555.188 86.0011 742
557.713 86.117 743
559.489 86.117 743
561.266 86.117 743
563.801 86.2329 744
565.58 86.2329 744
567.359 86.2329 744
569.138 86.2329 744
-2317.3 366.138 3095
-2309.9 366.138 3095
-2302.5 366.138 3095
-2295.1 366.138 3095
-2287.7 366.138 3095
-2280.3 366.138 3095
-2260.41 364.127 3078
-2245 362.826 3067
-2237.67 362.826 3067
-2230.33 362.826 3067
-2223 362.826 3067
-2219.27 363.417 3072
-2228.49 366.138 3095
-2229.7 367.558 3107
-2222.27 367.558 3107
-2218.4 368.149 3112
-2210.96 368.149 3112
-2203.52 368.149 3112
-2196.08 368.149 3112
-2188.64 368.149 3112
-2181.2 368.149 3112
-2173.75 368.149 3112
-2387.73 417.244 3527
-2415.05 423.514 3580
-2416.57 425.288 3595
-2407.97 425.288 3595
-2404.72 426.235 3603
-2396.1 426.235 3603
-2387.48 426.235 3603
-2378.87 426.235 3603
-2360.38 424.46 3588
-2351.8 424.46 3588
-2353.02 426.235 3603
-2344.4 426.235 3603
-2335.79 426.235 3603
-2332.34 427.181 3611
-2323.7 427.181 3611
-2320.2 428.128 3619
-2311.54 428.128 3619
-2307.98 429.074 3627
-2304.38 430.02 3635
-2305.16 431.795 3650
-2296.43 431.795 3650
-2298.36 433.806 3667
-2289.59 433.806 3667
-2280.82 433.806 3667
-2272.05 433.806 3667
-2263.28 433.806 3667
-2254.51 433.806 3667
-2245.75 433.806 3667
-2226.61 431.795 3650
-1913.45 428.128 3619
-1904.8 428.128 3619
-1896.15 428.128 3619
-1887.49 428.128 3619
-1887.14 430.02 3635
-1886.2 431.795 3650
-1877.48 431.795 3650
-1872.84 432.741 3658
-1876.84 435.699 3683
-1876.14 437.592 3699
-1867.3 437.592 3699
-1883.57 443.507 3749
-1887.11 446.464 3774
-1878.08 446.464 3774
-1869.06 446.464 3774
-1860.04 446.464 3774
-1842.67 444.453 3757
-1833.69 444.453 3757
-1792.65 436.645 3691
-1783.82 436.645 3691
-1775 436.645 3691
-1856.61 459.004 3880
-1847.33 459.004 3880
-1850.84 462.198 3907
-1841.5 462.198 3907
-1832.16 462.198 3907
-1818.61 461.133 3898
-1800.94 459.004 3880
-1775.04 454.745 3844
-1765.84 454.745 3844
-1756.65 454.745 3844
-1723.82 448.593 3792
-1710.68 447.529 3783
-1733.12 455.81 3853
-1723.91 455.81 3853
-1714.7 455.81 3853
-1705.48 455.81 3853
-1700.23 456.874 3862
-1691 456.874 3862
-1701.36 462.198 3907
-1692.01 462.198 3907
-1682.67 462.198 3907
-1669.47 461.133 3898
-1648.65 457.939 3871
-1624.15 453.68 3835
-1600.24 449.54 3800
-1591.15 449.54 3800
-1578.74 448.593 3792
-1576.71 450.605 3809
-1567.6 450.605 3809
-1558.49 450.605 3809
-1549.38 450.605 3809
-1526.12 446.464 3774
-1488.06 448.593 3792
-1478.99 448.593 3792
-1469.92 448.593 3792
-1450.84 445.518 3766
-1431.88 442.442 3740
-1422.93 442.442 3740
-1401.51 438.538 3707
-1377.62 433.806 3667
-1380.8 437.592 3699
-1378.26 439.603 3716
-1369.37 439.603 3716
-1360.49 439.603 3716
-619.841 217.317 1837
-615.448 217.317 1837
-611.056 217.317 1837
-603.36 216.134 1827
-598.991 216.134 1827
-594.622 216.134 1827
-587.669 215.188 1819
-582.036 214.714 1815
-577.696 214.714 1815
-570.829 213.768 1807
-564.313 212.94 1800
-558.142 212.23 1794
-548.604 210.219 1777
-544.355 210.219 1777
-535.546 208.445 1762
-525.603 206.197 1743
-519.939 205.605 1738
-515.783 205.605 1738
-510.45 205.132 1734
-503.675 204.067 1725
-498.681 203.713 1722
-494.564 203.713 1722
-489.876 203.476 1720
-484.633 203.003 1716
-479.13 202.411 1711
-475.038 202.411 1711
-469.571 201.82 1706
-463.035 200.755 1697
-457.084 199.927 1690
-451.702 199.335 1685
-447.673 199.335 1685
-443.644 199.335 1685
-438.832 198.981 1682
-434.292 198.744 1680
-430.275 198.744 1680
-426.258 198.744 1680
-422.24 198.744 1680
-417.725 198.507 1678
-413.712 198.507 1678
-409.7 198.507 1678
-404.478 197.916 1673
-400.238 197.798 1672
-396.24 197.798 1672
-391.773 197.561 1670
-387.315 197.324 1668
-382.637 196.969 1665
-378.655 196.969 1665
-373.998 196.615 1662
-370.024 196.615 1662
-365.609 196.378 1660
-361.64 196.378 1660
-357.024 196.023 1657
-352.209 195.55 1653
-348.256 195.55 1653
-344.303 195.55 1653
-340.351 195.55 1653
-336.194 195.432 1652
-331.842 195.195 1650
-327.896 195.195 1650
-323.95 195.195 1650
-319.617 194.958 1648
-315.484 194.84 1647
-311.546 194.84 1647
-307.607 194.84 1647
-303.669 194.84 1647
-299.366 194.603 1645
-295.792 194.84 1647
-292.031 194.958 1648
-288.09 194.958 1648
-284.149 194.958 1648
-280.548 195.195 1650
-276.603 195.195 1650
-272.657 195.195 1650
-268.385 194.958 1648
-264.445 194.958 1648
-260.504 194.958 1648
-256.407 194.84 1647
-252.469 194.84 1647
-247.474 194.012 1640
-243.552 194.012 1640
-239.63 194.012 1640
-235.709 194.012 1640
-231.787 194.012 1640
-227.448 193.657 1637
-223.534 193.657 1637
-219.485 193.539 1636
-215.309 193.302 1634
-211.143 193.066 1632
-207.241 193.066 1632
-203.338 193.066 1632
-199.435 193.066 1632
-195.413 192.947 1631
-191.513 192.947 1631
-187.613 192.947 1631
-184.05 193.302 1634
-181.025 194.249 1642
-177.422 194.603 1645
-173.488 194.603 1645
-169.864 194.958 1648
-167.131 196.378 1660
-164.144 197.561 1670
-160.151 197.561 1670
-156.438 197.916 1673
-152.802 198.389 1677
-149.324 199.099 1683
-145.299 199.099 1683
-141.611 199.572 1687
-137.74 199.809 1689
-134.176 200.518 1695
-130.122 200.518 1695
-126.367 200.992 1699
-122.52 201.347 1702
-118.45 201.347 1702
-114.38 201.347 1702
-225.71 463.263 3916
-216.346 463.263 3916
-206.981 463.263 3916
-196.709 461.133 3898
-186.522 459.004 3880
-177.244 459.004 3880
-167.576 457.939 3871
-157.583 455.81 3853
-148.023 454.745 3844
-138.831 454.745 3844
-128.762 451.669 3818
-120.446 454.745 3844
-111.254 454.745 3844
-102.54 456.874 3862
-93.3047 456.874 3862
-84.6573 460.069 3889
-75.8807 463.263 3916
-66.9919 466.575 3944
-57.5606 466.575 3944
-49.2886 477.814 4039
-39.6302 477.814 4039
-29.9717 477.814 4039
291.618 482.546 4079
301.372 482.546 4079
311.126 482.546 4079
320.88 482.546 4079
330.634 482.546 4079
335.465 475.566 4020
344.219 474.383 4010
349.662 468.823 3963
360.86 471.07 3982
370.382 471.07 3982
379.905 471.07 3982
389.427 471.07 3982
397.947 469.887 3972
407.445 469.887 3972
410.12 462.198 3907
414.632 456.874 3862
413.331 445.518 3766
422.337 445.518 3766
427.448 441.495 3732
431.578 436.645 3691
432.768 429.074 3627
441.441 429.074 3627
446.143 425.288 3595
448.036 419.018 3542
452.64 415.469 3512
461.038 415.469 3512
469.436 415.469 3512
477.834 415.469 3512
485.263 414.641 3505
500.969 420.793 3557
511.623 422.567 3572
520.165 422.567 3572
528.706 422.567 3572
538.451 423.514 3580
548.235 424.46 3588
556.815 424.46 3588
577.843 433.806 3667
586.612 433.806 3667
595.381 433.806 3667
668.745 473.318 4001
686.451 478.997 4049
699.572 481.363 4069
709.302 481.363 4069
719.032 481.363 4069
728.762 481.363 4069
738.492 481.363 4069
746.384 480.18 4059
752.365 477.814 4039
756.552 474.383 4010
766.141 474.383 4010
775.73 474.383 4010
789.236 476.749 4030
798.873 476.749 4030
808.51 476.749 4030
818.147 476.749 4030
825.73 475.566 4020
833.265 474.383 4010
842.854 474.383 4010
852.443 474.383 4010
856.013 471.07 3982
861.405 468.823 3963
875.057 471.07 3982
884.58 471.07 3982
894.102 471.07 3982
903.624 471.07 3982
908.789 468.823 3963
918.266 468.823 3963
925.401 467.64 3953
937.219 468.823 3963
953.385 472.135 3991
962.928 472.135 3991
972.472 472.135 3991
986.691 474.383 4010
996.28 474.383 4010
1005.87 474.383 4010
1010.65 472.135 3991
1025.05 474.383 4010
1034.64 474.383 4010
1044.23 474.383 4010
1053.81 474.383 4010
1061.02 473.318 4001
1070.58 473.318 4001
1080.15 473.318 4001
1089.72 473.318 4001
1094.07 471.07 3982
1100.82 469.887 3972
1110.32 469.887 3972
1127.99 473.318 4001
1137.56 473.318 4001
1149.71 474.383 4010
1165.08 476.749 4030
1174.71 476.749 4030
1184.35 476.749 4030
1193.99 476.749 4030
1203.62 476.749 4030
1215.97 477.814 4039
1225.63 477.814 4039
1238.35 478.997 4049
1251.11 480.18 4059
1267.03 482.546 4079
1276.78 482.546 4079
1289.69 483.729 4089
1299.47 483.729 4089
1309.25 483.729 4089
1319.03 483.729 4089
1631.92 483.729 4089
1641.7 483.729 4089
1651.48 483.729 4089
1661.26 483.729 4089
1662.86 481.363 4069
1672.59 481.363 4069
1682.32 481.363 4069
1687.89 480.18 4059
1697.6 480.18 4059
1707.31 480.18 4059
1688.25 472.135 3991
1697.79 472.135 3991
1707.34 472.135 3991
1716.88 472.135 3991
1726.42 472.135 3991
1732.05 471.07 3982
1741.57 471.07 3982
1742.74 468.823 3963
1752.22 468.823 3963
1761.7 468.823 3963
1771.17 468.823 3963
1768.07 465.51 3935
1777.48 465.51 3935
1778.26 463.263 3916
1796.3 465.51 3935
1822.69 469.887 3972
1832.18 469.887 3972
1841.68 469.887 3972
1846.99 468.823 3963
1856.46 468.823 3963
1874.89 471.07 3982
1884.41 471.07 3982
1893.93 471.07 3982
1889.59 467.64 3953
1842.35 453.68 3835
1851.52 453.68 3835
1860.7 453.68 3835
1848.9 448.593 3792
1845.23 445.518 3766
1854.23 445.518 3766
1854.83 443.507 3749
1834.96 436.645 3691
1792.33 424.46 3588
1800.91 424.46 3588
1809.49 424.46 3588
1814.02 423.514 3580
1822.58 423.514 3580
1831.14 423.514 3580
1839.7 423.514 3580
1832.26 419.847 3549
1825.7 416.416 3520
1834.12 416.416 3520
1842.54 416.416 3520
1850.96 416.416 3520
1851.45 414.641 3505
1859.83 414.641 3505
1868.21 414.641 3505
1884.63 416.416 3520
1893.04 416.416 3520
1901.46 416.416 3520
1909.88 416.416 3520
1918.3 416.416 3520
1914.12 413.695 3497
1918.64 412.867 3490
1926.98 412.867 3490
1935.33 412.867 3490
2373.58 469.887 3972
2400.48 473.318 4001
2451.01 481.363 4069
2460.74 481.363 4069
2470.47 481.363 4069
2480.2 481.363 4069
2496.05 482.546 4079
2505.8 482.546 4079
2515.56 482.546 4079
2525.31 482.546 4079
2535.07 482.546 4079
2544.82 482.546 4079
2554.57 482.546 4079
531.061 87.8969 743
532.838 87.8969 743
534.615 87.8969 743
536.392 87.8969 743
537.444 87.7786 742
539.218 87.7786 742
541.722 87.8969 743
543.499 87.8969 743
545.275 87.8969 743
547.052 87.8969 743
548.09 87.7786 742
549.865 87.7786 742
551.639 87.7786 742
553.413 87.7786 742
555.188 87.7786 742
557.713 87.8969 743
559.489 87.8969 743
561.266 87.8969 743
563.801 88.0152 744
565.58 88.0152 744
567.359 88.0152 744
569.138 88.0152 744
-2326.29 375.001 3107
-2318.86 375.001 3107
-2306.96 374.277 3101
-2299.55 374.277 3101
-2287.7 373.552 3095
-2280.3 373.552 3095
-2260.41 371.501 3078
-2240.61 369.449 3061
-2237.67 370.173 3067
-2230.33 370.173 3067
-2223 370.173 3067
-2227.94 372.225 3084
-2237.13 375.001 3107
-2233.29 375.604 3112
-2225.85 375.604 3112
-2244.07 379.949 3148
-2249.33 382.122 3166
-2241.76 382.122 3166
-2234.19 382.122 3166
-2226.62 382.122 3166
-2202.22 379.225 3142
-2194.71 379.225 3142
-2429.02 433.055 3588
-2425.17 433.9 3595
-2421.95 434.866 3603
-2413.33 434.866 3603
-2415.39 436.797 3619
-2406.74 436.797 3619
-2398.09 436.797 3619
-2389.43 436.797 3619
-2380.78 436.797 3619
-2361.64 434.866 3603
-2358.24 435.831 3611
-2349.61 435.831 3611
-2340.97 435.831 3611
-2332.34 435.831 3611
-2323.7 435.831 3611
-2320.2 436.797 3619
-2316.65 437.762 3627
-2313.07 438.728 3635
-2308.82 439.573 3642
-2305.16 440.538 3650
-2307.13 442.59 3667
-2313.4 445.487 3691
-2304.57 445.487 3691
-2295.75 445.487 3691
-2286.92 445.487 3691
-2278.1 445.487 3691
-2269.27 445.487 3691
-2255.54 444.521 3683
-2231.49 441.504 3658
-2217.88 440.538 3650
-1913.45 436.797 3619
-1904.8 436.797 3619
-1896.15 436.797 3619
-1887.49 436.797 3619
-1882.99 437.762 3627
-1882.07 439.573 3642
-1873.36 439.573 3642
-1872.84 441.504 3658
-1884.99 446.453 3699
-1888.82 449.47 3724
-1879.92 449.47 3724
-1887.59 453.453 3757
-1909.11 460.815 3818
-1899.98 460.815 3818
-1890.85 460.815 3818
-1881.72 460.815 3818
-1851.01 455.505 3774
-1841.99 455.505 3774
-1816.45 451.401 3740
-1823.94 455.505 3774
-1814.91 455.505 3774
-1873.83 472.643 3916
-1864.47 472.643 3916
-1877.37 478.316 3963
-1867.89 478.316 3963
-1858.42 478.316 3963
-1835.88 474.937 3935
-1826.47 474.937 3935
-1817.06 474.937 3935
-1807.65 474.937 3935
-1768.99 467.212 3871
-1739.28 461.781 3826
-1703 454.539 3766
-1701.64 456.591 3783
-1696.62 457.677 3792
-1687.55 457.677 3792
-1678.48 457.677 3792
-1672.94 458.643 3800
-1679.17 462.867 3835
-1685.68 467.212 3871
-1680.32 468.298 3880
-1671.04 468.298 3880
-1661.76 468.298 3880
-1648.65 467.212 3871
-1613.14 459.729 3809
-1600.24 458.643 3800
-1591.15 458.643 3800
-1578.74 457.677 3792
-1565.94 456.591 3783
-1556.9 456.591 3783
-1547.85 456.591 3783
-1538.8 456.591 3783
-1526.12 455.505 3774
-1490.16 447.418 3707
-1481.3 447.418 3707
-1472.43 447.418 3707
-1467.12 448.504 3716
-1471.18 452.487 3749
-1462.22 452.487 3749
-1453.25 452.487 3749
-1444.29 452.487 3749
-1431.88 451.401 3740
-1422.93 451.401 3740
-1407.94 449.47 3724
-1392.65 447.418 3707
-1383.79 447.418 3707
-1384.19 450.435 3732
-1375.27 450.435 3732
-1366.35 450.435 3732
-619.841 221.718 1837
-615.448 221.718 1837
-611.056 221.718 1837
-603.36 220.511 1827
-598.991 220.511 1827
-594.622 220.511 1827
-587.669 219.545 1819
-582.036 219.062 1815
-577.696 219.062 1815
-570.829 218.097 1807
-564.313 217.252 1800
-558.142 216.528 1794
-549.53 214.838 1780
-545.274 214.838 1780
-536.458 213.027 1765
-528.016 211.338 1751
-521.435 210.372 1743
-517.267 210.372 1743
-511.038 209.527 1736
-505.427 208.924 1731
-499.55 208.2 1725
-495.425 208.2 1725
-490.446 207.838 1722
-485.763 207.596 1720
-480.25 206.993 1715
-476.149 206.993 1715
-470.121 206.148 1708
-464.4 205.424 1702
-458.436 204.579 1695
-453.579 204.217 1692
-449.533 204.217 1692
-444.17 203.613 1687
-439.614 203.372 1685
-435.585 203.372 1685
-431.556 203.372 1685
-427.019 203.13 1683
-422.994 203.13 1683
-418.721 203.01 1682
-414.699 203.01 1682
-410.188 202.768 1680
-405.687 202.527 1678
-400.956 202.165 1675
-396.951 202.165 1675
-392.476 201.924 1673
-387.779 201.561 1670
-383.096 201.199 1667
-379.11 201.199 1667
-374.223 200.717 1663
-370.024 200.596 1662
-366.05 200.596 1662
-362.075 200.596 1662
-357.239 200.113 1658
-352.209 199.51 1653
-348.256 199.51 1653
-344.303 199.51 1653
-340.351 199.51 1653
-336.194 199.389 1652
-332.244 199.389 1652
-327.896 199.148 1650
-323.95 199.148 1650
-320.005 199.148 1650
-315.676 198.906 1648
-311.735 198.906 1648
-307.794 198.906 1648
-303.669 198.785 1647
-299.366 198.544 1645
-295.792 198.785 1647
-292.031 198.906 1648
-288.09 198.906 1648
-284.149 198.906 1648
-280.548 199.148 1650
-276.603 199.148 1650
-272.657 199.148 1650
-268.385 198.906 1648
-264.284 198.785 1647
-260.346 198.785 1647
-256.407 198.785 1647
-252.009 198.423 1644
-247.474 197.941 1640
-243.552 197.941 1640
-239.63 197.941 1640
-235.709 197.941 1640
-231.363 197.578 1637
-227.31 197.458 1636
-223.397 197.458 1636
-219.485 197.458 1636
-215.046 196.975 1632
-211.143 196.975 1632
-207.241 196.975 1632
-203.214 196.854 1631
-199.313 196.854 1631
-195.413 196.854 1631
-191.513 196.854 1631
-187.613 196.854 1631
-184.05 197.216 1634
-180.694 197.82 1639
-177.422 198.544 1645
-173.488 198.544 1645
-169.864 198.906 1648
-167.131 200.354 1660
-164.144 201.561 1670
-160.151 201.561 1670
-156.438 201.924 1673
-152.802 202.406 1677
-149.058 202.768 1680
-145.04 202.768 1680
-141.443 203.372 1685
-137.74 203.855 1689
-134.096 204.458 1694
-130.046 204.458 1694
-126.218 204.82 1697
-122.304 205.062 1699
-118.241 205.062 1699
-114.178 205.062 1699
-225.71 472.643 3916
-216.346 472.643 3916
-206.981 472.643 3916
-196.709 470.471 3898
-185.657 466.126 3862
-176.422 466.126 3862
-167.186 466.126 3862
-157.215 463.953 3844
-148.023 463.953 3844
-138.831 463.953 3844
-128.762 460.815 3818
-120.446 463.953 3844
-111.254 463.953 3844
-102.301 465.04 3853
-93.0873 465.04 3853
-84.6573 469.385 3889
-75.7063 471.557 3907
-66.8391 474.937 3935
-57.4293 474.937 3935
-49.2886 487.489 4039
-39.6302 487.489 4039
-29.9717 487.489 4039
291.618 492.317 4079
301.372 492.317 4079
311.126 492.317 4079
320.093 491.11 4069
329.824 491.11 4069
335.465 485.196 4020
340.957 479.402 3972
349.662 478.316 3963
360.86 480.609 3982
370.382 480.609 3982
379.905 480.609 3982
389.427 480.609 3982
397.947 479.402 3972
407.445 479.402 3972
410.12 471.557 3907
414.632 466.126 3862
413.331 454.539 3766
422.337 454.539 3766
427.448 450.435 3732
431.578 445.487 3691
432.768 437.762 3627
441.441 437.762 3627
446.143 433.9 3595
448.036 427.503 3542
452.64 423.882 3512
461.038 423.882 3512
469.436 423.882 3512
477.834 423.882 3512
485.263 423.038 3505
500.969 429.314 3557
511.623 431.124 3572
520.165 431.124 3572
528.706 431.124 3572
538.451 432.09 3580
548.235 433.055 3588
556.815 433.055 3588
577.843 442.59 3667
586.612 442.59 3667
595.381 442.59 3667
668.745 482.903 4001
686.451 488.696 4049
699.572 491.11 4069
709.302 491.11 4069
719.032 491.11 4069
728.762 491.11 4069
738.492 491.11 4069
746.384 489.903 4059
752.365 487.489 4039
756.552 483.989 4010
766.141 483.989 4010
775.73 483.989 4010
789.236 486.403 4030
798.873 486.403 4030
808.51 486.403 4030
818.147 486.403 4030
825.73 485.196 4020
833.265 483.989 4010
842.854 483.989 4010
852.443 483.989 4010
856.013 480.609 3982
861.405 478.316 3963
875.057 480.609 3982
884.58 480.609 3982
894.102 480.609 3982
903.624 480.609 3982
908.789 478.316 3963
918.266 478.316 3963
923.294 476.023 3944
934.854 477.109 3953
946.696 478.316 3963
956.173 478.316 3963
965.649 478.316 3963
975.126 478.316 3963
984.603 478.316 3963
994.08 478.316 3963
1001.02 477.109 3953
1010.48 477.109 3953
1019.93 477.109 3953
1029.38 477.109 3953
1038.84 477.109 3953
1045.9 476.023 3944
1055.33 476.023 3944
1062.33 474.937 3935
1071.74 474.937 3935
1078.41 473.73 3925
1085.3 472.643 3916
1102.49 476.023 3944
1117.28 478.316 3963
1126.75 478.316 3963
1144.26 481.696 3991
1156.69 482.903 4001
1166.26 482.903 4001
1175.83 482.903 4001
1188.06 483.989 4010
1203.62 486.403 4030
1215.97 487.489 4039
1225.63 487.489 4039
1238.35 488.696 4049
1251.11 489.903 4059
1267.03 492.317 4079
1276.78 492.317 4079
1289.69 493.524 4089
1299.47 493.524 4089
1309.25 493.524 4089
1631.92 493.524 4089
1641.7 493.524 4089
1651.48 493.524 4089
1657.2 492.317 4079
1662.86 491.11 4069
1672.59 491.11 4069
1682.32 491.11 4069
1683.74 488.696 4049
1693.42 488.696 4049
1703.1 488.696 4049
1680.21 479.402 3972
1689.71 479.402 3972
1707.34 481.696 3991
1716.88 481.696 3991
1726.42 481.696 3991
1732.05 480.609 3982
1741.57 480.609 3982
1742.74 478.316 3963
1752.22 478.316 3963
1761.7 478.316 3963
1771.17 478.316 3963
1768.07 474.937 3935
1777.48 474.937 3935
1778.26 472.643 3916
1796.3 474.937 3935
1822.69 479.402 3972
1832.18 479.402 3972
1841.68 479.402 3972
1846.99 478.316 3963
1856.46 478.316 3963
1874.89 480.609 3982
1884.41 480.609 3982
1893.93 480.609 3982
1889.59 477.109 3953
1842.35 462.867 3835
1851.52 462.867 3835
1860.7 462.867 3835
1848.9 457.677 3792
1845.23 454.539 3766
1854.23 454.539 3766
1854.83 452.487 3749
1834.96 445.487 3691
1807.82 436.797 3619
1804.43 433.9 3595
1813.02 433.9 3595
1818.07 433.055 3588
1822.58 432.09 3580
1831.14 432.09 3580
1839.7 432.09 3580
1836.39 429.314 3557
1829.34 425.693 3527
1837.77 425.693 3527
1846.2 425.693 3527
1850.96 424.848 3520
1851.45 423.038 3505
1859.83 423.038 3505
1871.94 423.882 3512
1888.37 425.693 3527
1896.81 425.693 3527
1909.02 426.538 3534
1917.47 426.538 3534
1925.93 426.538 3534
1934.38 426.538 3534
1922.49 422.072 3497
1926.98 421.227 3490
1935.33 421.227 3490
2379.56 480.609 3982
2400.48 482.903 4001
2451.01 491.11 4069
2460.74 491.11 4069
2470.47 491.11 4069
2480.2 491.11 4069
2496.05 492.317 4079
2505.8 492.317 4079
2515.56 492.317 4079
2525.31 492.317 4079
2535.07 492.317 4079
2544.82 492.317 4079
2554.57 492.317 4079
2545.47 488.696 4049
2555.15 488.696 4049
2564.83 488.696 4049
2574.52 488.696 4049
2572.07 486.403 4030
2581.71 486.403 4030
2591.35 486.403 4030
2563.55 479.402 3972
526.088 89.4353 741
527.86 89.4353 741
531.061 89.6767 743
532.838 89.6767 743
534.615 89.6767 743
536.392 89.6767 743
537.444 89.556 742
539.218 89.556 742
541.722 89.6767 743
543.499 89.6767 743
545.275 89.6767 743
547.052 89.6767 743
548.09 89.556 742
549.865 89.556 742
551.639 89.556 742
553.413 89.556 742
555.188 89.556 742
556.962 89.556 742
558.736 89.556 742
561.266 89.6767 743
563.043 89.6767 743
565.58 89.7974 744
567.359 89.7974 744
569.138 89.7974 744
-2330.03 383.059 3112
-2322.59 383.059 3112
-2311.43 382.444 3107
-2304 382.444 3107
-2296.57 382.444 3107
-2289.14 382.444 3107
-2272.9 380.967 3095
-2253.05 378.874 3078
-2237.67 377.52 3067
-2242.69 379.613 3084
-2235.32 379.613 3084
-2244.56 382.444 3107
-2253.69 385.275 3130
-2259.12 387.49 3148
-2251.6 387.49 3148
-2244.07 387.49 3148
-2249.33 389.706 3166
-2241.76 389.706 3166
-2234.19 389.706 3166
-2226.62 389.706 3166
-2202.22 386.752 3142
-2194.71 386.752 3142
-2450.96 442.512 3595
-2442.36 442.512 3595
-2433.76 442.512 3595
-2425.17 442.512 3595
-2421.95 443.497 3603
-2413.33 443.497 3603
-2415.39 445.466 3619
-2406.74 445.466 3619
-2398.09 445.466 3619
-2389.43 445.466 3619
-2380.78 445.466 3619
-2361.64 443.497 3603
-2358.24 444.482 3611
-2349.61 444.482 3611
-2340.97 444.482 3611
-2332.34 444.482 3611
-2323.7 444.482 3611
-2320.2 445.466 3619
-2316.65 446.451 3627
-2313.07 447.436 3635
-2308.82 448.297 3642
-2300.11 448.297 3642
-2317.19 453.344 3683
-2313.4 454.329 3691
-2309.57 455.314 3699
-2300.72 455.314 3699
-2291.88 455.314 3699
-2283.03 455.314 3699
-2274.19 455.314 3699
-2255.54 453.344 3683
-2236.98 451.375 3667
-2222.74 450.267 3658
-2213.99 450.267 3658
-2205.24 450.267 3658
-1913.45 445.466 3619
-1904.8 445.466 3619
-1896.15 445.466 3619
-1887.49 445.466 3619
-1882.99 446.451 3627
-1874.32 446.451 3627
-1865.64 446.451 3627
-1877.45 451.375 3667
-1897.73 458.391 3724
-1910.13 463.561 3766
-1901.12 463.561 3766
-1892.11 463.561 3766
-1940.11 477.593 3880
-1935.31 478.701 3889
-1926.01 478.701 3889
-1916.71 478.701 3889
-1894.17 475.377 3862
-1884.94 475.377 3862
-1841.7 466.761 3792
-1853.42 472.054 3835
-1883.2 482.024 3916
-1896.32 487.81 3963
-1886.85 487.81 3963
-1886.37 490.148 3982
-1876.85 490.148 3982
-1867.33 490.148 3982
-1857.81 490.148 3982
-1839.46 487.81 3963
-1825.37 486.579 3953
-1815.92 486.579 3953
-1806.46 486.579 3953
-1747.46 473.162 3844
-1730.13 470.946 3826
-1720.98 470.946 3826
-1684.98 463.561 3766
-1675.98 463.561 3766
-1670.51 464.545 3774
-1661.49 464.545 3774
-1679.17 472.054 3835
-1670 472.054 3835
-1672.53 475.377 3862
-1663.29 475.377 3862
-1654.06 475.377 3862
-1633.32 472.054 3835
-1613.14 468.854 3809
-1589.29 464.545 3774
-1580.27 464.545 3774
-1564.16 462.453 3757
-1555.18 462.453 3757
-1546.2 462.453 3757
-1537.21 462.453 3757
-1521.31 460.36 3740
-1509.13 459.376 3732
-1493.78 457.406 3716
-1491.29 459.376 3732
-1482.36 459.376 3732
-1480.15 461.468 3749
-1471.18 461.468 3749
-1465.34 462.453 3757
-1456.36 462.453 3757
-1447.37 462.453 3757
-1438.39 462.453 3757
-1429.4 462.453 3757
-1417.39 461.468 3749
-1399.04 458.391 3724
-1393.12 459.376 3732
-1403.11 465.653 3783
-1394.06 465.653 3783
-1385.02 465.653 3783
-619.841 226.118 1837
-615.448 226.118 1837
-611.056 226.118 1837
-603.36 224.887 1827
-598.991 224.887 1827
-593.972 224.641 1825
-587.669 223.902 1819
-580.754 222.918 1811
-576.423 222.918 1811
-569.881 222.056 1804
-563.686 221.318 1798
-557.52 220.579 1792
-550.765 219.594 1784
-546.499 219.594 1784
-538.282 217.994 1771
-531.333 216.886 1762
-523.828 215.532 1751
-519.641 215.532 1751
-513.099 214.548 1743
-506.887 213.686 1736
-501.288 213.07 1731
-497.148 213.07 1731
-493.009 213.07 1731
-488.305 212.824 1729
-481.65 211.716 1720
-477.537 211.716 1720
-472.048 211.101 1715
-466.037 210.239 1708
-460.059 209.378 1701
-454.383 208.639 1695
-450.33 208.639 1695
-446.013 208.516 1694
-441.441 208.27 1692
-436.619 207.901 1689
-432.58 207.901 1689
-428.034 207.654 1687
-424 207.654 1687
-419.468 207.408 1685
-415.438 207.408 1685
-410.921 207.162 1683
-406.171 206.793 1680
-401.435 206.424 1677
-397.425 206.424 1677
-392.476 205.931 1673
-388.476 205.931 1673
-383.096 205.193 1667
-379.11 205.193 1667
-375.124 205.193 1667
-370.247 204.7 1663
-366.05 204.577 1662
-362.075 204.577 1662
-357.239 204.085 1658
-352.209 203.469 1653
-348.256 203.469 1653
-344.303 203.469 1653
-340.351 203.469 1653
-336.194 203.346 1652
-332.244 203.346 1652
-328.293 203.346 1652
-324.343 203.346 1652
-320.005 203.1 1650
-315.676 202.854 1648
-311.735 202.854 1648
-307.794 202.854 1648
-303.669 202.731 1647
-299.73 202.731 1647
-295.792 202.731 1647
-291.853 202.731 1647
-287.915 202.731 1647
-283.977 202.731 1647
-280.038 202.731 1647
-276.1 202.731 1647
-272.161 202.731 1647
-267.897 202.485 1645
-263.803 202.362 1644
-259.871 202.362 1644
-255.94 202.362 1644
-251.702 202.115 1642
-247.323 201.746 1639
-243.404 201.746 1639
-239.192 201.5 1637
-235.278 201.5 1637
-231.363 201.5 1637
-227.31 201.377 1636
-223.397 201.377 1636
-218.949 200.884 1632
-215.046 200.884 1632
-211.014 200.761 1631
-207.114 200.761 1631
-202.964 200.515 1629
-199.069 200.515 1629
-195.173 200.515 1629
-191.513 200.761 1631
-187.613 200.761 1631
-184.05 201.131 1634
-180.804 201.869 1640
-177.638 202.731 1647
-173.699 202.731 1647
-170.07 203.1 1650
-167.332 204.577 1662
-164.144 205.562 1670
-160.151 205.562 1670
-156.625 206.177 1675
-153.075 206.793 1680
-149.235 207.039 1682
-145.213 207.039 1682
-141.443 207.408 1685
-137.74 207.901 1689
-134.096 208.516 1694
-130.046 208.516 1694
-126.218 208.885 1697
-122.16 208.885 1697
-118.102 208.885 1697
-114.044 208.885 1697
-234.534 480.916 3907
-225.191 480.916 3907
-215.849 480.916 3907
-206.506 480.916 3907
-197.163 480.916 3907
-184.792 473.162 3844
-176.422 475.377 3862
-167.186 475.377 3862
-157.951 475.377 3862
-148.716 475.377 3862
-139.481 475.377 3862
-129.639 473.162 3844
-121.01 475.377 3862
-112.296 477.593 3880
-103.257 478.701 3889
-93.957 478.701 3889
-85.0491 480.916 3907
-76.2488 484.363 3935
-67.9601 492.487 4001
-58.3925 492.487 4001
-49.7768 502.088 4079
-40.0226 502.088 4079
-30.2685 502.088 4079
291.618 502.088 4079
301.372 502.088 4079
311.126 502.088 4079
316.239 494.826 4020
325.852 494.826 4020
332.294 490.148 3982
337.781 484.363 3935
348.779 486.579 3953
359.954 488.917 3972
369.452 488.917 3972
378.951 488.917 3972
388.449 488.917 3972
397.045 487.81 3963
406.522 487.81 3963
410.12 480.916 3907
414.632 475.377 3862
411.465 461.468 3749
420.43 461.468 3749
425.615 457.406 3716
430.643 453.344 3683
431.814 445.466 3619
440.468 445.466 3619
445.275 441.65 3588
448.036 435.988 3542
454.573 434.142 3527
461.038 432.296 3512
469.436 432.296 3512
477.834 432.296 3512
486.233 432.296 3512
498.856 435.988 3542
510.62 438.819 3565
519.145 438.819 3565
