ply
format ascii 1.0
comment File generated
element vertex 2237
property float x
property float y
property float z
end_header
-2387.72 3.2109 3490
-2384.14 3.21734 3497
-2385.97 3.23114 3512
-2377.57 3.23114 3512
-2379.29 3.24494 3527
-2375.56 3.25138 3534
-2382.52 3.27254 3557
-2374.01 3.27254 3557
-2370.83 3.2799 3565
-2366.94 3.28634 3572
-2363.68 3.2937 3580
-2355.12 3.2937 3580
-2346.56 3.2937 3580
-2343.22 3.30106 3588
-2334.64 3.30106 3588
-2326.06 3.30106 3588
-2322.01 3.3075 3595
-2313.41 3.3075 3595
-2304.81 3.3075 3595
-2296.21 3.3075 3595
-2287.62 3.3075 3595
-2279.02 3.3075 3595
-2280.53 3.32222 3611
-2271.89 3.32222 3611
-2263.26 3.32222 3611
-2254.62 3.32222 3611
-2245.99 3.32222 3611
-2237.35 3.32222 3611
-2228.72 3.32222 3611
-2220.08 3.32222 3611
-2211.45 3.32222 3611
-2197.93 3.31486 3603
-2189.32 3.31486 3603
-2175.86 3.3075 3595
-2167.26 3.3075 3595
-2154.46 3.30106 3588
-2154.85 3.31486 3603
-2151 3.32222 3611
-2142.37 3.32222 3611
-2133.73 3.32222 3611
-2134.52 3.33694 3627
-2130.53 3.3443 3635
-2121.84 3.3443 3635
-2113.15 3.3443 3635
-2099.82 3.33694 3627
-2091.15 3.33694 3627
-2082.48 3.33694 3627
-2064.65 3.32222 3611
-2046.91 3.3075 3595
-2012.23 3.26518 3549
-2003.74 3.26518 3549
-1986.82 3.25138 3534
-1966.06 3.23114 3512
-1941.49 3.20446 3483
-1933.17 3.20446 3483
-1885.6 3.13914 3412
-1843.33 3.08209 3350
-1831.48 3.07565 3343
-1816.39 3.06369 3330
-1808.43 3.06369 3330
-1789.65 3.04529 3310
-1770.97 3.02689 3290
-1749.71 3.00389 3265
-1741.9 3.00389 3265
-1730.38 2.99745 3258
-1716.24 2.98641 3246
-1701.64 2.97445 3233
-1693.9 2.97445 3233
-1686.17 2.97445 3233
-1672.21 2.96341 3221
-1664.51 2.96341 3221
-1656.81 2.96341 3221
-1645.52 2.95697 3214
-1641.4 2.96341 3221
-1633.7 2.96341 3221
-1629.03 2.96893 3227
-1621.31 2.96893 3227
-1616.59 2.97445 3233
-1611.85 2.97997 3239
-1607.57 2.98641 3246
-1599.81 2.98641 3246
-1592.05 2.98641 3246
-1587.21 2.99193 3252
-1579.44 2.99193 3252
-1571.66 2.99193 3252
-1570.13 3.00389 3265
-1565.2 3.00941 3271
-1557.38 3.00941 3271
-1549.55 3.00941 3271
-1547.86 3.02137 3284
-1548.92 3.03885 3303
-1541.02 3.03885 3303
-1533.12 3.03885 3303
-1525.22 3.03885 3303
-1529.72 3.06369 3330
-1524.96 3.07013 3337
-1516.98 3.07013 3337
-1509 3.07013 3337
-1503.72 3.07565 3343
-1501.99 3.08853 3357
-1493.96 3.08853 3357
-1485.93 3.08853 3357
-1477.91 3.08853 3357
-1469.88 3.08853 3357
-1461.85 3.08853 3357
-1453.82 3.08853 3357
-1442.78 3.08209 3350
-1434.77 3.08209 3350
-1426.76 3.08209 3350
-1410.28 3.06369 3330
-1405.26 3.07013 3337
-1397.28 3.07013 3337
-1389.3 3.07013 3337
-1381.32 3.07013 3337
-1370.46 3.06369 3330
-1362.5 3.06369 3330
-1354.54 3.06369 3330
-1346.58 3.06369 3330
-1338.61 3.06369 3330
-1330.65 3.06369 3330
-1322.69 3.06369 3330
-1314.72 3.06369 3330
-1304.01 3.05725 3323
-1293.73 3.05173 3317
-1285.79 3.05173 3317
-1272.47 3.03885 3303
-1259.59 3.02689 3290
-1249.44 3.02137 3284
-1241.59 3.02137 3284
-1233.74 3.02137 3284
-1221.03 3.00941 3271
-1208.39 2.99745 3258
-1200.6 2.99745 3258
-1190.61 2.99193 3252
-1180.65 2.98641 3246
-1170.36 2.97997 3239
-1162.61 2.97997 3239
-1154.87 2.97997 3239
-1147.12 2.97997 3239
-1139.38 2.97997 3239
-1131.63 2.97997 3239
-1115.21 2.95697 3214
-1105.46 2.95145 3208
-1095.73 2.94593 3202
-1088.08 2.94593 3202
-1080.42 2.94593 3202
-1072.76 2.94593 3202
-1065.11 2.94593 3202
-1057.45 2.94593 3202
-1049.79 2.94593 3202
-1040.18 2.94041 3196
-548.254 1.56129 1697
-544.837 1.56313 1699
-540.775 1.56313 1699
-536.712 1.56313 1699
-532.649 1.56313 1699
-529.208 1.56497 1701
-525.45 1.56589 1702
-521.38 1.56589 1702
-517.31 1.56589 1702
-512.938 1.56497 1701
-508.272 1.56313 1699
-504.209 1.56313 1699
-498.969 1.55945 1695
-494.916 1.55945 1695
-490.862 1.55945 1695
-484.512 1.55209 1687
-480.477 1.55209 1687
-475.031 1.54749 1682
-469.609 1.54289 1677
-464.21 1.53829 1672
-460.212 1.53829 1672
-455.668 1.53645 1670
-450.322 1.53185 1665
-445.537 1.52909 1662
-441.562 1.52909 1662
-437.061 1.52725 1660
-431.266 1.52081 1653
-427.054 1.51989 1652
-423.104 1.51989 1652
-416.616 1.51069 1642
-412.187 1.50885 1640
-407.518 1.50609 1637
-403.604 1.50609 1637
-399.445 1.50517 1636
-395.049 1.50333 1634
-390.424 1.50057 1631
-385.813 1.49781 1628
-381.92 1.49781 1628
-377.098 1.49413 1624
-372.295 1.49045 1620
-367.284 1.48585 1615
-363.422 1.48585 1615
-359.115 1.48401 1613
-354.597 1.48125 1610
-350.747 1.48125 1610
-346.897 1.48125 1610
-342.195 1.47757 1606
-338.354 1.47757 1606
-333.889 1.4748 1603
-330.056 1.4748 1603
-325.815 1.47296 1601
-321.585 1.47112 1599
-316.966 1.46744 1595
-313.152 1.46744 1595
-309.338 1.46744 1595
-304.949 1.46468 1592
-300.575 1.46192 1589
-296.775 1.46192 1589
-292.606 1.46008 1587
-288.629 1.45916 1586
-284.837 1.45916 1586
-281.044 1.45916 1586
-277.251 1.45916 1586
-273.459 1.45916 1586
-269.666 1.45916 1586
-265.874 1.45916 1586
-262.081 1.45916 1586
-258.288 1.45916 1586
-254.496 1.45916 1586
-250.703 1.45916 1586
-246.911 1.45916 1586
-243.118 1.45916 1586
-239.325 1.45916 1586
-235.533 1.45916 1586
-231.74 1.45916 1586
-227.948 1.45916 1586
-223.872 1.45732 1584
-220.085 1.45732 1584
-216.57 1.45916 1586
-212.777 1.45916 1586
-209.512 1.46284 1590
-206.486 1.46836 1596
-203.304 1.47296 1601
-199.476 1.47296 1601
-196.258 1.47757 1606
-193.256 1.48401 1613
-190.221 1.49045 1620
-186.347 1.49045 1620
-183.149 1.49597 1626
-181.025 1.51069 1642
-178.824 1.52541 1658
-174.859 1.52541 1658
-172.956 1.54381 1678
-169.85 1.55209 1687
-166.602 1.55945 1695
-162.548 1.55945 1695
-159.337 1.56773 1704
-155.444 1.56957 1706
-151.542 1.57141 1708
-147.458 1.57141 1708
-143.625 1.57417 1711
-139.86 1.57785 1715
-135.996 1.58061 1718
-131.888 1.58061 1718
-127.78 1.58061 1718
-123.815 1.58245 1720
-119.911 1.58521 1723
-115.791 1.58521 1723
-112.513 1.59717 1736
-108.487 1.59901 1738
-104.331 1.59901 1738
-100.175 1.59901 1738
-174.412 3.51267 3818
-165.282 3.51267 3818
-156.152 3.51267 3818
-146.675 3.50439 3809
-137.567 3.50439 3809
-127.885 3.48875 3792
-117.72 3.45655 3757
-108.244 3.4409 3740
-99.3007 3.4409 3740
-90.164 3.43354 3732
-80.8913 3.41882 3716
-71.5208 3.39582 3691
-62.6945 3.39582 3691
-53.6347 3.3811 3675
-44.7491 3.37374 3667
-35.9801 3.37374 3667
-27.2112 3.37374 3667
-18.4423 3.37374 3667
-9.67342 3.37374 3667
-0.904508 3.37374 3667
7.8451 3.36546 3658
16.6696 3.3811 3675
25.4576 3.3811 3675
34.2457 3.3811 3675
43.0337 3.3811 3675
51.8218 3.3811 3675
60.4779 3.37374 3667
69.2468 3.37374 3667
78.3561 3.38846 3683
87.1632 3.38846 3683
95.9704 3.38846 3683
104.778 3.38846 3683
112.814 3.36546 3658
121.561 3.36546 3658
130.309 3.36546 3658
139.056 3.36546 3658
148.167 3.37374 3667
157.278 3.3811 3675
166.066 3.3811 3675
174.854 3.3811 3675
183.642 3.3811 3675
192.43 3.3811 3675
201.656 3.38846 3683
210.464 3.38846 3683
219.271 3.38846 3683
228.573 3.39582 3691
237.914 3.40318 3699
246.76 3.40318 3699
256.158 3.41054 3707
265.666 3.41882 3716
275.143 3.42618 3724
284.048 3.42618 3724
294.212 3.4409 3740
304.534 3.45655 3757
314.269 3.46483 3766
323.274 3.46483 3766
332.28 3.46483 3766
341.286 3.46483 3766
350.291 3.46483 3766
359.297 3.46483 3766
367.422 3.45655 3757
375.605 3.44919 3749
384.57 3.44919 3749
390.071 3.41882 3716
398.957 3.41882 3716
405.977 3.40318 3699
414.823 3.40318 3699
421.836 3.38846 3683
425.03 3.3443 3635
432.768 3.33694 3627
439.494 3.32222 3611
448.129 3.32222 3611
455.752 3.31486 3603
462.435 3.30106 3588
469.965 3.2937 3580
478.525 3.2937 3580
483.957 3.27254 3557
491.355 3.26518 3549
495.758 3.2385 3520
504.175 3.2385 3520
509.243 3.21734 3497
516.569 3.2109 3490
521.606 3.19066 3468
529.899 3.19066 3468
537.106 3.18422 3461
544.279 3.17778 3454
551.419 3.17134 3447
559.662 3.17134 3447
569.058 3.17778 3454
577.317 3.17778 3454
587.95 3.19066 3468
596.243 3.19066 3468
607.151 3.20446 3483
615.48 3.20446 3483
630.436 3.2385 3520
640.124 3.24494 3527
651.316 3.25874 3542
659.786 3.25874 3542
672.595 3.2799 3565
685.515 3.30106 3588
700.092 3.32958 3619
708.746 3.32958 3619
717.4 3.32958 3619
726.054 3.32958 3619
734.708 3.32958 3619
743.362 3.32958 3619
752.016 3.32958 3619
762.352 3.33694 3627
772.726 3.3443 3635
781.418 3.3443 3635
790.111 3.3443 3635
798.803 3.3443 3635
807.495 3.3443 3635
816.188 3.3443 3635
1352.79 3.44919 3749
1361.75 3.44919 3749
1370.72 3.44919 3749
1379.68 3.44919 3749
1397.91 3.47219 3774
1406.93 3.47219 3774
1415.96 3.47219 3774
1421.96 3.46483 3766
1430.97 3.46483 3766
1439.97 3.46483 3766
1442.44 3.44919 3749
1438.63 3.41882 3716
1444.01 3.41054 3707
1452.87 3.41054 3707
1461.74 3.41054 3707
1470.6 3.41054 3707
1473.08 3.39582 3691
1481.91 3.39582 3691
1481.04 3.37374 3667
1479.65 3.35074 3642
1478.96 3.32958 3619
1477.75 3.3075 3595
1486.35 3.3075 3595
1485.38 3.28634 3572
1484.3 3.26518 3549
1486.48 3.25138 3534
1494.93 3.25138 3534
1503.38 3.25138 3534
1502.42 3.23114 3512
1491.89 3.19066 3468
1500.18 3.19066 3468
1505.43 3.18422 3461
1513.71 3.18422 3461
1525.06 3.19066 3468
1536.89 3.19802 3476
1545.21 3.19802 3476
1553.52 3.19802 3476
1558.24 3.19066 3468
1566.53 3.19066 3468
1574.82 3.19066 3468
1573.53 3.17134 3447
1581.77 3.17134 3447
1596.47 3.18422 3461
1611.7 3.19802 3476
1620.02 3.19802 3476
1631.61 3.20446 3483
1639.94 3.20446 3483
1648.26 3.20446 3483
1653.26 3.19802 3476
1651.06 3.17778 3454
1669.89 3.19802 3476
1692.2 3.2247 3505
1700.58 3.2247 3505
1708.96 3.2247 3505
1717.35 3.2247 3505
2446.22 3.66355 3982
2455.74 3.66355 3982
2488.79 3.69851 4020
2498.4 3.69851 4020
2508.01 3.69851 4020
2517.62 3.69851 4020
2509.01 3.67183 3991
2500.88 3.64607 3963
2510.36 3.64607 3963
2495.67 3.61111 3925
2499.31 3.60283 3916
2479.85 3.56143 3871
2489.11 3.56143 3871
2498.36 3.56143 3871
1839.29 2.52824 2748
1845.86 2.52824 2748
1852.43 2.52824 2748
1852.91 2.51996 2739
1875.08 2.54112 2762
1885.09 2.54572 2767
1891.7 2.54572 2767
1904.5 2.554 2776
1913.89 2.55768 2780
1927.44 2.56688 2790
1934.12 2.56688 2790
1940.79 2.56688 2790
1947.46 2.56688 2790
1956.93 2.57056 2794
1963.61 2.57056 2794
1983.69 2.58804 2813
2003.86 2.60552 2832
2014.19 2.61012 2837
2020.97 2.61012 2837
2031.33 2.61472 2842
2041.71 2.61932 2847
2059.31 2.63312 2862
2066.15 2.63312 2862
2075.9 2.6368 2866
2086.38 2.6414 2871
2096.89 2.646 2876
2107.43 2.6506 2881
2114.32 2.6506 2881
2124.89 2.6552 2886
2135.48 2.6598 2891
2142.4 2.6598 2891
2149.31 2.6598 2891
2156.22 2.6598 2891
2166.88 2.6644 2896
2197.07 2.69292 2927
2204.07 2.69292 2927
2238.27 2.72604 2963
2286.27 2.77572 3017
2305.65 2.79045 3033
2312.9 2.79045 3033
2320.16 2.79045 3033
-2513.47 11.1303 3357
-2505.44 11.1303 3357
-2497.41 11.1303 3357
-2484.19 11.107 3350
-2490.97 11.1734 3370
-2488.07 11.1966 3377
-2479.99 11.1966 3377
-2471.91 11.1966 3377
-2463.84 11.1966 3377
-2455.76 11.1966 3377
-2442.61 11.1734 3370
-2434.56 11.1734 3370
-2426.5 11.1734 3370
-2428.49 11.2198 3384
-2420.39 11.2198 3384
-2412.3 11.2198 3384
-2409.18 11.243 3391
-2406.03 11.2662 3398
-2397.9 11.2662 3398
-2394.7 11.2894 3405
-2396.37 11.3358 3419
-2397.98 11.3822 3433
-2389.77 11.3822 3433
-2400.98 11.4751 3461
-2392.7 11.4751 3461
-2394.76 11.5248 3476
-2386.45 11.5248 3476
-2378.14 11.5248 3476
-2369.83 11.5248 3476
-2371.02 11.5712 3490
-2362.68 11.5712 3490
-2364.45 11.621 3505
-2366.15 11.6707 3520
-2367.11 11.7171 3534
-2358.66 11.7171 3534
-2360.19 11.7668 3549
-2357 11.7934 3557
-2353.78 11.8199 3565
-2345.25 11.8199 3565
-2336.73 11.8199 3565
-2332.77 11.8431 3572
-2329.44 11.8696 3580
-2320.88 11.8696 3580
-2317.48 11.8961 3588
-2308.9 11.8961 3588
-2300.32 11.8961 3588
-2291.74 11.8961 3588
-2283.16 11.8961 3588
-2279.02 11.9194 3595
-2275.48 11.9459 3603
-2266.86 11.9459 3603
-2258.25 11.9459 3603
-2249.63 11.9459 3603
-2241.01 11.9459 3603
-2232.4 11.9459 3603
-2223.78 11.9459 3603
-2215.17 11.9459 3603
-2206.55 11.9459 3603
-2193.05 11.9194 3595
-2184.46 11.9194 3595
-2175.86 11.9194 3595
-2167.26 11.9194 3595
-2149.66 11.8696 3580
-2150.07 11.9194 3595
-2151 11.9724 3611
-2142.37 11.9724 3611
-2133.73 11.9724 3611
-2129.81 11.9989 3619
-2125.84 12.0255 3627
-2117.17 12.0255 3627
-2108.5 12.0255 3627
-2099.82 12.0255 3627
-2091.15 12.0255 3627
-2082.48 12.0255 3627
-2060.08 11.9459 3603
-2042.92 11.8961 3588
-2008.26 11.7436 3542
-1999.79 11.7436 3542
-1974.46 11.6442 3512
-1962.14 11.621 3505
-1941.49 11.548 3483
-1933.17 11.548 3483
-1885.6 11.3126 3412
-1843.33 11.107 3350
-1831.48 11.0838 3343
-1816.39 11.0407 3330
-1808.43 11.0407 3330
-1789.65 10.9744 3310
-1770.97 10.9081 3290
-1749.71 10.8252 3265
-1741.9 10.8252 3265
-1730.38 10.802 3258
-1712.54 10.739 3239
-1701.64 10.7191 3233
-1693.9 10.7191 3233
-1679.91 10.6793 3221
-1672.21 10.6793 3221
-1657.79 10.6362 3208
-1650.12 10.6362 3208
-1642.45 10.6362 3208
-1637.84 10.6561 3214
-1630.15 10.6561 3214
-1626 10.6793 3221
-1618.3 10.6793 3221
-1613.59 10.6992 3227
-1611.85 10.739 3239
-1607.57 10.7622 3246
-1599.81 10.7622 3246
-1592.05 10.7622 3246
-1587.21 10.7821 3252
-1582.35 10.802 3258
-1574.56 10.802 3258
-1566.77 10.802 3258
-1565.2 10.8451 3271
-1557.38 10.8451 3271
-1549.55 10.8451 3271
-1545.03 10.8683 3278
-1548.92 10.9512 3303
-1541.02 10.9512 3303
-1533.12 10.9512 3303
-1528.45 10.9744 3310
-1529.72 11.0407 3330
-1524.96 11.0639 3337
-1516.98 11.0639 3337
-1511.71 11.0838 3343
-1506.87 11.107 3350
-1504.67 11.1502 3363
-1496.63 11.1502 3363
-1488.59 11.1502 3363
-1480.55 11.1502 3363
-1472.51 11.1502 3363
-1464.46 11.1502 3363
-1456.42 11.1502 3363
-1442.78 11.107 3350
-1434.77 11.107 3350
-1426.76 11.107 3350
-1410.28 11.0407 3330
-1402.32 11.0407 3330
-1394.35 11.0407 3330
-1386.39 11.0407 3330
-1378.43 11.0407 3330
-1370.46 11.0407 3330
-1359.64 11.0175 3323
-1351.69 11.0175 3323
-1343.74 11.0175 3323
-1335.8 11.0175 3323
-1327.85 11.0175 3323
-1319.91 11.0175 3323
-1311.96 11.0175 3323
-1301.66 10.9976 3317
-1291 10.9744 3310
-1283.08 10.9744 3310
-1267.46 10.9081 3290
-1259.59 10.9081 3290
-1249.44 10.8882 3284
-1241.59 10.8882 3284
-1231.48 10.8683 3278
-1218.79 10.8252 3265
-1208.39 10.802 3258
-1200.6 10.802 3258
-1188.41 10.7622 3246
-1178.1 10.739 3239
-1168.19 10.7191 3233
-1162.61 10.739 3239
-1154.87 10.739 3239
-1147.12 10.739 3239
-1139.38 10.739 3239
-1131.63 10.739 3239
-1115.21 10.6561 3214
-1103.39 10.6163 3202
-1093.68 10.5965 3196
-1088.08 10.6163 3202
-1080.42 10.6163 3202
-1072.76 10.6163 3202
-1065.11 10.6163 3202
-1057.45 10.6163 3202
-1049.79 10.6163 3202
-1040.18 10.5965 3196
-548.254 5.62647 1697
-544.837 5.6331 1699
-540.775 5.6331 1699
-536.712 5.6331 1699
-532.649 5.6331 1699
-529.208 5.63973 1701
-525.141 5.63973 1701
-521.073 5.63973 1701
-517.006 5.63973 1701
-512.938 5.63973 1701
-507.674 5.62647 1697
-503.616 5.62647 1697
-498.969 5.61983 1695
-494.624 5.61652 1694
-490.573 5.61652 1694
-483.937 5.58668 1685
-479.908 5.58668 1685
-474.466 5.5701 1680
-469.609 5.56016 1677
-464.21 5.54358 1672
-460.212 5.54358 1672
-455.668 5.53695 1670
-449.781 5.51374 1663
-445.537 5.51042 1662
-441.562 5.51042 1662
-437.061 5.50379 1660
-431.005 5.47727 1652
-426.537 5.47064 1650
-422.592 5.47064 1650
-416.109 5.43748 1640
-412.187 5.43748 1640
-407.518 5.42753 1637
-403.604 5.42753 1637
-399.445 5.42422 1636
-395.049 5.41759 1634
-390.424 5.40764 1631
-385.813 5.39769 1628
-381.92 5.39769 1628
-377.098 5.38443 1624
-372.295 5.37117 1620
-367.284 5.35459 1615
-363.422 5.35459 1615
-359.115 5.34796 1613
-354.597 5.33801 1610
-350.747 5.33801 1610
-346.897 5.33801 1610
-342.195 5.32475 1606
-338.354 5.32475 1606
-333.889 5.31481 1603
-330.056 5.31481 1603
-325.815 5.30817 1601
-321.585 5.30154 1599
-316.966 5.28828 1595
-313.152 5.28828 1595
-308.95 5.28165 1593
-304.566 5.2717 1590
-300.575 5.26839 1589
-296.775 5.26839 1589
-292.422 5.25844 1586
-288.629 5.25844 1586
-284.837 5.25844 1586
-281.044 5.25844 1586
-277.251 5.25844 1586
-273.459 5.25844 1586
-269.666 5.25844 1586
-265.874 5.25844 1586
-262.081 5.25844 1586
-257.963 5.25181 1584
-254.175 5.25181 1584
-250.387 5.25181 1584
-246.599 5.25181 1584
-242.811 5.25181 1584
-239.024 5.25181 1584
-235.236 5.25181 1584
-231.448 5.25181 1584
-227.66 5.25181 1584
-223.731 5.24849 1583
-220.085 5.25181 1584
-216.57 5.25844 1586
-212.777 5.25844 1586
-209.775 5.27833 1592
-206.744 5.29823 1598
-203.558 5.31481 1603
-199.725 5.31481 1603
-196.258 5.32475 1606
-193.256 5.34796 1613
-190.221 5.37117 1620
-186.347 5.37117 1620
-183.375 5.39769 1628
-181.025 5.44411 1642
-178.824 5.49716 1658
-174.859 5.49716 1658
-172.956 5.56347 1678
-169.85 5.59331 1687
-166.602 5.61983 1695
-162.548 5.61983 1695
-159.15 5.64304 1702
-155.262 5.64967 1704
-151.365 5.65631 1706
-147.285 5.65631 1706
-143.625 5.67288 1711
-139.697 5.67951 1713
-135.838 5.68946 1716
-131.735 5.68946 1716
-127.78 5.69609 1718
-123.815 5.70272 1720
-119.842 5.70935 1722
-115.724 5.70935 1722
-112.513 5.75577 1736
-108.487 5.7624 1738
-104.331 5.7624 1738
-100.175 5.7624 1738
-173.589 12.599 3800
-164.502 12.599 3800
-155.415 12.599 3800
-146.02 12.5725 3792
-136.953 12.5725 3792
-127.008 12.4863 3766
-117.188 12.4001 3740
-107.781 12.3471 3724
-98.8759 12.3471 3724
-89.7774 12.3205 3716
-80.6954 12.2907 3707
-71.3658 12.2111 3683
-62.5586 12.2111 3683
-53.518 12.1581 3667
-44.444 12.0752 3642
-35.7348 12.0752 3642
-27.0851 12.1017 3650
-18.3971 12.1282 3658
-9.64967 12.1282 3658
-0.902288 12.1282 3658
7.82794 12.1017 3650
16.5925 12.1282 3658
25.3399 12.1282 3658
34.2457 12.1846 3675
43.0337 12.1846 3675
51.8218 12.1846 3675
60.4779 12.1581 3667
69.2468 12.1581 3667
78.3561 12.2111 3683
87.1632 12.2111 3683
95.9704 12.2111 3683
104.778 12.2111 3683
112.567 12.1017 3650
121.295 12.1017 3650
128.349 11.9459 3603
138.182 12.052 3635
147.157 12.0752 3642
156.208 12.1017 3650
164.937 12.1017 3650
174.474 12.1581 3667
183.642 12.1846 3675
192.849 12.2111 3683
201.656 12.2111 3683
211.378 12.2642 3699
220.223 12.2642 3699
229.069 12.2642 3699
237.914 12.2642 3699
246.76 12.2642 3699
255.605 12.2642 3699
265.666 12.3205 3716
275.734 12.3736 3732
284.658 12.3736 3732
293.583 12.3736 3732
302.507 12.3736 3732
314.269 12.4863 3766
323.274 12.4863 3766
332.28 12.4863 3766
341.286 12.4863 3766
350.291 12.4863 3766
359.297 12.4863 3766
368.303 12.4863 3766
372.299 12.3205 3716
381.185 12.3205 3716
390.071 12.3205 3716
397.132 12.2642 3699
405.099 12.2376 3691
413.926 12.2376 3691
420.003 12.1581 3667
424.095 12.0255 3627
430.859 11.9724 3611
438.52 11.9459 3603
447.136 11.9459 3603
453.855 11.8961 3588
461.404 11.8696 3580
467.995 11.8199 3565
476.52 11.8199 3565
483.957 11.7934 3557
491.355 11.7668 3549
494.631 11.6442 3512
503.029 11.6442 3512
508.224 11.5712 3490
513.313 11.4983 3468
521.606 11.4983 3468
529.899 11.4983 3468
536.019 11.4519 3454
543.176 11.4287 3447
551.419 11.4287 3447
559.662 11.4287 3447
567.904 11.4287 3447
576.147 11.4287 3447
585.577 11.4519 3454
595.04 11.4751 3461
605.931 11.5248 3476
614.243 11.5248 3476
627.749 11.621 3505
638.853 11.6707 3520
648.558 11.6939 3527
656.992 11.6939 3527
671.086 11.7934 3557
683.986 11.8696 3580
694.095 11.8961 3588
702.675 11.8961 3588
715.814 11.9724 3611
724.449 11.9724 3611
733.084 11.9724 3611
741.719 11.9724 3611
750.354 11.9724 3611
760.67 11.9989 3619
771.025 12.0255 3627
779.698 12.0255 3627
790.111 12.052 3635
798.803 12.052 3635
807.495 12.052 3635
816.188 12.052 3635
1337.73 12.3736 3732
1346.66 12.3736 3732
1355.58 12.3736 3732
1364.5 12.3736 3732
1373.43 12.3736 3732
1385.32 12.4001 3740
1394.26 12.4001 3740
1403.2 12.4001 3740
1415.54 12.4299 3749
1424.51 12.4299 3749
1433.47 12.4299 3749
1426.28 12.2907 3707
1428.95 12.2376 3691
1437.78 12.2376 3691
1446.6 12.2376 3691
1455.43 12.2376 3691
1464.26 12.2376 3691
1473.08 12.2376 3691
1481.91 12.2376 3691
1487.5 12.2111 3683
1479.65 12.0752 3642
1482.23 12.0255 3627
1477.75 11.9194 3595
1486.35 11.9194 3595
1482.47 11.8199 3565
1484.3 11.7668 3549
1486.48 11.7171 3534
1494.93 11.7171 3534
1500.4 11.6939 3527
1502.42 11.6442 3512
1491.89 11.4983 3468
1500.18 11.4983 3468
1515 11.548 3483
1523.33 11.548 3483
1534.74 11.5712 3490
1543.08 11.5712 3490
1551.43 11.5712 3490
1559.78 11.5712 3490
1568.12 11.5712 3490
1566.53 11.4983 3468
1574.82 11.4983 3468
1579.92 11.4751 3461
1588.2 11.4751 3461
1596.47 11.4751 3461
1611.7 11.5248 3476
1620.02 11.5248 3476
1631.61 11.548 3483
1639.94 11.548 3483
1648.26 11.548 3483
1653.26 11.5248 3476
1651.06 11.4519 3454
1669.89 11.5248 3476
1681.58 11.548 3483
1689.91 11.548 3483
1698.24 11.548 3483
1706.57 11.548 3483
2446.22 13.2025 3982
2455.74 13.2025 3982
2465.26 13.2025 3982
2480.38 13.2323 3991
2489.92 13.2323 3991
2499.46 13.2323 3991
2491.4 13.1395 3963
2500.88 13.1395 3963
2510.36 13.1395 3963
2489.95 12.9836 3916
2476.34 12.8643 3880
2485.62 12.8643 3880
2494.89 12.8643 3880
2498.36 12.8344 3871
1830.59 9.06799 2735
1837.13 9.06799 2735
1843.67 9.06799 2735
1850.21 9.06799 2735
1871.68 9.14093 2757
1885.09 9.17409 2767
1891.7 9.17409 2767
1904.5 9.20393 2776
1913.89 9.21719 2780
1923.99 9.23377 2785
1930.65 9.23377 2785
1937.31 9.23377 2785
1943.97 9.23377 2785
1956.93 9.26361 2794
1963.61 9.26361 2794
1983.69 9.3266 2813
1997.5 9.35976 2823
2010.64 9.3896 2832
2017.41 9.3896 2832
2027.75 9.40618 2837
2041.71 9.43933 2847
2052.12 9.45591 2852
2058.94 9.45591 2852
2073 9.48907 2862
2082.75 9.50233 2866
2089.6 9.50233 2866
2100.11 9.51891 2871
2106.98 9.51891 2871
2113.84 9.51891 2871
2120.71 9.51891 2871
2127.58 9.51891 2871
2134.44 9.51891 2871
2141.31 9.51891 2871
2155.65 9.55206 2881
2177.56 9.61837 2901
2184.49 9.61837 2901
2211.07 9.70458 2927
2245.35 9.82394 2963
2264.6 9.87698 2979
2271.72 9.87698 2979
2278.85 9.87698 2979
-2502.99 19.092 3343
-2494.99 19.092 3343
-2487 19.092 3343
-2479 19.092 3343
-2496.14 19.2862 3377
-2493.22 19.3262 3384
-2485.13 19.3262 3384
-2477.04 19.3262 3384
-2468.95 19.3262 3384
-2460.85 19.3262 3384
-2442.61 19.2462 3370
-2434.56 19.2462 3370
-2426.5 19.2462 3370
-2423.46 19.2862 3377
-2415.39 19.2862 3377
-2412.3 19.3262 3384
-2404.21 19.3262 3384
-2396.12 19.3262 3384
-2388.02 19.3262 3384
-2379.93 19.3262 3384
-2362.03 19.2462 3370
-2353.97 19.2462 3370
-2345.91 19.2462 3370
-2352.42 19.3662 3391
-2349.15 19.4061 3398
-2341.02 19.4061 3398
-2332.9 19.4061 3398
-2324.77 19.4061 3398
-2316.65 19.4061 3398
-2327.54 19.566 3426
-2319.35 19.566 3426
-2320.6 19.646 3440
-2331.2 19.8059 3468
-2332.95 19.8916 3483
-2324.62 19.8916 3483
-2340.9 20.1029 3520
-2341.76 20.1828 3534
-2333.31 20.1828 3534
-2324.86 20.1828 3534
-2316.41 20.1828 3534
-2328.2 20.3599 3565
-2324.23 20.3999 3572
-2315.69 20.3999 3572
-2312.32 20.4455 3580
-2303.76 20.4455 3580
-2295.19 20.4455 3580
-2286.63 20.4455 3580
-2278.07 20.4455 3580
-2274.58 20.4912 3588
-2266 20.4912 3588
-2257.42 20.4912 3588
-2253.23 20.5312 3595
-2244.63 20.5312 3595
-2236.04 20.5312 3595
-2227.44 20.5312 3595
-2218.84 20.5312 3595
-2210.25 20.5312 3595
-2201.65 20.5312 3595
-2188.78 20.4912 3588
-2180.2 20.4912 3588
-2166.78 20.4455 3580
-2158.22 20.4455 3580
-2149.66 20.4455 3580
-2141.1 20.4455 3580
-2137.3 20.4912 3588
-2132.88 20.5312 3595
-2124.28 20.5312 3595
-2125.1 20.6226 3611
-2125.84 20.714 3627
-2117.17 20.714 3627
-2108.5 20.714 3627
-2099.82 20.714 3627
-2086.54 20.6683 3619
-2077.88 20.6683 3619
-2051.5 20.4912 3588
-2033.81 20.3999 3572
-1999.76 20.1429 3527
-1991.32 20.1429 3527
-1974.46 20.0572 3512
-1957.66 19.9715 3497
-1941.49 19.8916 3483
-1933.17 19.8916 3483
-1885.6 19.4861 3412
-1843.33 19.132 3350
-1828.19 19.0578 3337
-1812.58 18.9778 3323
-1804.63 18.9778 3323
-1785.87 18.8636 3303
-1770.97 18.7893 3290
-1749.71 18.6466 3265
-1741.9 18.6466 3265
-1727.19 18.5723 3252
-1712.54 18.4981 3239
-1701.64 18.4638 3233
-1693.9 18.4638 3233
-1679.91 18.3953 3221
-1668.58 18.3553 3214
-1657.79 18.321 3208
-1650.12 18.321 3208
-1642.45 18.321 3208
-1637.84 18.3553 3214
-1630.15 18.3553 3214
-1622.46 18.3553 3214
-1614.78 18.3553 3214
-1613.59 18.4295 3227
-1611.85 18.4981 3239
-1607.57 18.5381 3246
-1599.81 18.5381 3246
-1592.05 18.5381 3246
-1587.21 18.5723 3252
-1582.35 18.6066 3258
-1574.56 18.6066 3258
-1566.77 18.6066 3258
-1565.2 18.6808 3271
-1557.38 18.6808 3271
-1549.55 18.6808 3271
-1545.03 18.7208 3278
-1548.92 18.8636 3303
-1541.02 18.8636 3303
-1533.12 18.8636 3303
-1528.45 18.9036 3310
-1529.72 19.0178 3330
-1524.96 19.0578 3337
-1516.98 19.0578 3337
-1511.71 19.092 3343
-1506.87 19.132 3350
-1504.67 19.2062 3363
-1496.63 19.2062 3363
-1488.59 19.2062 3363
-1480.55 19.2062 3363
-1472.51 19.2062 3363
-1464.46 19.2062 3363
-1456.42 19.2062 3363
-1442.78 19.132 3350
-1434.77 19.132 3350
-1426.76 19.132 3350
-1410.28 19.0178 3330
-1402.32 19.0178 3330
-1394.35 19.0178 3330
-1386.39 19.0178 3330
-1375.53 18.9778 3323
-1367.58 18.9778 3323
-1357.18 18.9435 3317
-1349.25 18.9435 3317
-1341.32 18.9435 3317
-1335.8 18.9778 3323
-1327.85 18.9778 3323
-1319.91 18.9778 3323
-1311.96 18.9778 3323
-1298.91 18.9036 3310
-1283.2 18.7893 3290
-1275.33 18.7893 3290
-1267.46 18.7893 3290
-1257.3 18.7551 3284
-1247.16 18.7208 3278
-1239.32 18.7208 3278
-1228.85 18.6808 3271
-1216.18 18.6066 3258
-1206.16 18.5723 3252
-1198.39 18.5723 3252
-1188.41 18.5381 3246
-1178.1 18.4981 3239
-1168.19 18.4638 3233
-1160.46 18.4638 3233
-1152.73 18.4638 3233
-1145 18.4638 3233
-1137.27 18.4638 3233
-1129.54 18.4638 3233
-1113.13 18.321 3208
-1101.32 18.2525 3196
-1093.68 18.2525 3196
-1088.08 18.2868 3202
-1080.42 18.2868 3202
-1072.76 18.2868 3202
-1065.11 18.2868 3202
-1057.45 18.2868 3202
-1049.79 18.2868 3202
-1038.23 18.2182 3190
-548.254 9.69164 1697
-544.196 9.69164 1697
-539.502 9.68022 1695
-535.448 9.68022 1695
-531.395 9.68022 1695
-527.964 9.69164 1697
-525.141 9.71449 1701
-521.073 9.71449 1701
-517.006 9.71449 1701
-512.335 9.70307 1699
-507.075 9.68022 1695
-503.022 9.68022 1695
-498.675 9.67451 1694
-494.04 9.66309 1692
-489.414 9.65167 1690
-483.937 9.62311 1685
-479.908 9.62311 1685
-473.901 9.58313 1678
-469.049 9.566 1675
-463.655 9.53745 1670
-459.662 9.53745 1670
-455.122 9.52602 1668
-449.781 9.49747 1663
-445.001 9.48034 1660
-441.031 9.48034 1660
-436.535 9.46891 1658
-430.483 9.42323 1650
-426.02 9.4118 1648
-422.079 9.4118 1648
-416.109 9.36611 1640
-412.187 9.36611 1640
-407.269 9.34327 1636
-403.357 9.34327 1636
-399.445 9.34327 1636
-394.566 9.32043 1632
-389.945 9.30329 1629
-385.813 9.29758 1628
-381.92 9.29758 1628
-376.866 9.26903 1623
-372.295 9.25189 1620
-367.284 9.22334 1615
-363.422 9.22334 1615
-359.115 9.21192 1613
-354.597 9.19478 1610
-350.529 9.18907 1609
-346.681 9.18907 1609
-342.195 9.17194 1606
-337.933 9.16052 1604
-333.889 9.15481 1603
-330.056 9.15481 1603
-325.815 9.14338 1601
-321.585 9.13196 1599
-316.966 9.10912 1595
-313.152 9.10912 1595
-308.95 9.0977 1593
-304.566 9.08056 1590
-300.196 9.06343 1587
-296.401 9.06343 1587
-292.422 9.05772 1586
-288.629 9.05772 1586
-284.837 9.05772 1586
-281.044 9.05772 1586
-277.251 9.05772 1586
-273.459 9.05772 1586
-269.666 9.05772 1586
-265.874 9.05772 1586
-262.081 9.05772 1586
-257.963 9.0463 1584
-254.175 9.0463 1584
-250.387 9.0463 1584
-246.599 9.0463 1584
-242.811 9.0463 1584
-239.024 9.0463 1584
-235.236 9.0463 1584
-231.448 9.0463 1584
-227.66 9.0463 1584
-223.731 9.04059 1583
-219.946 9.04059 1583
-216.57 9.05772 1586
-212.777 9.05772 1586
-209.907 9.0977 1593
-206.744 9.12625 1598
-203.558 9.15481 1603
-199.725 9.15481 1603
-196.38 9.17765 1607
-193.496 9.22334 1615
-190.221 9.25189 1620
-186.347 9.25189 1620
-183.375 9.29758 1628
-181.356 9.39467 1645
-179.363 9.49747 1663
-175.387 9.49747 1663
-172.956 9.58313 1678
-169.648 9.62311 1685
-166.307 9.66309 1692
-162.261 9.66309 1692
-159.056 9.71449 1701
-155.08 9.7202 1702
-151.187 9.73162 1704
-147.112 9.73162 1704
-143.457 9.76018 1709
-139.534 9.7716 1711
-135.759 9.79444 1715
-131.658 9.79444 1715
-127.631 9.80015 1716
-123.672 9.81158 1718
-119.842 9.83442 1722
-115.724 9.83442 1722
-112.513 9.91438 1736
-108.487 9.9258 1738
-104.331 9.9258 1738
-100.175 9.9258 1738
-172.036 21.5078 3766
-163.031 21.5078 3766
-154.025 21.5078 3766
-145.019 21.5078 3766
-136.014 21.5078 3766
-126.131 21.3593 3740
-116.686 21.2679 3724
-107.289 21.1708 3707
-98.4245 21.1708 3707
-89.1734 21.0795 3691
-80.173 21.0338 3683
-71.0558 20.9424 3667
-62.2869 20.9424 3667
-53.518 20.9424 3667
-44.444 20.7996 3642
-35.7348 20.7996 3642
-27.0257 20.7996 3642
-18.3166 20.7996 3642
-9.60747 20.7996 3642
-0.898341 20.7996 3642
7.79577 20.7597 3635
16.5199 20.7996 3642
25.229 20.7996 3642
34.0873 20.891 3658
42.94 20.9424 3667
51.7089 20.9424 3667
60.4779 20.9424 3667
68.9257 20.8453 3650
77.654 20.8453 3650
86.3822 20.8453 3650
95.1105 20.8453 3650
103.839 20.8453 3650
111.118 20.5769 3603
119.733 20.5769 3603
127.245 20.3999 3572
135.787 20.3999 3572
145.904 20.6226 3611
155.566 20.7597 3635
164.259 20.7597 3635
173.665 20.8453 3650
183.642 20.9881 3675
192.849 21.0338 3683
201.656 21.0338 3683
211.378 21.1252 3699
220.223 21.1252 3699
229.069 21.1252 3699
237.914 21.1252 3699
246.76 21.1252 3699
255.605 21.1252 3699
265.666 21.2222 3716
275.734 21.3136 3732
284.658 21.3136 3732
293.583 21.3136 3732
302.507 21.3136 3732
314.269 21.5078 3766
323.274 21.5078 3766
332.986 21.5535 3774
342.826 21.6049 3783
351.873 21.6049 3783
360.919 21.6049 3783
369.085 21.5535 3774
372.299 21.2222 3716
381.185 21.2222 3716
390.071 21.2222 3716
396.273 21.0795 3691
404.221 21.0338 3683
413.029 21.0338 3683
418.972 20.891 3658
424.095 20.714 3627
429.905 20.5769 3603
438.52 20.5769 3603
447.136 20.5769 3603
452.843 20.4455 3580
460.373 20.3999 3572
466.945 20.3142 3557
475.451 20.3142 3557
482.868 20.2685 3549
490.386 20.2285 3542
493.645 20.0172 3505
502.026 20.0172 3505
507.204 19.8916 3483
513.313 19.8059 3468
519.5 19.726 3454
527.76 19.726 3454
533.847 19.646 3440
542.073 19.646 3440
550.299 19.646 3440
558.525 19.646 3440
566.751 19.646 3440
574.977 19.646 3440
584.39 19.686 3447
592.633 19.686 3447
603.316 19.7659 3461
611.593 19.7659 3461
625.063 19.9315 3490
636.131 20.0172 3505
647.271 20.1029 3520
655.688 20.1029 3520
669.577 20.2685 3549
679.592 20.3142 3557
694.095 20.4912 3588
702.675 20.4912 3588
711.255 20.4912 3588
721.239 20.5312 3595
729.836 20.5312 3595
738.432 20.5312 3595
747.029 20.5312 3595
757.307 20.5769 3603
765.923 20.5769 3603
774.539 20.5769 3603
783.155 20.5769 3603
788.475 20.4912 3588
797.055 20.4912 3588
803.838 20.4455 3580
1337.73 21.3136 3732
1346.66 21.3136 3732
1355.58 21.3136 3732
1361.58 21.2679 3724
1370.48 21.2679 3724
1382.35 21.3136 3732
1391.28 21.3136 3732
1400.2 21.3136 3732
1409.13 21.3136 3732
1418.05 21.3136 3732
1426.97 21.3136 3732
1423.2 21.1252 3699
1428.95 21.0795 3691
1431.54 20.9881 3675
1443.47 21.0338 3683
1452.27 21.0338 3683
1470.6 21.1708 3707
1479.47 21.1708 3707
1488.33 21.1708 3707
1497.2 21.1708 3707
1496.31 21.0338 3683
1488.36 20.7996 3642
1490.91 20.714 3627
1499.58 20.714 3627
1492.03 20.4912 3588
1490.99 20.3599 3565
1492.79 20.2685 3549
1501.28 20.2685 3549
1506.79 20.2285 3542
1511.83 20.1828 3534
1498.34 19.8916 3483
1506.67 19.8916 3483
1518.05 19.9315 3490
1526.39 19.9315 3490
1534.74 19.9315 3490
1549.72 20.0172 3505
1558.1 20.0172 3505
1566.48 20.0172 3505
1571.27 19.9715 3497
1566.53 19.8059 3468
1574.82 19.8059 3468
1579.92 19.7659 3461
1588.2 19.7659 3461
1596.47 19.7659 3461
1607.99 19.8059 3468
1616.29 19.8059 3468
1631.61 19.8916 3483
1639.94 19.8916 3483
1648.26 19.8916 3483
1656.59 19.8916 3483
1664.92 19.8916 3483
1669.89 19.8516 3476
1681.58 19.8916 3483
1689.91 19.8916 3483
1698.24 19.8916 3483
1706.57 19.8916 3483
2358.16 21.7534 3809
2367.26 21.7534 3809
2376.37 21.7534 3809
2385.48 21.7534 3809
2491.4 22.6329 3963
2500.88 22.6329 3963
2510.36 22.6329 3963
2467.06 22.1589 3880
2476.34 22.1589 3880
2485.62 22.1589 3880
2494.89 22.1589 3880
2498.36 22.1075 3871
1827.24 15.5912 2730
1833.77 15.5912 2730
1840.3 15.5912 2730
1846.82 15.5912 2730
1859.46 15.6426 2739
1881.68 15.7739 2762
1888.29 15.7739 2762
1901.06 15.8253 2771
1913.89 15.8767 2780
1923.99 15.9053 2785
1930.65 15.9053 2785
1937.31 15.9053 2785
1943.97 15.9053 2785
1954.13 15.9338 2790
1960.8 15.9338 2790
1977.35 16.0138 2804
1993.96 16.0937 2818
2007.8 16.1508 2828
2014.56 16.1508 2828
2024.18 16.1737 2832
2038.12 16.2308 2842
2048.52 16.2593 2847
2055.33 16.2593 2847
2065.76 16.2879 2852
2072.58 16.2879 2852
2083.04 16.3165 2857
2089.87 16.3165 2857
2096.7 16.3165 2857
2103.54 16.3165 2857
2110.37 16.3165 2857
2117.2 16.3165 2857
2124.03 16.3165 2857
2130.86 16.3165 2857
2148.17 16.3964 2871
2170.05 16.5106 2891
2176.96 16.5106 2891
2203.52 16.6591 2917
2225.65 16.7733 2937
2264.6 17.0132 2979
2271.72 17.0132 2979
2278.85 17.0132 2979
-2502.99 27.1002 3343
-2494.99 27.1002 3343
-2487 27.1002 3343
-2479 27.1002 3343
-2496.14 27.3758 3377
-2498.38 27.4893 3391
-2490.27 27.4893 3391
-2482.16 27.4893 3391
-2474.05 27.4893 3391
-2465.94 27.4893 3391
-2442.61 27.3191 3370
-2434.56 27.3191 3370
-2431.54 27.3758 3377
-2423.46 27.3758 3377
-2415.39 27.3758 3377
-2412.3 27.4326 3384
-2404.21 27.4326 3384
-2396.12 27.4326 3384
-2388.02 27.4326 3384
-2379.93 27.4326 3384
-2362.03 27.3191 3370
-2353.97 27.3191 3370
-2345.91 27.3191 3370
-2352.42 27.4893 3391
-2349.15 27.5461 3398
-2341.02 27.5461 3398
-2332.9 27.5461 3398
-2324.77 27.5461 3398
-2316.65 27.5461 3398
-2327.54 27.7731 3426
-2319.35 27.7731 3426
-2320.6 27.8865 3440
-2331.2 28.1135 3468
-2332.95 28.2351 3483
-2324.62 28.2351 3483
-2340.9 28.5351 3520
-2341.76 28.6486 3534
-2333.31 28.6486 3534
-2324.86 28.6486 3534
-2316.41 28.6486 3534
-2328.2 28.8999 3565
-2324.23 28.9566 3572
-2315.69 28.9566 3572
-2312.32 29.0215 3580
-2303.76 29.0215 3580
-2295.19 29.0215 3580
-2286.63 29.0215 3580
-2278.07 29.0215 3580
-2274.58 29.0863 3588
-2266 29.0863 3588
-2257.42 29.0863 3588
-2253.23 29.1431 3595
-2244.63 29.1431 3595
-2236.04 29.1431 3595
-2227.44 29.1431 3595
-2218.84 29.1431 3595
-2210.25 29.1431 3595
-2201.65 29.1431 3595
-2188.78 29.0863 3588
-2180.2 29.0863 3588
-2166.78 29.0215 3580
-2158.22 29.0215 3580
-2149.66 29.0215 3580
-2141.1 29.0215 3580
-2137.3 29.0863 3588
-2132.88 29.1431 3595
-2124.28 29.1431 3595
-2125.1 29.2728 3611
-2125.84 29.4025 3627
-2117.17 29.4025 3627
-2108.5 29.4025 3627
-2099.82 29.4025 3627
-2086.54 29.3376 3619
-2077.88 29.3376 3619
-2051.5 29.0863 3588
-2033.81 28.9566 3572
-1999.76 28.5918 3527
-1991.32 28.5918 3527
-1974.46 28.4702 3512
-1957.66 28.3486 3497
-1941.49 28.2351 3483
-1933.17 28.2351 3483
-1885.6 27.6596 3412
-1843.33 27.157 3350
-1828.19 27.0516 3337
-1812.58 26.9381 3323
-1804.63 26.9381 3323
-1785.87 26.7759 3303
-1770.97 26.6706 3290
-1749.71 26.4679 3265
-1741.9 26.4679 3265
-1727.19 26.3625 3252
-1712.54 26.2571 3239
-1701.64 26.2085 3233
-1693.9 26.2085 3233
-1679.91 26.1112 3221
-1668.58 26.0545 3214
-1657.79 26.0058 3208
-1650.12 26.0058 3208
-1642.45 26.0058 3208
-1637.84 26.0545 3214
-1630.15 26.0545 3214
-1622.46 26.0545 3214
-1614.78 26.0545 3214
-1613.59 26.1599 3227
-1611.85 26.2571 3239
-1607.57 26.3139 3246
-1599.81 26.3139 3246
-1592.05 26.3139 3246
-1587.21 26.3625 3252
-1582.35 26.4112 3258
-1574.56 26.4112 3258
-1566.77 26.4112 3258
-1565.2 26.5165 3271
-1557.38 26.5165 3271
-1549.55 26.5165 3271
-1545.03 26.5733 3278
-1548.92 26.7759 3303
-1541.02 26.7759 3303
-1533.12 26.7759 3303
-1528.45 26.8327 3310
-1529.72 26.9948 3330
-1524.96 27.0516 3337
-1516.98 27.0516 3337
-1511.71 27.1002 3343
-1506.87 27.157 3350
-1504.67 27.2623 3363
-1496.63 27.2623 3363
-1488.59 27.2623 3363
-1480.55 27.2623 3363
-1472.51 27.2623 3363
-1464.46 27.2623 3363
-1456.42 27.2623 3363
-1442.78 27.157 3350
-1434.77 27.157 3350
-1426.76 27.157 3350
-1410.28 26.9948 3330
-1402.32 26.9948 3330
-1394.35 26.9948 3330
-1386.39 26.9948 3330
-1375.53 26.9381 3323
-1367.58 26.9381 3323
-1357.18 26.8894 3317
-1349.25 26.8894 3317
-1341.32 26.8894 3317
-1335.8 26.9381 3323
-1327.85 26.9381 3323
-1319.91 26.9381 3323
-1311.96 26.9381 3323
-1298.91 26.8327 3310
-1283.2 26.6706 3290
-1275.33 26.6706 3290
-1267.46 26.6706 3290
-1257.3 26.6219 3284
-1247.16 26.5733 3278
-1239.32 26.5733 3278
-1228.85 26.5165 3271
-1216.18 26.4112 3258
-1206.16 26.3625 3252
-1198.39 26.3625 3252
-1188.41 26.3139 3246
-1178.1 26.2571 3239
-1168.19 26.2085 3233
-1160.46 26.2085 3233
-1152.73 26.2085 3233
-1145 26.2085 3233
-1137.27 26.2085 3233
-1129.54 26.2085 3233
-1113.13 26.0058 3208
-1103.39 25.9572 3202
-1095.73 25.9572 3202
-1088.08 25.9572 3202
-1080.42 25.9572 3202
-1072.76 25.9572 3202
-1065.11 25.9572 3202
-1057.45 25.9572 3202
-1049.79 25.9572 3202
-1038.23 25.8599 3190
-548.254 13.7568 1697
-544.196 13.7568 1697
-539.502 13.7406 1695
-535.448 13.7406 1695
-531.395 13.7406 1695
-527.964 13.7568 1697
-525.141 13.7892 1701
-521.073 13.7892 1701
-517.006 13.7892 1701
-512.335 13.773 1699
-507.075 13.7406 1695
-503.022 13.7406 1695
-498.675 13.7325 1694
-494.04 13.7163 1692
-489.414 13.7001 1690
-483.937 13.6595 1685
-479.908 13.6595 1685
-473.901 13.6028 1678
-469.049 13.5785 1675
-463.655 13.5379 1670
-459.662 13.5379 1670
-455.122 13.5217 1668
-449.781 13.4812 1663
-445.001 13.4569 1660
-441.031 13.4569 1660
-436.535 13.4407 1658
-430.483 13.3758 1650
-426.02 13.3596 1648
-422.079 13.3596 1648
-416.109 13.2947 1640
-412.187 13.2947 1640
-407.269 13.2623 1636
-403.357 13.2623 1636
-399.445 13.2623 1636
-394.566 13.2299 1632
-389.945 13.2056 1629
-385.813 13.1975 1628
-381.92 13.1975 1628
-376.866 13.1569 1623
-372.295 13.1326 1620
-367.284 13.0921 1615
-363.422 13.0921 1615
-359.115 13.0759 1613
-354.597 13.0516 1610
-350.529 13.0434 1609
-346.681 13.0434 1609
-342.195 13.0191 1606
-337.933 13.0029 1604
-333.889 12.9948 1603
-330.056 12.9948 1603
-325.815 12.9786 1601
-321.585 12.9624 1599
-316.966 12.93 1595
-313.152 12.93 1595
-308.95 12.9137 1593
-304.566 12.8894 1590
-300.196 12.8651 1587
-296.401 12.8651 1587
-292.422 12.857 1586
-288.629 12.857 1586
-284.837 12.857 1586
-281.044 12.857 1586
-277.251 12.857 1586
-273.459 12.857 1586
-269.666 12.857 1586
-265.874 12.857 1586
-262.081 12.857 1586
-257.963 12.8408 1584
-254.175 12.8408 1584
-250.387 12.8408 1584
-246.599 12.8408 1584
-242.811 12.8408 1584
-239.024 12.8408 1584
-235.236 12.8408 1584
-231.448 12.8408 1584
-227.66 12.8408 1584
-223.731 12.8327 1583
-220.085 12.8408 1584
-216.706 12.8651 1587
-212.911 12.8651 1587
-209.907 12.9137 1593
-206.744 12.9543 1598
-203.685 13.0029 1604
-199.849 13.0029 1604
-196.38 13.0272 1607
-193.496 13.0921 1615
-190.339 13.1407 1621
-186.462 13.1407 1621
-183.487 13.2056 1629
-181.356 13.3353 1645
-179.579 13.4974 1665
-175.598 13.4974 1665
-172.956 13.6028 1678
-169.648 13.6595 1685
-166.307 13.7163 1692
-162.261 13.7163 1692
-159.056 13.7892 1701
-155.08 13.7974 1702
-151.187 13.8136 1704
-147.112 13.8136 1704
-143.457 13.8541 1709
-139.534 13.8703 1711
-135.759 13.9027 1715
-131.658 13.9027 1715
-127.631 13.9108 1716
-123.672 13.9271 1718
-119.842 13.9595 1722
-115.724 13.9595 1722
-112.513 14.073 1736
-108.487 14.0892 1738
-104.331 14.0892 1738
-100.175 14.0892 1738
-172.036 30.5293 3766
-163.031 30.5293 3766
-154.025 30.5293 3766
-145.019 30.5293 3766
-136.014 30.5293 3766
-126.131 30.3185 3740
-116.686 30.1888 3724
-107.289 30.051 3707
-98.4245 30.051 3707
-89.1734 29.9213 3691
-80.173 29.8564 3683
-71.0558 29.7267 3667
-62.2869 29.7267 3667
-53.518 29.7267 3667
-44.444 29.5241 3642
-35.7348 29.5241 3642
-27.0257 29.5241 3642
-18.3166 29.5241 3642
-9.60747 29.5241 3642
-0.898341 29.5241 3642
7.79577 29.4673 3635
16.5199 29.5241 3642
25.229 29.5241 3642
34.0873 29.6538 3658
42.94 29.7267 3667
51.7089 29.7267 3667
60.4779 29.7267 3667
68.9257 29.5889 3650
77.654 29.5889 3650
86.3822 29.5889 3650
95.1105 29.5889 3650
103.839 29.5889 3650
111.118 29.2079 3603
119.733 29.2079 3603
127.245 28.9566 3572
135.787 28.9566 3572
145.904 29.2728 3611
155.566 29.4673 3635
164.259 29.4673 3635
173.665 29.5889 3650
183.642 29.7916 3675
192.849 29.8564 3683
201.656 29.8564 3683
211.378 29.9861 3699
220.223 29.9861 3699
229.069 29.9861 3699
237.914 29.9861 3699
246.76 29.9861 3699
255.605 29.9861 3699
265.666 30.124 3716
275.734 30.2537 3732
284.658 30.2537 3732
293.583 30.2537 3732
302.507 30.2537 3732
314.269 30.5293 3766
323.274 30.5293 3766
332.986 30.5941 3774
342.826 30.6671 3783
351.873 30.6671 3783
360.919 30.6671 3783
369.085 30.5941 3774
372.299 30.124 3716
381.185 30.124 3716
390.071 30.124 3716
396.273 29.9213 3691
404.221 29.8564 3683
413.029 29.8564 3683
418.972 29.6538 3658
424.095 29.4025 3627
429.905 29.2079 3603
438.52 29.2079 3603
447.136 29.2079 3603
452.843 29.0215 3580
460.373 28.9566 3572
466.945 28.835 3557
475.451 28.835 3557
482.868 28.7702 3549
490.386 28.7134 3542
493.645 28.4135 3505
502.026 28.4135 3505
507.204 28.2351 3483
513.313 28.1135 3468
519.5 28 3454
527.76 28 3454
533.847 27.8865 3440
542.073 27.8865 3440
550.299 27.8865 3440
558.525 27.8865 3440
566.751 27.8865 3440
574.977 27.8865 3440
584.39 27.9433 3447
592.633 27.9433 3447
603.316 28.0568 3461
611.593 28.0568 3461
625.063 28.2919 3490
636.131 28.4135 3505
647.271 28.5351 3520
655.688 28.5351 3520
669.577 28.7702 3549
679.592 28.835 3557
694.095 29.0863 3588
702.675 29.0863 3588
711.255 29.0863 3588
721.239 29.1431 3595
729.836 29.1431 3595
738.432 29.1431 3595
747.029 29.1431 3595
757.307 29.2079 3603
765.923 29.2079 3603
774.539 29.2079 3603
783.155 29.2079 3603
788.475 29.0863 3588
797.055 29.0863 3588
803.838 29.0215 3580
980.687 30.5293 3766
989.692 30.5293 3766
998.698 30.5293 3766
1007.7 30.5293 3766
1016.71 30.5293 3766
1025.71 30.5293 3766
1030.05 30.3915 3749
1032.09 30.1888 3724
1043.23 30.2537 3732
1052.15 30.2537 3732
1061.08 30.2537 3732
1070 30.2537 3732
1337.73 30.2537 3732
1346.66 30.2537 3732
1355.58 30.2537 3732
1361.58 30.1888 3724
1370.48 30.1888 3724
1382.35 30.2537 3732
1391.28 30.2537 3732
1400.2 30.2537 3732
1409.13 30.2537 3732
1418.05 30.2537 3732
1426.97 30.2537 3732
1423.2 29.9861 3699
1428.95 29.9213 3691
1431.54 29.7916 3675
1443.47 29.8564 3683
1452.27 29.8564 3683
1470.6 30.051 3707
1479.47 30.051 3707
1488.33 30.051 3707
1497.2 30.051 3707
1496.31 29.8564 3683
1488.36 29.5241 3642
1490.91 29.4025 3627
1499.58 29.4025 3627
1492.03 29.0863 3588
1490.99 28.8999 3565
1496.15 28.835 3557
1504.66 28.835 3557
1509.76 28.7702 3549
1515.26 28.7134 3542
1501.36 28.2919 3490
1509.7 28.2919 3490
1524.57 28.4135 3505
1532.95 28.4135 3505
1541.33 28.4135 3505
1549.72 28.4135 3505
1558.1 28.4135 3505
1566.48 28.4135 3505
1574.86 28.4135 3505
1566.53 28.1135 3468
1574.82 28.1135 3468
1579.92 28.0568 3461
1588.2 28.0568 3461
1596.47 28.0568 3461
1607.99 28.1135 3468
1616.29 28.1135 3468
1631.61 28.2351 3483
1639.94 28.2351 3483
1651.58 28.2919 3490
1659.92 28.2919 3490
1675.44 28.4135 3505
1683.82 28.4135 3505
1695.58 28.4702 3512
1703.98 28.4702 3512
1712.38 28.4702 3512
1706.57 28.2351 3483
2358.16 30.8779 3809
2367.26 30.8779 3809
2376.37 30.8779 3809
2385.48 30.8779 3809
2491.4 32.1263 3963
2500.88 32.1263 3963
2510.36 32.1263 3963
2467.06 31.4534 3880
2476.34 31.4534 3880
2485.62 31.4534 3880
2494.89 31.4534 3880
2498.36 31.3805 3871
2433.77 30.4563 3757
2394.64 29.8564 3683
2451.74 30.4563 3757
2460.72 30.4563 3757
2469.71 30.4563 3757
2478.69 30.4563 3757
1827.24 22.1309 2730
1833.77 22.1309 2730
1840.3 22.1309 2730
1846.82 22.1309 2730
1878.47 22.4308 2767
1893.94 22.5362 2780
1900.59 22.5362 2780
1916.84 22.6497 2794
1926.97 22.6902 2799
1933.66 22.6902 2799
1940.35 22.6902 2799
1943.57 22.6497 2794
1947.46 22.6173 2790
1954.13 22.6173 2790
1957.29 22.5768 2785
1973.82 22.6902 2799
1990.42 22.8037 2813
2000.7 22.8443 2818
2007.44 22.8443 2818
2017.75 22.8848 2823
2030.95 22.9578 2832
2041.32 22.9983 2837
2048.11 22.9983 2837
2062.13 23.0794 2847
2072.58 23.1199 2852
2079.4 23.1199 2852
2086.22 23.1199 2852
2093.04 23.1199 2852
2103.54 23.1604 2857
2110.37 23.1604 2857
2117.2 23.1604 2857
2124.03 23.1604 2857
2130.86 23.1604 2857
2137.7 23.1604 2857
2162.54 23.355 2881
2169.43 23.355 2881
2198.98 23.5982 2911
2218.07 23.7279 2927
2225.07 23.7279 2927
2232.07 23.7279 2927
2239.07 23.7279 2927
-2493.25 34.9719 3330
-2485.29 34.9719 3330
-2477.33 34.9719 3330
-2479 35.1084 3343
-2496.14 35.4655 3377
-2498.38 35.6125 3391
-2490.27 35.6125 3391
-2482.16 35.6125 3391
-2474.05 35.6125 3391
-2465.94 35.6125 3391
-2442.61 35.392 3370
-2434.56 35.392 3370
-2431.54 35.4655 3377
-2423.46 35.4655 3377
-2415.39 35.4655 3377
-2407.31 35.4655 3377
-2404.21 35.539 3384
-2396.12 35.539 3384
-2388.02 35.539 3384
-2351.1 35.1084 3343
-2333.99 34.9719 3330
-2335.11 35.1084 3343
-2327.12 35.1084 3343
-2323.98 35.1819 3350
-2315.97 35.1819 3350
-2307.96 35.1819 3350
-2299.94 35.1819 3350
-2291.93 35.1819 3350
-2288.7 35.2554 3357
-2299.01 35.539 3384
-2290.92 35.539 3384
-2301.72 35.833 3412
-2312.38 36.1271 3440
-2313.53 36.2741 3454
-2305.27 36.2741 3454
-2316.3 36.5787 3483
-2317.24 36.7257 3497
-2314.16 36.8097 3505
-2305.78 36.8097 3505
-2311.82 37.0408 3527
-2307.96 37.1143 3534
-2319.68 37.4399 3565
-2311.15 37.4399 3565
-2302.63 37.4399 3565
-2294.1 37.4399 3565
-2285.58 37.4399 3565
-2277.05 37.4399 3565
-2268.53 37.4399 3565
-2264.44 37.5134 3572
-2255.9 37.5134 3572
-2247.36 37.5134 3572
-2243.83 37.5974 3580
-2235.27 37.5974 3580
-2226.71 37.5974 3580
-2218.15 37.5974 3580
-2209.59 37.5974 3580
-2196.11 37.5134 3572
-2187.57 37.5134 3572
-2179.02 37.5134 3572
-2170.48 37.5134 3572
-2161.94 37.5134 3572
-2158.22 37.5974 3580
-2149.66 37.5974 3580
-2141.1 37.5974 3580
-2132.54 37.5974 3580
-2132.88 37.7549 3595
-2124.28 37.7549 3595
-2125.1 37.923 3611
-2125.84 38.091 3627
-2117.17 38.091 3627
-2108.5 38.091 3627
-2099.82 38.091 3627
-2086.54 38.007 3619
-2077.88 38.007 3619
-2051.5 37.6814 3588
-2029.83 37.4399 3565
-1995.79 36.9673 3520
-1987.37 36.9673 3520
-1970.52 36.8097 3505
-1949.82 36.5787 3483
-1921.43 36.2006 3447
-1913.18 36.2006 3447
-1881.73 35.7595 3405
-1843.33 35.1819 3350
-1820.52 34.8984 3323
-1801.67 34.6883 3303
-1793.77 34.6883 3303
-1778.84 34.5518 3290
-1764.51 34.4258 3278
-1742.74 34.1527 3252
-1734.97 34.1527 3252
-1720.28 34.0162 3239
-1706.19 33.8902 3227
-1695.32 33.8271 3221
-1687.62 33.8271 3221
-1676.26 33.7536 3214
-1665.46 33.6906 3208
-1657.79 33.6906 3208
-1650.12 33.6906 3208
-1639.38 33.6276 3202
-1631.72 33.6276 3202
-1630.15 33.7536 3214
-1622.46 33.7536 3214
-1614.78 33.7536 3214
-1610.59 33.8271 3221
-1608.86 33.9532 3233
-1601.13 33.9532 3233
-1593.4 33.9532 3233
-1592.05 34.0897 3246
-1584.28 34.0897 3246
-1582.35 34.2157 3258
-1574.56 34.2157 3258
-1566.77 34.2157 3258
-1558.98 34.2157 3258
-1551.19 34.2157 3258
-1543.4 34.2157 3258
-1545.03 34.4258 3278
-1537.19 34.4258 3278
-1541.02 34.6883 3303
-1533.12 34.6883 3303
-1525.22 34.6883 3303
-1520.54 34.7618 3310
-1524.96 35.0454 3337
-1516.98 35.0454 3337
-1509 35.0454 3337
-1506.87 35.1819 3350
-1501.99 35.2554 3357
-1493.96 35.2554 3357
-1485.93 35.2554 3357
-1480.55 35.3184 3363
-1472.51 35.3184 3363
-1464.46 35.3184 3363
-1456.42 35.3184 3363
-1442.78 35.1819 3350
-1434.77 35.1819 3350
-1423.78 35.1084 3343
-1410.28 34.9719 3330
-1399.37 34.8984 3323
-1391.42 34.8984 3323
-1383.48 34.8984 3323
-1375.53 34.8984 3323
-1367.58 34.8984 3323
-1357.18 34.8353 3317
-1349.25 34.8353 3317
-1341.32 34.8353 3317
-1333.39 34.8353 3317
-1325.45 34.8353 3317
-1317.52 34.8353 3317
-1306.83 34.7618 3310
-1296.16 34.6883 3303
-1283.2 34.5518 3290
-1275.33 34.5518 3290
-1265.15 34.4888 3284
-1255 34.4258 3278
-1244.5 34.3522 3271
-1236.68 34.3522 3271
-1226.6 34.2892 3265
-1216.18 34.2157 3258
-1206.16 34.1527 3252
-1198.39 34.1527 3252
-1188.41 34.0897 3246
-1175.92 33.9532 3233
-1168.19 33.9532 3233
-1160.46 33.9532 3233
-1152.73 33.9532 3233
-1145 33.9532 3233
-1137.27 33.9532 3233
-1129.54 33.9532 3233
-1113.13 33.6906 3208
-1103.39 33.6276 3202
-1095.73 33.6276 3202
-1088.08 33.6276 3202
-1080.42 33.6276 3202
-1072.76 33.6276 3202
-1065.11 33.6276 3202
-1057.45 33.6276 3202
-1049.79 33.6276 3202
-1038.23 33.5016 3190
-548.254 17.822 1697
-544.196 17.822 1697
-539.502 17.801 1695
-535.448 17.801 1695
-531.395 17.801 1695
-527.964 17.822 1697
-523.906 17.822 1697
-519.848 17.822 1697
-515.79 17.822 1697
-511.732 17.822 1697
-506.776 17.7905 1694
-502.725 17.7905 1694
-498.086 17.7695 1692
