ply
format ascii 1.0
comment File generated
element vertex 2253
property float x
property float y
property float z
end_header
-2024.29 541.625 4010
-2014.71 541.625 4010
-2010.12 542.975 4020
-2034.84 552.295 4089
-2025.06 552.295 4089
-2015.28 552.295 4089
-1985.89 546.892 4049
-1976.21 546.892 4049
-1943.21 540.409 4001
-1933.64 540.409 4001
-1924.08 540.409 4001
-1914.51 540.409 4001
-1904.94 540.409 4001
-1895.37 540.409 4001
-1885.8 540.409 4001
-1876.24 540.409 4001
-1853.14 536.492 3972
-1839.46 535.277 3963
-1825.37 533.926 3953
-1815.92 533.926 3953
-1806.46 533.926 3953
-1797.01 533.926 3953
-1774.9 530.144 3925
-1765.51 530.144 3925
-1748.07 527.713 3907
-1734.72 526.497 3898
-1725.4 526.497 3898
-1716.08 526.497 3898
-1702.82 525.281 3889
-1709.2 530.144 3925
-1699.81 530.144 3925
-1690.42 530.144 3925
-1681.04 530.144 3925
-1667.82 528.928 3916
-1662.27 530.144 3925
-1657.09 531.495 3935
-1647.68 531.495 3935
-1638.27 531.495 3935
-1632.59 532.71 3944
-1623.16 532.71 3944
-1613.72 532.71 3944
-1596.57 530.144 3925
-1565.34 522.85 3871
-1552.47 521.635 3862
-1543.23 521.635 3862
-1526.85 519.203 3844
-1497.13 512.18 3792
-1478.99 512.18 3792
-1469.92 512.18 3792
-1460.85 512.18 3792
-1451.79 512.18 3792
-1442.72 512.18 3792
-1433.65 512.18 3792
-1414.82 508.668 3766
-1405.81 508.668 3766
-1396.8 508.668 3766
-1384.48 507.452 3757
-1366.35 504.076 3732
-1366.51 507.452 3757
-1357.53 507.452 3757
-1348.55 507.452 3757
-1339.56 507.452 3757
-1336.6 509.749 3774
-1345.87 516.772 3826
-1336.72 516.772 3826
-1330.69 517.988 3835
-1321.52 517.988 3835
-1321.59 521.635 3862
-1312.35 521.635 3862
-1321.34 528.928 3916
-1314.99 530.144 3925
-1305.6 530.144 3925
-1296.22 530.144 3925
-598.991 246.77 1827
-594.622 246.77 1827
-589.607 246.5 1825
-583.319 245.69 1819
-578.969 245.69 1819
-573.988 245.42 1817
-567.762 244.609 1811
-561.565 243.799 1805
-553.852 242.313 1794
-549.562 242.313 1794
-544.664 242.043 1792
-537.967 240.962 1784
-532.504 240.422 1780
-528.247 240.422 1780
-521.93 239.476 1773
-512.143 236.91 1754
-504.184 235.154 1741
-500.02 235.154 1741
-493.864 234.209 1734
-487.74 233.263 1727
-480.53 231.778 1716
-476.427 231.778 1716
-470.121 230.697 1708
-464.4 229.887 1702
-459.518 229.481 1699
-453.579 228.536 1692
-449.533 228.536 1692
-444.96 228.266 1690
-440.658 228.131 1689
-435.068 227.32 1683
-431.043 227.32 1683
-426.258 226.915 1680
-421.486 226.51 1677
-416.48 225.97 1673
-412.48 225.97 1673
-408.479 225.97 1673
-404.237 225.835 1672
-399.041 225.159 1667
-395.055 225.159 1667
-390.13 224.619 1663
-385.921 224.484 1662
-381.488 224.214 1660
-377.518 224.214 1660
-372.873 223.809 1657
-367.798 223.133 1652
-363.407 222.863 1650
-358.808 222.458 1647
-354.869 222.458 1647
-350.291 222.053 1644
-345.517 221.512 1640
-341.596 221.512 1640
-337.674 221.512 1640
-333.549 221.377 1639
-329.227 221.107 1637
-325.114 220.972 1636
-321.202 220.972 1636
-317.289 220.972 1636
-312.42 220.297 1631
-308.141 220.027 1629
-304.246 220.027 1629
-299.797 219.621 1626
-295.545 219.351 1624
-291.482 219.216 1623
-287.601 219.216 1623
-283.72 219.216 1623
-278.804 218.406 1617
-274.937 218.406 1617
-271.07 218.406 1617
-266.873 218.136 1615
-262.686 217.866 1613
-258.347 217.46 1610
-254.339 217.325 1609
-250.647 217.46 1610
-246.797 217.46 1610
-243.249 217.73 1612
-239.543 217.866 1613
-235.685 217.866 1613
-231.828 217.866 1613
-227.971 217.866 1613
-224.392 218.136 1615
-221.349 218.946 1621
-217.473 218.946 1621
-213.992 219.351 1624
-210.626 219.892 1628
-207.114 220.297 1631
-203.214 220.297 1631
-201.024 222.188 1645
-197.45 222.593 1648
-194.683 223.944 1658
-190.718 223.944 1658
-188.105 225.564 1670
-184.994 226.645 1678
-182.275 228.266 1690
-178.234 228.266 1690
-174.399 228.536 1692
-170.554 228.806 1694
-167.191 229.752 1701
-163.124 229.752 1701
-159.056 229.752 1701
-154.989 229.752 1701
-150.921 229.752 1701
-146.853 229.752 1701
-142.618 229.481 1699
-138.555 229.481 1699
-134.492 229.481 1699
-130.429 229.481 1699
-126.59 229.887 1702
-122.52 229.887 1702
-118.45 229.887 1702
-242.458 545.542 4039
-232.8 545.542 4039
-223.141 545.542 4039
-213.483 545.542 4039
-203.824 545.542 4039
-194.166 545.542 4039
-184.507 545.542 4039
-174.459 544.326 4030
-164.822 544.326 4030
-154.069 540.409 4001
-145.873 545.542 4039
-136.215 545.542 4039
-126.87 546.892 4049
-117.187 546.892 4049
-108.036 549.594 4069
-98.3058 549.594 4069
-88.5756 549.594 4069
272.109 550.945 4079
281.863 550.945 4079
291.618 550.945 4079
299.155 546.892 4049
304.414 539.058 3991
312.463 536.492 3972
321.961 536.492 3972
330.708 535.277 3963
336.923 530.144 3925
344.721 527.713 3907
355.695 530.144 3925
366.011 531.495 3935
375.421 531.495 3935
384.83 531.495 3935
390.533 526.497 3898
399.854 526.497 3898
405.397 521.635 3862
408.942 514.476 3809
408.721 502.995 3724
417.626 502.995 3724
421.836 497.457 3683
425.849 491.92 3642
428.95 485.571 3595
434.747 482.465 3572
443.289 482.465 3572
446.139 476.387 3527
452.64 474.361 3512
458.15 471.389 3490
466.495 471.389 3490
470.895 467.472 3461
478.203 466.527 3454
485.476 465.581 3447
494.722 466.527 3454
502.981 466.527 3454
514.497 469.498 3476
523.862 470.444 3483
534.33 472.335 3497
542.693 472.335 3497
554.679 475.441 3520
576.374 486.652 3603
601.876 500.699 3707
610.74 500.699 3707
630.804 509.749 3774
639.828 509.749 3774
692.866 544.326 4030
702.503 544.326 4030
715.498 546.892 4049
725.18 546.892 4049
734.863 546.892 4049
744.545 546.892 4049
754.227 546.892 4049
763.91 546.892 4049
773.592 546.892 4049
777.665 542.975 4020
787.278 542.975 4020
794.908 541.625 4010
804.497 541.625 4010
812.259 540.409 4001
817.924 537.843 3982
827.446 537.843 3982
838.86 539.058 3991
848.404 539.058 3991
857.948 539.058 3991
867.491 539.058 3991
887.583 545.542 4039
897.242 545.542 4039
906.9 545.542 4039
916.559 545.542 4039
921.86 542.975 4020
931.473 542.975 4020
936.638 540.409 4001
943.841 539.058 3991
951.235 537.843 3982
960.757 537.843 3982
970.279 537.843 3982
975.126 535.277 3963
984.603 535.277 3963
994.08 535.277 3963
996.466 531.495 3935
1001.02 528.928 3916
1010.38 528.928 3916
1019.75 528.928 3916
1029.11 528.928 3916
1036.09 527.713 3907
1043.02 526.497 3898
1042.63 521.635 3862
1051.86 521.635 3862
1061.1 521.635 3862
1062.85 517.988 3835
1069.5 516.772 3826
1078.65 516.772 3826
1087.8 516.772 3826
1096.95 516.772 3826
1113.91 520.419 3853
1123.12 520.419 3853
1132.33 520.419 3853
1152.21 525.281 3889
1164.2 526.497 3898
1176.23 527.713 3907
1185.57 527.713 3907
1203.48 531.495 3935
1227.38 537.843 3982
1239.7 539.058 3991
1249.24 539.058 3991
1258.78 539.058 3991
1268.33 539.058 3991
1277.87 539.058 3991
1287.41 539.058 3991
1296.96 539.058 3991
1312.72 541.625 4010
1328.91 544.326 4030
1341.53 545.542 4039
1351.19 545.542 4039
1364.22 546.892 4049
1373.9 546.892 4049
1383.58 546.892 4049
1393.26 546.892 4049
1392.9 542.975 4020
1402.51 542.975 4020
1412.13 542.975 4020
1418.2 541.625 4010
1417.82 537.843 3982
1420.53 535.277 3963
1430.01 535.277 3963
1435.85 533.926 3953
1445.31 533.926 3953
1468.74 539.058 3991
1489.03 542.975 4020
1509.45 546.892 4049
1519.14 546.892 4049
1532.59 548.243 4059
1542.3 548.243 4059
1552.01 548.243 4059
1554.02 545.542 4039
1548.96 540.409 4001
1588.92 550.945 4079
1598.67 550.945 4079
1608.42 550.945 4079
1622.15 552.295 4089
1631.92 552.295 4089
1641.7 552.295 4089
1651.48 552.295 4089
1661.26 552.295 4089
1671.04 552.295 4089
1680.81 552.295 4089
1690.59 552.295 4089
1700.37 552.295 4089
1701.78 549.594 4069
1711.51 549.594 4069
1721.24 549.594 4069
1730.97 549.594 4069
1740.7 549.594 4069
1750.43 549.594 4069
1760.16 549.594 4069
1765.55 548.243 4059
1775.25 548.243 4059
1780.56 546.892 4049
1790.24 546.892 4049
1799.93 546.892 4049
1801.12 544.326 4030
1810.75 544.326 4030
1820.39 544.326 4030
1825.49 542.975 4020
1835.1 542.975 4020
1840.12 541.625 4010
1849.71 541.625 4010
1859.3 541.625 4010
1851.18 536.492 3972
1860.68 536.492 3972
1879.12 539.058 3991
1888.67 539.058 3991
1898.21 539.058 3991
1907.75 539.058 3991
1899.04 533.926 3953
1908.49 533.926 3953
1891.26 526.497 3898
1869.87 517.988 3835
1866.3 514.476 3809
1875.41 514.476 3809
1854.83 506.372 3749
1842.91 500.699 3707
1819.31 491.92 3642
1808.44 486.652 3603
1817.06 486.652 3603
1821.62 485.571 3595
1822.58 483.545 3580
1823.47 481.519 3565
1831.99 481.519 3565
1828.65 478.413 3542
1837.12 478.413 3542
1849.23 479.358 3549
1861.91 480.439 3557
1870.41 480.439 3557
1878.92 480.439 3557
1891.67 481.519 3565
1908.19 483.545 3580
1924.78 485.571 3595
1933.38 485.571 3595
1950.62 487.732 3611
1967.93 489.894 3627
1984.78 491.92 3642
1993.49 491.92 3642
2142.94 526.497 3898
2162.2 528.928 3916
2171.56 528.928 3916
2212.11 536.492 3972
2259.09 545.542 4039
2285.6 549.594 4069
2295.33 549.594 4069
2305.06 549.594 4069
2320.48 550.945 4079
2330.23 550.945 4079
2339.98 550.945 4079
2338.22 548.243 4059
2347.92 548.243 4059
2357.63 548.243 4059
2367.34 548.243 4059
2377.04 548.243 4059
2386.75 548.243 4059
2402.36 549.594 4069
2412.09 549.594 4069
2421.82 549.594 4069
2425.57 548.243 4059
2447.28 550.945 4079
2457.03 550.945 4079
2466.79 550.945 4079
2464.4 548.243 4059
2474.11 548.243 4059
2483.81 548.243 4059
2493.52 548.243 4059
2497.06 546.892 4049
2506.74 546.892 4049
2516.42 546.892 4049
2526.1 546.892 4049
2529.52 545.542 4039
2509.01 539.058 3991
2500.88 535.277 3963
2510.36 535.277 3963
2519.83 535.277 3963
2529.31 535.277 3963
2544.55 536.492 3972
2554.05 536.492 3972
2563.55 536.492 3972
525.378 99.9507 740
527.148 99.9507 740
528.917 99.9507 740
530.687 99.9507 740
532.456 99.9507 740
533.504 99.8156 739
535.271 99.8156 739
537.038 99.8156 739
539.535 99.9507 740
541.304 99.9507 740
543.074 99.9507 740
544.843 99.9507 740
546.613 99.9507 740
548.382 99.9507 740
550.152 99.9507 740
551.922 99.9507 740
553.691 99.9507 740
555.461 99.9507 740
557.23 99.9507 740
559 99.9507 740
560.769 99.9507 740
563.299 100.086 741
565.071 100.086 741
566.843 100.086 741
-2326.29 427.101 3107
-2318.86 427.101 3107
-2306.96 426.276 3101
-2299.55 426.276 3101
-2296.57 427.101 3107
-2289.14 427.101 3107
-2281.71 427.101 3107
-2269.89 426.276 3101
-2274.87 428.613 3118
-2271.78 429.438 3124
-2264.31 429.438 3124
-2265.51 431.087 3136
-2288.25 436.861 3178
-2338.06 447.858 3258
-2330.27 447.858 3258
-2322.48 447.858 3258
-2453.94 474.801 3454
-2445.68 474.801 3454
-2488.94 484.836 3527
-2523.4 493.221 3588
-2542.16 498.582 3627
-2533.49 498.582 3627
-2535.25 500.644 3642
-2549.44 505.18 3675
-2540.65 505.18 3675
-2531.86 505.18 3675
-2523.07 505.18 3675
-2497.18 501.744 3650
-2488.45 501.744 3650
-2474.29 500.644 3642
-2450.01 497.482 3619
-2435.96 496.383 3611
-2427.32 496.383 3611
-2403.28 493.221 3588
-2394.7 493.221 3588
-2386.12 493.221 3588
-2377.54 493.221 3588
-2358.4 491.022 3572
-2345.25 490.059 3565
-2336.73 490.059 3565
-2328.2 490.059 3565
-2319.68 490.059 3565
-2311.15 490.059 3565
-2297.46 488.96 3557
-2288.96 488.96 3557
-2285.58 490.059 3565
-2277.05 490.059 3565
-2278.07 492.121 3580
-2279.02 494.183 3595
-2290.63 498.582 3627
-2281.96 498.582 3627
-2282.69 500.644 3642
-2273.98 500.644 3642
-2265.27 500.644 3642
-2281.97 506.28 3683
-2278.1 507.38 3691
-2274.19 508.479 3699
-2265.34 508.479 3699
-2287 515.353 3749
-2314.49 523.601 3809
-2305.38 523.601 3809
-2296.27 523.601 3809
-2014.71 551.231 4010
-2010.12 552.605 4020
-2034.84 562.09 4089
-2025.06 562.09 4089
-2015.28 562.09 4089
-1985.89 556.592 4049
-1976.21 556.592 4049
-1943.21 549.994 4001
-1933.64 549.994 4001
-1924.08 549.994 4001
-1914.51 549.994 4001
-1904.94 549.994 4001
-1895.37 549.994 4001
-1885.8 549.994 4001
-1876.24 549.994 4001
-1853.14 546.007 3972
-1834.82 543.395 3953
-1825.37 543.395 3953
-1815.92 543.395 3953
-1806.46 543.395 3953
-1797.01 543.395 3953
-1774.9 539.546 3925
-1765.51 539.546 3925
-1748.07 537.072 3907
-1734.72 535.835 3898
-1725.4 535.835 3898
-1716.08 535.835 3898
-1702.82 534.598 3889
-1705.28 538.309 3916
-1695.91 538.309 3916
-1686.55 538.309 3916
-1677.18 538.309 3916
-1660.15 535.835 3898
-1662.27 539.546 3925
-1657.09 540.921 3935
-1647.68 540.921 3935
-1638.27 540.921 3935
-1632.59 542.158 3944
-1623.16 542.158 3944
-1613.72 542.158 3944
-1596.57 539.546 3925
-1565.34 532.123 3871
-1552.47 530.886 3862
-1543.23 530.886 3862
-1526.85 528.412 3844
-1497.13 521.264 3792
-1478.99 521.264 3792
-1469.92 521.264 3792
-1460.85 521.264 3792
-1451.79 521.264 3792
-1442.72 521.264 3792
-1433.65 521.264 3792
-1414.82 517.69 3766
-1405.81 517.69 3766
-1396.8 517.69 3766
-1384.48 516.452 3757
-1366.35 513.016 3732
-1366.51 516.452 3757
-1357.53 516.452 3757
-1348.55 516.452 3757
-1339.56 516.452 3757
-1336.6 518.789 3774
-1345.87 525.937 3826
-1336.72 525.937 3826
-1330.69 527.175 3835
-1321.52 527.175 3835
-1324.67 532.123 3871
-1315.41 532.123 3871
-1321.34 538.309 3916
-1314.99 539.546 3925
-1305.6 539.546 3925
-1296.22 539.546 3925
-598.991 251.147 1827
-594.622 251.147 1827
-589.607 250.872 1825
-583.319 250.047 1819
-578.969 250.047 1819
-573.988 249.772 1817
-567.762 248.947 1811
-561.565 248.123 1805
-553.852 246.61 1794
-549.562 246.61 1794
-545.272 246.61 1794
-540.379 246.336 1792
-533.102 244.961 1782
-528.841 244.961 1782
-523.697 244.549 1779
-513.311 241.662 1758
-505.342 239.875 1745
-501.169 239.875 1745
-495.003 238.912 1738
-488.305 237.675 1729
-481.09 236.163 1718
-476.982 236.163 1718
-470.396 234.926 1709
-465.491 234.514 1706
-460.059 233.826 1701
-454.383 233.002 1695
-450.33 233.002 1695
-444.96 232.314 1690
-440.919 232.314 1690
-435.068 231.352 1683
-431.043 231.352 1683
-426.258 230.94 1680
-421.486 230.527 1677
-416.48 229.977 1673
-412.48 229.977 1673
-408.479 229.977 1673
-404.237 229.84 1672
-399.041 229.153 1667
-395.055 229.153 1667
-390.13 228.603 1663
-385.921 228.465 1662
-381.488 228.19 1660
-377.518 228.19 1660
-373.098 227.915 1658
-368.02 227.228 1653
-363.847 227.091 1652
-359.025 226.541 1648
-355.085 226.541 1648
-350.504 226.128 1645
-345.939 225.716 1642
-341.596 225.441 1640
-337.674 225.441 1640
-333.549 225.304 1639
-329.227 225.029 1637
-325.114 224.891 1636
-321.202 224.891 1636
-317.289 224.891 1636
-312.42 224.204 1631
-308.141 223.929 1629
-304.246 223.929 1629
-299.797 223.517 1626
-295.545 223.242 1624
-291.482 223.104 1623
-287.601 223.104 1623
-283.72 223.104 1623
-278.976 222.417 1618
-274.937 222.279 1617
-271.07 222.279 1617
-266.873 222.004 1615
-262.686 221.729 1613
-258.347 221.317 1610
-254.497 221.317 1610
-250.647 221.317 1610
-246.797 221.317 1610
-243.4 221.729 1613
-239.543 221.729 1613
-235.685 221.729 1613
-231.828 221.729 1613
-228.254 222.004 1615
-224.809 222.417 1618
-221.622 223.104 1623
-217.741 223.104 1623
-214.519 223.791 1628
-211.014 224.204 1631
-207.749 224.891 1636
-203.836 224.891 1636
-201.391 226.541 1648
-198.049 227.228 1653
-195.153 228.465 1662
-191.179 228.465 1662
-188.331 229.84 1672
-185.214 230.94 1680
-182.275 232.314 1690
-178.234 232.314 1690
-174.605 232.864 1694
-170.655 233.002 1695
-167.191 233.826 1701
-163.124 233.826 1701
-159.056 233.826 1701
-154.989 233.826 1701
-150.921 233.826 1701
-146.853 233.826 1701
-142.618 233.551 1699
-138.555 233.551 1699
-134.492 233.551 1699
-130.429 233.551 1699
-126.59 233.964 1702
-122.52 233.964 1702
-118.45 233.964 1702
-242.458 555.217 4039
-232.8 555.217 4039
-223.141 555.217 4039
-213.483 555.217 4039
-203.824 555.217 4039
-194.166 555.217 4039
-184.507 555.217 4039
-174.459 553.98 4030
-164.822 553.98 4030
-154.415 551.231 4010
-145.873 555.217 4039
-136.215 555.217 4039
-126.87 556.592 4049
-117.477 557.966 4059
-108.302 560.716 4079
-98.5474 560.716 4079
-88.7933 560.716 4079
252.601 560.716 4079
262.355 560.716 4079
272.109 560.716 4079
281.863 560.716 4079
291.618 560.716 4079
299.155 556.592 4049
304.414 548.619 3991
312.463 546.007 3972
321.961 546.007 3972
330.708 544.77 3963
336.923 539.546 3925
344.721 537.072 3907
355.695 539.546 3925
366.011 540.921 3935
375.421 540.921 3935
384.83 540.921 3935
390.533 535.835 3898
399.854 535.835 3898
405.397 530.886 3862
408.942 523.601 3809
408.721 511.916 3724
417.626 511.916 3724
421.836 506.28 3683
425.849 500.644 3642
430.859 496.383 3611
439.494 496.383 3611
444.282 492.121 3580
446.139 484.836 3527
452.64 482.774 3512
458.15 479.749 3490
466.495 479.749 3490
470.895 475.763 3461
478.203 474.801 3454
485.476 473.839 3447
496.727 476.725 3468
505.02 476.725 3468
514.497 477.825 3476
523.862 478.787 3483
535.553 481.811 3505
543.934 481.811 3505
555.782 484.836 3527
577.654 496.383 3611
601.876 509.579 3707
610.74 509.579 3707
630.804 518.789 3774
639.828 518.789 3774
692.866 553.98 4030
702.503 553.98 4030
715.498 556.592 4049
725.18 556.592 4049
734.863 556.592 4049
744.545 556.592 4049
754.227 556.592 4049
763.91 556.592 4049
773.592 556.592 4049
777.665 552.605 4020
787.278 552.605 4020
794.908 551.231 4010
804.497 551.231 4010
812.259 549.994 4001
817.924 547.382 3982
827.446 547.382 3982
838.86 548.619 3991
848.404 548.619 3991
857.948 548.619 3991
867.491 548.619 3991
887.583 555.217 4039
897.242 555.217 4039
906.9 555.217 4039
916.559 555.217 4039
921.86 552.605 4020
931.473 552.605 4020
936.638 549.994 4001
943.841 548.619 3991
951.235 547.382 3982
960.757 547.382 3982
970.279 547.382 3982
975.126 544.77 3963
984.603 544.77 3963
994.08 544.77 3963
996.466 540.921 3935
1001.02 538.309 3916
1010.38 538.309 3916
1019.75 538.309 3916
1029.11 538.309 3916
1036.09 537.072 3907
1043.02 535.835 3898
1042.63 530.886 3862
1051.86 530.886 3862
1061.1 530.886 3862
1062.85 527.175 3835
1069.5 525.937 3826
1078.65 525.937 3826
1087.8 525.937 3826
1096.95 525.937 3826
1113.91 529.649 3853
1123.12 529.649 3853
1132.33 529.649 3853
1152.21 534.598 3889
1164.2 535.835 3898
1176.23 537.072 3907
1185.57 537.072 3907
1203.48 540.921 3935
1227.38 547.382 3982
1239.7 548.619 3991
1249.24 548.619 3991
1258.78 548.619 3991
1268.33 548.619 3991
1277.87 548.619 3991
1287.41 548.619 3991
1296.96 548.619 3991
1312.72 551.231 4010
1328.91 553.98 4030
1341.53 555.217 4039
1351.19 555.217 4039
1364.22 556.592 4049
1373.9 556.592 4049
1383.58 556.592 4049
1393.26 556.592 4049
1392.9 552.605 4020
1402.51 552.605 4020
1412.13 552.605 4020
1418.2 551.231 4010
1417.82 547.382 3982
1420.53 544.77 3963
1430.01 544.77 3963
1439.49 544.77 3963
1452.25 546.007 3972
1468.74 548.619 3991
1489.03 552.605 4020
1509.45 556.592 4049
1519.14 556.592 4049
1532.59 557.966 4059
1542.3 557.966 4059
1552.01 557.966 4059
1554.02 555.217 4039
1526.9 542.158 3944
1543.73 544.77 3963
1598.67 560.716 4079
1608.42 560.716 4079
1618.18 560.716 4079
1627.93 560.716 4079
1641.7 562.09 4089
1651.48 562.09 4089
1661.26 562.09 4089
1671.04 562.09 4089
1680.81 562.09 4089
1690.59 562.09 4089
1700.37 562.09 4089
1701.78 559.341 4069
1711.51 559.341 4069
1717.01 557.966 4059
1726.72 557.966 4059
1736.43 557.966 4059
1741.83 556.592 4049
1751.51 556.592 4049
1761.2 556.592 4049
1770.88 556.592 4049
1780.56 556.592 4049
1790.24 556.592 4049
1795.48 555.217 4039
1801.12 553.98 4030
1806.26 552.605 4020
1815.87 552.605 4020
1825.49 552.605 4020
1835.1 552.605 4020
1840.12 551.231 4010
1849.71 551.231 4010
1846.32 547.382 3982
1851.18 546.007 3972
1860.68 546.007 3972
1874.89 547.382 3982
1888.67 548.619 3991
1898.21 548.619 3991
1907.75 548.619 3991
1903.85 544.77 3963
1913.32 544.77 3963
1917.95 543.395 3953
1904.97 537.072 3907
1896.68 532.123 3871
1905.93 532.123 3871
1884.51 523.601 3809
1863.79 515.353 3749
1835.79 505.18 3675
1828.02 500.644 3642
1836.73 500.644 3642
1841.89 499.682 3635
1838.36 496.383 3611
1831.14 492.121 3580
1839.7 492.121 3580
1840.52 490.059 3565
1844.9 488.96 3557
1857.57 490.059 3565
1881.8 494.183 3595
1890.39 494.183 3595
1898.99 494.183 3595
1899.63 492.121 3580
1912.45 493.221 3588
1929.07 495.283 3603
1937.68 495.283 3603
1954.94 497.482 3619
1976.07 500.644 3642
2002.77 505.18 3675
2011.55 505.18 3675
2128.09 532.123 3871
2152.26 535.835 3898
2166.57 537.072 3907
2207.1 544.77 3963
2232.24 548.619 3991
2274.36 556.592 4049
2289.69 557.966 4059
2299.39 557.966 4059
2309.1 557.966 4059
2318.8 557.966 4059
2328.51 557.966 4059
2326.7 555.217 4039
2325.36 552.605 4020
2351.82 556.592 4049
2367.34 557.966 4059
2377.04 557.966 4059
2386.75 557.966 4059
2402.36 559.341 4069
2412.09 559.341 4069
2421.82 559.341 4069
2425.57 557.966 4059
2429.28 556.592 4049
2438.96 556.592 4049
2448.65 556.592 4049
2446.79 553.98 4030
2456.43 553.98 4030
2466.07 553.98 4030
2475.7 553.98 4030
2485.34 553.98 4030
2500.55 555.217 4039
2510.21 555.217 4039
2519.87 555.217 4039
2517.62 552.605 4020
2509.01 548.619 3991
2512.87 547.382 3982
2522.39 547.382 3982
2531.91 547.382 3982
2535.05 546.007 3972
2544.55 546.007 3972
2554.05 546.007 3972
2504.17 533.36 3880
2473.29 524.838 3818
2470.71 522.363 3800
525.378 101.723 740
527.148 101.723 740
528.917 101.723 740
530.687 101.723 740
532.456 101.723 740
533.504 101.586 739
535.271 101.586 739
537.038 101.586 739
538.805 101.586 739
541.304 101.723 740
543.074 101.723 740
544.843 101.723 740
546.613 101.723 740
548.382 101.723 740
549.409 101.586 739
551.176 101.586 739
552.943 101.586 739
554.71 101.586 739
556.477 101.586 739
558.244 101.586 739
560.769 101.723 740
562.539 101.723 740
564.308 101.723 740
566.078 101.723 740
-2321.79 433.704 3101
-2314.38 433.704 3101
-2306.96 433.704 3101
-2299.55 433.704 3101
-2296.57 434.544 3107
-2289.14 434.544 3107
-2281.71 434.544 3107
-2261.1 432.026 3089
-2262.47 433.704 3101
-2271.78 436.921 3124
-2264.31 436.921 3124
-2265.51 438.6 3136
-2266.65 440.278 3148
-2306.49 449.509 3214
-2298.8 449.509 3214
-2291.12 449.509 3214
-2453.94 483.075 3454
-2445.68 483.075 3454
-2473.41 490.208 3505
-2545.21 506.152 3619
-2542.16 507.271 3627
-2533.49 507.271 3627
-2558.23 513.984 3675
-2560.54 516.222 3691
-2551.71 516.222 3691
-2542.88 516.222 3691
-2534.06 516.222 3691
-2514.29 513.984 3675
-2505.5 513.984 3675
-2496.71 513.984 3675
-2465.58 509.368 3642
-2441.36 506.152 3619
-2432.7 506.152 3619
-2418.69 505.033 3611
-2394.7 501.816 3588
-2386.12 501.816 3588
-2377.54 501.816 3588
-2368.96 501.816 3588
-2349.86 499.578 3572
-2346.56 500.697 3580
-2338 500.697 3580
-2329.44 500.697 3580
-2320.88 500.697 3580
-2307.15 499.578 3572
-2294.1 498.599 3565
-2295.19 500.697 3580
-2286.63 500.697 3580
-2283.16 501.816 3588
-2284.09 503.914 3603
-2300.11 509.368 3642
-2291.4 509.368 3642
-2292.72 511.606 3658
-2299.58 515.103 3683
-2290.77 515.103 3683
-2286.92 516.222 3691
-2287.97 518.459 3707
-2289.56 520.837 3724
-2280.65 520.837 3724
-2302.25 527.83 3774
-2314.49 532.725 3809
-2305.38 532.725 3809
-2296.27 532.725 3809
-2287.17 532.725 3809
-2034.84 571.886 4089
-2025.06 571.886 4089
-2015.28 571.886 4089
-2005.51 571.886 4089
-1995.73 571.886 4089
-1966.52 566.291 4049
-1942.83 562.235 4020
-1933.21 562.235 4020
-1923.6 562.235 4020
-1913.99 562.235 4020
-1899.64 560.837 4010
-1885.8 559.578 4001
-1876.24 559.578 4001
-1848.94 554.263 3963
-1834.82 552.865 3953
-1817.06 550.347 3935
-1815.92 552.865 3953
-1806.46 552.865 3953
-1797.01 552.865 3953
-1779.42 550.347 3935
-1770.01 550.347 3935
-1748.07 546.431 3907
-1730.72 543.914 3889
-1721.42 543.914 3889
-1712.12 543.914 3889
-1702.82 543.914 3889
-1701.36 546.431 3907
-1692.01 546.431 3907
-1682.67 546.431 3907
-1673.33 546.431 3907
-1660.15 545.172 3898
-1666.5 550.347 3935
-1657.09 550.347 3935
-1651.45 551.606 3944
-1642.02 551.606 3944
-1644.18 555.522 3972
-1634.68 555.522 3972
-1625.18 555.522 3972
-1615.68 555.522 3972
-1565.34 541.396 3871
-1545.23 537.62 3844
-1536.04 537.62 3844
-1519.7 535.103 3826
-1507.39 533.984 3818
-1478.99 530.347 3792
-1469.92 530.347 3792
-1467.4 532.725 3809
-1458.3 532.725 3809
-1449.19 532.725 3809
-1440.08 532.725 3809
-1427.59 531.466 3800
-1405.81 526.711 3766
-1396.8 526.711 3766
-1387.8 526.711 3766
-1375.5 525.452 3757
-1366.51 525.452 3757
-1357.53 525.452 3757
-1348.55 525.452 3757
-1339.56 525.452 3757
-1339.79 529.089 3783
-1345.87 535.103 3826
-1336.72 535.103 3826
-1340.06 540.138 3862
-1330.82 540.138 3862
-1324.67 541.396 3871
-1315.41 541.396 3871
-1321.34 547.69 3916
-1314.99 548.949 3925
-1305.6 548.949 3925
-1296.22 548.949 3925
-598.336 255.244 1825
-593.972 255.244 1825
-588.315 254.684 1821
-583.319 254.405 1819
-578.969 254.405 1819
-573.988 254.125 1817
-569.016 253.845 1815
-561.253 252.307 1804
-556.322 252.027 1802
-552.013 252.027 1802
-545.272 250.908 1794
-540.379 250.628 1792
-533.102 249.23 1782
-528.841 249.23 1782
-523.697 248.81 1779
-513.311 245.873 1758
-505.342 244.055 1745
-501.169 244.055 1745
-495.003 243.076 1738
-488.305 241.817 1729
-481.09 240.279 1718
-476.982 240.279 1718
-470.396 239.02 1709
-465.491 238.6 1706
-460.059 237.901 1701
-454.383 237.062 1695
-450.33 237.062 1695
-444.96 236.363 1690
-440.919 236.363 1690
-435.068 235.384 1683
-431.043 235.384 1683
-426.258 234.964 1680
-421.486 234.544 1677
-416.48 233.985 1673
-412.48 233.985 1673
-408.479 233.985 1673
-404.237 233.845 1672
-399.041 233.146 1667
-395.055 233.146 1667
-390.13 232.586 1663
-385.921 232.447 1662
-381.488 232.167 1660
-377.518 232.167 1660
-373.098 231.887 1658
-368.02 231.188 1653
-363.847 231.048 1652
-359.025 230.489 1648
-355.085 230.489 1648
-350.504 230.069 1645
-345.939 229.649 1642
-341.596 229.37 1640
-337.674 229.37 1640
-333.549 229.23 1639
-329.227 228.95 1637
-325.114 228.81 1636
-321.202 228.81 1636
-317.289 228.81 1636
-312.42 228.111 1631
-308.141 227.831 1629
-304.246 227.831 1629
-299.797 227.412 1626
-295.545 227.132 1624
-291.482 226.992 1623
-287.601 226.992 1623
-283.72 226.992 1623
-278.976 226.293 1618
-274.937 226.153 1617
-271.07 226.153 1617
-266.873 225.873 1615
-262.686 225.593 1613
-258.347 225.174 1610
-254.497 225.174 1610
-250.647 225.174 1610
-246.797 225.174 1610
-243.4 225.593 1613
-239.543 225.593 1613
-235.685 225.593 1613
-231.828 225.593 1613
-228.254 225.873 1615
-224.809 226.293 1618
-221.622 226.992 1623
-217.741 226.992 1623
-214.519 227.691 1628
-211.014 228.111 1631
-207.749 228.81 1636
-203.836 228.81 1636
-201.391 230.489 1648
-198.049 231.188 1653
-195.153 232.447 1662
-191.179 232.447 1662
-188.331 233.845 1672
-185.214 234.964 1680
-182.275 236.363 1690
-178.234 236.363 1690
-174.605 236.922 1694
-170.655 237.062 1695
-167.191 237.901 1701
-163.124 237.901 1701
-159.056 237.901 1701
-154.989 237.901 1701
-150.921 237.901 1701
-146.853 237.901 1701
-142.618 237.621 1699
-138.555 237.621 1699
-134.492 237.621 1699
-130.429 237.621 1699
-126.367 237.621 1699
-122.304 237.621 1699
-118.241 237.621 1699
-240.717 560.837 4010
-231.128 560.837 4010
-221.539 560.837 4010
-212.478 562.235 4020
-203.824 564.893 4039
-194.166 564.893 4039
-184.507 564.893 4039
-174.459 563.634 4030
-164.822 563.634 4030
-154.415 560.837 4010
-145.873 564.893 4039
-136.215 564.893 4039
-126.87 566.291 4049
-117.477 567.69 4059
-108.302 570.487 4079
-98.5474 570.487 4079
-88.7933 570.487 4079
252.601 570.487 4079
262.355 570.487 4079
272.109 570.487 4079
281.863 570.487 4079
291.618 570.487 4079
297.013 562.235 4020
303.727 556.921 3982
310.26 551.606 3944
319.691 551.606 3944
328.372 550.347 3935
336.923 548.949 3925
343.133 543.914 3889
353.248 545.172 3898
362.569 545.172 3898
371.891 545.172 3898
381.212 545.172 3898
387.828 541.396 3871
397.085 541.396 3871
401.618 535.103 3826
407.117 530.347 3792
408.721 520.837 3724
417.626 520.837 3724
420.919 513.984 3675
425.849 509.368 3642
430.859 505.033 3611
439.494 505.033 3611
444.282 500.697 3580
446.139 493.285 3527
451.737 490.208 3505
458.15 488.11 3490
466.495 488.11 3490
470.895 484.054 3461
476.264 481.117 3440
485.476 482.096 3447
496.727 485.033 3468
505.02 485.033 3468
514.497 486.152 3476
523.862 487.131 3483
535.553 490.208 3505
543.934 490.208 3505
555.782 493.285 3527
577.654 505.033 3611
599.278 516.222 3691
608.104 516.222 3691
626.625 524.333 3749
635.59 524.333 3749
684.614 556.921 3982
694.136 556.921 3982
710.373 562.235 4020
721.777 563.634 4030
733.048 564.893 4039
742.706 564.893 4039
752.365 564.893 4039
758.438 562.235 4020
768.052 562.235 4020
775.73 560.837 4010
783.557 559.578 4001
793.124 559.578 4001
802.692 559.578 4001
808.402 556.921 3982
815.87 555.522 3972
825.369 555.522 3972
834.867 555.522 3972
844.365 555.522 3972
853.863 555.522 3972
867.491 558.179 3991
881.21 560.837 4010
893.021 562.235 4020
902.634 562.235 4020
912.247 562.235 4020
917.503 559.578 4001
927.071 559.578 4001
934.297 558.179 3991
941.713 556.921 3982
948.846 555.522 3972
958.344 555.522 3972
965.649 554.263 3963
972.666 552.865 3953
977.646 550.347 3935
987.056 550.347 3935
991.654 547.69 3916
998.718 546.431 3907
1005.74 545.172 3898
1015.06 545.172 3898
1024.38 545.172 3898
1028.93 542.655 3880
1033.39 540.138 3862
1037.77 537.62 3844
1046.96 537.62 3844
1053.68 536.361 3835
1058.14 533.984 3818
1062.24 531.466 3800
1073.86 532.725 3809
1082.97 532.725 3809
1092.08 532.725 3809
1103.79 533.984 3818
1112.92 533.984 3818
1122.05 533.984 3818
1136.21 536.361 3835
1148.07 537.62 3844
1165.39 541.396 3871
1174.65 541.396 3871
1194.92 546.431 3907
1212.89 550.347 3935
1231 554.263 3963
1240.47 554.263 3963
1255.94 556.921 3982
1265.47 556.921 3982
1277.87 558.179 3991
1287.41 558.179 3991
1296.96 558.179 3991
1312.72 560.837 4010
1328.91 563.634 4030
1341.53 564.893 4039
1351.19 564.893 4039
1364.22 566.291 4049
1373.9 566.291 4049
1383.58 566.291 4049
1393.26 566.291 4049
1392.9 562.235 4020
1402.51 562.235 4020
1412.13 562.235 4020
1418.2 560.837 4010
1417.82 556.921 3982
1420.53 554.263 3963
1430.01 554.263 3963
1439.49 554.263 3963
1452.25 555.522 3972
1468.74 558.179 3991
1489.03 562.235 4020
1509.45 566.291 4049
1519.14 566.291 4049
1532.59 567.69 4059
1542.3 567.69 4059
1552.01 567.69 4059
1554.02 564.893 4039
1526.9 551.606 3944
1543.73 554.263 3963
1598.67 570.487 4079
1608.42 570.487 4079
1618.18 570.487 4079
1627.93 570.487 4079
1641.7 571.886 4089
1651.48 571.886 4089
1661.26 571.886 4089
1671.04 571.886 4089
1680.81 571.886 4089
1690.59 571.886 4089
1700.37 571.886 4089
1701.78 569.088 4069
1711.51 569.088 4069
1717.01 567.69 4059
1726.72 567.69 4059
1736.43 567.69 4059
1741.83 566.291 4049
1751.51 566.291 4049
1761.2 566.291 4049
1770.88 566.291 4049
1780.56 566.291 4049
1790.24 566.291 4049
1795.48 564.893 4039
1801.12 563.634 4030
1806.26 562.235 4020
1815.87 562.235 4020
1825.49 562.235 4020
1835.1 562.235 4020
1840.12 560.837 4010
1849.71 560.837 4010
1846.32 556.921 3982
1851.18 555.522 3972
1860.68 555.522 3972
1874.89 556.921 3982
1888.67 558.179 3991
1898.21 558.179 3991
1907.75 558.179 3991
1903.85 554.263 3963
1913.32 554.263 3963
1917.95 552.865 3953
1904.97 546.431 3907
1901.09 542.655 3880
1910.36 542.655 3880
1901.83 537.62 3844
1863.79 524.333 3749
1835.79 513.984 3675
1832.03 510.487 3650
1840.76 510.487 3650
1845.44 509.368 3642
1846.51 507.271 3627
1847 505.033 3611
1855.63 505.033 3611
1848.26 500.697 3580
1852.68 499.578 3572
1873.2 502.795 3595
1881.8 502.795 3595
1890.39 502.795 3595
1898.99 502.795 3595
1907.59 502.795 3595
1916.19 502.795 3595
1929.07 503.914 3603
1946.29 506.152 3619
1963.58 508.389 3635
1984.75 511.606 3658
2007.13 515.103 3683
2015.93 515.103 3683
2128.09 541.396 3871
2152.26 545.172 3898
2166.57 546.431 3907
2207.1 554.263 3963
2232.24 558.179 3991
2274.36 566.291 4049
2289.69 567.69 4059
2299.39 567.69 4059
2309.1 567.69 4059
2318.8 567.69 4059
2328.51 567.69 4059
2326.7 564.893 4039
2325.36 562.235 4020
2351.82 566.291 4049
2367.34 567.69 4059
2377.04 567.69 4059
2386.75 567.69 4059
2402.36 569.088 4069
2412.09 569.088 4069
2421.82 569.088 4069
2425.57 567.69 4059
2429.28 566.291 4049
2438.96 566.291 4049
2448.65 566.291 4049
2446.79 563.634 4030
2456.43 563.634 4030
2466.07 563.634 4030
2475.7 563.634 4030
2485.34 563.634 4030
2500.55 564.893 4039
2510.21 564.893 4039
2519.87 564.893 4039
2517.62 562.235 4020
2509.01 558.179 3991
2512.87 556.921 3982
2522.39 556.921 3982
2531.91 556.921 3982
2541.44 556.921 3982
2550.96 556.921 3982
2560.48 556.921 3982
2527.41 547.69 3916
2490.13 537.62 3844
2516.88 541.396 3871
2526.13 541.396 3871
2535.39 541.396 3871
2544.65 541.396 3871
525.378 103.496 740
527.148 103.496 740
528.917 103.496 740
530.687 103.496 740
532.456 103.496 740
534.226 103.496 740
535.271 103.356 739
537.038 103.356 739
538.805 103.356 739
541.304 103.496 740
543.074 103.496 740
544.843 103.496 740
546.613 103.496 740
548.382 103.496 740
549.409 103.356 739
551.176 103.356 739
552.943 103.356 739
554.71 103.356 739
556.477 103.356 739
558.244 103.356 739
560.769 103.496 740
562.539 103.496 740
564.308 103.496 740
566.078 103.496 740
-2321.79 441.133 3101
-2314.38 441.133 3101
-2306.96 441.133 3101
-2299.55 441.133 3101
-2292.13 441.133 3101
-2284.72 441.133 3101
-2264.82 438.715 3084
-2257.44 438.715 3084
-2253.72 439.426 3089
-2263.06 442.698 3112
-2255.61 442.698 3112
-2261.18 445.258 3130
-2266.65 447.819 3148
-2302.18 456.354 3208
-2294.51 456.354 3208
-2286.84 456.354 3208
-2469.57 494.479 3476
-2461.26 494.479 3476
-2473.41 498.604 3505
-2545.21 514.821 3619
-2542.16 515.959 3627
-2533.49 515.959 3627
-2563.79 523.925 3683
-2560.54 525.063 3691
-2562.77 527.339 3707
-2553.91 527.339 3707
-2545.04 527.339 3707
-2525.23 525.063 3691
-2516.41 525.063 3691
-2507.58 525.063 3691
-2482.51 521.649 3667
-2462.27 519.231 3650
-2453.54 519.231 3650
-2424.05 514.821 3619
-2415.39 514.821 3619
-2406.74 514.821 3619
-2398.09 514.821 3619
-2378.87 512.545 3603
-2364.99 511.407 3595
-2361.64 512.545 3603
-2353.02 512.545 3603
-2344.4 512.545 3603
-2330.6 511.407 3595
-2322.01 511.407 3595
-2313.41 511.407 3595
-2300.32 510.411 3588
-2291.74 510.411 3588
-2287.62 511.407 3595
-2289.16 513.683 3611
-2300.11 518.093 3642
-2291.4 518.093 3642
-2292.72 520.369 3658
-2299.58 523.925 3683
-2290.77 523.925 3683
-2286.92 525.063 3691
-2287.97 527.339 3707
-2289.56 529.758 3724
-2280.65 529.758 3724
-2318.11 540.569 3800
-2314.49 541.849 3809
-2305.38 541.849 3809
-2296.27 541.849 3809
-2287.17 541.849 3809
-2015.28 581.681 4089
-2005.51 581.681 4089
-1995.73 581.681 4089
-1971.38 577.413 4059
-1947.66 573.288 4030
-1933.21 571.865 4020
-1923.6 571.865 4020
-1913.99 571.865 4020
-1904.37 571.865 4020
-1885.8 569.162 4001
-1876.24 569.162 4001
-1848.94 563.757 3963
-1834.82 562.334 3953
-1817.06 559.774 3935
-1815.92 562.334 3953
-1806.46 562.334 3953
-1797.01 562.334 3953
-1779.42 559.774 3935
-1770.01 559.774 3935
-1752.1 557.071 3916
-1722.71 550.669 3871
-1713.45 550.669 3871
-1704.19 550.669 3871
-1694.94 550.669 3871
-1701.36 555.79 3907
-1692.01 555.79 3907
-1682.67 555.79 3907
-1673.33 555.79 3907
-1667.82 557.071 3916
-1666.5 559.774 3935
-1660.88 561.054 3944
-1655.22 562.334 3953
-1645.77 562.334 3953
-1644.18 565.037 3972
-1634.68 565.037 3972
-1625.18 565.037 3972
-1615.68 565.037 3972
-1568.98 551.95 3880
-1548.85 548.109 3853
-1539.64 548.109 3853
-1530.42 548.109 3853
-1521.21 548.109 3853
-1512 548.109 3853
-1502.78 548.109 3853
-1490.08 546.828 3844
-1480.89 546.828 3844
-1471.7 546.828 3844
-1462.5 546.828 3844
-1449.91 545.548 3835
-1430.97 541.849 3809
-1421.86 541.849 3809
-1412.75 541.849 3809
-1390.75 536.871 3774
-1378.79 535.733 3766
-1369.79 535.733 3766
-1360.78 535.733 3766
-1351.78 535.733 3766
-1342.77 535.733 3766
-1342.97 539.431 3792
-1349.03 545.548 3835
-1339.86 545.548 3835
-1340.06 549.389 3862
-1330.82 549.389 3862
-1324.67 550.669 3871
-1315.41 550.669 3871
-1312.23 553.23 3889
-1314.99 558.351 3925
-1305.6 558.351 3925
-1296.22 558.351 3925
-596.369 258.762 1819
-592.019 258.762 1819
-587.669 258.762 1819
-582.678 258.477 1817
-578.333 258.477 1817
-573.988 258.477 1817
-569.016 258.193 1815
-562.187 257.055 1807
-556.939 256.628 1804
-552.626 256.628 1804
-547.096 256.059 1800
-541.585 255.49 1796
-535.496 254.637 1790
-531.215 254.637 1790
-523.991 253.214 1780
-513.311 250.084 1758
-506.5 248.804 1749
-502.318 248.804 1749
-495.572 247.524 1740
-488.87 246.243 1731
-482.21 244.963 1722
-478.092 244.963 1722
-471.497 243.683 1713
-466.31 243.114 1709
-461.411 242.687 1706
-454.919 241.407 1697
-450.861 241.407 1697
-446.013 240.98 1694
-440.919 240.411 1690
-435.068 239.415 1683
-431.043 239.415 1683
-426.765 239.273 1682
-420.984 238.277 1675
-416.48 237.993 1673
-412.48 237.993 1673
-408.479 237.993 1673
-404.237 237.85 1672
-399.041 237.139 1667
-395.055 237.139 1667
-390.13 236.57 1663
-385.921 236.428 1662
-381.488 236.143 1660
-377.518 236.143 1660
-373.098 235.859 1658
-368.02 235.148 1653
-363.847 235.005 1652
-359.025 234.436 1648
-355.085 234.436 1648
-350.931 234.294 1647
-345.939 233.583 1642
-341.596 233.298 1640
-337.674 233.298 1640
-333.549 233.156 1639
-329.227 232.872 1637
-325.313 232.872 1637
-321.398 232.872 1637
-317.289 232.729 1636
-312.42 232.018 1631
-307.952 231.591 1628
-304.059 231.591 1628
-299.428 231.022 1624
-295.545 231.022 1624
-291.482 230.88 1623
-287.601 230.88 1623
-283.72 230.88 1623
-278.976 230.169 1618
-274.937 230.026 1617
-271.07 230.026 1617
-267.204 230.026 1617
-263.011 229.742 1615
-258.668 229.315 1612
-254.497 229.031 1610
-251.114 229.457 1613
-247.257 229.457 1613
-243.701 229.742 1615
-239.84 229.742 1615
-236.27 230.026 1617
-232.403 230.026 1617
-228.536 230.026 1617
-225.086 230.453 1620
-222.032 231.307 1626
-218.144 231.307 1626
-214.914 232.018 1631
-211.402 232.445 1634
-208.257 233.298 1640
-204.335 233.298 1640
-201.88 235.005 1652
-198.888 236.143 1660
-195.857 237.281 1668
-191.869 237.281 1668
-188.668 238.277 1675
-185.545 239.415 1683
-182.491 240.696 1692
-178.445 240.696 1692
-174.605 240.98 1694
-170.655 241.122 1695
-167.191 241.976 1701
-163.124 241.976 1701
-159.056 241.976 1701
-154.989 241.976 1701
-150.921 241.976 1701
-146.853 241.976 1701
-142.618 241.691 1699
-138.555 241.691 1699
-134.492 241.691 1699
-130.429 241.691 1699
-126.59 242.118 1702
-122.52 242.118 1702
-118.45 242.118 1702
-114.38 242.118 1702
-239.577 567.74 3991
-230.033 567.74 3991
-220.489 567.74 3991
-211.474 569.162 4001
-202.865 571.865 4020
-193.733 573.288 4030
-184.096 573.288 4030
-174.459 573.288 4030
-164.822 573.288 4030
-154.415 570.443 4010
-145.873 574.568 4039
-136.215 574.568 4039
-126.87 575.991 4049
-117.477 577.413 4059
-108.302 580.258 4079
-98.5474 580.258 4079
-88.7933 580.258 4079
242.847 580.258 4079
252.601 580.258 4079
262.355 580.258 4079
272.109 580.258 4079
278.478 573.288 4030
288.115 573.288 4030
295.609 569.162 4001
300.829 561.054 3944
309.552 559.774 3935
318.962 559.774 3935
327.537 558.351 3925
334.605 554.51 3898
343.133 553.23 3889
353.248 554.51 3898
362.569 554.51 3898
371.891 554.51 3898
381.212 554.51 3898
387.828 550.669 3871
397.085 550.669 3871
401.618 544.268 3826
407.117 539.431 3792
408.721 529.758 3724
417.626 529.758 3724
420.919 522.787 3675
425.849 518.093 3642
430.859 513.683 3611
439.494 513.683 3611
444.282 509.273 3580
446.139 501.734 3527
451.737 498.604 3505
458.15 496.47 3490
466.495 496.47 3490
469.943 491.349 3454
476.264 489.357 3440
485.476 490.353 3447
496.727 493.341 3468
505.02 493.341 3468
514.497 494.479 3476
523.862 495.474 3483
535.553 498.604 3505
543.934 498.604 3505
555.782 501.734 3527
577.654 513.683 3611
599.278 525.063 3691
608.104 525.063 3691
626.625 533.314 3749
635.59 533.314 3749
678.081 561.054 3944
687.512 561.054 3944
703.658 566.46 3982
714.792 567.74 3991
726.151 569.162 4001
735.719 569.162 4001
745.286 569.162 4001
754.854 569.162 4001
764.421 569.162 4001
768.379 565.037 3972
776.115 563.757 3963
783.609 562.334 3953
793.062 562.334 3953
800.688 561.054 3944
810.119 561.054 3944
821.42 562.334 3953
830.873 562.334 3953
840.326 562.334 3953
849.779 562.334 3953
859.232 562.334 3953
870.882 563.757 3963
888.8 569.162 4001
898.368 569.162 4001
907.935 569.162 4001
915.21 567.74 3991
924.754 567.74 3991
932.19 566.46 3982
937.219 563.757 3963
944.307 562.334 3953
953.76 562.334 3953
963.213 562.334 3953
968.237 559.774 3935
972.926 557.071 3916
982.29 557.071 3916
989.375 555.79 3907
996.418 554.51 3898
1001.09 551.95 3880
1010.37 551.95 3880
1019.65 551.95 3880
1021.77 548.109 3853
1028.57 546.828 3844
1035.34 545.548 3835
1044.51 545.548 3835
1049.01 543.13 3818
1053.15 540.569 3800
1060 539.431 3792
1069.07 539.431 3792
1078.14 539.431 3792
1087.2 539.431 3792
1101.19 541.849 3809
1110.29 541.849 3809
1119.4 541.849 3809
1128.51 541.849 3809
1140.31 543.13 3818
1157.27 546.828 3844
1166.46 546.828 3844
1181.15 549.389 3862
1201.49 554.51 3898
1216.4 557.071 3916
1228.58 558.351 3925
1237.97 558.351 3925
1253.39 561.054 3944
1265.7 562.334 3953
1278.38 563.757 3963
1287.86 563.757 3963
1306.5 567.74 3991
1322.31 570.443 4010
1341.53 574.568 4039
1351.19 574.568 4039
1364.22 575.991 4049
1373.9 575.991 4049
1383.58 575.991 4049
1393.26 575.991 4049
1392.9 571.865 4020
1402.51 571.865 4020
1412.13 571.865 4020
1418.2 570.443 4010
1414.26 565.037 3972
1420.53 563.757 3963
1430.01 563.757 3963
1439.49 563.757 3963
1452.25 565.037 3972
1468.74 567.74 3991
1489.03 571.865 4020
1509.45 575.991 4049
1519.14 575.991 4049
1532.59 577.413 4059
1542.3 577.413 4059
1552.01 577.413 4059
1550.56 573.288 4030
1526.9 561.054 3944
1543.73 563.757 3963
1598.67 580.258 4079
1608.42 580.258 4079
1618.18 580.258 4079
1627.93 580.258 4079
1637.69 580.258 4079
1647.44 580.258 4079
1657.2 580.258 4079
1666.95 580.258 4079
1676.7 580.258 4079
1686.46 580.258 4079
1692.05 578.836 4069
1685.47 573.288 4030
1695.11 573.288 4030
1704.75 573.288 4030
1714.38 573.288 4030
1724.02 573.288 4030
1733.66 573.288 4030
1743.29 573.288 4030
1752.93 573.288 4030
1766.5 574.568 4039
1776.16 574.568 4039
1785.82 574.568 4039
1791.48 573.288 4030
1796.65 571.865 4020
1806.26 571.865 4020
1815.87 571.865 4020
1820.94 570.443 4010
1830.53 570.443 4010
1835.99 569.162 4001
1845.56 569.162 4001
1846.32 566.46 3982
1851.18 565.037 3972
1860.68 565.037 3972
1874.89 566.46 3982
1888.67 567.74 3991
1898.21 567.74 3991
1907.75 567.74 3991
1903.85 563.757 3963
1913.32 563.757 3963
1917.95 562.334 3953
1904.97 555.79 3907
1901.09 551.95 3880
1910.36 551.95 3880
1901.83 546.828 3844
1863.79 533.314 3749
1835.79 522.787 3675
1832.03 519.231 3650
1840.76 519.231 3650
1845.44 518.093 3642
1846.51 515.959 3627
1847 513.683 3611
1855.63 513.683 3611
1848.26 509.273 3580
1852.68 508.135 3572
1873.2 511.407 3595
1881.8 511.407 3595
1890.39 511.407 3595
1898.99 511.407 3595
1907.59 511.407 3595
1916.19 511.407 3595
1929.07 512.545 3603
1946.29 514.821 3619
1963.58 517.097 3635
1984.75 520.369 3658
2007.13 523.925 3683
2015.93 523.925 3683
2113.25 546.828 3844
2137.35 550.669 3871
2166.57 555.79 3907
2175.91 555.79 3907
2221.61 565.037 3972
2247.4 569.162 4001
2278.4 574.568 4039
2288.06 574.568 4039
2297.72 574.568 4039
2307.38 574.568 4039
2317.04 574.568 4039
2304.81 569.162 4001
2314.37 569.162 4001
2334.98 571.865 4020
2344.59 571.865 4020
2354.2 571.865 4020
2369.7 573.288 4030
2384.65 574.568 4039
2394.31 574.568 4039
2403.96 574.568 4039
2413.62 574.568 4039
2423.28 574.568 4039
2432.94 574.568 4039
2425.06 570.443 4010
2429.18 569.162 4001
2450.33 571.865 4020
2459.95 571.865 4020
2469.56 571.865 4020
2473.01 570.443 4010
2488.79 571.865 4020
2498.4 571.865 4020
2508.01 571.865 4020
2517.62 571.865 4020
2509.01 567.74 3991
2512.87 566.46 3982
2522.39 566.46 3982
2531.91 566.46 3982
2541.44 566.46 3982
2550.96 566.46 3982
2560.48 566.46 3982
2527.41 557.071 3916
2490.13 546.828 3844
2516.88 550.669 3871
2526.13 550.669 3871
2535.39 550.669 3871
2544.65 550.669 3871
525.378 105.269 740
527.148 105.269 740
528.917 105.269 740
530.687 105.269 740
532.456 105.269 740
534.226 105.269 740
534.547 104.984 738
536.312 104.984 738
538.805 105.126 739
540.573 105.126 739
542.34 105.126 739
544.107 105.126 739
545.874 105.126 739
547.641 105.126 739
549.409 105.126 739
551.176 105.126 739
552.943 105.126 739
554.71 105.126 739
556.477 105.126 739
558.244 105.126 739
560.012 105.126 739
561.779 105.126 739
563.546 105.126 739
565.313 105.126 739
-2326.29 449.429 3107
-2318.86 449.429 3107
-2306.96 448.561 3101
-2299.55 448.561 3101
-2292.13 448.561 3101
-2284.72 448.561 3101
-2264.82 446.102 3084
-2261.1 446.826 3089
-2258.09 447.693 3095
-2263.06 450.153 3112
-2255.61 450.153 3112
-2261.18 452.756 3130
-2266.65 455.36 3148
-2302.18 464.039 3208
-2294.51 464.039 3208
-2286.84 464.039 3208
-2469.57 502.805 3476
-2461.26 502.805 3476
-2504.46 513.365 3549
-2545.21 523.49 3619
-2563.89 529.132 3658
-2555.14 529.132 3658
-2569.36 533.905 3691
-2571.64 536.22 3707
-2562.77 536.22 3707
-2553.91 536.22 3707
-2545.04 536.22 3707
-2536.18 536.22 3707
-2527.31 536.22 3707
-2518.45 536.22 3707
-2493.34 532.748 3683
-2473.74 530.434 3667
-2464.97 530.434 3667
-2434.76 525.805 3635
-2420.73 524.648 3627
-2406.74 523.49 3619
-2398.09 523.49 3619
-2389.43 523.49 3619
-2375.51 522.333 3611
-2361.64 521.176 3603
-2353.02 521.176 3603
-2344.4 521.176 3603
-2335.79 521.176 3603
-2322.01 520.019 3595
-2313.41 520.019 3595
-2300.32 519.006 3588
-2291.74 519.006 3588
-2292.71 521.176 3603
-2289.16 522.333 3611
-2300.11 526.817 3642
-2291.4 526.817 3642
-2292.72 529.132 3658
-2299.58 532.748 3683
-2290.77 532.748 3683
-2286.92 533.905 3691
-2287.97 536.22 3707
-2289.56 538.679 3724
-2280.65 538.679 3724
-2318.11 549.672 3800
-2314.49 550.974 3809
-2305.38 550.974 3809
-2296.27 550.974 3809
-2287.17 550.974 3809
-2015.28 591.476 4089
-2005.51 591.476 4089
-1995.73 591.476 4089
-1971.38 587.137 4059
-1947.66 582.942 4030
-1938.02 582.942 4030
-1928.38 582.942 4030
-1918.75 582.942 4030
-1909.11 582.942 4030
-1890.05 580.049 4010
-1880.46 580.049 4010
-1862 577.3 3991
-1839.46 573.25 3963
-1838.76 575.999 3982
-1829.24 575.999 3982
-1819.72 575.999 3982
-1810.19 575.999 3982
-1787.56 571.804 3953
-1778.11 571.804 3953
-1752.1 566.452 3916
-1738.73 565.15 3907
-1717.43 561.244 3880
-1720.04 565.15 3907
-1710.7 565.15 3907
-1709.2 567.753 3925
-1699.81 567.753 3925
-1690.42 567.753 3925
-1681.04 567.753 3925
-1671.65 567.753 3925
-1670.31 570.502 3944
-1664.67 571.804 3953
-1659.41 573.25 3963
-1649.93 573.25 3963
-1648.32 575.999 3982
-1638.8 575.999 3982
-1629.27 575.999 3982
-1615.68 574.552 3972
-1572.62 562.546 3889
-1559.7 561.244 3880
-1550.43 561.244 3880
-1530.42 557.339 3853
-1521.21 557.339 3853
-1512 557.339 3853
-1502.78 557.339 3853
-1490.08 556.037 3844
-1498.22 562.546 3889
-1488.92 562.546 3889
-1479.62 562.546 3889
-1453.31 556.037 3844
-1440.74 554.735 3835
-1425.22 552.276 3818
-1416.09 552.276 3818
-1403.64 550.974 3809
-1385.02 547.213 3783
-1375.97 547.213 3783
-1366.92 547.213 3783
-1357.88 547.213 3783
-1345.62 545.911 3774
-1345.81 549.672 3800
-1352.2 556.037 3844
-1343 556.037 3844
-1340.06 558.64 3862
-1330.82 558.64 3862
-1321.59 558.64 3862
-1309.29 557.339 3853
-1300.08 557.339 3853
-600.718 263.119 1819
-596.369 263.119 1819
-592.019 263.119 1819
-587.669 263.119 1819
-582.678 262.83 1817
-578.333 262.83 1817
-573.988 262.83 1817
-569.016 262.541 1815
-562.809 261.673 1809
-557.866 261.384 1807
-553.545 261.384 1807
-548.312 260.95 1804
-542.792 260.371 1800
-537.291 259.792 1796
-532.996 259.792 1796
-526.346 258.635 1788
-517.107 256.176 1771
-507.948 253.717 1754
-503.754 253.717 1754
-496.996 252.415 1745
-490.282 251.113 1736
-483.61 249.812 1727
-479.481 249.812 1727
-472.323 248.22 1716
-467.401 247.786 1713
-461.411 246.774 1706
-455.455 245.761 1699
-451.393 245.761 1699
-446.277 245.183 1695
-441.441 244.749 1692
-435.585 243.736 1685
-431.556 243.736 1685
-426.765 243.302 1682
-421.486 242.579 1677
-416.978 242.29 1675
-412.973 242.29 1675
-408.479 242 1673
-403.753 241.566 1670
-399.041 241.132 1667
-395.055 241.132 1667
-390.13 240.554 1663
-385.921 240.409 1662
-381.488 240.12 1660
-377.518 240.12 1660
-373.098 239.831 1658
-368.02 239.107 1653
-363.847 238.963 1652
-359.025 238.384 1648
-355.085 238.384 1648
-350.931 238.239 1647
-345.939 237.516 1642
-342.012 237.516 1642
-338.086 237.516 1642
-333.752 237.227 1640
-329.227 236.793 1637
-325.313 236.793 1637
-321.398 236.793 1637
-317.289 236.648 1636
-312.994 236.359 1634
-308.141 235.636 1629
