ply
format ascii 1.0
comment File generated
element vertex 2143
property float x
property float y
property float z
end_header
869.919 -41.0897 3716
1072.99 -44.3406 4010
1090.41 -44.6613 4039
1105.52 -44.8825 4059
1115.22 -44.8825 4059
1124.93 -44.8825 4059
1270.14 -45.2142 4089
1279.91 -45.2142 4089
1289.69 -45.2142 4089
1296.29 -45.1036 4079
1306.05 -45.1036 4079
1315.8 -45.1036 4079
1445.31 -43.7104 3953
1472.42 -44.2411 4001
1481.99 -44.2411 4001
1491.56 -44.2411 4001
1501.13 -44.2411 4001
1499.74 -43.9205 3972
1505.82 -43.8209 3963
1515.3 -43.8209 3963
1520.93 -43.7104 3953
1509.09 -43.1022 3898
1511.4 -42.9032 3880
1520.68 -42.9032 3880
1522.86 -42.7041 3862
1524.95 -42.5051 3844
1523.77 -42.2176 3818
1532.9 -42.2176 3818
1527.89 -41.8306 3783
1519.47 -41.3551 3740
1521.87 -41.1782 3724
1510.64 -40.6364 3675
1519.42 -40.6364 3675
1504.93 -40.0172 3619
1487.65 -39.3316 3557
1489.85 -39.1657 3542
1498.32 -39.1657 3542
1500.4 -38.9999 3527
1499.43 -38.7566 3505
1473.82 -37.883 3426
1482.02 -37.883 3426
1490.21 -37.883 3426
1492.28 -37.7282 3412
1500.44 -37.7282 3412
1511.69 -37.8056 3419
1522.98 -37.883 3426
1531.17 -37.883 3426
1545.66 -38.0379 3440
1553.88 -38.0379 3440
1562.11 -38.0379 3440
1554.36 -37.6508 3405
1575.35 -37.9605 3433
1596.47 -38.2701 3461
1614.95 -38.5133 3483
1623.28 -38.5133 3483
1634.89 -38.5907 3490
1643.23 -38.5907 3490
1651.58 -38.5907 3490
1656.59 -38.5133 3483
1678.79 -38.834 3512
1687.18 -38.834 3512
1695.58 -38.834 3512
1703.98 -38.834 3512
2425.07 -43.8209 3963
2434.54 -43.8209 3963
2444.02 -43.8209 3963
2441.73 -43.6108 3944
2411.39 -42.9032 3880
2420.67 -42.9032 3880
2407.4 -42.5051 3844
2388.93 -42.0186 3800
2431.46 -42.6046 3853
2440.68 -42.6046 3853
2449.89 -42.6046 3853
2441.87 -42.3061 3826
2406.82 -41.5431 3757
2410.66 -41.4546 3749
2419.62 -41.4546 3749
2428.59 -41.4546 3749
2410.25 -40.9902 3707
1839.81 -31.0606 2809
1846.53 -31.0606 2809
1855.89 -31.1048 2813
1862.61 -31.1048 2813
1869.34 -31.1048 2813
1876.07 -31.1048 2813
1882.79 -31.1048 2813
1876.76 -30.8947 2794
1877.37 -30.7952 2785
1877.94 -30.6957 2776
1887.3 -30.7399 2780
1900.76 -30.8505 2790
1907.43 -30.8505 2790
1914.1 -30.8505 2790
1923.53 -30.8947 2794
1930.21 -30.8947 2794
1936.89 -30.8947 2794
1943.57 -30.8947 2794
1950.25 -30.8947 2794
1963.94 -31.0053 2804
1970.64 -31.0053 2804
1983.69 -31.1048 2813
1997.5 -31.2154 2823
2007.8 -31.2707 2828
2014.56 -31.2707 2828
2021.32 -31.2707 2828
2030.95 -31.3149 2832
2044.92 -31.4255 2842
2051.72 -31.4255 2842
2065.76 -31.536 2852
2079.84 -31.6466 2862
2086.69 -31.6466 2862
2093.53 -31.6466 2862
2100.37 -31.6466 2862
2113.84 -31.7461 2871
2128.1 -31.8567 2881
2138.69 -31.912 2886
2145.59 -31.912 2886
2163.68 -32.0779 2901
2205.04 -32.5865 2947
2272.89 -33.4822 3028
2280.13 -33.4822 3028
2312.3 -33.8471 3061
2319.61 -33.8471 3061
2326.93 -33.8471 3061
2283.92 -33.1173 2995
-2629.52 -30.421 3512
-2621.12 -30.421 3512
-2612.72 -30.421 3512
-2604.33 -30.421 3512
-2595.93 -30.421 3512
-2566.16 -30.1698 3483
-2541.68 -29.9792 3461
-2523.15 -29.8579 3447
-2514.91 -29.8579 3447
-2481.22 -29.5548 3412
-2473.06 -29.5548 3412
-2495.24 -29.9186 3454
-2486.98 -29.9186 3454
-2478.72 -29.9186 3454
-2470.46 -29.9186 3454
-2442.24 -29.676 3426
-2448.97 -29.8579 3447
-2450.64 -29.9792 3461
-2442.36 -29.9792 3461
-2454.48 -30.2304 3490
-2456.65 -30.3603 3505
-2448.27 -30.3603 3505
-2444.76 -30.421 3512
-2436.36 -30.421 3512
-2427.96 -30.421 3512
-2419.56 -30.421 3512
-2421.46 -30.5509 3527
-2417.82 -30.6115 3534
-2419.59 -30.7415 3549
-2411.11 -30.7415 3549
-2402.62 -30.7415 3549
-2399.53 -30.8108 3557
-2396.4 -30.8801 3565
-2387.88 -30.8801 3565
-2389.36 -31.01 3580
-2380.8 -31.01 3580
-2382.18 -31.1399 3595
-2373.59 -31.1399 3595
-2364.99 -31.1399 3595
-2356.39 -31.1399 3595
-2347.8 -31.1399 3595
-2354.81 -31.3478 3619
-2346.16 -31.3478 3619
-2337.51 -31.3478 3619
-2328.85 -31.3478 3619
-2320.2 -31.3478 3619
-2311.54 -31.3478 3619
-2307.98 -31.4171 3627
-2304.38 -31.4864 3635
-2300.11 -31.547 3642
-2291.4 -31.547 3642
-2298.36 -31.7636 3667
-2289.59 -31.7636 3667
-2280.82 -31.7636 3667
-2272.05 -31.7636 3667
-2263.28 -31.7636 3667
-2254.51 -31.7636 3667
-2245.75 -31.7636 3667
-2231.49 -31.6856 3658
-2222.74 -31.6856 3658
-2224.28 -31.8329 3675
-2220.32 -31.9022 3683
-2211.51 -31.9022 3683
-2202.7 -31.9022 3683
-2193.89 -31.9022 3683
-2185.09 -31.9022 3683
-2171.55 -31.8329 3675
-2162.76 -31.8329 3675
-2153.98 -31.8329 3675
-2145.19 -31.8329 3675
-2136.4 -31.8329 3675
-2122.98 -31.7636 3667
-2099.8 -31.547 3642
-2091.09 -31.547 3642
-2082.38 -31.547 3642
-2065.13 -31.4171 3627
-2025.27 -30.9407 3572
-2016.73 -30.9407 3572
-1991.32 -30.6808 3542
-1953.74 -30.2304 3490
-1925.33 -29.9186 3454
-1917.07 -29.9186 3454
-1889.47 -29.6154 3419
-1847.18 -29.0784 3357
-1828.19 -28.9051 3337
-1812.58 -28.7838 3323
-1804.63 -28.7838 3323
-1793.44 -28.7319 3317
-1781.74 -28.6712 3310
-1770.07 -28.6106 3303
-1762.17 -28.6106 3303
-1744.18 -28.446 3284
-1729.46 -28.3334 3271
-1714.79 -28.2208 3258
-1707 -28.2208 3258
-1692.95 -28.1169 3246
-1675.33 -27.9523 3227
-1667.61 -27.9523 3227
-1659.89 -27.9523 3227
-1652.18 -27.9523 3227
-1644.46 -27.9523 3227
-1636.74 -27.9523 3227
-1629.03 -27.9523 3227
-1621.31 -27.9523 3227
-1613.59 -27.9523 3227
-1608.86 -28.0043 3233
-1604.1 -28.0562 3239
-1596.36 -28.0562 3239
-1592.05 -28.1169 3246
-1587.21 -28.1688 3252
-1579.44 -28.1688 3252
-1571.66 -28.1688 3252
-1570.13 -28.2815 3265
-1568.55 -28.3941 3278
-1560.71 -28.3941 3278
-1552.87 -28.3941 3278
-1550.69 -28.498 3290
-1546.1 -28.5586 3297
-1547.55 -28.7319 3317
-1539.62 -28.7319 3317
-1531.68 -28.7319 3317
-1535.7 -28.9571 3343
-1530.9 -29.0177 3350
-1522.89 -29.0177 3350
-1520.76 -29.1303 3363
-1525.31 -29.3729 3391
-1520.33 -29.4335 3398
-1512.21 -29.4335 3398
-1504.08 -29.4335 3398
-1492.88 -29.3729 3391
-1484.77 -29.3729 3391
-1470.56 -29.2516 3377
-1462.49 -29.2516 3377
-1448.38 -29.1303 3363
-1440.34 -29.1303 3363
-1432.3 -29.1303 3363
-1418.75 -29.0177 3350
-1407.79 -28.9571 3343
-1399.8 -28.9571 3343
-1394.72 -29.0177 3350
-1386.71 -29.0177 3350
-1378.7 -29.0177 3350
-1367.82 -28.9571 3343
-1359.83 -28.9571 3343
-1351.83 -28.9571 3343
-1346.65 -29.0177 3350
-1338.64 -29.0177 3350
-1330.63 -29.0177 3350
-1322.62 -29.0177 3350
-1309.51 -28.9051 3337
-1298.8 -28.8445 3330
-1290.83 -28.8445 3330
-1277.86 -28.7319 3317
-1269.93 -28.7319 3317
-1256.67 -28.6106 3303
-1248.77 -28.6106 3303
-1240.88 -28.6106 3303
-1230.74 -28.5586 3297
-1215.81 -28.3941 3278
-1207.97 -28.3941 3278
-1197.57 -28.3334 3271
-1185.02 -28.2208 3258
-1175.06 -28.1688 3252
-1167.28 -28.1688 3252
-1159.5 -28.1688 3252
-1151.73 -28.1688 3252
-1143.95 -28.1688 3252
-1136.17 -28.1688 3252
-1126.32 -28.1169 3246
-1114.07 -28.0043 3233
-1104.29 -27.9523 3227
-1096.57 -27.9523 3227
-1088.86 -27.9523 3227
-1081.14 -27.9523 3227
-1063.11 -27.6838 3196
-562.272 -14.8553 1715
-558.171 -14.8553 1715
-554.069 -14.8553 1715
-549.968 -14.8553 1715
-543.958 -14.8034 1709
-539.871 -14.8034 1709
-535.471 -14.7947 1708
-530.764 -14.7774 1706
-526.067 -14.7601 1704
-521.992 -14.7601 1704
-517.31 -14.7427 1702
-512.938 -14.7341 1701
-507.075 -14.6821 1695
-503.022 -14.6821 1695
-497.497 -14.6388 1690
-493.164 -14.6301 1689
-487.098 -14.5695 1682
-481.927 -14.5348 1678
-477.914 -14.5348 1678
-472.207 -14.4829 1672
-466.809 -14.4396 1667
-460.879 -14.3789 1660
-456.909 -14.3789 1660
-452.394 -14.3616 1658
-446.265 -14.2923 1650
-440.711 -14.2403 1644
-436.78 -14.2403 1644
-432.322 -14.223 1642
-427.091 -14.1797 1637
-421.884 -14.1364 1632
-417.981 -14.1364 1632
-413.318 -14.1104 1629
-408.166 -14.0671 1624
-403.286 -14.0325 1620
-398.18 -13.9891 1615
-394.318 -13.9891 1615
-389.73 -13.9632 1612
-385.397 -13.9458 1610
-380.836 -13.9198 1607
-376.993 -13.9198 1607
-372.454 -13.8939 1604
-367.929 -13.8679 1601
-362.736 -13.8159 1595
-358.922 -13.8159 1595
-353.772 -13.7639 1589
-349.531 -13.7466 1587
-345.083 -13.7206 1584
-341.295 -13.7206 1584
-337.294 -13.712 1583
-332.876 -13.686 1580
-328.473 -13.66 1577
-324.702 -13.66 1577
-320.524 -13.6427 1575
-316.758 -13.6427 1575
-312.793 -13.634 1574
-309.029 -13.634 1574
-305.265 -13.634 1574
-300.926 -13.608 1571
-296.224 -13.5647 1566
-292.292 -13.556 1565
-288.55 -13.556 1565
-284.808 -13.556 1565
-280.886 -13.5474 1564
-276.791 -13.5301 1562
-273.58 -13.556 1565
-269.838 -13.556 1565
-266.606 -13.582 1568
-264.03 -13.6427 1575
-260.594 -13.66 1577
-256.823 -13.66 1577
-254.496 -13.7379 1586
-251.652 -13.7899 1592
-248.779 -13.8419 1598
-244.958 -13.8419 1598
-241.589 -13.8679 1601
-238.503 -13.9112 1606
-235.685 -13.9718 1613
-231.828 -13.9718 1613
-229.102 -14.0411 1621
-225.92 -14.0844 1626
-222.715 -14.1277 1631
-218.814 -14.1277 1631
-215.968 -14.197 1639
-213.213 -14.275 1648
-210.796 -14.3789 1660
-206.827 -14.3789 1660
-204.079 -14.4656 1670
-200.685 -14.5089 1675
-196.914 -14.5262 1677
-192.904 -14.5262 1677
-189.457 -14.5695 1682
-185.986 -14.6128 1687
-182.491 -14.6561 1692
-178.445 -14.6561 1692
-175.121 -14.7168 1699
-172.266 -14.8207 1711
-168.371 -14.838 1713
-164.275 -14.838 1713
-160.646 -14.8813 1718
-156.902 -14.916 1722
-153.05 -14.942 1725
-148.925 -14.942 1725
-145.136 -14.9766 1729
-141.572 -15.0372 1736
-138.134 -15.1152 1745
-133.961 -15.1152 1745
-130.234 -15.1672 1751
-126.407 -15.2105 1756
-122.625 -15.2625 1762
-118.412 -15.2625 1762
-115.171 -15.3924 1777
-111.233 -15.4357 1782
-107.332 -15.4877 1788
-103.057 -15.4877 1788
-98.781 -15.4877 1788
-144.673 -32.5432 3757
-135.689 -32.5432 3757
-126.704 -32.5432 3757
-116.154 -32.1101 3707
-107.289 -32.1101 3707
-98.4245 -32.1101 3707
-89.3667 -32.0408 3699
-80.5213 -32.0408 3699
-71.6758 -32.0408 3699
-62.9663 -32.1101 3707
-54.1017 -32.1101 3707
-45.4446 -32.2573 3724
-36.5394 -32.2573 3724
-27.6342 -32.2573 3724
-18.6888 -32.188 3716
-9.80268 -32.188 3716
-0.914374 -32.1101 3707
7.95019 -32.1101 3707
16.8556 -32.188 3716
25.7417 -32.188 3716
34.7768 -32.3266 3732
43.7012 -32.3266 3732
52.6255 -32.3266 3732
61.5499 -32.3266 3732
70.3231 -32.2573 3724
79.2283 -32.2573 3724
88.1336 -32.2573 3724
96.5958 -32.1101 3707
105.233 -32.0408 3699
113.831 -31.9715 3691
122.658 -31.9715 3691
131.199 -31.9022 3683
140.614 -32.0408 3699
150.47 -32.2573 3724
160.06 -32.3959 3740
169.003 -32.3959 3740
177.947 -32.3959 3740
186.89 -32.3959 3740
195.834 -32.3959 3740
204.339 -32.3266 3732
212.807 -32.2573 3724
221.712 -32.2573 3724
230.617 -32.2573 3724
237.914 -32.0408 3699
246.76 -32.0408 3699
255.052 -31.9715 3691
265.022 -32.1101 3707
275.143 -32.2573 3724
284.048 -32.2573 3724
293.583 -32.3266 3732
303.885 -32.4739 3749
312.85 -32.4739 3749
321.815 -32.4739 3749
331.486 -32.5432 3757
340.47 -32.5432 3757
349.454 -32.5432 3757
357.675 -32.4739 3749
364.978 -32.3266 3732
373.1 -32.2573 3724
382.006 -32.2573 3724
390.071 -32.188 3716
398.957 -32.188 3716
406.855 -32.1101 3707
415.72 -32.1101 3707
422.752 -31.9715 3691
427.72 -31.6856 3658
436.467 -31.6856 3658
445.214 -31.6856 3658
453.962 -31.6856 3658
460.685 -31.547 3642
468.492 -31.4864 3635
476.134 -31.4171 3627
484.808 -31.4171 3627
491.304 -31.2785 3611
497.724 -31.1399 3595
500.969 -30.8108 3557
509.475 -30.8108 3557
515.796 -30.6808 3542
522.046 -30.5509 3527
528.224 -30.421 3512
536.622 -30.421 3512
542.693 -30.291 3497
548.849 -30.1698 3483
554.778 -30.0398 3468
566.643 -30.2304 3490
574.989 -30.2304 3490
583.334 -30.2304 3490
591.68 -30.2304 3490
600.026 -30.2304 3490
612.206 -30.421 3512
620.605 -30.421 3512
631.689 -30.5509 3527
641.394 -30.6115 3534
651.316 -30.6808 3542
659.786 -30.6808 3542
671.086 -30.8108 3557
683.986 -31.01 3580
695.449 -31.1399 3595
704.045 -31.1399 3595
712.642 -31.1399 3595
722.844 -31.2092 3603
733.084 -31.2785 3611
741.719 -31.2785 3611
753.679 -31.4171 3627
768.868 -31.6856 3658
777.615 -31.6856 3658
786.362 -31.6856 3658
795.11 -31.6856 3658
807.593 -31.8329 3675
823.49 -32.1101 3707
832.354 -32.1101 3707
845.077 -32.2573 3724
853.982 -32.2573 3724
862.887 -32.2573 3724
869.919 -32.188 3716
1270.14 -35.4189 4089
1279.91 -35.4189 4089
1289.69 -35.4189 4089
1296.29 -35.3323 4079
1306.05 -35.3323 4079
1315.8 -35.3323 4079
1445.31 -34.2409 3953
1472.42 -34.6567 4001
1481.99 -34.6567 4001
1491.56 -34.6567 4001
1501.13 -34.6567 4001
1499.74 -34.4055 3972
1491.38 -33.9984 3925
1500.77 -33.9984 3925
1499.77 -33.7645 3898
1509.09 -33.7645 3898
1511.4 -33.6086 3880
1520.68 -33.6086 3880
1519.31 -33.3747 3853
1524.95 -33.2968 3844
1523.77 -33.0715 3818
1532.9 -33.0715 3818
1527.89 -32.7684 3783
1519.47 -32.3959 3740
1521.87 -32.2573 3724
1510.64 -31.8329 3675
1519.42 -31.8329 3675
1504.93 -31.3478 3619
1487.65 -30.8108 3557
1489.85 -30.6808 3542
1498.32 -30.6808 3542
1500.4 -30.5509 3527
1499.43 -30.3603 3505
1473.82 -29.676 3426
1466.88 -29.3729 3391
1474.98 -29.3729 3391
1476.97 -29.2516 3377
1481.97 -29.191 3370
1499.31 -29.3729 3391
1513.64 -29.4941 3405
1521.79 -29.4941 3405
1529.93 -29.4941 3405
1538.07 -29.4941 3405
1546.21 -29.4941 3405
1551.16 -29.4335 3398
1559.29 -29.4335 3398
1583.56 -29.7367 3433
1604.75 -29.9792 3461
1613.02 -29.9792 3461
1631.61 -30.1698 3483
1639.94 -30.1698 3483
1648.26 -30.1698 3483
1653.26 -30.1091 3476
1661.58 -30.1091 3476
1687.18 -30.421 3512
1695.58 -30.421 3512
1703.98 -30.421 3512
2425.07 -34.3275 3963
2434.54 -34.3275 3963
2444.02 -34.3275 3963
2441.73 -34.163 3944
2411.39 -33.6086 3880
2420.67 -33.6086 3880
2407.4 -33.2968 3844
2388.93 -32.9156 3800
2431.46 -33.3747 3853
2440.68 -33.3747 3853
2449.89 -33.3747 3853
2441.87 -33.1408 3826
2406.82 -32.5432 3757
2410.66 -32.4739 3749
2419.62 -32.4739 3749
2428.59 -32.4739 3749
1839.81 -24.3316 2809
1846.53 -24.3316 2809
1853.25 -24.3316 2809
1859.96 -24.3316 2809
1866.68 -24.3316 2809
1873.4 -24.3316 2809
1880.11 -24.3316 2809
1874.07 -24.167 2790
1877.37 -24.1237 2785
1877.94 -24.0457 2776
1887.3 -24.0804 2780
1897.35 -24.1237 2785
1904.01 -24.1237 2785
1914.1 -24.167 2790
1923.53 -24.2016 2794
1930.21 -24.2016 2794
1936.89 -24.2016 2794
1943.57 -24.2016 2794
1950.25 -24.2016 2794
1963.94 -24.2883 2804
1970.64 -24.2883 2804
1983.69 -24.3662 2813
1997.5 -24.4528 2823
2007.8 -24.4962 2828
2014.56 -24.4962 2828
2021.32 -24.4962 2828
2030.95 -24.5308 2832
2044.92 -24.6174 2842
2051.72 -24.6174 2842
2065.76 -24.704 2852
2076.21 -24.7474 2857
2083.04 -24.7474 2857
2093.53 -24.7907 2862
2100.37 -24.7907 2862
2110.16 -24.8253 2866
2120.71 -24.8686 2871
2127.58 -24.8686 2871
2134.44 -24.8686 2871
2152.49 -24.9986 2886
2178.1 -25.2151 2911
2227.85 -25.7088 2968
2234.95 -25.7088 2968
2274.52 -26.0813 3011
2281.73 -26.0813 3011
2288.93 -26.0813 3011
2283.92 -25.9427 2995
-2629.52 -22.0079 3512
-2621.12 -22.0079 3512
-2612.72 -22.0079 3512
-2604.33 -22.0079 3512
-2595.93 -22.0079 3512
-2582.37 -21.9641 3505
-2557.83 -21.8262 3483
-2533.4 -21.6884 3461
-2525.13 -21.6884 3461
-2506.67 -21.6006 3447
-2493.35 -21.5568 3440
-2495.24 -21.6445 3454
-2486.98 -21.6445 3454
-2478.72 -21.6445 3454
-2470.46 -21.6445 3454
-2442.24 -21.469 3426
-2439.02 -21.5129 3433
-2445.68 -21.6445 3454
-2437.42 -21.6445 3454
-2439.01 -21.7322 3468
-2441.23 -21.8262 3483
-2432.9 -21.8262 3483
-2434.32 -21.9139 3497
-2425.95 -21.9139 3497
-2417.59 -21.9139 3497
-2419.56 -22.0079 3512
-2411.17 -22.0079 3512
-2402.77 -22.0079 3512
-2404.6 -22.1019 3527
-2406.35 -22.1959 3542
-2397.88 -22.1959 3542
-2394.13 -22.2398 3549
-2391.03 -22.2899 3557
-2387.88 -22.3401 3565
-2379.35 -22.3401 3565
-2380.8 -22.4341 3580
-2377.54 -22.4842 3588
-2373.59 -22.5281 3595
-2364.99 -22.5281 3595
-2356.39 -22.5281 3595
-2353.02 -22.5782 3603
-2354.81 -22.6785 3619
-2346.16 -22.6785 3619
-2337.51 -22.6785 3619
-2328.85 -22.6785 3619
-2320.2 -22.6785 3619
-2311.54 -22.6785 3619
-2302.89 -22.6785 3619
-2304.38 -22.7787 3635
-2300.11 -22.8226 3642
-2291.4 -22.8226 3642
-2287.7 -22.8727 3650
-2289.59 -22.9792 3667
-2280.82 -22.9792 3667
-2272.05 -22.9792 3667
-2252.79 -22.8727 3650
-2244.06 -22.8727 3650
-2235.33 -22.8727 3650
-2226.61 -22.8727 3650
-2217.88 -22.8727 3650
-2204.31 -22.8226 3642
-2215.49 -23.0294 3675
-2206.7 -23.0294 3675
-2197.92 -23.0294 3675
-2189.13 -23.0294 3675
-2180.34 -23.0294 3675
-2171.55 -23.0294 3675
-2167.47 -23.0795 3683
-2158.67 -23.0795 3683
-2149.86 -23.0795 3683
-2136.4 -23.0294 3675
-2122.98 -22.9792 3667
-2114.21 -22.9792 3667
-2105.44 -22.9792 3667
-2082.38 -22.8226 3642
-2069.68 -22.7787 3635
-2025.27 -22.3839 3572
-2016.73 -22.3839 3572
-1991.32 -22.1959 3542
-1970.54 -22.0581 3520
-1941.49 -21.8262 3483
-1933.17 -21.8262 3483
-1889.47 -21.4252 3419
-1847.18 -21.0366 3357
-1835.31 -20.9928 3350
-1820.21 -20.9113 3337
-1812.23 -20.9113 3337
-1796.68 -20.8236 3323
-1777.97 -20.6982 3303
-1766.86 -20.6606 3297
-1758.97 -20.6606 3297
-1741 -20.5416 3278
-1729.46 -20.4977 3271
-1711.64 -20.3787 3252
-1703.86 -20.3787 3252
-1692.95 -20.3411 3246
-1675.33 -20.222 3227
-1667.61 -20.222 3227
-1659.89 -20.222 3227
-1652.18 -20.222 3227
-1644.46 -20.222 3227
-1636.74 -20.222 3227
-1629.03 -20.222 3227
-1621.31 -20.222 3227
-1616.59 -20.2596 3233
-1611.85 -20.2972 3239
-1604.1 -20.2972 3239
-1596.36 -20.2972 3239
-1594.99 -20.3787 3252
-1587.21 -20.3787 3252
-1579.44 -20.3787 3252
-1571.66 -20.3787 3252
-1573.02 -20.4977 3271
-1568.55 -20.5416 3278
-1563.56 -20.5792 3284
-1555.71 -20.5792 3284
-1550.69 -20.6168 3290
-1555.48 -20.786 3317
-1547.55 -20.786 3317
-1539.62 -20.786 3317
-1540.92 -20.9113 3337
-1538.91 -20.9928 3350
-1534.1 -21.0366 3357
-1526.07 -21.0366 3357
-1520.76 -21.0742 3363
-1528.46 -21.2936 3398
-1520.33 -21.2936 3398
-1512.21 -21.2936 3398
-1504.08 -21.2936 3398
-1492.88 -21.2497 3391
-1484.77 -21.2497 3391
-1473.61 -21.2058 3384
-1462.49 -21.162 3377
-1451.4 -21.1181 3370
-1443.34 -21.1181 3370
-1432.3 -21.0742 3363
-1415.78 -20.9489 3343
-1407.79 -20.9489 3343
-1402.73 -20.9928 3350
-1394.72 -20.9928 3350
-1386.71 -20.9928 3350
-1375.81 -20.9489 3343
-1367.82 -20.9489 3343
-1359.83 -20.9489 3343
-1351.83 -20.9489 3343
-1343.84 -20.9489 3343
-1335.84 -20.9489 3343
-1327.85 -20.9489 3343
-1317.49 -20.9113 3337
-1306.76 -20.8674 3330
-1293.73 -20.786 3317
-1285.79 -20.786 3317
-1275.17 -20.7421 3310
-1264.57 -20.6982 3303
-1254.39 -20.6606 3297
-1246.51 -20.6606 3297
-1238.62 -20.6606 3297
-1228.12 -20.6168 3290
-1213.21 -20.4977 3271
-1205.39 -20.4977 3271
-1195.37 -20.4601 3265
-1182.83 -20.3787 3252
-1175.06 -20.3787 3252
-1169.43 -20.4163 3258
-1161.64 -20.4163 3258
-1153.85 -20.4163 3258
-1143.95 -20.3787 3252
-1136.17 -20.3787 3252
-1123.89 -20.2972 3239
-1114.07 -20.2596 3233
-1106.34 -20.2596 3233
-1098.61 -20.2596 3233
-1088.86 -20.222 3227
-1081.14 -20.222 3227
-1067.1 -20.1029 3208
-562.272 -10.747 1715
-558.171 -10.747 1715
-554.069 -10.747 1715
-549.327 -10.7345 1713
-543.958 -10.7094 1709
-539.871 -10.7094 1709
-535.471 -10.7032 1708
-530.764 -10.6906 1706
-526.067 -10.6781 1704
-521.992 -10.6781 1704
-517.31 -10.6656 1702
-512.938 -10.6593 1701
-507.075 -10.6217 1695
-503.022 -10.6217 1695
-497.497 -10.5904 1690
-493.164 -10.5841 1689
-487.098 -10.5403 1682
-481.639 -10.5089 1677
-477.629 -10.5089 1677
-471.642 -10.4651 1670
-466.809 -10.4463 1667
-460.879 -10.4024 1660
-456.909 -10.4024 1660
-451.575 -10.3711 1655
-445.725 -10.3272 1648
-440.175 -10.2896 1642
-436.249 -10.2896 1642
-431.796 -10.2771 1640
-426.308 -10.2395 1634
-421.626 -10.2207 1631
-417.725 -10.2207 1631
-413.064 -10.2019 1628
-407.914 -10.1705 1623
-402.788 -10.1392 1618
-397.687 -10.1079 1613
-393.829 -10.1079 1613
-389.247 -10.0891 1610
-385.158 -10.0828 1609
-380.599 -10.064 1606
-376.759 -10.064 1606
-372.221 -10.0452 1603
-367.239 -10.0139 1598
-362.281 -9.98253 1593
-358.471 -9.98253 1593
-353.772 -9.95747 1589
-349.531 -9.94493 1587
-344.865 -9.91987 1583
-341.079 -9.91987 1583
-337.294 -9.91987 1583
-332.876 -9.90107 1580
-328.682 -9.88853 1578
-324.908 -9.88853 1578
-320.931 -9.88227 1577
-316.758 -9.86973 1575
-312.992 -9.86973 1575
-309.225 -9.86973 1575
-305.265 -9.86347 1574
-300.926 -9.84467 1571
-296.791 -9.83214 1569
-292.292 -9.80707 1565
-288.55 -9.80707 1565
-284.808 -9.80707 1565
-281.065 -9.80707 1565
-277.323 -9.80707 1565
-273.755 -9.81334 1566
-270.01 -9.81334 1566
-266.776 -9.83214 1569
-264.365 -9.88227 1577
-261.09 -9.90107 1580
-257.311 -9.90107 1580
-254.496 -9.93867 1586
-251.652 -9.97627 1592
-248.934 -10.0201 1599
-245.111 -10.0201 1599
-241.891 -10.0452 1603
-238.948 -10.0828 1609
-235.978 -10.1204 1615
-232.116 -10.1204 1615
-229.384 -10.1705 1623
-226.198 -10.2019 1628
-222.851 -10.2269 1632
-218.949 -10.2269 1632
-215.968 -10.2708 1639
-213.213 -10.3272 1648
-211.05 -10.4149 1662
-207.076 -10.4149 1662
-204.079 -10.4651 1670
-200.685 -10.4964 1675
-196.914 -10.5089 1677
-192.904 -10.5089 1677
-189.57 -10.5465 1683
-185.986 -10.5716 1687
-182.707 -10.6154 1694
-178.656 -10.6154 1694
-175.327 -10.6593 1701
-172.266 -10.722 1711
-168.371 -10.7345 1713
-164.275 -10.7345 1713
-160.459 -10.7533 1716
-156.72 -10.7784 1720
-153.05 -10.8097 1725
-148.925 -10.8097 1725
-144.968 -10.8222 1727
-141.246 -10.8536 1732
-137.738 -10.9037 1740
-133.577 -10.9037 1740
-129.788 -10.935 1745
-125.615 -10.935 1745
-122.069 -10.9914 1754
-117.874 -10.9914 1754
-113.939 -11.0165 1758
-110.921 -11.1356 1777
-106.672 -11.1356 1777
-102.423 -11.1356 1777
-98.1733 -11.1356 1777
-133.883 -23.2299 3707
-125.018 -23.2299 3707
-116.154 -23.2299 3707
-107.289 -23.2299 3707
-98.4245 -23.2299 3707
-89.56 -23.2299 3707
-80.6954 -23.2299 3707
-71.6758 -23.1798 3699
-62.8304 -23.1798 3699
-53.985 -23.1798 3699
-45.1396 -23.1798 3699
-36.2941 -23.1798 3699
-27.4487 -23.1798 3699
-18.563 -23.1296 3691
-9.73673 -23.1296 3691
-0.910428 -23.1296 3691
7.91587 -23.1296 3691
16.7785 -23.1798 3699
25.6239 -23.1798 3699
34.5439 -23.2299 3707
43.6075 -23.3364 3724
52.5127 -23.3364 3724
61.4179 -23.3364 3724
70.0021 -23.2299 3707
78.8667 -23.2299 3707
87.7312 -23.2299 3707
96.1789 -23.1296 3691
105.005 -23.1296 3691
113.585 -23.0795 3683
122.392 -23.0795 3683
131.199 -23.0795 3683
140.31 -23.1296 3691
150.47 -23.3364 3724
160.445 -23.4931 3749
169.41 -23.4931 3749
178.756 -23.5432 3757
187.74 -23.5432 3757
196.724 -23.5432 3757
204.777 -23.4367 3740
213.264 -23.3866 3732
222.188 -23.3866 3732
231.112 -23.3866 3732
239.522 -23.3364 3724
247.293 -23.2299 3707
256.158 -23.2299 3707
266.238 -23.3364 3724
276.325 -23.4367 3740
285.269 -23.4367 3740
295.549 -23.5432 3757
304.534 -23.5432 3757
314.269 -23.5996 3766
323.274 -23.5996 3766
332.28 -23.5996 3766
341.286 -23.5996 3766
350.291 -23.5996 3766
358.438 -23.5432 3757
365.76 -23.4367 3740
373.1 -23.3364 3724
382.006 -23.3364 3724
390.071 -23.2863 3716
398.957 -23.2863 3716
406.855 -23.2299 3707
415.72 -23.2299 3707
422.752 -23.1296 3691
426.784 -22.8727 3650
435.513 -22.8727 3650
444.241 -22.8727 3650
451.976 -22.8226 3642
459.8 -22.7787 3635
467.461 -22.7286 3627
474.034 -22.6283 3611
482.669 -22.6283 3611
490.216 -22.5782 3603
496.755 -22.4842 3588
499.842 -22.2398 3549
508.329 -22.2398 3549
513.612 -22.1019 3527
521.01 -22.0581 3520
528.224 -22.0079 3512
536.622 -22.0079 3512
540.52 -21.8262 3483
546.485 -21.7322 3468
553.658 -21.6884 3461
561.935 -21.6884 3461
573.836 -21.8262 3483
582.164 -21.8262 3483
590.493 -21.8262 3483
598.822 -21.8262 3483
608.371 -21.8701 3490
616.717 -21.8701 3490
629.003 -22.0079 3512
638.853 -22.0581 3520
649.845 -22.1458 3534
658.296 -22.1458 3534
668.256 -22.1959 3542
679.592 -22.2899 3557
690.999 -22.3839 3572
699.541 -22.3839 3572
709.669 -22.4341 3580
721.239 -22.5281 3595
729.836 -22.5281 3595
738.432 -22.5281 3595
753.679 -22.7286 3627
765.505 -22.8226 3642
775.914 -22.8727 3650
784.643 -22.8727 3650
793.371 -22.8727 3650
802.099 -22.8727 3650
821.713 -23.1798 3699
830.558 -23.1798 3699
841.219 -23.2299 3707
852.147 -23.2863 3716
861.033 -23.2863 3716
869.919 -23.2863 3716
1286.54 -25.561 4079
1296.29 -25.561 4079
1306.05 -25.561 4079
1315.8 -25.561 4079
1445.31 -24.7715 3953
1465.43 -24.9532 3982
1474.95 -24.9532 3982
1484.48 -24.9532 3982
1494 -24.9532 3982
1496.35 -24.8341 3963
1477.71 -24.3704 3889
1487.01 -24.3704 3889
1496.3 -24.3704 3889
1505.6 -24.3704 3889
1511.4 -24.314 3880
1520.68 -24.314 3880
1519.31 -24.1448 3853
1524.95 -24.0884 3844
1523.77 -23.9255 3818
1532.9 -23.9255 3818
1534.76 -23.8127 3800
1519.47 -23.4367 3740
1521.87 -23.3364 3724
1510.64 -23.0294 3675
1519.42 -23.0294 3675
1504.93 -22.6785 3619
1487.65 -22.2899 3557
1489.85 -22.1959 3542
1498.32 -22.1959 3542
1500.4 -22.1019 3527
1499.43 -21.9641 3505
1467.8 -21.3813 3412
1469.9 -21.2936 3398
1478.03 -21.2936 3398
1470.85 -21.0742 3363
1478.89 -21.0742 3363
1493.12 -21.162 3377
1507.42 -21.2497 3391
1515.53 -21.2497 3391
1523.64 -21.2497 3391
1531.75 -21.2497 3391
1539.86 -21.2497 3391
1544.77 -21.2058 3384
1565.71 -21.3813 3412
1586.79 -21.5568 3440
1604.75 -21.6884 3461
1613.02 -21.6884 3461
1628.33 -21.7823 3476
1636.64 -21.7823 3476
1644.95 -21.7823 3476
1653.26 -21.7823 3476
1661.58 -21.7823 3476
1676.61 -21.8701 3490
1684.96 -21.8701 3490
1693.31 -21.8701 3490
2431.46 -24.1448 3853
2440.68 -24.1448 3853
2449.89 -24.1448 3853
2414.43 -23.7062 3783
2406.82 -23.5432 3757
2410.66 -23.4931 3749
2419.62 -23.4931 3749
2428.59 -23.4931 3749
1827.37 -17.4835 2790
1843.24 -17.5713 2804
1849.95 -17.5713 2804
1856.65 -17.5713 2804
1863.36 -17.5713 2804
1870.06 -17.5713 2804
1876.77 -17.5713 2804
1874.07 -17.4835 2790
1874 -17.4209 2780
1871.85 -17.3394 2767
1887.3 -17.4209 2780
1897.35 -17.4522 2785
1904.01 -17.4522 2785
1910.67 -17.4522 2785
1917.33 -17.4522 2785
1927.44 -17.4835 2790
1934.12 -17.4835 2790
1943.57 -17.5086 2794
1950.25 -17.5086 2794
1963.94 -17.5713 2804
1970.64 -17.5713 2804
1980.87 -17.6026 2809
1993.96 -17.659 2818
2007.8 -17.7217 2828
2014.56 -17.7217 2828
2021.32 -17.7217 2828
2030.95 -17.7467 2832
2044.92 -17.8094 2842
2051.72 -17.8094 2842
2065.76 -17.8721 2852
2076.21 -17.9034 2857
2083.04 -17.9034 2857
2093.53 -17.9347 2862
2100.37 -17.9347 2862
2110.16 -17.9598 2866
2120.71 -17.9911 2871
2127.58 -17.9911 2871
2134.44 -17.9911 2871
2141.31 -17.9911 2871
2170.62 -18.1791 2901
2208.33 -18.436 2942
2215.37 -18.436 2942
2242.04 -18.599 2968
2269.6 -18.7682 2995
2276.76 -18.7682 2995
2283.92 -18.7682 2995
2254.37 -18.4674 2947
-2629.52 -13.5949 3512
-2621.12 -13.5949 3512
-2612.72 -13.5949 3512
-2604.33 -13.5949 3512
-2595.93 -13.5949 3512
-2582.37 -13.5678 3505
-2557.83 -13.4827 3483
-2533.4 -13.3975 3461
-2525.13 -13.3975 3461
-2506.67 -13.3433 3447
-2493.35 -13.3162 3440
-2495.24 -13.3704 3454
-2486.98 -13.3704 3454
-2478.72 -13.3704 3454
-2470.46 -13.3704 3454
-2442.24 -13.262 3426
-2439.02 -13.2891 3433
-2445.68 -13.3704 3454
-2437.42 -13.3704 3454
-2434.09 -13.3975 3461
-2436.32 -13.4556 3476
-2432.9 -13.4827 3483
-2424.57 -13.4827 3483
-2416.24 -13.4827 3483
-2412.75 -13.5098 3490
-2409.23 -13.5369 3497
-2400.87 -13.5369 3497
-2402.77 -13.5949 3512
-2404.6 -13.653 3527
-2406.35 -13.711 3542
-2397.88 -13.711 3542
-2394.13 -13.7381 3549
-2391.03 -13.7691 3557
-2387.88 -13.8001 3565
-2379.35 -13.8001 3565
-2380.8 -13.8581 3580
-2377.54 -13.8891 3588
-2373.59 -13.9162 3595
-2364.99 -13.9162 3595
-2356.39 -13.9162 3595
-2353.02 -13.9472 3603
-2354.81 -14.0091 3619
-2346.16 -14.0091 3619
-2342.67 -14.0401 3627
-2334 -14.0401 3627
-2325.33 -14.0401 3627
-2311.54 -14.0091 3619
-2302.89 -14.0091 3619
-2299.31 -14.0401 3627
-2300.11 -14.0981 3642
-2291.4 -14.0981 3642
-2287.7 -14.1291 3650
-2278.98 -14.1291 3650
-2270.25 -14.1291 3650
-2261.52 -14.1291 3650
-2252.79 -14.1291 3650
-2239.14 -14.0981 3642
-2235.33 -14.1291 3650
-2226.61 -14.1291 3650
-2217.88 -14.1291 3650
-2204.31 -14.0981 3642
-2210.67 -14.1949 3667
-2201.9 -14.1949 3667
-2193.13 -14.1949 3667
-2184.36 -14.1949 3667
-2175.59 -14.1949 3667
-2166.82 -14.1949 3667
-2167.47 -14.2569 3683
-2158.67 -14.2569 3683
-2149.86 -14.2569 3683
-2136.4 -14.2259 3675
-2127.61 -14.2259 3675
-2114.21 -14.1949 3667
-2105.44 -14.1949 3667
-2082.38 -14.0981 3642
-2069.68 -14.071 3635
-2025.27 -13.8272 3572
-2016.73 -13.8272 3572
-1991.32 -13.711 3542
-1970.54 -13.6259 3520
-1941.49 -13.4827 3483
-1933.17 -13.4827 3483
-1889.47 -13.2349 3419
-1847.18 -12.9949 3357
-1835.31 -12.9678 3350
-1820.21 -12.9175 3337
-1812.23 -12.9175 3337
-1796.68 -12.8633 3323
-1777.97 -12.7859 3303
-1766.86 -12.7627 3297
-1758.97 -12.7627 3297
-1741 -12.6891 3278
-1729.46 -12.662 3271
-1711.64 -12.5885 3252
-1703.86 -12.5885 3252
-1689.3 -12.5381 3239
-1675.33 -12.4917 3227
-1664.51 -12.4685 3221
-1659.89 -12.4917 3227
-1652.18 -12.4917 3227
-1644.46 -12.4917 3227
-1636.74 -12.4917 3227
-1629.03 -12.4917 3227
-1621.31 -12.4917 3227
-1616.59 -12.5149 3233
-1611.85 -12.5381 3239
-1607.57 -12.5652 3246
-1599.81 -12.5652 3246
-1594.99 -12.5885 3252
-1587.21 -12.5885 3252
-1582.35 -12.6117 3258
-1574.56 -12.6117 3258
-1576.39 -12.6891 3278
-1571.42 -12.7123 3284
-1563.56 -12.7123 3284
-1555.71 -12.7123 3284
-1550.69 -12.7356 3290
-1555.48 -12.8401 3317
-1550.35 -12.8633 3323
-1542.4 -12.8633 3323
-1540.92 -12.9175 3337
-1538.91 -12.9678 3350
-1536.84 -13.0181 3363
-1528.8 -13.0181 3363
-1533.42 -13.1265 3391
-1528.46 -13.1536 3398
-1523.47 -13.1807 3405
-1515.32 -13.1807 3405
-1507.18 -13.1807 3405
-1499.04 -13.1807 3405
-1490.9 -13.1807 3405
-1476.66 -13.1265 3391
-1468.55 -13.1265 3391
-1454.41 -13.0723 3377
-1446.34 -13.0723 3377
-1435.28 -13.0452 3370
-1415.78 -12.9407 3343
-1410.74 -12.9678 3350
-1402.73 -12.9678 3350
-1394.72 -12.9678 3350
-1386.71 -12.9678 3350
-1378.7 -12.9678 3350
-1367.82 -12.9407 3343
-1359.83 -12.9407 3343
-1351.83 -12.9407 3343
-1343.84 -12.9407 3343
-1335.84 -12.9407 3343
-1327.85 -12.9407 3343
-1314.72 -12.8904 3330
-1306.76 -12.8904 3330
-1291 -12.813 3310
-1283.08 -12.813 3310
-1272.47 -12.7859 3303
-1264.57 -12.7859 3303
-1254.39 -12.7627 3297
-1246.51 -12.7627 3297
-1238.62 -12.7627 3297
-1228.12 -12.7356 3290
-1213.21 -12.662 3271
-1205.39 -12.662 3271
-1195.37 -12.6388 3265
-1182.83 -12.5885 3252
-1177.22 -12.6117 3258
-1171.95 -12.6388 3265
-1164.14 -12.6388 3265
-1156.33 -12.6388 3265
-1148.52 -12.6388 3265
-1140.72 -12.6388 3265
-1123.89 -12.5381 3239
-1114.07 -12.5149 3233
-1106.34 -12.5149 3233
-1098.61 -12.5149 3233
-1088.86 -12.4917 3227
-1081.14 -12.4917 3227
-1069.1 -12.4414 3214
-1061.41 -12.4414 3214
-562.272 -6.63875 1715
-558.171 -6.63875 1715
-554.069 -6.63875 1715
-549.327 -6.63101 1713
-544.594 -6.62326 1711
-540.503 -6.62326 1711
-535.471 -6.61165 1708
-530.764 -6.60391 1706
-526.067 -6.59617 1704
-521.992 -6.59617 1704
-517.006 -6.58455 1701
-512.335 -6.57681 1699
-507.075 -6.56133 1695
-503.022 -6.56133 1695
-497.497 -6.54197 1690
-493.164 -6.5381 1689
-487.098 -6.511 1682
-481.639 -6.49165 1677
-477.629 -6.49165 1677
-471.642 -6.46455 1670
-466.809 -6.45294 1667
-460.879 -6.42584 1660
-456.909 -6.42584 1660
-451.575 -6.40649 1655
-445.725 -6.37939 1648
-440.175 -6.35616 1642
-436.249 -6.35616 1642
-431.796 -6.34842 1640
-426.308 -6.3252 1634
-421.109 -6.30584 1629
-417.213 -6.30584 1629
-413.064 -6.30197 1628
-407.412 -6.27487 1621
-402.788 -6.26326 1618
-397.44 -6.24004 1612
-393.585 -6.24004 1612
-389.247 -6.23229 1610
-385.158 -6.22842 1609
-380.599 -6.21681 1606
-376.759 -6.21681 1606
-371.757 -6.19745 1601
-367.239 -6.18584 1598
-362.281 -6.16649 1593
-358.471 -6.16649 1593
-353.772 -6.151 1589
-349.311 -6.13939 1586
-344.865 -6.12778 1583
-341.079 -6.12778 1583
-336.868 -6.12003 1581
-332.876 -6.11616 1580
-328.682 -6.10842 1578
-324.908 -6.10842 1578
-320.931 -6.10455 1577
-317.16 -6.10455 1577
-312.992 -6.09681 1575
-309.225 -6.09681 1575
-305.265 -6.09294 1574
-301.118 -6.0852 1572
-296.791 -6.07358 1569
-292.479 -6.06197 1566
-288.734 -6.06197 1566
-284.808 -6.0581 1565
-281.065 -6.0581 1565
-277.323 -6.0581 1565
-274.105 -6.06971 1568
-270.355 -6.06971 1568
-266.776 -6.07358 1569
-264.365 -6.10455 1577
-261.09 -6.11616 1580
-257.311 -6.11616 1580
-254.656 -6.14326 1587
-251.81 -6.16649 1593
-249.246 -6.19745 1601
-245.417 -6.19745 1601
-242.343 -6.21681 1606
-239.097 -6.23229 1610
-236.27 -6.25939 1617
-232.403 -6.25939 1617
-229.526 -6.28649 1624
-226.198 -6.30197 1628
-222.851 -6.31746 1632
-218.949 -6.31746 1632
-215.968 -6.34455 1639
-213.472 -6.38713 1650
-211.177 -6.43746 1663
-207.201 -6.43746 1663
-204.324 -6.47229 1672
-200.924 -6.49165 1677
-196.914 -6.49165 1677
-192.904 -6.49165 1677
-189.57 -6.51488 1683
-185.986 -6.53036 1687
-182.707 -6.55746 1694
-178.656 -6.55746 1694
-175.327 -6.58455 1701
-172.266 -6.62326 1711
-168.371 -6.63101 1713
-164.275 -6.63101 1713
-160.459 -6.64262 1716
-156.72 -6.6581 1720
-152.784 -6.66584 1722
-148.666 -6.66584 1722
-144.8 -6.67746 1725
-141.165 -6.70068 1731
-137.579 -6.72778 1738
-133.423 -6.72778 1738
-129.639 -6.74713 1743
-125.471 -6.74713 1743
-121.442 -6.75488 1745
-117.269 -6.75488 1745
-113.81 -6.79746 1756
-110.297 -6.84004 1767
-106.072 -6.84004 1767
-101.846 -6.84004 1767
-97.6208 -6.84004 1767
-133.883 -14.3498 3707
-125.018 -14.3498 3707
-116.154 -14.3498 3707
-107.289 -14.3498 3707
-99.3007 -14.4775 3740
-90.3572 -14.4775 3740
-81.4138 -14.4775 3740
-72.4703 -14.4775 3740
-63.5268 -14.4775 3740
-54.5834 -14.4775 3740
-45.0419 -14.2878 3691
-36.2156 -14.2878 3691
-27.3893 -14.2878 3691
-18.5228 -14.2569 3683
-9.71562 -14.2569 3683
-0.906481 -14.2259 3675
7.88156 -14.2259 3675
16.7422 -14.2878 3691
25.5685 -14.2878 3691
34.4693 -14.3188 3699
43.4084 -14.3498 3707
52.273 -14.3498 3707
61.1376 -14.3498 3707
69.7 -14.2878 3691
78.5263 -14.2878 3691
87.3526 -14.2878 3691
96.1789 -14.2878 3691
104.778 -14.2569 3683
113.585 -14.2569 3683
122.392 -14.2569 3683
131.199 -14.2569 3683
140.31 -14.2878 3691
150.47 -14.4156 3724
160.445 -14.5123 3749
169.41 -14.5123 3749
178.756 -14.5433 3757
187.74 -14.5433 3757
196.724 -14.5433 3757
205.708 -14.5433 3757
214.235 -14.5123 3749
223.2 -14.5123 3749
232.165 -14.5123 3749
240.037 -14.4465 3732
247.293 -14.3498 3707
256.78 -14.3846 3716
266.238 -14.4156 3724
277.581 -14.5433 3757
286.565 -14.5433 3757
295.549 -14.5433 3757
304.534 -14.5433 3757
314.269 -14.5781 3766
323.274 -14.5781 3766
332.28 -14.5781 3766
341.286 -14.5781 3766
350.291 -14.5781 3766
358.438 -14.5433 3757
365.76 -14.4775 3740
373.1 -14.4156 3724
382.006 -14.4156 3724
390.071 -14.3846 3716
398.957 -14.3846 3716
406.855 -14.3498 3707
415.72 -14.3498 3707
421.836 -14.2569 3683
426.784 -14.1291 3650
434.558 -14.0981 3642
443.267 -14.0981 3642
451.107 -14.071 3635
459.8 -14.071 3635
465.399 -13.9781 3611
472.984 -13.9472 3603
481.6 -13.9472 3603
488.175 -13.8891 3588
495.647 -13.8581 3580
498.856 -13.711 3542
507.326 -13.711 3542
513.612 -13.653 3527
521.01 -13.6259 3520
527.171 -13.5678 3505
535.553 -13.5678 3505
540.52 -13.4827 3483
546.485 -13.4246 3468
553.658 -13.3975 3461
561.935 -13.3975 3461
573.836 -13.4827 3483
582.164 -13.4827 3483
590.493 -13.4827 3483
598.822 -13.4827 3483
608.371 -13.5098 3490
616.717 -13.5098 3490
629.003 -13.5949 3512
638.853 -13.6259 3520
649.845 -13.6801 3534
658.296 -13.6801 3534
668.256 -13.711 3542
679.592 -13.7691 3557
690.999 -13.8272 3572
699.541 -13.8272 3572
708.083 -13.8272 3572
721.239 -13.9162 3595
729.836 -13.9162 3595
738.432 -13.9162 3595
753.679 -14.0401 3627
765.505 -14.0981 3642
774.214 -14.0981 3642
782.923 -14.0981 3642
793.371 -14.1291 3650
802.099 -14.1291 3650
818.158 -14.2569 3683
826.965 -14.2569 3683
841.219 -14.3498 3707
850.083 -14.3498 3707
858.948 -14.3498 3707
862.194 -14.2569 3683
1296.29 -15.7898 4079
1306.05 -15.7898 4079
1315.8 -15.7898 4079
1306.38 -15.5614 4020
1386.82 -14.7794 3818
1395.95 -14.7794 3818
1408.02 -14.8104 3826
1471.25 -15.3756 3972
1480.75 -15.3756 3972
1490.25 -15.3756 3972
1475.2 -15.124 3907
1477.71 -15.0543 3889
1487.01 -15.0543 3889
1492.84 -15.0194 3880
1502.12 -15.0194 3880
1507.89 -14.9846 3871
1517.15 -14.9846 3871
1515.76 -14.8801 3844
1524.95 -14.8801 3844
1523.77 -14.7794 3818
1532.9 -14.7794 3818
1534.76 -14.7098 3800
1519.47 -14.4775 3740
1514.93 -14.3498 3707
1510.64 -14.2259 3675
1519.42 -14.2259 3675
1504.93 -14.0091 3619
1487.65 -13.7691 3557
1483.54 -13.653 3527
1491.97 -13.653 3527
1494.02 -13.5949 3512
1499.43 -13.5678 3505
1476.84 -13.2891 3433
1485.04 -13.2891 3433
1484.12 -13.2078 3412
1489.22 -13.1807 3405
1494.28 -13.1536 3398
1499.31 -13.1265 3391
1516.76 -13.2078 3412
1524.92 -13.2078 3412
1539.36 -13.262 3426
1547.56 -13.262 3426
1555.75 -13.262 3426
1557.55 -13.2078 3412
1578.56 -13.3162 3440
1593.24 -13.3704 3454
1611.7 -13.4556 3476
1620.02 -13.4556 3476
1634.89 -13.5098 3490
1643.23 -13.5098 3490
1651.58 -13.5098 3490
1659.92 -13.5098 3490
1668.27 -13.5098 3490
1676.61 -13.5098 3490
1684.96 -13.5098 3490
1693.31 -13.5098 3490
2379.87 -14.5433 3757
2388.85 -14.5433 3757
2397.83 -14.5433 3757
2401.69 -14.5123 3749
2389.44 -14.3846 3716
2398.33 -14.3846 3716
2391.02 -14.2878 3691
1857.39 -10.7807 2785
1864.05 -10.7807 2785
1870.71 -10.7807 2785
1861.87 -10.6917 2762
1865.09 -10.6723 2757
1878.47 -10.711 2767
1887.81 -10.7265 2771
1894.44 -10.7265 2771
1904.5 -10.7459 2776
1913.89 -10.7614 2780
1923.99 -10.7807 2785
1930.65 -10.7807 2785
1937.31 -10.7807 2785
1947.46 -10.8001 2790
1956.93 -10.8155 2794
1963.61 -10.8155 2794
1980.87 -10.8736 2809
1993.96 -10.9084 2818
2004.25 -10.9278 2823
2011 -10.9278 2823
2021.32 -10.9472 2828
2030.95 -10.9626 2832
2044.92 -11.0014 2842
2051.72 -11.0014 2842
2065.76 -11.0401 2852
2076.21 -11.0594 2857
2083.04 -11.0594 2857
2093.53 -11.0788 2862
2100.37 -11.0788 2862
2110.16 -11.0943 2866
2117.02 -11.0943 2866
2127.58 -11.1136 2871
2134.44 -11.1136 2871
2141.31 -11.1136 2871
2155.65 -11.1523 2881
2189.57 -11.2917 2917
2196.54 -11.2917 2917
2222.4 -11.3885 2942
2233.23 -11.4078 2947
2240.27 -11.4078 2947
2247.32 -11.4078 2947
2254.37 -11.4078 2947
-2629.52 -5.18189 3512
-2621.12 -5.18189 3512
-2612.72 -5.18189 3512
-2604.33 -5.18189 3512
-2595.93 -5.18189 3512
-2582.37 -5.17156 3505
-2557.83 -5.1391 3483
-2533.4 -5.10664 3461
-2525.13 -5.10664 3461
-2506.67 -5.08598 3447
-2493.35 -5.07565 3440
-2495.24 -5.09631 3454
-2486.98 -5.09631 3454
-2478.72 -5.09631 3454
-2470.46 -5.09631 3454
-2442.24 -5.055 3426
-2439.02 -5.06533 3433
-2445.68 -5.09631 3454
-2437.42 -5.09631 3454
-2434.09 -5.10664 3461
-2436.32 -5.12877 3476
-2432.9 -5.1391 3483
-2424.57 -5.1391 3483
-2416.24 -5.1391 3483
-2412.75 -5.14943 3490
-2409.23 -5.15976 3497
-2400.87 -5.15976 3497
-2402.77 -5.18189 3512
-2404.6 -5.20402 3527
-2406.35 -5.22615 3542
-2397.88 -5.22615 3542
-2394.13 -5.23648 3549
-2391.03 -5.24829 3557
-2387.88 -5.26009 3565
-2379.35 -5.26009 3565
-2380.8 -5.28222 3580
-2377.54 -5.29402 3588
-2373.59 -5.30435 3595
-2364.99 -5.30435 3595
-2356.39 -5.30435 3595
-2353.02 -5.31616 3603
-2354.81 -5.33977 3619
-2346.16 -5.33977 3619
-2342.67 -5.35157 3627
-2334 -5.35157 3627
-2325.33 -5.35157 3627
-2311.54 -5.33977 3619
-2302.89 -5.33977 3619
-2299.31 -5.35157 3627
-2300.11 -5.3737 3642
-2291.4 -5.3737 3642
-2287.7 -5.3855 3650
-2278.98 -5.3855 3650
-2270.25 -5.3855 3650
-2261.52 -5.3855 3650
-2252.79 -5.3855 3650
-2239.14 -5.3737 3642
-2235.33 -5.3855 3650
-2226.61 -5.3855 3650
-2217.88 -5.3855 3650
-2204.31 -5.3737 3642
-2210.67 -5.41059 3667
-2201.9 -5.41059 3667
-2193.13 -5.41059 3667
-2184.36 -5.41059 3667
-2175.59 -5.41059 3667
-2166.82 -5.41059 3667
-2167.47 -5.4342 3683
-2158.67 -5.4342 3683
-2149.86 -5.4342 3683
-2136.4 -5.42239 3675
-2127.61 -5.42239 3675
-2114.21 -5.41059 3667
-2105.44 -5.41059 3667
-2082.38 -5.3737 3642
-2069.68 -5.36337 3635
-2025.27 -5.27042 3572
-2016.73 -5.27042 3572
-1991.32 -5.22615 3542
-1970.54 -5.19369 3520
-1941.49 -5.1391 3483
-1933.17 -5.1391 3483
-1889.47 -5.04467 3419
-1847.18 -4.95319 3357
-1835.31 -4.94286 3350
-1820.21 -4.92368 3337
-1812.23 -4.92368 3337
-1796.68 -4.90302 3323
-1777.97 -4.87351 3303
-1766.86 -4.86466 3297
-1758.97 -4.86466 3297
-1741 -4.83663 3278
-1729.46 -4.8263 3271
-1711.64 -4.79826 3252
-1703.86 -4.79826 3252
-1689.3 -4.77908 3239
-1675.33 -4.76138 3227
-1664.51 -4.75252 3221
-1662.98 -4.77023 3233
-1655.25 -4.77023 3233
-1647.52 -4.77023 3233
-1639.79 -4.77023 3233
-1632.06 -4.77023 3233
-1624.32 -4.77023 3233
-1616.59 -4.77023 3233
-1611.85 -4.77908 3239
-1610.54 -4.79826 3252
-1602.76 -4.79826 3252
-1594.99 -4.79826 3252
-1590.14 -4.80712 3258
-1582.35 -4.80712 3258
-1574.56 -4.80712 3258
-1576.39 -4.83663 3278
-1571.42 -4.84548 3284
-1563.56 -4.84548 3284
-1555.71 -4.84548 3284
-1550.69 -4.85433 3290
-1555.48 -4.89417 3317
-1553.61 -4.91335 3330
-1545.65 -4.91335 3330
-1546.92 -4.94286 3350
-1548.1 -4.97237 3370
-1543.24 -4.9827 3377
-1535.16 -4.9827 3377
-1533.42 -5.00336 3391
-1531.61 -5.02401 3405
-1532.86 -5.055 3426
-1524.67 -5.055 3426
-1516.48 -5.055 3426
-1508.28 -5.055 3426
-1500.09 -5.055 3426
-1482.75 -5.02401 3405
-1474.61 -5.02401 3405
-1460.44 -5.00336 3391
-1452.33 -5.00336 3391
-1444.22 -5.00336 3391
-1418.75 -4.94286 3350
-1410.74 -4.94286 3350
-1405.66 -4.95319 3357
-1397.63 -4.95319 3357
-1389.6 -4.95319 3357
-1378.7 -4.94286 3350
-1370.68 -4.94286 3350
-1362.67 -4.94286 3350
-1351.83 -4.93253 3343
-1343.84 -4.93253 3343
-1335.84 -4.93253 3343
-1327.85 -4.93253 3343
-1314.72 -4.91335 3330
-1306.76 -4.91335 3330
-1291 -4.88384 3310
-1283.08 -4.88384 3310
-1272.47 -4.87351 3303
-1264.57 -4.87351 3303
-1254.39 -4.86466 3297
-1246.51 -4.86466 3297
-1238.62 -4.86466 3297
-1228.12 -4.85433 3290
-1213.21 -4.8263 3271
-1205.39 -4.8263 3271
-1195.37 -4.81744 3265
-1182.83 -4.79826 3252
-1177.22 -4.80712 3258
-1171.95 -4.81744 3265
-1164.14 -4.81744 3265
-1156.33 -4.81744 3265
-1148.52 -4.81744 3265
-1140.72 -4.81744 3265
-1123.89 -4.77908 3239
-1114.07 -4.77023 3233
-1106.34 -4.77023 3233
-1098.61 -4.77023 3233
-1088.86 -4.76138 3227
-1081.14 -4.76138 3227
-1069.1 -4.7422 3214
-1061.41 -4.7422 3214
-562.272 -2.53045 1715
-558.171 -2.53045 1715
-554.069 -2.53045 1715
-549.968 -2.53045 1715
-544.594 -2.52455 1711
-540.503 -2.52455 1711
-535.784 -2.5216 1709
-530.764 -2.51717 1706
-526.067 -2.51422 1704
-521.992 -2.51422 1704
-517.006 -2.50979 1701
-512.335 -2.50684 1699
-507.075 -2.50094 1695
-503.022 -2.50094 1695
-497.497 -2.49356 1690
-493.164 -2.49209 1689
-487.098 -2.48176 1682
-481.639 -2.47438 1677
-477.629 -2.47438 1677
-471.642 -2.46405 1670
-466.809 -2.45963 1667
-460.879 -2.4493 1660
-456.909 -2.4493 1660
-451.575 -2.44192 1655
-445.725 -2.43159 1648
-440.175 -2.42274 1642
-436.249 -2.42274 1642
-431.796 -2.41979 1640
-426.308 -2.41094 1634
-421.109 -2.40356 1629
-417.213 -2.40356 1629
-413.064 -2.40208 1628
-407.412 -2.39175 1621
-402.788 -2.38733 1618
-397.44 -2.37847 1612
-393.585 -2.37847 1612
-389.247 -2.37552 1610
-385.158 -2.37405 1609
-380.599 -2.36962 1606
-376.759 -2.36962 1606
-371.757 -2.36224 1601
-367.239 -2.35782 1598
-362.281 -2.35044 1593
-358.471 -2.35044 1593
-353.772 -2.34454 1589
-349.311 -2.34011 1586
-344.865 -2.33569 1583
-341.079 -2.33569 1583
-336.868 -2.33274 1581
-332.876 -2.33126 1580
-328.682 -2.32831 1578
-324.908 -2.32831 1578
-320.931 -2.32683 1577
-317.16 -2.32683 1577
-312.992 -2.32388 1575
-309.225 -2.32388 1575
-305.459 -2.32388 1575
-301.118 -2.31946 1572
-297.17 -2.31798 1571
-292.479 -2.3106 1566
-288.734 -2.3106 1566
-284.99 -2.3106 1566
-281.245 -2.3106 1566
-277.5 -2.3106 1566
-274.105 -2.31355 1568
-270.355 -2.31355 1568
-267.116 -2.31798 1571
-264.365 -2.32683 1577
-261.255 -2.33274 1581
-257.474 -2.33274 1581
-254.656 -2.34159 1587
-252.126 -2.35339 1595
-249.713 -2.36667 1604
-245.877 -2.36667 1604
-242.343 -2.36962 1606
-239.543 -2.37995 1613
-236.708 -2.39028 1620
-232.834 -2.39028 1620
-230.091 -2.40208 1628
-226.615 -2.40651 1631
-223.397 -2.41389 1636
-219.485 -2.41389 1636
-216.364 -2.42274 1642
-213.86 -2.43897 1653
-211.431 -2.45668 1665
-207.45 -2.45668 1665
-204.446 -2.46848 1673
-200.924 -2.47438 1677
-197.032 -2.47586 1678
-193.019 -2.47586 1678
-189.57 -2.48323 1683
-185.986 -2.48914 1687
-182.707 -2.49946 1694
-178.656 -2.49946 1694
-175.327 -2.50979 1701
-172.266 -2.52455 1711
-168.371 -2.5275 1713
-164.275 -2.5275 1713
-160.459 -2.53192 1716
-156.72 -2.53783 1720
-152.784 -2.54078 1722
-148.666 -2.54078 1722
-144.8 -2.5452 1725
-141.165 -2.55406 1731
-137.579 -2.56439 1738
-133.423 -2.56439 1738
-129.639 -2.57176 1743
-125.471 -2.57176 1743
-121.442 -2.57471 1745
-117.269 -2.57471 1745
-113.81 -2.59094 1756
-110.297 -2.60717 1767
-106.072 -2.60717 1767
-101.846 -2.60717 1767
-97.6208 -2.60717 1767
-133.883 -5.46961 3707
-125.018 -5.46961 3707
-116.154 -5.46961 3707
-107.289 -5.46961 3707
-99.3007 -5.5183 3740
-90.3572 -5.5183 3740
-81.4138 -5.5183 3740
-72.4703 -5.5183 3740
-63.5268 -5.5183 3740
-54.5834 -5.5183 3740
-45.2372 -5.46961 3707
-36.3726 -5.46961 3707
-27.5081 -5.46961 3707
-18.563 -5.446 3691
-9.71562 -5.4342 3683
-0.908454 -5.4342 3683
7.88156 -5.42239 3675
16.7422 -5.446 3691
25.5685 -5.446 3691
34.4693 -5.4578 3699
43.4084 -5.46961 3707
52.273 -5.46961 3707
61.1376 -5.46961 3707
69.7 -5.446 3691
78.5263 -5.446 3691
87.3526 -5.446 3691
96.1789 -5.446 3691
104.778 -5.4342 3683
113.585 -5.4342 3683
122.392 -5.4342 3683
131.199 -5.4342 3683
140.31 -5.446 3691
150.47 -5.49469 3724
160.445 -5.53158 3749
169.41 -5.53158 3749
178.756 -5.54338 3757
187.74 -5.54338 3757
196.724 -5.54338 3757
205.708 -5.54338 3757
214.235 -5.53158 3749
223.2 -5.53158 3749
232.165 -5.53158 3749
240.551 -5.5183 3740
247.293 -5.46961 3707
256.78 -5.48289 3716
266.238 -5.49469 3724
277.581 -5.54338 3757
286.565 -5.54338 3757
295.549 -5.54338 3757
304.534 -5.54338 3757
314.269 -5.55666 3766
323.274 -5.55666 3766
332.28 -5.55666 3766
341.286 -5.55666 3766
350.291 -5.55666 3766
358.438 -5.54338 3757
365.76 -5.5183 3740
373.1 -5.49469 3724
382.006 -5.49469 3724
390.071 -5.48289 3716
398.957 -5.48289 3716
406.855 -5.46961 3707
415.72 -5.46961 3707
421.836 -5.4342 3683
426.784 -5.3855 3650
434.558 -5.3737 3642
443.267 -5.3737 3642
451.107 -5.36337 3635
459.8 -5.36337 3635
465.399 -5.32796 3611
472.984 -5.31616 3603
481.6 -5.31616 3603
488.175 -5.29402 3588
495.647 -5.28222 3580
498.856 -5.22615 3542
507.326 -5.22615 3542
513.612 -5.20402 3527
521.01 -5.19369 3520
527.171 -5.17156 3505
535.553 -5.17156 3505
540.52 -5.1391 3483
546.485 -5.11697 3468
553.658 -5.10664 3461
561.935 -5.10664 3461
573.836 -5.1391 3483
582.164 -5.1391 3483
590.493 -5.1391 3483
598.822 -5.1391 3483
608.371 -5.14943 3490
616.717 -5.14943 3490
629.003 -5.18189 3512
638.853 -5.19369 3520
649.845 -5.21435 3534
658.296 -5.21435 3534
668.256 -5.22615 3542
681.12 -5.26009 3565
690.999 -5.27042 3572
699.541 -5.27042 3572
709.669 -5.28222 3580
721.239 -5.30435 3595
731.46 -5.31616 3603
740.076 -5.31616 3603
753.679 -5.35157 3627
765.505 -5.3737 3642
774.214 -5.3737 3642
782.923 -5.3737 3642
793.371 -5.3855 3650
802.099 -5.3855 3650
818.158 -5.4342 3683
826.965 -5.4342 3683
841.219 -5.46961 3707
850.083 -5.46961 3707
858.948 -5.46961 3707
862.194 -5.4342 3683
1296.29 -6.01849 4079
1306.05 -6.01849 4079
1315.8 -6.01849 4079
1306.38 -5.93143 4020
1312.72 -5.91668 4010
1322.31 -5.91668 4010
1331.9 -5.91668 4010
1386.82 -5.63339 3818
1395.95 -5.63339 3818
1408.02 -5.64519 3826
1471.25 -5.86061 3972
1480.75 -5.86061 3972
1490.25 -5.86061 3972
1475.2 -5.7647 3907
1477.71 -5.73814 3889
1487.01 -5.73814 3889
1492.84 -5.72487 3880
1502.12 -5.72487 3880
1507.89 -5.71159 3871
1517.15 -5.71159 3871
1515.76 -5.67175 3844
1524.95 -5.67175 3844
1523.77 -5.63339 3818
1532.9 -5.63339 3818
1534.76 -5.60683 3800
1519.47 -5.5183 3740
1514.93 -5.46961 3707
1510.64 -5.42239 3675
1519.42 -5.42239 3675
1504.93 -5.33977 3619
1487.65 -5.24829 3557
1483.54 -5.20402 3527
1491.97 -5.20402 3527
1494.02 -5.18189 3512
1499.43 -5.17156 3505
1476.84 -5.06533 3433
1485.04 -5.06533 3433
1484.12 -5.03434 3412
1492.28 -5.03434 3412
1500.44 -5.03434 3412
1502.41 -5.01368 3398
1522.98 -5.055 3426
1531.17 -5.055 3426
1539.36 -5.055 3426
1547.56 -5.055 3426
1555.75 -5.055 3426
1557.55 -5.03434 3412
1584.98 -5.09631 3454
1596.47 -5.10664 3461
1611.7 -5.12877 3476
1620.02 -5.12877 3476
1638.17 -5.15976 3497
1646.53 -5.15976 3497
1654.89 -5.15976 3497
1659.92 -5.14943 3490
1668.27 -5.14943 3490
1676.61 -5.14943 3490
1684.96 -5.14943 3490
1693.31 -5.14943 3490
2379.87 -5.54338 3757
2388.85 -5.54338 3757
2397.83 -5.54338 3757
2401.69 -5.53158 3749
2389.44 -5.48289 3716
