ply
format ascii 1.0
comment File generated
element vertex 2147
property float x
property float y
property float z
end_header
578.159 -567.38 3844
599.727 -579.336 3925
609.113 -579.336 3925
621.493 -582.14 3944
632.364 -583.469 3953
644.902 -586.273 3972
654.4 -586.273 3972
670.25 -591.882 4010
679.839 -591.882 4010
689.428 -591.882 4010
690.824 -584.945 3963
1343.98 -564.723 3826
1353.13 -564.723 3826
1362.28 -564.723 3826
1371.43 -564.723 3826
1377.69 -563.543 3818
1386.82 -563.543 3818
1395.95 -563.543 3818
1405.08 -563.543 3818
1474.95 -587.749 3982
1484.48 -587.749 3982
1494 -587.749 3982
1759.04 -603.543 4089
1768.82 -603.543 4089
1778.59 -603.543 4089
1788.37 -603.543 4089
1789.36 -600.591 4069
1799.09 -600.591 4069
1778.59 -590.554 4001
1788.16 -590.554 4001
1793.23 -589.078 3991
1802.77 -589.078 3991
1803.69 -586.273 3972
1809.08 -584.945 3963
1813.97 -583.469 3953
1823.42 -583.469 3953
1824.53 -580.812 3935
1829.28 -579.336 3925
1804.93 -568.709 3853
1814.15 -568.709 3853
1823.36 -568.709 3853
1832.57 -568.709 3853
1833.18 -566.052 3835
2981.18 -597.639 4049
2990.86 -597.639 4049
3022.77 -602.067 4079
3032.53 -602.067 4079
3042.28 -602.067 4079
3052.04 -602.067 4079
3069.3 -603.543 4089
3079.07 -603.543 4089
3088.85 -603.543 4089
3091.05 -602.067 4079
3078 -597.639 4049
3080.06 -596.163 4039
3089.72 -596.163 4039
-2460.38 -543.07 3740
-2502.56 -554.397 3818
-2493.43 -554.397 3818
-2484.3 -554.397 3818
-2475.17 -554.397 3818
-2466.04 -554.397 3818
-2456.91 -554.397 3818
-2447.78 -554.397 3818
-2367.75 -538.279 3707
-2327.71 -531.164 3658
-2313.89 -530.002 3650
-2305.16 -530.002 3650
-1203.24 -483.536 3330
-1195.28 -483.536 3330
-1187.31 -483.536 3330
-1172.27 -480.632 3310
-1153.1 -475.985 3278
-1145.26 -475.985 3278
-1134.99 -474.969 3271
-1125.1 -474.098 3265
-1102.24 -467.709 3221
-1094.53 -467.709 3221
-1084.47 -466.692 3214
-1074.77 -465.821 3208
-1057.12 -461.465 3178
-1049.52 -461.465 3178
-1041.92 -461.465 3178
-1034.32 -461.465 3178
-1022.85 -459.722 3166
-1015.28 -459.722 3166
-1007.71 -459.722 3166
-998.24 -458.851 3160
-548.324 -253.965 1749
-544.142 -253.965 1749
-539.96 -253.965 1749
-535.777 -253.965 1749
-530.379 -253.384 1745
-525.603 -253.094 1743
-520.837 -252.804 1741
-516.674 -252.804 1741
-511.627 -252.368 1738
-505.427 -251.352 1731
-498.971 -250.19 1723
-494.851 -250.19 1723
-489.876 -249.754 1720
-485.198 -249.464 1718
-480.53 -249.174 1716
-476.427 -249.174 1716
-472.323 -249.174 1716
-467.947 -249.028 1715
-462.764 -248.447 1711
-457.332 -247.721 1706
-453.252 -247.721 1706
-447.856 -246.995 1701
-441.962 -245.979 1694
-436.619 -245.253 1689
-432.58 -245.253 1689
-427.019 -244.382 1683
-421.486 -243.51 1677
-415.236 -242.204 1668
-411.247 -242.204 1668
-407.014 -242.058 1667
-402.061 -241.478 1663
-397.366 -241.042 1660
-393.396 -241.042 1660
-388.957 -240.752 1658
-384.993 -240.752 1658
-380.338 -240.316 1655
-376.381 -240.316 1655
-372.423 -240.316 1655
-368.466 -240.316 1655
-364.508 -240.316 1655
-360.55 -240.316 1655
-357.024 -240.606 1657
-353.061 -240.606 1657
-349.099 -240.606 1657
-345.345 -240.752 1658
-341.792 -241.042 1660
-337.822 -241.042 1660
-334.456 -241.478 1663
-330.479 -241.478 1663
-326.895 -241.768 1665
-322.914 -241.768 1665
-318.932 -241.768 1665
-314.951 -241.768 1665
-310.969 -241.768 1665
-306.988 -241.768 1665
-302.642 -241.478 1663
-298.127 -241.042 1660
-294.157 -241.042 1660
-290.188 -241.042 1660
-285.873 -240.752 1658
-281.398 -240.316 1655
-277.441 -240.316 1655
-273.153 -240.026 1653
-269.037 -239.88 1652
-264.445 -239.299 1648
-260.504 -239.299 1648
-256.563 -239.299 1648
-252.162 -238.864 1645
-247.776 -238.428 1642
-243.107 -237.702 1637
-239.192 -237.702 1637
-234.846 -237.267 1634
-230.656 -236.976 1632
-226.198 -236.395 1628
-222.305 -236.395 1628
-218.144 -236.105 1626
-213.992 -235.815 1624
-209.591 -235.234 1620
-205.717 -235.234 1620
-201.843 -235.234 1620
-197.725 -234.943 1618
-193.496 -234.508 1615
-189.634 -234.508 1615
-185.772 -234.508 1615
-181.91 -234.508 1615
-177.828 -234.217 1613
-173.971 -234.217 1613
-170.113 -234.217 1613
-166.462 -234.508 1615
-162.802 -234.798 1617
-159.033 -234.943 1618
-155.164 -234.943 1618
-151.763 -235.669 1623
-147.973 -235.815 1624
-144.267 -236.105 1626
-140.378 -236.105 1626
-136.49 -236.105 1626
-132.602 -236.105 1626
-128.872 -236.395 1628
-125.286 -236.976 1632
-121.383 -236.976 1632
-117.481 -236.976 1632
-113.926 -237.702 1637
-110.012 -237.702 1637
-106.097 -237.702 1637
-102.182 -237.702 1637
-98.2679 -237.702 1637
-94.3533 -237.702 1637
-90.4387 -237.702 1637
-86.5242 -237.702 1637
-82.6096 -237.702 1637
-78.695 -237.702 1637
-164.413 -583.728 4020
-154.8 -583.728 4020
-145.187 -583.728 4020
-135.574 -583.728 4020
-124.77 -578.21 3982
-115.509 -579.517 3991
-105.965 -579.517 3991
-96.4213 -579.517 3991
-86.8776 -579.517 3991
-77.1596 -578.21 3982
-67.6374 -578.21 3982
-58.1152 -578.21 3982
-48.471 -576.758 3972
-38.9728 -576.758 3972
-29.4745 -576.758 3972
-19.931 -575.451 3963
-10.5044 -578.21 3982
-0.982206 -578.21 3982
8.53996 -578.21 3982
17.9759 -575.451 3963
27.4527 -575.451 3963
36.3237 -566.013 3898
46.1837 -572.693 3944
56.2777 -579.517 3991
65.8214 -579.517 3991
75.3651 -579.517 3991
84.9088 -579.517 3991
94.4525 -579.517 3991
102.771 -572.693 3944
111.947 -571.386 3935
121.356 -571.386 3935
130.766 -571.386 3935
140.176 -571.386 3935
149.928 -572.693 3944
159.359 -572.693 3944
168.791 -572.693 3944
178.222 -572.693 3944
186.749 -569.934 3925
195.236 -567.32 3907
204.578 -567.32 3907
213.921 -567.32 3907
226.464 -575.451 3963
236.477 -576.758 3972
245.975 -576.758 3972
255.473 -576.758 3972
263.704 -573.999 3953
266.869 -560.786 3862
276.104 -560.786 3862
284.009 -558.172 3844
293.201 -558.172 3844
300.977 -555.558 3826
306.641 -549.314 3783
315.687 -549.314 3783
319.669 -540.747 3724
330.78 -544.377 3749
339.745 -544.377 3749
348.71 -544.377 3749
357.675 -544.377 3749
364.978 -541.909 3732
373.902 -541.909 3732
382.826 -541.909 3732
391.751 -541.909 3732
397.991 -538.279 3707
404.221 -534.794 3683
413.029 -534.794 3683
420.003 -532.47 3667
428.772 -532.47 3667
440.405 -535.955 3691
450.205 -537.117 3699
461.16 -539.586 3716
470.046 -539.586 3716
479.963 -540.747 3724
489.918 -541.909 3732
498.843 -541.909 3732
507.767 -541.909 3732
516.691 -541.909 3732
524.489 -540.747 3724
533.394 -540.747 3724
541.134 -539.586 3716
559.937 -549.314 3783
575.451 -555.558 3826
587.351 -558.172 3844
596.543 -558.172 3844
614.244 -566.013 3898
627.885 -569.934 3925
641.817 -573.999 3953
651.27 -573.999 3953
662.394 -575.451 3963
671.871 -575.451 3963
681.347 -575.451 3963
689.081 -573.999 3953
1372.43 -567.32 3907
1381.77 -567.32 3907
1391.12 -567.32 3907
1400.46 -567.32 3907
1409.8 -567.32 3907
1396.26 -558.172 3844
1405.45 -558.172 3844
1465.43 -578.21 3982
1492.73 -585.18 4030
1502.37 -585.18 4030
1512.01 -585.18 4030
1521.64 -585.18 4030
1759.04 -593.747 4089
1768.82 -593.747 4089
1778.59 -593.747 4089
1788.37 -593.747 4089
1784.96 -589.391 4059
1794.66 -589.391 4059
1778.59 -580.969 4001
1783.69 -579.517 3991
1789.19 -578.21 3982
1798.71 -578.21 3982
1799.6 -575.451 3963
1804.51 -573.999 3953
1809.84 -572.693 3944
1819.27 -572.693 3944
1819.89 -569.934 3925
1820.89 -567.32 3907
1817.58 -563.399 3880
1818.38 -560.786 3862
1827.62 -560.786 3862
1836.85 -560.786 3862
1846.09 -560.786 3862
3022.77 -592.295 4079
3039.96 -593.747 4089
3049.74 -593.747 4089
3059.52 -593.747 4089
3069.3 -593.747 4089
3079.07 -593.747 4089
3088.85 -593.747 4089
3091.05 -592.295 4079
3078 -587.939 4049
3080.06 -586.487 4039
3089.72 -586.487 4039
-2477.48 -537.824 3766
-2502.56 -545.25 3818
-2493.43 -545.25 3818
-2484.3 -545.25 3818
-2475.17 -545.25 3818
-2466.04 -545.25 3818
-2456.91 -545.25 3818
-2447.78 -545.25 3818
-2367.75 -529.399 3707
-2327.71 -522.401 3658
-2313.89 -521.258 3650
-2305.16 -521.258 3650
-2291.4 -520.116 3642
-1193.48 -471.703 3303
-1185.59 -471.703 3303
-1177.69 -471.703 3303
-1160.93 -468.133 3278
-1150.63 -467.133 3271
-1142.81 -467.133 3271
-1134.99 -467.133 3271
-1118.55 -463.563 3246
-1102.24 -459.993 3221
-1094.53 -459.993 3221
-1084.47 -458.993 3214
-1076.78 -458.993 3214
-1059.12 -454.709 3184
-1051.5 -454.709 3184
-1043.89 -454.709 3184
-1034.32 -453.852 3178
-1024.79 -452.995 3172
-1015.28 -452.138 3166
-1007.71 -452.138 3166
-998.24 -451.281 3160
-544.142 -249.776 1749
-539.96 -249.776 1749
-535.777 -249.776 1749
-530.379 -249.204 1745
-525.603 -248.919 1743
-520.837 -248.633 1741
-516.674 -248.633 1741
-510.45 -247.633 1734
-504.259 -246.634 1727
-498.971 -246.062 1723
-494.851 -246.062 1723
-489.307 -245.348 1718
-484.633 -245.063 1716
-479.13 -244.349 1711
-475.038 -244.349 1711
-470.947 -244.349 1711
-466.855 -244.349 1711
-461.952 -243.92 1708
-456.796 -243.349 1704
-452.721 -243.349 1704
-447.856 -242.921 1701
-441.962 -241.921 1694
-436.619 -241.207 1689
-432.58 -241.207 1689
-427.019 -240.35 1683
-421.486 -239.493 1677
-415.236 -238.208 1668
-411.247 -238.208 1668
-407.014 -238.065 1667
-401.819 -237.351 1662
-396.887 -236.78 1658
-392.922 -236.78 1658
-388.957 -236.78 1658
-384.993 -236.78 1658
-380.338 -236.351 1655
-376.381 -236.351 1655
-372.423 -236.351 1655
-368.466 -236.351 1655
-364.508 -236.351 1655
-360.55 -236.351 1655
-356.593 -236.351 1655
-352.635 -236.351 1655
-348.678 -236.351 1655
-345.345 -236.78 1658
-341.38 -236.78 1658
-337.415 -236.78 1658
-334.255 -237.351 1662
-330.479 -237.494 1663
-326.895 -237.779 1665
-322.914 -237.779 1665
-318.932 -237.779 1665
-314.951 -237.779 1665
-310.969 -237.779 1665
-306.988 -237.779 1665
-302.642 -237.494 1663
-298.127 -237.065 1660
-294.157 -237.065 1660
-290.188 -237.065 1660
-285.873 -236.78 1658
-281.398 -236.351 1655
-277.441 -236.351 1655
-273.153 -236.066 1653
-268.711 -235.637 1650
-264.766 -235.637 1650
-260.82 -235.637 1650
-256.563 -235.352 1648
-252.162 -234.923 1645
-247.776 -234.495 1642
-243.107 -233.781 1637
-239.192 -233.781 1637
-234.846 -233.352 1634
-230.515 -232.924 1631
-225.92 -232.21 1626
-222.032 -232.21 1626
-217.875 -231.924 1624
-213.992 -231.924 1624
-209.591 -231.353 1620
-205.717 -231.353 1620
-201.843 -231.353 1620
-197.725 -231.067 1618
-193.496 -230.639 1615
-189.634 -230.639 1615
-185.772 -230.639 1615
-181.91 -230.639 1615
-177.828 -230.353 1613
-173.971 -230.353 1613
-170.113 -230.353 1613
-166.462 -230.639 1615
-162.802 -230.925 1617
-159.033 -231.067 1618
-155.164 -231.067 1618
-151.763 -231.781 1623
-147.973 -231.924 1624
-144.267 -232.21 1626
-140.378 -232.21 1626
-136.49 -232.21 1626
-132.602 -232.21 1626
-128.872 -232.495 1628
-125.286 -233.067 1632
-121.383 -233.067 1632
-117.625 -233.352 1634
-113.926 -233.781 1637
-110.012 -233.781 1637
-106.097 -233.781 1637
-102.182 -233.781 1637
-98.2679 -233.781 1637
-94.3533 -233.781 1637
-90.4387 -233.781 1637
-86.4713 -233.638 1636
-180.168 -563.245 3944
-170.736 -563.245 3944
-164.413 -574.098 4020
-154.8 -574.098 4020
-145.187 -574.098 4020
-135.574 -574.098 4020
-124.77 -568.671 3982
-115.248 -568.671 3982
-105.726 -568.671 3982
-96.2039 -568.671 3982
-86.464 -567.243 3972
-76.9658 -567.243 3972
-67.4675 -567.243 3972
-57.9693 -567.243 3972
-48.2392 -564.53 3953
-38.698 -563.245 3944
-29.3335 -564.53 3953
-19.8807 -564.53 3953
-10.4543 -565.958 3963
-0.97752 -565.958 3963
8.49921 -565.958 3963
17.9759 -565.958 3963
27.3211 -563.245 3944
36.3237 -556.675 3898
46.1837 -563.245 3944
55.7419 -564.53 3953
65.1947 -564.53 3953
74.6475 -564.53 3953
84.1003 -564.53 3953
93.5532 -564.53 3953
102.537 -561.959 3935
111.406 -559.246 3916
121.048 -560.531 3925
130.766 -561.959 3935
140.176 -561.959 3935
149.586 -561.959 3935
158.996 -561.959 3935
168.405 -561.959 3935
177.815 -561.959 3935
185.893 -557.961 3907
193.886 -554.105 3880
203.165 -554.105 3880
211.457 -551.534 3862
221.721 -554.105 3880
230.999 -554.105 3880
240.278 -554.105 3880
249.556 -554.105 3880
257.633 -551.534 3862
264.381 -546.393 3826
273.53 -546.393 3826
279.502 -540.252 3783
287.862 -538.967 3774
296.887 -538.967 3774
301.859 -531.826 3724
310.764 -531.826 3724
318.21 -529.399 3707
327.868 -530.684 3716
336.755 -530.684 3716
345.641 -530.684 3716
354.527 -530.684 3716
363.413 -530.684 3716
371.397 -529.399 3707
380.262 -529.399 3707
389.126 -529.399 3707
396.273 -527.114 3691
402.465 -523.686 3667
411.234 -523.686 3667
418.056 -521.258 3650
426.784 -521.258 3650
437.541 -523.686 3667
448.257 -525.971 3683
458.057 -527.114 3691
466.883 -527.114 3691
477.772 -529.399 3707
486.636 -529.399 3707
495.501 -529.399 3707
504.366 -529.399 3707
513.23 -529.399 3707
520.968 -528.256 3699
529.813 -528.256 3699
536.329 -525.971 3683
550.021 -530.684 3716
565.073 -536.539 3757
584.6 -546.393 3826
593.749 -546.393 3826
604.317 -547.678 3835
623.566 -556.675 3898
635.809 -559.246 3916
645.174 -559.246 3916
656.042 -560.531 3925
668.649 -563.245 3944
678.081 -563.245 3944
687.512 -563.245 3944
1392.1 -565.958 3963
1401.58 -565.958 3963
1411.06 -565.958 3963
1403.69 -559.246 3916
1413.05 -559.246 3916
1439.49 -565.958 3963
1448.96 -565.958 3963
1472.42 -571.385 4001
1492.73 -575.526 4030
1502.37 -575.526 4030
1512.01 -575.526 4030
1521.64 -575.526 4030
1729.7 -583.952 4089
1739.48 -583.952 4089
1749.26 -583.952 4089
1759.04 -583.952 4089
1768.82 -583.952 4089
1778.59 -583.952 4089
1779.63 -581.096 4069
1780.56 -578.24 4049
1790.24 -578.24 4049
1774.14 -569.957 3991
1779.66 -568.671 3982
1784.69 -567.243 3972
1794.19 -567.243 3972
1799.6 -565.958 3963
1804.51 -564.53 3953
1801.12 -560.531 3925
1810.5 -560.531 3925
1815.72 -559.246 3916
1820.89 -557.961 3907
1817.58 -554.105 3880
1818.38 -551.534 3862
1827.62 -551.534 3862
1836.85 -551.534 3862
1846.09 -551.534 3862
3039.96 -583.952 4089
3049.74 -583.952 4089
3059.52 -583.952 4089
3069.3 -583.952 4089
3079.07 -583.952 4089
3088.85 -583.952 4089
3098.63 -583.952 4089
3085.6 -579.668 4059
3087.68 -578.24 4049
3097.36 -578.24 4049
-2477.48 -528.803 3766
-2502.56 -536.104 3818
-2493.43 -536.104 3818
-2484.3 -536.104 3818
-2475.17 -536.104 3818
-2466.04 -536.104 3818
-2456.91 -536.104 3818
-2447.78 -536.104 3818
-2367.75 -520.518 3707
-2327.71 -513.638 3658
-2313.89 -512.515 3650
-2305.16 -512.515 3650
-2291.4 -511.391 3642
-2268.27 -508.162 3619
-1217.18 -463.791 3303
-1209.28 -463.791 3303
-1201.38 -463.791 3303
-1193.48 -463.791 3303
-1185.59 -463.791 3303
-1177.69 -463.791 3303
-1160.93 -460.28 3278
-1150.63 -459.297 3271
-1142.81 -459.297 3271
-1134.99 -459.297 3271
-1118.55 -455.787 3246
-1102.24 -452.277 3221
-1094.53 -452.277 3221
-1084.47 -451.294 3214
-1076.78 -451.294 3214
-1061.11 -447.924 3190
-1051.5 -447.081 3184
-1043.89 -447.081 3184
-1036.28 -447.081 3184
-1026.72 -446.239 3178
-1019.13 -446.239 3178
-1011.53 -446.239 3178
-1003.93 -446.239 3178
-544.764 -245.867 1751
-540.577 -245.867 1751
-536.39 -245.867 1751
-530.379 -245.024 1745
-525.603 -244.743 1743
-520.837 -244.463 1741
-516.674 -244.463 1741
-510.45 -243.48 1734
-504.259 -242.497 1727
-498.971 -241.935 1723
-494.851 -241.935 1723
-489.307 -241.233 1718
-484.633 -240.952 1716
-479.13 -240.25 1711
-475.038 -240.25 1711
-470.947 -240.25 1711
-466.855 -240.25 1711
-461.952 -239.829 1708
-456.796 -239.267 1704
-452.721 -239.267 1704
-447.856 -238.846 1701
-441.962 -237.863 1694
-436.619 -237.161 1689
-432.58 -237.161 1689
-427.019 -236.318 1683
-421.486 -235.476 1677
-415.236 -234.212 1668
-411.247 -234.212 1668
-407.014 -234.072 1667
-401.819 -233.37 1662
-396.887 -232.808 1658
-392.922 -232.808 1658
-388.957 -232.808 1658
-384.993 -232.808 1658
-380.338 -232.387 1655
-376.381 -232.387 1655
-372.423 -232.387 1655
-368.466 -232.387 1655
-364.508 -232.387 1655
-360.55 -232.387 1655
-356.593 -232.387 1655
-352.635 -232.387 1655
-348.678 -232.387 1655
-345.345 -232.808 1658
-341.38 -232.808 1658
-337.415 -232.808 1658
-334.255 -233.37 1662
-330.479 -233.51 1663
-326.895 -233.791 1665
-322.914 -233.791 1665
-318.932 -233.791 1665
-314.951 -233.791 1665
-310.969 -233.791 1665
-306.988 -233.791 1665
-302.642 -233.51 1663
-298.127 -233.089 1660
-294.157 -233.089 1660
-290.188 -233.089 1660
-285.873 -232.808 1658
-281.738 -232.668 1657
-277.776 -232.668 1657
-273.153 -232.106 1653
-269.037 -231.966 1652
-264.766 -231.685 1650
-260.82 -231.685 1650
-256.563 -231.404 1648
-252.162 -230.983 1645
-248.078 -230.842 1644
-243.404 -230.14 1639
-239.484 -230.14 1639
-234.846 -229.438 1634
-230.515 -229.017 1631
-226.198 -228.596 1628
-222.305 -228.596 1628
-217.875 -228.034 1624
-213.992 -228.034 1624
-209.591 -227.472 1620
-205.717 -227.472 1620
-201.843 -227.472 1620
-197.725 -227.191 1618
-193.496 -226.77 1615
-189.634 -226.77 1615
-185.772 -226.77 1615
-181.91 -226.77 1615
-177.828 -226.489 1613
-173.971 -226.489 1613
-170.113 -226.489 1613
-166.462 -226.77 1615
-162.802 -227.051 1617
-159.033 -227.191 1618
-155.164 -227.191 1618
-151.763 -227.894 1623
-147.973 -228.034 1624
-144.267 -228.315 1626
-140.378 -228.315 1626
-136.49 -228.315 1626
-132.602 -228.315 1626
-128.951 -228.736 1629
-125.286 -229.157 1632
-121.383 -229.157 1632
-117.769 -229.719 1636
-113.926 -229.859 1637
-110.012 -229.859 1637
-106.097 -229.859 1637
-102.182 -229.859 1637
-98.3879 -230.14 1639
-94.4686 -230.14 1639
-90.5492 -230.14 1639
-86.5242 -229.859 1637
-189.599 -553.797 3944
-180.168 -553.797 3944
-170.736 -553.797 3944
-164.413 -564.468 4020
-154.8 -564.468 4020
-145.187 -564.468 4020
-135.574 -564.468 4020
-124.77 -559.133 3982
-115.248 -559.133 3982
-105.726 -559.133 3982
-96.2039 -559.133 3982
-86.464 -557.728 3972
-76.9658 -557.728 3972
-67.4675 -557.728 3972
-57.9693 -557.728 3972
-48.2392 -555.06 3953
-38.698 -553.797 3944
-29.3335 -555.06 3953
-19.8807 -555.06 3953
-10.4543 -556.465 3963
-0.97752 -556.465 3963
8.49921 -556.465 3963
17.9759 -556.465 3963
27.3211 -553.797 3944
36.3237 -547.338 3898
46.1837 -553.797 3944
55.7419 -555.06 3953
65.1947 -555.06 3953
74.6475 -555.06 3953
84.1003 -555.06 3953
93.5532 -555.06 3953
102.537 -552.533 3935
111.406 -549.865 3916
121.048 -551.129 3925
130.766 -552.533 3935
140.176 -552.533 3935
149.586 -552.533 3935
158.996 -552.533 3935
168.405 -552.533 3935
177.815 -552.533 3935
185.893 -548.601 3907
193.886 -544.81 3880
203.165 -544.81 3880
211.457 -542.283 3862
221.721 -544.81 3880
230.999 -544.81 3880
240.278 -544.81 3880
249.556 -544.81 3880
257.633 -542.283 3862
264.381 -537.228 3826
273.53 -537.228 3826
279.502 -531.19 3783
287.862 -529.926 3774
296.887 -529.926 3774
301.859 -522.905 3724
310.764 -522.905 3724
318.21 -520.518 3707
327.868 -521.782 3716
336.755 -521.782 3716
345.641 -521.782 3716
354.527 -521.782 3716
363.413 -521.782 3716
371.397 -520.518 3707
380.262 -520.518 3707
389.126 -520.518 3707
396.273 -518.272 3691
402.465 -514.902 3667
411.234 -514.902 3667
418.056 -512.515 3650
426.784 -512.515 3650
437.541 -514.902 3667
448.257 -517.148 3683
458.057 -518.272 3691
466.883 -518.272 3691
477.772 -520.518 3707
486.636 -520.518 3707
495.501 -520.518 3707
504.366 -520.518 3707
513.23 -520.518 3707
520.968 -519.395 3699
529.813 -519.395 3699
536.329 -517.148 3683
550.021 -521.782 3716
565.073 -527.539 3757
584.6 -537.228 3826
593.749 -537.228 3826
604.317 -538.492 3835
623.566 -547.338 3898
635.809 -549.865 3916
645.174 -549.865 3916
656.042 -551.129 3925
668.649 -553.797 3944
678.081 -553.797 3944
687.512 -553.797 3944
1103.59 -559.133 3982
1113.11 -559.133 3982
1122.63 -559.133 3982
1129.31 -557.728 3972
1136.23 -556.465 3963
1137.61 -552.533 3935
1147.02 -552.533 3935
1140.27 -544.81 3880
1144.21 -542.283 3862
1153.45 -542.283 3862
1162.68 -542.283 3862
1169.19 -541.019 3853
1392.1 -556.465 3963
1401.58 -556.465 3963
1411.06 -556.465 3963
1420.53 -556.465 3963
1430.01 -556.465 3963
1439.49 -556.465 3963
1448.96 -556.465 3963
1472.42 -561.8 4001
1492.73 -565.872 4030
1502.37 -565.872 4030
1512.01 -565.872 4030
1521.64 -565.872 4030
1523.68 -563.064 4010
1533.27 -563.064 4010
1539.4 -561.8 4001
1548.96 -561.8 4001
1729.7 -574.157 4089
1739.48 -574.157 4089
1749.26 -574.157 4089
1759.04 -574.157 4089
1768.82 -574.157 4089
1778.59 -574.157 4089
1779.63 -571.349 4069
1780.56 -568.54 4049
1790.24 -568.54 4049
1774.14 -560.396 3991
1779.66 -559.133 3982
1784.69 -557.728 3972
1794.19 -557.728 3972
1799.6 -556.465 3963
1804.51 -555.06 3953
1801.12 -551.129 3925
1810.5 -551.129 3925
1815.72 -549.865 3916
1820.89 -548.601 3907
1817.58 -544.81 3880
1826.86 -544.81 3880
1836.14 -544.81 3880
1836.85 -542.283 3862
1846.09 -542.283 3862
3039.96 -574.157 4089
3049.74 -574.157 4089
3059.52 -574.157 4089
3069.3 -574.157 4089
3079.07 -574.157 4089
3088.85 -574.157 4089
3098.63 -574.157 4089
3085.6 -569.944 4059
3087.68 -568.54 4049
3097.36 -568.54 4049
-2477.48 -519.781 3766
-2490.76 -524.474 3800
-2481.68 -524.474 3800
-2472.59 -524.474 3800
-2475.17 -526.958 3818
-2494.46 -533.031 3862
-2485.22 -533.031 3862
-2475.99 -533.031 3862
-2367.75 -511.638 3707
-2322.62 -503.771 3650
-2313.89 -503.771 3650
-2305.16 -503.771 3650
-2291.4 -502.667 3642
-2268.27 -499.493 3619
-1217.18 -455.878 3303
-1209.28 -455.878 3303
-1201.38 -455.878 3303
-1193.48 -455.878 3303
-1185.59 -455.878 3303
-1177.69 -455.878 3303
-1160.93 -452.428 3278
-1148.52 -450.634 3265
-1140.72 -450.634 3265
-1128.4 -448.839 3252
-1118.55 -448.011 3246
-1102.24 -444.561 3221
-1094.53 -444.561 3221
-1084.47 -443.595 3214
-1076.78 -443.595 3214
-1061.11 -440.282 3190
-1051.5 -439.454 3184
-1043.89 -439.454 3184
-1036.28 -439.454 3184
-1026.72 -438.626 3178
-1019.13 -438.626 3178
-1011.53 -438.626 3178
-1003.93 -438.626 3178
-544.764 -241.672 1751
-540.577 -241.672 1751
-536.39 -241.672 1751
-530.379 -240.844 1745
-525 -240.292 1741
-520.538 -240.154 1740
-516.377 -240.154 1740
-510.45 -239.326 1734
-503.675 -238.084 1725
-497.523 -237.117 1718
-493.415 -237.117 1718
-488.737 -236.841 1716
-483.221 -236.151 1711
-478.57 -235.875 1709
-474.483 -235.875 1709
-470.396 -235.875 1709
-466.037 -235.737 1708
-460.871 -235.185 1704
-455.992 -234.771 1701
-451.924 -234.771 1701
-446.277 -233.943 1695
-440.919 -233.253 1690
-435.585 -232.563 1685
-431.556 -232.563 1685
-426.258 -231.873 1680
-420.23 -230.769 1672
-414.987 -230.078 1667
-411 -230.078 1667
-406.037 -229.526 1663
-401.819 -229.388 1662
-396.887 -228.836 1658
-392.922 -228.836 1658
-388.957 -228.836 1658
-384.76 -228.698 1657
-379.879 -228.146 1653
-375.926 -228.146 1653
-372.423 -228.422 1655
-368.466 -228.422 1655
-364.508 -228.422 1655
-360.55 -228.422 1655
-356.593 -228.422 1655
-352.635 -228.422 1655
-348.678 -228.422 1655
-345.137 -228.698 1657
-341.38 -228.836 1658
-337.415 -228.836 1658
-334.255 -229.388 1662
-330.479 -229.526 1663
-326.503 -229.526 1663
-322.526 -229.526 1663
-318.932 -229.802 1665
-314.951 -229.802 1665
-310.969 -229.802 1665
-306.988 -229.802 1665
-302.642 -229.526 1663
-298.127 -229.112 1660
-294.157 -229.112 1660
-290.188 -229.112 1660
-285.873 -228.836 1658
-281.738 -228.698 1657
-277.776 -228.698 1657
-273.153 -228.146 1653
-269.037 -228.008 1652
-264.766 -227.732 1650
-260.82 -227.732 1650
-256.563 -227.456 1648
-252.162 -227.042 1645
-248.078 -226.904 1644
-243.404 -226.214 1639
-239.484 -226.214 1639
-234.846 -225.524 1634
-230.515 -225.11 1631
-226.198 -224.696 1628
-222.305 -224.696 1628
-217.875 -224.144 1624
-213.992 -224.144 1624
-209.591 -223.592 1620
-205.717 -223.592 1620
-201.843 -223.592 1620
-197.725 -223.316 1618
-193.496 -222.901 1615
-189.634 -222.901 1615
-185.772 -222.901 1615
-181.91 -222.901 1615
-177.828 -222.625 1613
-173.971 -222.625 1613
-170.008 -222.487 1612
-166.256 -222.625 1613
-162.6 -222.901 1615
-158.935 -223.178 1617
-155.068 -223.178 1617
-151.763 -224.006 1623
-147.973 -224.144 1624
-144.267 -224.42 1626
-140.378 -224.42 1626
-136.49 -224.42 1626
-132.602 -224.42 1626
-128.951 -224.834 1629
-125.286 -225.248 1632
-121.383 -225.248 1632
-117.769 -225.8 1636
-113.926 -225.938 1637
-110.012 -225.938 1637
-106.097 -225.938 1637
-102.182 -225.938 1637
-98.3879 -226.214 1639
-94.4686 -226.214 1639
-90.5492 -226.214 1639
-86.5242 -225.938 1637
-189.599 -544.349 3944
-180.168 -544.349 3944
-170.736 -544.349 3944
-163.636 -552.216 4001
-154.069 -552.216 4001
-144.501 -552.216 4001
-134.933 -552.216 4001
-124.175 -546.971 3963
-114.409 -545.591 3953
-104.956 -545.591 3953
-95.5033 -545.591 3953
-86.0504 -545.591 3953
-76.2488 -543.107 3935
-66.8391 -543.107 3935
-57.4293 -543.107 3935
-47.7876 -540.484 3916
-38.4233 -540.484 3916
-29.059 -540.484 3916
-19.6946 -540.484 3916
-10.3303 -540.484 3916
-0.965926 -540.484 3916
8.39842 -540.484 3916
17.6811 -538 3898
26.8777 -535.516 3880
35.9882 -533.031 3862
45.645 -538 3898
55.4881 -543.107 3935
64.8978 -543.107 3935
74.3076 -543.107 3935
83.7174 -543.107 3935
93.1272 -543.107 3935
101.807 -539.242 3907
110.126 -534.273 3871
119.938 -536.758 3889
129.238 -536.758 3889
138.537 -536.758 3889
147.837 -536.758 3889
157.137 -536.758 3889
166.437 -536.758 3889
175.33 -535.516 3880
183.323 -531.789 3853
192.087 -530.547 3844
201.28 -530.547 3844
208.555 -525.716 3809
218.178 -526.958 3818
227.308 -526.958 3818
236.438 -526.958 3818
245.568 -526.958 3818
253.497 -524.474 3800
261.41 -522.128 3783
268.597 -518.539 3757
277.581 -518.539 3757
284.048 -513.985 3724
292.953 -513.985 3724
301.21 -512.88 3716
310.096 -512.88 3716
316.836 -509.43 3691
326.368 -510.534 3699
336.755 -512.88 3716
345.641 -512.88 3716
354.527 -512.88 3716
361.75 -510.534 3699
369.794 -509.43 3691
378.62 -509.43 3691
387.447 -509.43 3691
395.414 -508.326 3683
402.465 -506.117 3667
411.234 -506.117 3667
418.056 -503.771 3650
426.784 -503.771 3650
436.467 -504.875 3658
448.257 -508.326 3683
458.057 -509.43 3691
466.883 -509.43 3691
475.71 -509.43 3691
485.586 -510.534 3699
494.432 -510.534 3699
503.277 -510.534 3699
512.123 -510.534 3699
518.715 -508.326 3683
527.522 -508.326 3683
536.329 -508.326 3683
547.504 -510.534 3699
558.907 -512.88 3716
574.057 -518.539 3757
583.041 -518.539 3757
597.541 -523.37 3792
606.609 -523.37 3792
632.887 -538 3898
642.208 -538 3898
653.034 -539.242 3907
662.377 -539.242 3907
671.719 -539.242 3907
1103.59 -549.594 3982
1113.11 -549.594 3982
1122.63 -549.594 3982
1129.31 -548.213 3972
1136.23 -546.971 3963
1137.61 -543.107 3935
1147.02 -543.107 3935
1140.27 -535.516 3880
1144.21 -533.031 3862
1153.45 -533.031 3862
1162.68 -533.031 3862
1169.19 -531.789 3853
1392.1 -546.971 3963
1401.58 -546.971 3963
1411.06 -546.971 3963
1420.53 -546.971 3963
1430.01 -546.971 3963
1439.49 -546.971 3963
1448.96 -546.971 3963
1472.42 -552.216 4001
1492.73 -556.219 4030
1502.37 -556.219 4030
1512.01 -556.219 4030
1521.64 -556.219 4030
1523.68 -553.458 4010
1533.27 -553.458 4010
1539.4 -552.216 4001
1548.96 -552.216 4001
1729.7 -564.362 4089
1739.48 -564.362 4089
1749.26 -564.362 4089
1759.04 -564.362 4089
1768.82 -564.362 4089
1765.55 -560.221 4059
1775.25 -560.221 4059
1780.56 -558.841 4049
1790.24 -558.841 4049
1774.14 -550.836 3991
1775.19 -548.213 3972
1784.69 -548.213 3972
1794.19 -548.213 3972
1795.06 -545.591 3953
1791.73 -541.727 3925
1796.99 -540.484 3916
1806.35 -540.484 3916
1811.54 -539.242 3907
1808.3 -535.516 3880
1817.58 -535.516 3880
1826.86 -535.516 3880
1836.14 -535.516 3880
1832.57 -531.789 3853
1841.79 -531.789 3853
3069.3 -564.362 4089
3079.07 -564.362 4089
3088.85 -564.362 4089
3098.63 -564.362 4089
3085.6 -560.221 4059
3087.68 -558.841 4049
3097.36 -558.841 4049
-2477.48 -510.76 3766
-2490.76 -515.371 3800
-2481.68 -515.371 3800
-2472.59 -515.371 3800
-2475.17 -517.812 3818
-2494.46 -523.78 3862
-2485.22 -523.78 3862
-2475.99 -523.78 3862
-2367.75 -502.758 3707
-2327.71 -496.112 3658
-2313.89 -495.027 3650
-2305.16 -495.027 3650
-2286.99 -492.993 3635
-2268.27 -490.823 3619
-1217.18 -447.966 3303
-1209.28 -447.966 3303
-1201.38 -447.966 3303
-1179.75 -442.812 3265
-1171.95 -442.812 3265
-1164.14 -442.812 3265
-1151.73 -441.049 3252
-1143.95 -441.049 3252
-1136.17 -441.049 3252
-1126.32 -440.235 3246
-1116.14 -439.286 3239
-1102.24 -436.845 3221
-1094.53 -436.845 3221
-1084.47 -435.895 3214
-1076.78 -435.895 3214
-1061.11 -432.64 3190
-1053.49 -432.64 3190
-1045.86 -432.64 3190
-1036.28 -431.827 3184
-1026.72 -431.013 3178
-1019.13 -431.013 3178
-1011.53 -431.013 3178
-1003.93 -431.013 3178
-992.564 -429.385 3166
-544.764 -237.478 1751
-540.577 -237.478 1751
-536.39 -237.478 1751
-532.203 -237.478 1751
-525 -236.121 1741
-519.341 -235.443 1736
-515.19 -235.443 1736
-509.566 -234.765 1731
-502.799 -233.544 1722
-496.944 -232.731 1716
-492.84 -232.731 1716
-487.883 -232.324 1713
-483.221 -232.053 1711
-478.29 -231.646 1708
-474.205 -231.646 1708
-470.121 -231.646 1708
-465.491 -231.374 1706
-460.33 -230.832 1702
-455.992 -230.696 1701
-451.924 -230.696 1701
-446.277 -229.883 1695
-440.919 -229.205 1690
-435.068 -228.255 1683
-431.043 -228.255 1683
-426.258 -227.848 1680
-419.727 -226.492 1670
-414.987 -226.085 1667
-411 -226.085 1667
-405.793 -225.407 1662
-401.335 -225.136 1660
-396.648 -224.729 1657
-392.685 -224.729 1657
-388.723 -224.729 1657
-384.76 -224.729 1657
-379.879 -224.186 1653
-375.926 -224.186 1653
-372.423 -224.458 1655
-368.466 -224.458 1655
-364.508 -224.458 1655
-360.55 -224.458 1655
-357.024 -224.729 1657
-353.061 -224.729 1657
-349.099 -224.729 1657
-345.137 -224.729 1657
-341.38 -224.865 1658
-337.415 -224.865 1658
-334.255 -225.407 1662
-330.479 -225.543 1663
-326.503 -225.543 1663
-322.526 -225.543 1663
-318.932 -225.814 1665
-314.951 -225.814 1665
-310.969 -225.814 1665
-306.988 -225.814 1665
-302.642 -225.543 1663
-298.486 -225.407 1662
-294.512 -225.407 1662
-290.188 -225.136 1660
-286.218 -225.136 1660
-281.738 -224.729 1657
-277.776 -224.729 1657
-273.483 -224.458 1655
-269.037 -224.051 1652
-264.766 -223.78 1650
-260.82 -223.78 1650
-256.874 -223.78 1650
-252.162 -223.101 1645
-248.078 -222.966 1644
-243.404 -222.288 1639
-239.484 -222.288 1639
-234.846 -221.61 1634
-230.515 -221.203 1631
-226.198 -220.796 1628
-222.305 -220.796 1628
-217.875 -220.253 1624
-213.992 -220.253 1624
-209.591 -219.711 1620
-205.717 -219.711 1620
-201.843 -219.711 1620
-197.725 -219.44 1618
-193.736 -219.304 1617
-189.869 -219.304 1617
-185.772 -219.033 1615
-181.91 -219.033 1615
-177.828 -218.761 1613
-173.971 -218.761 1613
-170.008 -218.626 1612
-166.256 -218.761 1613
-162.802 -219.304 1617
-159.033 -219.44 1618
-155.164 -219.44 1618
-151.763 -220.118 1623
-148.155 -220.525 1626
-144.267 -220.525 1626
-140.378 -220.525 1626
-136.49 -220.525 1626
-132.602 -220.525 1626
-128.951 -220.931 1629
-125.439 -221.61 1634
-121.532 -221.61 1634
-117.769 -221.881 1636
-113.926 -222.016 1637
-110.146 -222.288 1639
-106.227 -222.288 1639
-102.37 -222.423 1640
-98.448 -222.423 1640
-94.5262 -222.423 1640
-90.6045 -222.423 1640
-86.7885 -222.695 1642
-82.8619 -222.695 1642
-189.599 -534.901 3944
-180.168 -534.901 3944
-170.736 -534.901 3944
-163.636 -542.632 4001
-154.069 -542.632 4001
-144.501 -542.632 4001
-134.933 -542.632 4001
-123.298 -533.68 3935
-113.078 -529.883 3907
-103.735 -529.883 3907
-94.3919 -529.883 3907
-84.8532 -528.662 3898
-75.5319 -528.662 3898
-66.2106 -528.662 3898
-56.6266 -526.221 3880
-47.3483 -526.221 3880
-38.0701 -526.221 3880
-28.7918 -526.221 3880
-19.423 -523.78 3862
-10.2116 -525 3871
-0.954827 -525 3871
8.30191 -525 3871
17.5586 -525 3871
26.6907 -522.559 3853
35.8205 -521.339 3844
45.2235 -523.78 3862
55.2201 -531.104 3916
64.5845 -531.104 3916
73.9488 -531.104 3916
83.3132 -531.104 3916
92.6775 -531.104 3916
100.869 -525 3871
109.87 -523.78 3862
118.828 -522.559 3853
128.639 -525 3871
137.896 -525 3871
147.153 -525 3871
156.41 -525 3871
165.666 -525 3871
173.703 -521.339 3844
182.467 -520.118 3835
190.338 -516.592 3809
199.447 -516.592 3809
207.625 -514.286 3792
217.15 -515.371 3800
226.236 -515.371 3800
235.323 -515.371 3800
244.41 -515.371 3800
252.363 -513.065 3783
259.06 -508.454 3749
265.022 -502.758 3707
274.552 -503.979 3716
283.438 -503.979 3716
292.324 -503.979 3716
301.21 -503.979 3716
310.096 -503.979 3716
318.21 -502.758 3707
327.074 -502.758 3707
335.939 -502.758 3707
344.803 -502.758 3707
353.668 -502.758 3707
361.75 -501.673 3699
369.794 -500.588 3691
378.62 -500.588 3691
387.447 -500.588 3691
395.414 -499.503 3683
403.343 -498.418 3675
412.131 -498.418 3675
418.056 -495.027 3650
426.784 -495.027 3650
436.467 -496.112 3658
447.284 -498.418 3675
458.057 -500.588 3691
466.883 -500.588 3691
475.71 -500.588 3691
484.536 -500.588 3691
493.362 -500.588 3691
502.189 -500.588 3691
511.015 -500.588 3691
518.715 -499.503 3683
527.522 -499.503 3683
532.688 -496.112 3658
543.952 -498.418 3675
556.35 -501.673 3699
571.46 -507.234 3740
580.403 -507.234 3740
590.765 -508.454 3749
606.609 -514.286 3792
625.581 -522.559 3853
634.794 -522.559 3853
644.008 -522.559 3853
653.222 -522.559 3853
662.435 -522.559 3853
1103.59 -540.055 3982
1113.11 -540.055 3982
1122.63 -540.055 3982
1129.31 -538.698 3972
1136.23 -537.478 3963
1137.61 -533.68 3935
1147.02 -533.68 3935
1140.27 -526.221 3880
1146.88 -525 3871
1153.45 -523.78 3862
1162.68 -523.78 3862
1169.19 -522.559 3853
1178.4 -522.559 3853
1187.62 -522.559 3853
1401.94 -541.275 3991
1411.48 -541.275 3991
1421.03 -541.275 3991
1420.53 -537.478 3963
1430.01 -537.478 3963
1439.49 -537.478 3963
1448.96 -537.478 3963
1472.42 -542.632 4001
1492.73 -546.565 4030
1502.37 -546.565 4030
1512.01 -546.565 4030
1514.09 -543.852 4010
1523.68 -543.852 4010
1533.27 -543.852 4010
1539.4 -542.632 4001
1548.96 -542.632 4001
1532.82 -533.68 3935
1542.23 -533.68 3935
1712.78 -549.141 4049
1722.47 -549.141 4049
1744.98 -553.21 4079
1754.74 -553.21 4079
1764.49 -553.21 4079
1761.2 -549.141 4049
1770.88 -549.141 4049
1776.16 -547.785 4039
1785.82 -547.785 4039
1774.14 -541.275 3991
1775.19 -538.698 3972
1780.65 -537.478 3963
1790.13 -537.478 3963
1786.89 -533.68 3935
1787.62 -531.104 3916
1784.6 -527.442 3889
1793.9 -527.442 3889
1799.02 -526.221 3880
1808.3 -526.221 3880
1817.58 -526.221 3880
1826.86 -526.221 3880
1836.14 -526.221 3880
1836.85 -523.78 3862
1841.79 -522.559 3853
2375.97 -528.662 3898
2385.29 -528.662 3898
2394.61 -528.662 3898
2403.93 -528.662 3898
2413.26 -528.662 3898
2456.76 -536.122 3953
2466.21 -536.122 3953
2475.66 -536.122 3953
2446.38 -523.78 3862
2455.61 -523.78 3862
2464.85 -523.78 3862
2462.55 -521.339 3844
2460.17 -518.897 3826
2469.32 -518.897 3826
2478.47 -518.897 3826
2546.14 -531.104 3916
2555.5 -531.104 3916
2564.86 -531.104 3916
2568.31 -529.883 3907
3069.3 -554.566 4089
3079.07 -554.566 4089
3088.85 -554.566 4089
3083.47 -551.854 4069
3078 -549.141 4049
3087.68 -549.141 4049
3097.36 -549.141 4049
-2482.74 -502.804 3774
-2490.76 -506.268 3800
-2481.68 -506.268 3800
-2472.59 -506.268 3800
-2469.34 -507.467 3809
-2494.46 -514.528 3862
-2485.22 -514.528 3862
-2475.99 -514.528 3862
-2367.75 -493.878 3707
-2327.71 -487.35 3658
-2318.96 -487.35 3658
-2310.21 -487.35 3658
-2286.99 -484.285 3635
-2268.27 -482.154 3619
-2240.26 -478.024 3588
-2231.68 -478.024 3588
-1247.91 -445.383 3343
-1239.91 -445.383 3343
-1231.92 -445.383 3343
-1211.84 -440.986 3310
-1201.38 -440.054 3303
-1175.06 -433.259 3252
-1167.28 -433.259 3252
-1152.73 -430.728 3233
-1145 -430.728 3233
-1137.27 -430.728 3233
-1129.54 -430.728 3233
-1121.8 -430.728 3233
-1114.07 -430.728 3233
-1102.24 -429.129 3221
-1094.53 -429.129 3221
-1084.47 -428.196 3214
-1076.78 -428.196 3214
-1061.11 -424.999 3190
-1053.49 -424.999 3190
-1045.86 -424.999 3190
-1034.32 -423.4 3178
-1026.72 -423.4 3178
-1019.13 -423.4 3178
-1011.53 -423.4 3178
-1003.93 -423.4 3178
-992.564 -421.801 3166
-545.075 -233.416 1752
-540.886 -233.416 1752
-536.696 -233.416 1752
-532.203 -233.283 1751
-523.492 -231.285 1736
-518.144 -230.752 1732
-514.003 -230.752 1732
-508.978 -230.352 1729
-502.215 -229.153 1720
-496.654 -228.487 1715
-492.553 -228.487 1715
-487.313 -227.954 1711
-482.374 -227.554 1708
-477.73 -227.288 1706
-473.65 -227.288 1706
-469.571 -227.288 1706
-464.945 -227.021 1704
-460.33 -226.755 1702
-455.455 -226.355 1699
-451.393 -226.355 1699
-446.277 -225.822 1695
-440.658 -225.023 1689
-435.068 -224.224 1683
-431.043 -224.224 1683
-426.258 -223.824 1680
-419.727 -222.492 1670
-414.489 -221.825 1665
-410.507 -221.825 1665
-405.793 -221.426 1662
-401.335 -221.159 1660
-396.648 -220.76 1657
-392.685 -220.76 1657
-388.723 -220.76 1657
-384.296 -220.493 1655
-379.879 -220.227 1653
-375.926 -220.227 1653
-371.973 -220.227 1653
-368.02 -220.227 1653
-364.508 -220.493 1655
-360.55 -220.493 1655
-357.024 -220.76 1657
-353.061 -220.76 1657
-349.099 -220.76 1657
-345.345 -220.893 1658
-341.38 -220.893 1658
-337.415 -220.893 1658
-334.255 -221.426 1662
-330.479 -221.559 1663
-326.503 -221.559 1663
-322.526 -221.559 1663
-319.315 -222.092 1667
-315.329 -222.092 1667
-311.343 -222.092 1667
-306.619 -221.559 1663
-302.642 -221.559 1663
-298.486 -221.426 1662
-294.512 -221.426 1662
-290.188 -221.159 1660
-286.218 -221.159 1660
-281.738 -220.76 1657
-277.776 -220.76 1657
-273.814 -220.76 1657
-269.037 -220.093 1652
-264.766 -219.827 1650
-260.82 -219.827 1650
-256.874 -219.827 1650
-252.162 -219.161 1645
-248.078 -219.028 1644
-243.404 -218.361 1639
-239.484 -218.361 1639
-234.846 -217.695 1634
-230.515 -217.296 1631
-226.198 -216.896 1628
-222.305 -216.896 1628
-217.875 -216.363 1624
-213.86 -216.23 1623
-209.591 -215.83 1620
-205.717 -215.83 1620
-201.594 -215.564 1618
-197.602 -215.43 1617
-193.736 -215.43 1617
-189.869 -215.43 1617
-185.772 -215.164 1615
-181.91 -215.164 1615
-177.828 -214.898 1613
-173.971 -214.898 1613
-170.008 -214.764 1612
-166.256 -214.898 1613
-162.802 -215.43 1617
-159.23 -215.83 1620
-155.356 -215.83 1620
-151.856 -216.363 1624
-148.155 -216.629 1626
-144.444 -216.896 1628
-140.551 -216.896 1628
-136.658 -216.896 1628
-132.765 -216.896 1628
-129.109 -217.296 1631
-125.593 -217.962 1636
-121.681 -217.962 1636
-117.769 -217.962 1636
-114.065 -218.361 1639
-110.213 -218.495 1640
-106.291 -218.495 1640
-102.37 -218.495 1640
-98.568 -218.761 1642
-94.6415 -218.761 1642
-90.715 -218.761 1642
-86.7885 -218.761 1642
-82.8619 -218.761 1642
-78.9354 -218.761 1642
-180.168 -525.453 3944
-170.736 -525.453 3944
-161.305 -525.453 3944
-151.874 -525.453 3944
-142.442 -525.453 3944
-133.011 -525.453 3944
-122.42 -520.524 3907
-112.817 -519.325 3898
-103.496 -519.325 3898
-94.1745 -519.325 3898
-84.4613 -516.926 3880
-75.0087 -515.727 3871
-65.752 -515.727 3871
-56.4952 -515.727 3871
-47.1287 -514.528 3862
-37.7168 -512.13 3844
-28.5247 -512.13 3844
-19.2872 -510.931 3835
-10.1403 -512.13 3844
-0.948167 -512.13 3844
8.244 -512.13 3844
17.4362 -512.13 3844
26.5037 -509.732 3826
35.5782 -508.666 3818
45.1181 -513.329 3853
54.5856 -515.727 3871
63.8423 -515.727 3871
73.099 -515.727 3871
82.3558 -515.727 3871
91.6125 -515.727 3871
100.635 -514.528 3862
109.102 -510.931 3835
118.55 -512.13 3844
128.041 -513.329 3853
137.255 -513.329 3853
146.469 -513.329 3853
155.319 -512.13 3844
164.511 -512.13 3844
172.89 -509.732 3826
181.658 -508.666 3818
189.489 -505.202 3792
198.557 -505.202 3792
207.132 -504.003 3783
216.178 -504.003 3783
224.212 -501.738 3766
233.218 -501.738 3766
242.224 -501.738 3766
250.629 -500.539 3757
259.06 -499.474 3749
265.022 -493.878 3707
274.552 -495.077 3716
283.438 -495.077 3716
292.324 -495.077 3716
301.21 -495.077 3716
310.096 -495.077 3716
318.21 -493.878 3707
327.074 -493.878 3707
335.939 -493.878 3707
344.803 -493.878 3707
353.668 -493.878 3707
361.75 -492.812 3699
369.794 -491.746 3691
378.62 -491.746 3691
387.447 -491.746 3691
395.414 -490.68 3683
403.343 -489.615 3675
412.131 -489.615 3675
418.056 -486.284 3650
426.784 -486.284 3650
436.467 -487.35 3658
447.284 -489.615 3675
458.057 -491.746 3691
466.883 -491.746 3691
475.71 -491.746 3691
484.536 -491.746 3691
493.362 -491.746 3691
502.189 -491.746 3691
509.907 -490.68 3683
517.588 -489.615 3675
526.376 -489.615 3675
532.688 -487.35 3658
541.436 -487.35 3658
555.146 -491.746 3691
571.46 -498.274 3740
580.403 -498.274 3740
593.444 -501.738 3766
607.888 -506.268 3800
624.119 -512.13 3844
633.312 -512.13 3844
644.008 -513.329 3853
653.222 -513.329 3853
662.435 -513.329 3853
1076.65 -526.652 3953
1086.1 -526.652 3953
1100.82 -529.183 3972
1110.32 -529.183 3972
1119.81 -529.183 3972
1129.31 -529.183 3972
1136.23 -527.984 3963
1134.72 -522.922 3925
1144.11 -522.922 3925
1145.56 -519.325 3898
1149.55 -516.926 3880
1158.82 -516.926 3880
1168.1 -516.926 3880
1177.38 -516.926 3880
1181.15 -514.528 3862
1190.39 -514.528 3862
1199.62 -514.528 3862
1208.86 -514.528 3862
1405.45 -533.047 4001
1415.02 -533.047 4001
1424.59 -533.047 4001
1430.57 -531.715 3991
1440.11 -531.715 3991
1432.58 -525.453 3944
1435.07 -522.922 3925
1472.42 -533.047 4001
1489.03 -535.578 4020
1498.64 -535.578 4020
1508.26 -535.578 4020
1510.69 -533.047 4001
1520.26 -533.047 4001
1529.83 -533.047 4001
1539.4 -533.047 4001
1548.96 -533.047 4001
1532.82 -524.254 3935
1542.23 -524.254 3935
1703.1 -539.442 4049
1712.78 -539.442 4049
1722.47 -539.442 4049
1732.15 -539.442 4049
1741.83 -539.442 4049
1751.51 -539.442 4049
1756.85 -538.11 4039
1766.5 -538.11 4039
1772.21 -536.911 4030
1781.84 -536.911 4030
1774.14 -531.715 3991
1775.19 -529.183 3972
1772.11 -525.453 3944
1781.54 -525.453 3944
1782.35 -522.922 3925
1779.41 -519.325 3898
1784.6 -518.125 3889
1798.05 -519.325 3898
1807.37 -519.325 3898
1816.69 -519.325 3898
1826.01 -519.325 3898
1835.33 -519.325 3898
1844.66 -519.325 3898
1853.98 -519.325 3898
1863.3 -519.325 3898
2396.64 -527.984 3963
2406.11 -527.984 3963
2415.59 -527.984 3963
2407.93 -524.254 3935
2417.34 -524.254 3935
2420.58 -522.922 3925
2447.31 -526.652 3953
2474.78 -530.516 3982
2484.3 -530.516 3982
2493.83 -530.516 3982
2469.18 -519.325 3898
2478.5 -519.325 3898
2487.83 -519.325 3898
2497.15 -519.325 3898
2506.47 -519.325 3898
2527.41 -521.723 3916
2536.77 -521.723 3916
2576.69 -527.984 3963
2586.17 -527.984 3963
2595.65 -527.984 3963
2574.23 -521.723 3916
2577.66 -520.524 3907
3034.82 -542.107 4069
3044.55 -542.107 4069
3054.28 -542.107 4069
3064.01 -542.107 4069
3073.74 -542.107 4069
3083.47 -542.107 4069
3078 -539.442 4049
3057.94 -534.246 4010
3067.53 -534.246 4010
-2506.76 -494.941 3783
-2497.71 -494.941 3783
-2488.67 -494.941 3783
-2490.76 -497.165 3800
-2481.68 -497.165 3800
-2472.59 -497.165 3800
-2463.5 -497.165 3800
-2454.41 -497.165 3800
-2445.33 -497.165 3800
-2436.24 -497.165 3800
-2362.64 -483.951 3699
-2327.71 -478.587 3658
-2318.96 -478.587 3658
-2310.21 -478.587 3658
-2286.99 -475.578 3635
-2268.27 -473.484 3619
-2254.62 -472.438 3611
-2245.99 -472.438 3611
-1263.9 -437.375 3343
-1255.9 -437.375 3343
-1247.91 -437.375 3343
-1239.91 -437.375 3343
-1231.92 -437.375 3343
-1211.84 -433.057 3310
-1201.38 -432.141 3303
-1175.06 -425.469 3252
-1167.28 -425.469 3252
-1152.73 -422.983 3233
-1145 -422.983 3233
-1137.27 -422.983 3233
-1129.54 -422.983 3233
-1121.8 -422.983 3233
-1114.07 -422.983 3233
-1102.24 -421.413 3221
-1094.53 -421.413 3221
-1084.47 -420.497 3214
-1076.78 -420.497 3214
-1061.11 -417.357 3190
-1053.49 -417.357 3190
-1045.86 -417.357 3190
-1034.32 -415.787 3178
-1026.72 -415.787 3178
-1019.13 -415.787 3178
-1011.53 -415.787 3178
-1003.93 -415.787 3178
-992.564 -414.217 3166
-545.075 -229.219 1752
-540.886 -229.219 1752
-536.696 -229.219 1752
-532.203 -229.089 1751
-525 -227.78 1741
-518.743 -226.864 1734
-514.596 -226.864 1734
-508.978 -226.21 1729
-502.215 -225.033 1720
-496.654 -224.379 1715
-492.553 -224.379 1715
-487.313 -223.855 1711
-482.374 -223.463 1708
-477.73 -223.201 1706
-473.65 -223.201 1706
-469.571 -223.201 1706
-464.945 -222.939 1704
-460.33 -222.678 1702
-455.455 -222.285 1699
-451.393 -222.285 1699
-446.277 -221.762 1695
-440.658 -220.977 1689
-435.068 -220.192 1683
-431.043 -220.192 1683
-426.258 -219.799 1680
-419.727 -218.491 1670
-414.489 -217.837 1665
-410.507 -217.837 1665
-405.793 -217.444 1662
-401.335 -217.183 1660
-396.648 -216.79 1657
-392.685 -216.79 1657
-388.723 -216.79 1657
-384.296 -216.529 1655
-379.879 -216.267 1653
-375.926 -216.267 1653
-371.973 -216.267 1653
-368.02 -216.267 1653
-364.508 -216.529 1655
-360.55 -216.529 1655
-357.024 -216.79 1657
-353.061 -216.79 1657
-349.099 -216.79 1657
-345.345 -216.921 1658
-341.38 -216.921 1658
-337.415 -216.921 1658
-334.456 -217.575 1663
-330.877 -217.837 1665
-326.895 -217.837 1665
-322.914 -217.837 1665
-319.315 -218.099 1667
-315.329 -218.099 1667
-311.343 -218.099 1667
-306.619 -217.575 1663
-302.642 -217.575 1663
-298.486 -217.444 1662
-294.512 -217.444 1662
-290.537 -217.444 1662
-286.218 -217.183 1660
-281.908 -216.921 1658
-277.944 -216.921 1658
-273.814 -216.79 1657
-269.037 -216.136 1652
-264.766 -215.874 1650
-260.82 -215.874 1650
-256.874 -215.874 1650
-252.162 -215.22 1645
-248.078 -215.089 1644
-243.404 -214.435 1639
-239.484 -214.435 1639
-234.846 -213.781 1634
-230.515 -213.389 1631
-226.198 -212.996 1628
-222.305 -212.996 1628
-217.875 -212.473 1624
-213.86 -212.342 1623
-209.591 -211.949 1620
-205.717 -211.949 1620
-201.594 -211.688 1618
-197.602 -211.557 1617
-193.736 -211.557 1617
-189.869 -211.557 1617
-185.772 -211.295 1615
-181.91 -211.295 1615
-177.828 -211.034 1613
-173.971 -211.034 1613
-170.008 -210.903 1612
-166.256 -211.034 1613
-162.802 -211.557 1617
-159.23 -211.949 1620
-155.356 -211.949 1620
-151.856 -212.473 1624
-148.155 -212.734 1626
-144.444 -212.996 1628
-140.551 -212.996 1628
-136.658 -212.996 1628
-132.765 -212.996 1628
-129.109 -213.389 1631
-125.593 -214.043 1636
-121.681 -214.043 1636
-117.769 -214.043 1636
-114.065 -214.435 1639
-110.213 -214.566 1640
-106.291 -214.566 1640
-102.37 -214.566 1640
-98.568 -214.828 1642
-94.6415 -214.828 1642
-90.715 -214.828 1642
-86.7885 -214.828 1642
-82.8619 -214.828 1642
-78.9354 -214.828 1642
-180.168 -516.005 3944
-170.736 -516.005 3944
-161.305 -516.005 3944
-151.874 -516.005 3944
-142.442 -516.005 3944
-133.011 -516.005 3944
-122.42 -511.164 3907
-112.817 -509.987 3898
-103.496 -509.987 3898
-94.1745 -509.987 3898
-84.4613 -507.632 3880
-75.0087 -506.454 3871
-65.752 -506.454 3871
-56.4952 -506.454 3871
-47.1287 -505.277 3862
-37.7168 -502.922 3844
-28.5247 -502.922 3844
-19.2872 -501.744 3835
-10.1403 -502.922 3844
-0.948167 -502.922 3844
8.244 -502.922 3844
17.4362 -502.922 3844
26.5037 -500.567 3826
35.5782 -499.52 3818
45.1181 -504.099 3853
54.5856 -506.454 3871
63.8423 -506.454 3871
73.099 -506.454 3871
82.3558 -506.454 3871
91.6125 -506.454 3871
100.635 -505.277 3862
109.102 -501.744 3835
118.55 -502.922 3844
128.041 -504.099 3853
137.255 -504.099 3853
146.469 -504.099 3853
155.319 -502.922 3844
164.511 -502.922 3844
172.89 -500.567 3826
181.658 -499.52 3818
189.489 -496.119 3792
198.557 -496.119 3792
207.132 -494.941 3783
216.178 -494.941 3783
224.212 -492.717 3766
233.218 -492.717 3766
242.224 -492.717 3766
250.629 -491.539 3757
259.06 -490.493 3749
265.022 -484.998 3707
274.552 -486.175 3716
283.438 -486.175 3716
292.324 -486.175 3716
301.21 -486.175 3716
310.096 -486.175 3716
318.982 -486.175 3716
327.074 -484.998 3707
335.939 -484.998 3707
344.803 -484.998 3707
353.668 -484.998 3707
361.75 -483.951 3699
369.794 -482.904 3691
378.62 -482.904 3691
387.447 -482.904 3691
395.414 -481.858 3683
403.343 -480.811 3675
412.131 -480.811 3675
418.056 -477.54 3650
426.784 -477.54 3650
436.467 -478.587 3658
447.284 -480.811 3675
458.057 -482.904 3691
466.883 -482.904 3691
475.71 -482.904 3691
484.536 -482.904 3691
493.362 -482.904 3691
502.189 -482.904 3691
509.907 -481.858 3683
517.588 -480.811 3675
526.376 -480.811 3675
533.999 -479.764 3667
542.768 -479.764 3667
558.907 -486.175 3716
575.432 -492.717 3766
584.438 -492.717 3766
598.802 -497.165 3800
613.487 -501.744 3835
624.119 -502.922 3844
633.312 -502.922 3844
644.008 -504.099 3853
653.222 -504.099 3853
662.435 -504.099 3853
1046.46 -520.977 3982
1055.98 -520.977 3982
1067.91 -522.154 3991
1077.45 -522.154 3991
1087 -522.154 3991
1096.54 -522.154 3991
1100.82 -519.669 3972
1110.32 -519.669 3972
1119.81 -519.669 3972
1129.31 -519.669 3972
1138.81 -519.669 3972
1137.61 -514.828 3935
1147.02 -514.828 3935
1148.2 -511.164 3907
1154.88 -509.987 3898
1164.2 -509.987 3898
1173.52 -509.987 3898
1182.84 -509.987 3898
1192.16 -509.987 3898
1207.03 -512.342 3916
1222.3 -514.828 3935
1231.71 -514.828 3935
