ply
format ascii 1.0
comment File generated
element vertex 2246
property float x
property float y
property float z
end_header
996.465 271.052 3724
1005.37 271.052 3724
1014.28 271.052 3724
1023.18 271.052 3724
1034.3 271.635 3732
1045.46 272.217 3740
1054.41 272.217 3740
1063.35 272.217 3740
1074.87 272.872 3749
1083.84 272.872 3749
1092.8 272.872 3749
1099.12 272.217 3740
1108.07 272.217 3740
1117.01 272.217 3740
1125.96 272.217 3740
1134.9 272.217 3740
1143.84 272.217 3740
1152.79 272.217 3740
1151.48 269.815 3707
1160.34 269.815 3707
1166.68 269.233 3699
1178.07 269.815 3707
1192.38 271.052 3724
1203.87 271.635 3732
1212.79 271.635 3732
1221.71 271.635 3732
1230.64 271.635 3732
1239.56 271.635 3732
1245.81 271.052 3724
1254.72 271.052 3724
1263.62 271.052 3724
1272.53 271.052 3724
1278.68 270.47 3716
1287.57 270.47 3716
1293.31 269.815 3707
1302.18 269.815 3707
1311.04 269.815 3707
1317.06 269.233 3699
1325.9 269.233 3699
1337.63 269.815 3707
1352.67 271.052 3724
1361.58 271.052 3724
1376.37 272.217 3740
1385.32 272.217 3740
1394.26 272.217 3740
1403.2 272.217 3740
1406.11 271.052 3724
1415.01 271.052 3724
1423.92 271.052 3724
1432.82 271.052 3724
1441.73 271.052 3724
1444.01 269.815 3707
1452.87 269.815 3707
1461.74 269.815 3707
1461.08 268.068 3683
1459.91 266.249 3658
1468.66 266.249 3658
1474.18 265.666 3650
1482.9 265.666 3650
1491.63 265.666 3650
1507.35 266.904 3667
1519.42 267.486 3675
1528.21 267.486 3675
1540.35 268.068 3683
1549.15 268.068 3683
1564.73 269.233 3699
1573.57 269.233 3699
1585.84 269.815 3707
1594.71 269.815 3707
1603.57 269.815 3707
1612.44 269.815 3707
1617.8 269.233 3699
1623.13 268.651 3691
1631.96 268.651 3691
1640.78 268.651 3691
1671.51 272.217 3740
1703.82 276.002 3792
1716.5 276.584 3800
1725.58 276.584 3800
1734.67 276.584 3800
1747.89 277.239 3809
1757 277.239 3809
1766.1 277.239 3809
1775.21 277.239 3809
1784.32 277.239 3809
1789.19 276.584 3800
1798.28 276.584 3800
1795 274.692 3774
1792.07 272.872 3749
1792.87 271.635 3732
1801.8 271.635 3732
1806.84 271.052 3724
1799.65 268.651 3691
1804.56 268.068 3683
1813.37 268.068 3683
1822.18 268.068 3683
1827.01 267.486 3675
1819.31 265.084 3642
1812.46 262.828 3611
1821.09 262.828 3611
1806.42 259.48 3565
1792.04 256.204 3520
1792.78 255.112 3505
1801.16 255.112 3505
1798.19 253.511 3483
1795.1 251.91 3461
1807.03 252.419 3468
1834.69 255.112 3505
1843.07 255.112 3505
1859.37 256.204 3520
1867.79 256.204 3520
1887.94 257.806 3542
1896.41 257.806 3542
1904.88 257.806 3542
1913.35 257.806 3542
1921.82 257.806 3542
1938.46 258.897 3557
1946.97 258.897 3557
1989.56 263.41 3619
2007.04 264.575 3635
2033.48 266.904 3667
2042.25 266.904 3667
2073.39 269.815 3707
2110.34 273.454 3757
2119.33 273.454 3757
2128.31 273.454 3757
2191.91 280.442 3853
2206.26 281.097 3862
2215.5 281.097 3862
2224.73 281.097 3862
2213.14 278.477 3826
2237.98 280.442 3853
2268.19 283.062 3889
2277.49 283.062 3889
2286.79 283.062 3889
2274.83 280.442 3853
2284.04 280.442 3853
2293.26 280.442 3853
2302.47 280.442 3853
2311.69 280.442 3853
2304.64 278.477 3826
2319.23 279.132 3835
2328.4 279.132 3835
2337.57 279.132 3835
2352.25 279.787 3844
2389.08 283.062 3889
2398.38 283.062 3889
2429.97 285.682 3925
2439.36 285.682 3925
2478.06 289.103 3972
2487.56 289.103 3972
2509.01 290.486 3991
2518.55 290.486 3991
2528.09 290.486 3991
2513.48 287.72 3953
2487.83 283.717 3898
2485.62 282.407 3880
2494.89 282.407 3880
2504.17 282.407 3880
2513.45 282.407 3880
2534.43 283.717 3898
2543.75 283.717 3898
2553.07 283.717 3898
2562.4 283.717 3898
2571.72 283.717 3898
2528.07 277.894 3818
2537.2 277.894 3818
2546.33 277.894 3818
2549.43 277.239 3809
2558.54 277.239 3809
2567.65 277.239 3809
2559.17 275.347 3783
2562.11 274.692 3774
2542.52 271.635 3732
2545.97 271.052 3724
2554.88 271.052 3724
2552.08 269.815 3707
2560.94 269.815 3707
1935.23 199.068 2735
1941.77 199.068 2735
1948.31 199.068 2735
1948.42 198.413 2726
1954.94 198.413 2726
1967.93 199.068 2735
1974.47 199.068 2735
1981.01 199.068 2735
1983.92 198.704 2730
2003.57 200.014 2748
2026.96 201.688 2771
2033.59 201.688 2771
2043.9 202.052 2776
2063.83 203.362 2794
2070.51 203.362 2794
2077.2 203.362 2794
2083.88 203.362 2794
2098.04 204.09 2804
2108.5 204.454 2809
2115.22 204.454 2809
2121.93 204.454 2809
2128.65 204.454 2809
2146.01 205.473 2823
2152.76 205.473 2823
2159.51 205.473 2823
-2334.52 234.414 3118
-2327.07 234.414 3118
-2315.15 233.963 3112
-2307.71 233.963 3112
-2300.26 233.963 3112
-2297.24 234.414 3118
-2289.79 234.414 3118
-2286.72 234.865 3124
-2288.01 235.767 3136
-2280.51 235.767 3136
-2273.01 235.767 3136
-2274.18 236.669 3148
-2266.65 236.669 3148
-2263.43 237.12 3154
-2255.89 237.12 3154
-2248.34 237.12 3154
-2236.54 236.669 3148
-2229.01 236.669 3148
-2221.48 236.669 3148
-2218.18 237.12 3154
-2223.25 238.474 3172
-2215.66 238.474 3172
-2208.08 238.474 3172
-2212.98 239.827 3190
-2213.65 240.729 3202
-2210.13 241.18 3208
-2202.45 241.18 3208
-2220.78 244.037 3246
-2213.02 244.037 3246
-2205.26 244.037 3246
-2197.49 244.037 3246
-2202.55 245.465 3265
-2233.73 249.826 3323
-2252.58 252.833 3363
-2244.53 252.833 3363
-2269.08 256.517 3412
-2260.92 256.517 3412
-2252.76 256.517 3412
-2244.6 256.517 3412
-2231.85 255.991 3405
-2223.71 255.991 3405
-2238.34 258.622 3440
-2230.12 258.622 3440
-2239.98 260.727 3468
-2231.68 260.727 3468
-2223.39 260.727 3468
-2215.1 260.727 3468
-2225.26 262.907 3497
-2216.9 262.907 3497
-2208.53 262.907 3497
-2200.17 262.907 3497
-2196.82 263.509 3505
-2192.81 264.035 3512
-2184.41 264.035 3512
-2176.01 264.035 3512
-2149.72 261.855 3483
-2137.08 261.328 3476
-2128.77 261.328 3476
-2107.04 259.674 3454
-2138.88 264.636 3520
-2138.94 265.689 3534
-2153.4 268.546 3572
-2144.86 268.546 3572
-2136.31 268.546 3572
-2127.77 268.546 3572
-2119.23 268.546 3572
-2110.69 268.546 3572
-2079.78 265.689 3534
-2063.13 264.636 3520
-2054.71 264.636 3520
-2032.92 262.907 3497
-2024.56 262.907 3497
-2020.81 263.509 3505
-2012.43 263.509 3505
-2004.05 263.509 3505
-1991.11 262.907 3497
-1978.78 262.381 3490
-1970.43 262.381 3490
-1958.15 261.855 3483
-1945.91 261.328 3476
-1937.59 261.328 3476
-1929.28 261.328 3476
-1904.94 259.148 3447
-1896.7 259.148 3447
-1876.95 257.569 3426
-1868.76 257.569 3426
-1849.16 255.991 3405
-1833.45 254.938 3391
-1840.41 257.043 3419
-1839.74 258.096 3433
-1831.53 258.096 3433
-1834.47 259.674 3454
-1826.21 259.674 3454
-1817.96 259.674 3454
-1809.7 259.674 3454
-1797.79 259.148 3447
-1778.64 257.569 3426
-1770.45 257.569 3426
-1765.86 258.096 3433
-1757.65 258.096 3433
-1760.14 259.674 3454
-1758.98 260.727 3468
-1758.26 261.855 3483
-1749.93 261.855 3483
-1741.6 261.855 3483
-1733.27 261.855 3483
-1735.84 263.509 3505
-1727.46 263.509 3505
-1722.51 264.035 3512
-1714.11 264.035 3512
-1705.71 264.035 3512
-1697.31 264.035 3512
-1678.34 262.381 3490
-1669.99 262.381 3490
-1664.98 262.907 3497
-1656.62 262.907 3497
-1662.39 265.163 3527
-1660.99 266.29 3542
-1652.52 266.29 3542
-1644.05 266.29 3542
-1638.82 266.817 3549
-1630.33 266.817 3549
-1621.84 266.817 3549
-1613.35 266.817 3549
-1604.87 266.817 3549
-1603.58 268.02 3565
-1595.05 268.02 3565
-1586.53 268.02 3565
-1574.46 267.418 3557
-1555.83 265.689 3534
-1547.38 265.689 3534
-1538.93 265.689 3534
-1517.92 263.509 3505
-1519.01 265.163 3527
-1513.58 265.689 3534
-1505.13 265.689 3534
-1496.67 265.689 3534
-1488.22 265.689 3534
-1479.77 265.689 3534
-1471.32 265.689 3534
-1466.18 266.29 3542
-1457.71 266.29 3542
-1449.24 266.29 3542
-1440.77 266.29 3542
-1435.13 266.817 3549
-1429.86 267.418 3557
-1424.55 268.02 3565
-1416.03 268.02 3565
-1407.5 268.02 3565
-1398.98 268.02 3565
-1396.3 269.147 3580
-1387.74 269.147 3580
-1379.18 269.147 3580
-1373.68 269.749 3588
-1367.77 270.275 3595
-1359.17 270.275 3595
-1350.57 270.275 3595
-1341.98 270.275 3595
-1333.38 270.275 3595
-1324.78 270.275 3595
-1316.19 270.275 3595
-1310.5 270.876 3603
-1307.67 272.079 3619
-1299.01 272.079 3619
-1290.36 272.079 3619
-1281.7 272.079 3619
-604.073 129.988 1729
-599.938 129.988 1729
-595.804 129.988 1729
-591.669 129.988 1729
-587.534 129.988 1729
-582.725 129.837 1727
-578.595 129.837 1727
-573.8 129.687 1725
-569.015 129.537 1723
-563.255 129.161 1718
-559.147 129.161 1718
-553.423 128.785 1713
-548.044 128.484 1709
-543.639 128.409 1708
-539.555 128.409 1708
-533.276 127.883 1701
-527.342 127.431 1695
-521.745 127.056 1690
-517.704 127.056 1690
-513.358 126.98 1689
-507.209 126.454 1682
-501.092 125.928 1675
-493.229 124.95 1662
-489.254 124.95 1662
-480.316 123.672 1645
-473.776 122.996 1636
-467.854 122.47 1629
-463.958 122.47 1629
-458.651 122.094 1624
-453.087 121.643 1618
-448.385 121.417 1615
-444.523 121.417 1615
-440.115 121.267 1613
-434.365 120.74 1606
-429.184 120.364 1601
-425.356 120.364 1601
-420.737 120.139 1598
-416.394 119.989 1596
-412.319 119.913 1595
-407.993 119.763 1593
-404.184 119.763 1593
-399.62 119.537 1590
-395.569 119.462 1589
-392.016 119.537 1590
-388.702 119.688 1592
-384.895 119.688 1592
-381.328 119.763 1593
-377.992 119.913 1595
-374.413 119.989 1596
-370.596 119.989 1596
-366.78 119.989 1596
-363.418 120.139 1598
-360.272 120.364 1601
-356.443 120.364 1601
-353.055 120.515 1603
-349.44 120.59 1604
-346.035 120.74 1606
-342.195 120.74 1606
-338.986 120.966 1609
-335.764 121.191 1612
-332.115 121.267 1613
-328.257 121.267 1613
-325.205 121.567 1617
-321.537 121.643 1618
-318.06 121.793 1620
-314.186 121.793 1620
-310.504 121.868 1621
-307.006 122.018 1623
-303.312 122.094 1624
-299.428 122.094 1624
-295.909 122.244 1626
-292.559 122.47 1629
-289.018 122.62 1631
-285.118 122.62 1631
-281.39 122.695 1632
-278.338 123.071 1637
-274.758 123.221 1639
-270.839 123.221 1639
-267.408 123.447 1642
-263.803 123.597 1644
-260.346 123.823 1647
-256.407 123.823 1647
-252.622 123.898 1648
-248.983 124.048 1650
-245.78 124.424 1655
-241.822 124.424 1655
-238.296 124.65 1658
-234.896 124.95 1662
-231.061 125.026 1663
-227.084 125.026 1663
-223.778 125.402 1668
-220.053 125.552 1670
-216.707 125.928 1675
-212.955 126.078 1677
-208.945 126.078 1677
-205.301 126.304 1680
-201.643 126.529 1683
-197.854 126.68 1685
-193.824 126.68 1685
-190.809 127.356 1694
-186.868 127.431 1695
-183.57 127.958 1702
-179.5 127.958 1702
-175.842 128.258 1706
-172.266 128.634 1711
-168.666 129.01 1716
-164.562 129.01 1716
-160.646 129.161 1718
-156.993 129.537 1723
-153.849 130.364 1734
-149.702 130.364 1734
-146.06 130.815 1740
-142.306 131.191 1745
-138.292 131.341 1747
-134.114 131.341 1747
-130.755 132.168 1758
-126.695 132.318 1760
-122.486 132.318 1760
-118.278 132.318 1760
-214.644 279.973 3724
-205.738 279.973 3724
-196.833 279.973 3724
-185.859 276.891 3683
-177.052 276.891 3683
-168.245 276.891 3683
-159.438 276.891 3683
-151.285 278.094 3699
-142.439 278.094 3699
-133.594 278.094 3699
-124.209 276.891 3683
-115.402 276.891 3683
-106.826 277.492 3691
-97.9997 277.492 3691
-89.1734 277.492 3691
-80.3471 277.492 3691
-71.5208 277.492 3691
-62.6945 277.492 3691
-53.8682 277.492 3691
-45.0419 277.492 3691
-36.2156 277.492 3691
-27.3893 277.492 3691
-18.563 277.492 3691
-9.73673 277.492 3691
-0.910428 277.492 3691
7.89872 276.891 3683
16.7059 276.891 3683
25.5131 276.891 3683
34.5439 278.695 3707
43.4084 278.695 3707
52.3999 279.372 3716
61.286 279.372 3716
70.1721 279.372 3716
79.0581 279.372 3716
87.9442 279.372 3716
96.5958 278.695 3707
105.46 278.695 3707
114.078 278.094 3699
122.924 278.094 3699
131.769 278.094 3699
139.702 276.289 3675
292.324 279.372 3716
303.885 281.853 3749
312.85 281.853 3749
321.815 281.853 3749
330.78 281.853 3749
338.204 280.575 3732
347.129 280.575 3732
355.29 279.973 3724
360.185 276.891 3683
364.885 273.808 3642
373.594 273.808 3642
379.889 272.079 3619
385.966 270.275 3595
391.27 268.02 3565
399.795 268.02 3565
404.77 265.689 3534
410.648 264.035 3512
412.961 260.201 3461
416.978 257.569 3426
425.17 257.569 3426
429.821 255.464 3398
430.858 251.329 3343
435.439 249.375 3317
443.371 249.375 3317
450.351 248.848 3310
458.266 248.848 3310
466.181 248.848 3310
475.958 249.826 3323
483.905 249.826 3323
491.851 249.826 3323
506.866 253.359 3370
522.412 257.043 3419
530.588 257.043 3419
540.97 258.096 3433
570.295 268.02 3565
586.289 271.478 3611
594.924 271.478 3611
612.919 275.688 3667
629.995 279.372 3716
643.008 281.176 3740
651.951 281.176 3740
662.485 281.853 3749
671.45 281.853 3749
680.415 281.853 3749
689.38 281.853 3749
693.688 279.973 3724
701.084 279.372 3716
709.97 279.372 3716
718.856 279.372 3716
725.98 278.695 3707
734.844 278.695 3707
742.104 278.094 3699
750.949 278.094 3699
756.508 276.891 3683
761.991 275.688 3667
768.868 275.011 3658
777.615 275.011 3658
786.362 275.011 3658
795.11 275.011 3658
803.857 275.011 3658
814.604 275.688 3667
823.373 275.688 3667
832.142 275.688 3667
840.911 275.688 3667
853.387 276.891 3683
862.194 276.891 3683
872.893 277.492 3691
883.631 278.094 3699
894.406 278.695 3707
903.271 278.695 3707
912.135 278.695 3707
925.224 279.973 3724
934.129 279.973 3724
955.696 283.732 3774
964.72 283.732 3774
978.389 285.086 3792
987.457 285.086 3792
996.525 285.086 3792
1005.59 285.086 3792
1009.84 283.732 3774
1018.87 283.732 3774
1030.35 284.409 3783
1039.39 284.409 3783
1050.93 285.086 3792
1062.24 285.687 3800
1071.32 285.687 3800
1080.41 285.687 3800
1092.08 286.364 3809
1101.19 286.364 3809
1110.29 286.364 3809
1119.4 286.364 3809
1128.51 286.364 3809
1142.7 287.642 3826
1151.85 287.642 3826
1161 287.642 3826
1170.14 287.642 3826
1174.05 286.364 3809
1175.09 284.409 3783
1184.13 284.409 3783
1187.82 283.131 3766
1199.36 283.732 3774
1214.15 285.086 3792
1223.22 285.086 3792
1232.29 285.086 3792
1241.36 285.086 3792
1241.85 283.131 3766
1250.86 283.131 3766
1259.86 283.131 3766
1271.56 283.732 3774
1280.59 283.732 3774
1289.61 283.732 3774
1295.88 283.131 3766
1301.77 282.454 3757
1310.76 282.454 3757
1319.74 282.454 3757
1328.72 282.454 3757
1334.86 281.853 3749
1340.6 281.176 3740
1349.54 281.176 3740
1364.66 282.454 3757
1373.64 282.454 3757
1385.94 283.131 3766
1397.91 283.732 3774
1406.93 283.732 3774
1415.96 283.732 3774
1418.57 282.454 3757
1430.97 283.131 3766
1439.97 283.131 3766
1448.98 283.131 3766
1461.08 283.732 3774
1470.11 283.732 3774
1479.13 283.732 3774
1485 283.131 3766
1477.35 279.973 3724
1486.25 279.973 3724
1495.16 279.973 3724
1500.83 279.372 3716
1506.06 278.695 3707
1514.93 278.695 3707
1534.07 280.575 3732
1546.3 281.176 3740
1555.24 281.176 3740
1567.95 281.853 3749
1580.28 282.454 3757
1600.26 284.409 3783
1609.31 284.409 3783
1633.33 287.04 3818
1642.46 287.04 3818
1651.59 287.04 3818
1660.72 287.04 3818
1658.48 285.086 3792
1644.68 281.176 3740
1653.62 281.176 3740
1662.56 281.176 3740
1698.32 285.687 3800
1723.14 288.318 3835
1740.44 289.672 3853
1749.65 289.672 3853
1758.86 289.672 3853
1755.69 287.642 3826
1764.84 287.642 3826
1782.33 288.995 3844
1791.52 288.995 3844
1800.72 288.995 3844
1801.43 287.642 3826
1810.58 287.642 3826
1803.56 285.086 3792
1804.02 283.732 3774
1796.72 281.176 3740
1805.66 281.176 3740
1810.72 280.575 3732
1807.46 278.695 3707
1808.48 277.492 3691
1817.31 277.492 3691
1826.13 277.492 3691
1834.96 277.492 3691
1831.8 275.688 3667
1812.46 271.478 3611
1821.09 271.478 3611
1806.42 268.02 3565
1810.87 267.418 3557
1792.78 263.509 3505
1801.16 263.509 3505
1798.19 261.855 3483
1802.88 261.328 3476
1807.03 260.727 3468
1834.69 263.509 3505
1843.07 263.509 3505
1859.37 264.636 3520
1871.51 265.163 3527
1887.94 266.29 3542
1900.15 266.817 3549
1908.64 266.817 3549
1917.13 266.817 3549
1925.61 266.817 3549
1938.46 267.418 3557
1946.97 267.418 3557
1993.95 272.681 3627
2010.91 273.808 3642
2037.92 276.289 3675
2046.71 276.289 3675
2078.43 279.372 3716
2134.5 285.687 3800
2143.58 285.687 3800
2152.67 285.687 3800
2206.26 290.348 3862
2215.5 290.348 3862
2224.73 290.348 3862
2213.14 287.642 3826
2285.61 295.836 3935
2295.02 295.836 3935
2304.42 295.836 3935
2313.83 295.836 3935
2323.24 295.836 3935
2337.99 296.513 3944
2347.42 296.513 3944
2356.85 296.513 3944
2354.88 295.085 3925
2364.27 295.085 3925
2351.88 292.378 3889
2361.18 292.378 3889
2381.46 293.731 3907
2401.81 295.085 3925
2417.34 295.836 3935
2426.75 295.836 3935
2470.83 300.047 3991
2480.38 300.047 3991
2501.77 301.475 4010
2511.36 301.475 4010
2539.18 303.655 4039
2548.84 303.655 4039
2558.5 303.655 4039
2544 300.798 4001
2522.93 297.19 3953
2508.68 294.408 3916
2518.04 294.408 3916
2533.22 295.085 3925
2542.6 295.085 3925
2564.34 296.513 3944
2573.77 296.513 3944
2583.2 296.513 3944
2592.63 296.513 3944
2571.72 293.055 3898
2528.07 287.04 3818
2542.51 287.642 3826
2551.66 287.642 3826
2560.81 287.642 3826
2569.96 287.642 3826
2579.11 287.642 3826
2588.26 287.642 3826
2597.41 287.642 3826
2577.26 284.409 3783
2568.53 282.454 3757
2577.52 282.454 3757
2541.06 277.492 3691
1916.12 203.59 2708
1922.6 203.59 2708
1929.08 203.59 2708
1941.98 204.266 2717
1948.48 204.266 2717
1957.86 204.567 2721
1964.36 204.567 2721
1970.87 204.567 2721
1977.38 204.567 2721
2000.65 206.296 2744
2020.38 207.649 2762
2026.99 207.649 2762
2040.22 208.326 2771
2063.83 210.055 2794
2070.51 210.055 2794
2077.2 210.055 2794
2083.88 210.055 2794
2094.3 210.431 2799
2104.75 210.807 2804
2111.45 210.807 2804
2118.16 210.807 2804
2124.86 210.807 2804
2138.41 211.484 2813
2145.13 211.484 2813
2151.86 211.484 2813
-2334.52 241.883 3118
-2327.07 241.883 3118
-2311.43 241.03 3107
-2304 241.03 3107
-2287.7 240.099 3095
-2297.24 241.883 3118
-2289.79 241.883 3118
-2282.33 241.883 3118
-2283.63 242.814 3130
-2280.51 243.279 3136
-2273.01 243.279 3136
-2274.18 244.21 3148
-2266.65 244.21 3148
-2263.43 244.676 3154
-2255.89 244.676 3154
-2248.34 244.676 3154
-2236.54 244.21 3148
-2229.01 244.21 3148
-2221.48 244.21 3148
-2218.18 244.676 3154
-2223.25 246.072 3172
-2215.66 246.072 3172
-2208.08 246.072 3172
-2212.98 247.468 3190
-2213.65 248.399 3202
-2210.13 248.865 3208
-2202.45 248.865 3208
-2220.78 251.813 3246
-2213.02 251.813 3246
-2205.26 251.813 3246
-2197.49 251.813 3246
-2202.55 253.287 3265
-2233.73 257.786 3323
-2252.58 260.889 3363
-2244.53 260.889 3363
-2269.08 264.69 3412
-2260.92 264.69 3412
-2252.76 264.69 3412
-2244.6 264.69 3412
-2231.85 264.147 3405
-2223.71 264.147 3405
-2238.34 266.863 3440
-2230.12 266.863 3440
-2239.98 269.035 3468
-2231.68 269.035 3468
-2223.39 269.035 3468
-2215.1 269.035 3468
-2225.26 271.284 3497
-2216.9 271.284 3497
-2208.53 271.284 3497
-2200.17 271.284 3497
-2201.21 272.448 3512
-2192.81 272.448 3512
-2184.41 272.448 3512
-2176.01 272.448 3512
-2167.62 272.448 3512
-2159.22 272.448 3512
-2150.82 272.448 3512
-2107.04 267.949 3454
-2138.88 273.069 3520
-2161.94 277.103 3572
-2176.91 280.128 3611
-2168.27 280.128 3611
-2159.64 280.128 3611
-2151 280.128 3611
-2142.37 280.128 3611
-2133.73 280.128 3611
-2111.56 278.344 3588
-2093.61 277.103 3572
-2085.06 277.103 3572
-2067.8 275.939 3557
-2067.98 277.103 3572
-2064.05 277.723 3580
-2055.49 277.723 3580
-2046.93 277.723 3580
-2038.37 277.723 3580
-2012.23 275.318 3549
-2003.74 275.318 3549
-1986.82 274.155 3534
-1953.74 270.741 3490
-1945.4 270.741 3490
-1937.05 270.741 3490
-1920.97 269.655 3476
-1912.66 269.655 3476
-1896.13 268.492 3461
-1887.85 268.492 3461
-1856.76 265.233 3419
-1848.59 265.233 3419
-1851.72 266.863 3440
-1850.99 267.949 3454
-1842.73 267.949 3454
-1853.59 270.741 3490
-1845.25 270.741 3490
-1836.9 270.741 3490
-1828.56 270.741 3490
-1820.21 270.741 3490
-1785.91 266.863 3440
-1777.68 266.863 3440
-1776.66 267.949 3454
-1768.4 267.949 3454
-1778.48 270.741 3490
-1777.75 271.905 3505
-1772.9 272.448 3512
-1764.5 272.448 3512
-1756.1 272.448 3512
-1744.22 271.905 3505
-1750.2 274.155 3534
-1741.75 274.155 3534
-1733.3 274.155 3534
-1718.02 273.069 3520
-1709.6 273.069 3520
-1701.18 273.069 3520
-1696.13 273.612 3527
-1691.04 274.155 3534
-1686.4 274.775 3542
-1677.93 274.775 3542
-1676.53 275.939 3557
-1675.06 277.103 3572
-1670.25 277.723 3580
-1661.69 277.723 3580
-1656.82 278.344 3588
-1648.24 278.344 3588
-1639.66 278.344 3588
-1627.45 277.723 3580
-1618.89 277.723 3580
-1610.33 277.723 3580
-1601.76 277.723 3580
-1593.2 277.723 3580
-1584.64 277.723 3580
-1569.48 276.56 3565
-1560.95 276.56 3565
-1548.94 275.939 3557
-1536.97 275.318 3549
-1535.38 276.56 3565
-1529.85 277.103 3572
-1521.31 277.103 3572
-1512.77 277.103 3572
-1504.23 277.103 3572
-1495.68 277.103 3572
-1487.14 277.103 3572
-1469.08 275.318 3549
-1460.59 275.318 3549
-1458.65 276.56 3565
-1450.13 276.56 3565
-1444.43 277.103 3572
-1442.32 278.344 3588
-1436.54 278.887 3595
-1427.94 278.887 3595
-1419.35 278.887 3595
-1410.75 278.887 3595
-1408.39 280.128 3611
-1399.76 280.128 3611
-1391.12 280.128 3611
-1382.49 280.128 3611
-1379.94 281.369 3627
-1371.27 281.369 3627
-1362.6 281.369 3627
-1353.92 281.369 3627
-1345.25 281.369 3627
-1336.58 281.369 3627
-1327.9 281.369 3627
-1319.23 281.369 3627
-1310.56 281.369 3627
-1299.01 280.749 3619
-1290.36 280.749 3619
-1281.7 280.749 3619
-604.073 134.129 1729
-600.632 134.285 1731
-596.493 134.285 1731
-592.353 134.285 1731
-587.534 134.129 1729
-583.4 134.129 1729
-579.265 134.129 1729
-574.465 133.974 1727
-569.015 133.664 1723
-563.255 133.276 1718
-559.147 133.276 1718
-554.069 133.043 1715
-548.044 132.578 1709
-543.639 132.5 1708
-539.555 132.5 1708
-533.276 131.957 1701
-527.342 131.492 1695
-521.745 131.104 1690
-517.704 131.104 1690
-513.358 131.026 1689
-507.209 130.483 1682
-501.092 129.94 1675
-493.229 128.932 1662
-489.254 128.932 1662
-480.316 127.613 1645
-473.776 126.915 1636
-467.854 126.372 1629
-463.958 126.372 1629
-458.651 125.984 1624
-453.087 125.518 1618
-448.385 125.286 1615
-444.523 125.286 1615
-440.115 125.131 1613
-434.365 124.588 1606
-429.184 124.2 1601
-425.356 124.2 1601
-420.737 123.967 1598
-416.394 123.812 1596
-412.319 123.734 1595
-407.993 123.579 1593
-404.184 123.579 1593
-400.123 123.501 1592
-395.818 123.346 1590
-392.509 123.501 1592
-388.946 123.579 1593
-385.137 123.579 1593
-381.806 123.734 1595
-377.992 123.734 1595
-374.413 123.812 1596
-370.596 123.812 1596
-366.78 123.812 1596
-364.1 124.2 1601
-360.272 124.2 1601
-356.443 124.2 1601
-353.275 124.432 1604
-349.876 124.588 1606
-346.251 124.665 1607
-342.408 124.665 1607
-339.197 124.898 1610
-335.764 125.053 1612
-332.526 125.286 1615
-328.664 125.286 1615
-325.205 125.441 1617
-321.934 125.674 1620
-318.257 125.751 1621
-314.38 125.751 1621
-310.504 125.751 1621
-307.006 125.906 1623
-303.685 126.139 1626
-299.797 126.139 1626
-295.909 126.139 1626
-292.559 126.372 1629
-289.018 126.527 1631
-285.118 126.527 1631
-281.39 126.605 1632
-278.338 126.992 1637
-274.758 127.148 1639
-270.839 127.148 1639
-267.734 127.535 1644
-263.803 127.535 1644
-260.346 127.768 1647
-256.407 127.768 1647
-252.622 127.846 1648
-249.285 128.156 1652
-245.78 128.389 1655
-241.822 128.389 1655
-238.296 128.622 1658
-234.896 128.932 1662
-231.061 129.009 1663
-227.084 129.009 1663
-223.778 129.397 1668
-220.053 129.552 1670
-216.707 129.94 1675
-212.955 130.095 1677
-208.945 130.095 1677
-205.301 130.328 1680
-201.643 130.561 1683
-197.854 130.716 1685
-193.824 130.716 1685
-190.809 131.414 1694
-186.868 131.492 1695
-183.57 132.035 1702
-179.5 132.035 1702
-175.842 132.345 1706
-172.266 132.733 1711
-168.666 133.121 1716
-164.562 133.121 1716
-160.646 133.276 1718
-156.993 133.664 1723
-153.849 134.517 1734
-149.702 134.517 1734
-146.06 134.983 1740
-142.306 135.371 1745
-138.292 135.526 1747
-134.114 135.526 1747
-130.755 136.379 1758
-126.695 136.534 1760
-122.486 136.534 1760
-118.278 136.534 1760
-226.07 292.152 3766
-217.064 292.152 3766
-208.059 292.152 3766
-199.053 292.152 3766
-189.19 290.834 3749
-179.407 289.515 3732
-170.483 289.515 3732
-161.559 289.515 3732
-152.634 289.515 3732
-143.71 289.515 3732
-134.786 289.515 3732
-125.861 289.515 3732
-116.937 289.515 3732
-108.013 289.515 3732
-99.0883 289.515 3732
-90.164 289.515 3732
-81.2396 289.515 3732
-72.0052 288.274 3716
-63.1192 288.274 3716
-54.2331 288.274 3716
-45.347 288.274 3716
-36.4609 288.274 3716
-27.8791 291.454 3757
-18.895 291.454 3757
-9.91083 291.454 3757
-0.926707 291.454 3757
8.07672 292.152 3766
17.2366 294.79 3800
26.3235 294.79 3800
35.4105 294.79 3800
44.4974 294.79 3800
53.8382 296.186 3818
62.9682 296.186 3818
72.0982 296.186 3818
81.2282 296.186 3818
90.3582 296.186 3818
96.5958 287.575 3707
105.46 287.575 3707
114.078 286.955 3699
122.924 286.955 3699
131.769 286.955 3699
139.702 285.093 3675
314.744 310.383 4001
324.312 310.383 4001
333.879 310.383 4001
340.185 307.435 3963
347.985 305.961 3944
338.204 289.515 3732
347.129 289.515 3732
355.29 288.894 3724
364.195 288.894 3724
368.993 285.714 3683
377.8 285.714 3683
382.303 282.533 3642
388.543 280.749 3619
394.563 278.887 3595
403.16 278.887 3595
408.32 276.56 3565
412.402 273.612 3527
415.586 270.198 3483
419.534 267.406 3447
427.776 267.406 3447
429.821 263.604 3398
430.858 259.338 3343
435.439 257.321 3317
443.371 257.321 3317
451.303 257.321 3317
460.066 257.786 3323
468.012 257.786 3323
476.961 258.329 3330
484.924 258.329 3330
494.811 259.338 3343
512.13 264.147 3405
525.621 266.863 3440
533.847 266.863 3440
561.77 276.56 3565
577.654 280.128 3611
593.92 283.774 3658
602.667 283.774 3658
621.109 288.274 3716
635.59 290.834 3749
657.793 296.807 3826
666.942 296.807 3826
676.092 296.807 3826
685.241 296.807 3826
694.39 296.807 3826
703.539 296.807 3826
704.678 293.471 3783
712.027 292.773 3774
721.051 292.773 3774
730.076 292.773 3774
735.772 291.454 3757
743.17 290.834 3749
748.724 289.515 3732
757.649 289.515 3732
766.573 289.515 3732
768.64 286.955 3699
777.485 286.955 3699
786.331 286.955 3699
795.176 286.955 3699
804.022 286.955 3699
812.867 286.955 3699
827.266 288.894 3724
836.171 288.894 3724
845.077 288.894 3724
853.982 288.894 3724
864.741 289.515 3732
873.665 289.515 3732
888.502 291.454 3757
901.547 292.773 3774
910.572 292.773 3774
919.596 292.773 3774
930.836 293.471 3783
944.106 294.79 3800
953.193 294.79 3800
973.422 298.203 3844
982.614 298.203 3844
1003.42 301.694 3889
1012.72 301.694 3889
1022.02 301.694 3889
1031.32 301.694 3889
1035.8 300.298 3871
1042.63 299.6 3862
1051.86 299.6 3862
1061.1 299.6 3862
1070.33 299.6 3862
1079.57 299.6 3862
1088.8 299.6 3862
1092.92 298.203 3844
1102.11 298.203 3844
1111.3 298.203 3844
1120.5 298.203 3844
1129.69 298.203 3844
1138.88 298.203 3844
1150.76 298.902 3853
1159.97 298.902 3853
1169.19 298.902 3853
1175.65 298.203 3844
1179.29 296.807 3826
1188.44 296.807 3826
1192.27 295.488 3809
1196.02 294.169 3792
1207.63 294.79 3800
1219.6 295.488 3809
1228.7 295.488 3809
1237.81 295.488 3809
1243.98 294.79 3800
1253.06 294.79 3800
1262.15 294.79 3800
1265.55 293.471 3783
1277.63 294.169 3792
1286.7 294.169 3792
1295.76 294.169 3792
1298.64 292.773 3774
1307.66 292.773 3774
1316.69 292.773 3774
1325.71 292.773 3774
1334.74 292.773 3774
1340.91 292.152 3766
1349.92 292.152 3766
1358.92 292.152 3766
1370.84 292.773 3774
1379.86 292.773 3774
1388.88 292.773 3774
1410.87 295.488 3809
1419.98 295.488 3809
1429.09 295.488 3809
1441.6 296.186 3818
1450.73 296.186 3818
1466.36 297.505 3835
1475.53 297.505 3835
1488.18 298.203 3844
1497.38 298.203 3844
1506.57 298.203 3844
1512.21 297.505 3835
1517.81 296.807 3826
1526.96 296.807 3826
1536.11 296.807 3826
1517.39 291.454 3757
1526.37 291.454 3757
1525.14 289.515 3732
1537.35 290.135 3740
1574.83 295.488 3809
1583.93 295.488 3809
1607.68 298.203 3844
1620.66 298.902 3853
1629.87 298.902 3853
1639.09 298.902 3853
1648.3 298.902 3853
1657.51 298.902 3853
1666.73 298.902 3853
1672.03 298.203 3844
1677.28 297.505 3835
1667.54 294.169 3792
1676.61 294.169 3792
1674.12 292.152 3766
1717.99 298.203 3844
1739.31 300.298 3871
1748.57 300.298 3871
1757.82 300.298 3871
1767.08 300.298 3871
1772.21 299.6 3862
1781.44 299.6 3862
1790.68 299.6 3862
1795.72 298.902 3853
1804.93 298.902 3853
1809.91 298.203 3844
1819.1 298.203 3844
1807.37 294.79 3800
1804.02 292.773 3774
1801.04 290.834 3749
1810 290.834 3749
1810.72 289.515 3732
1807.46 287.575 3707
1808.48 286.334 3691
1817.31 286.334 3691
1826.13 286.334 3691
1834.96 286.334 3691
1831.8 284.472 3667
1816.47 280.749 3619
1825.13 280.749 3619
1806.42 276.56 3565
1810.87 275.939 3557
1792.78 271.905 3505
1801.16 271.905 3505
1798.19 270.198 3483
1802.88 269.655 3476
1807.03 269.035 3468
1834.69 271.905 3505
1843.07 271.905 3505
1859.37 273.069 3520
1871.51 273.612 3527
1883.67 274.155 3534
1900.15 275.318 3549
1908.64 275.318 3549
1917.13 275.318 3549
1929.95 275.939 3557
1938.46 275.939 3557
1946.97 275.939 3557
1993.95 281.369 3627
2010.91 282.533 3642
2037.92 285.093 3675
2046.71 285.093 3675
2078.43 288.274 3716
2149.1 296.807 3826
2158.25 296.807 3826
2167.4 296.807 3826
2323.94 310.383 4001
2333.51 310.383 4001
2343.08 310.383 4001
2352.64 310.383 4001
2356.31 309.607 3991
2365.85 309.607 3991
2375.39 309.607 3991
2384.94 309.607 3991
2377.68 307.435 3963
2387.16 307.435 3963
2385.15 305.961 3944
2394.58 305.961 3944
2404.01 305.961 3944
2430.57 308.133 3972
2451.74 309.607 3991
2461.29 309.607 3991
2482.59 311.081 4010
2498.4 311.857 4020
2519.87 313.331 4039
2529.52 313.331 4039
2551.76 314.882 4059
2561.46 314.882 4059
2571.17 314.882 4059
2574.52 314.106 4049
2559.31 311.081 4010
2538.79 307.435 3963
2548.26 307.435 3963
2557.74 307.435 3963
2567.22 307.435 3963
2582.55 308.133 3972
2592.04 308.133 3972
2601.54 308.133 3972
2611.04 308.133 3972
2571.72 302.392 3898
2542.51 296.807 3826
2551.66 296.807 3826
2560.81 296.807 3826
2569.96 296.807 3826
2579.11 296.807 3826
2588.26 296.807 3826
2597.41 296.807 3826
2601.11 296.186 3818
2610.24 296.186 3818
2577.52 291.454 3757
1888.53 207.051 2669
1894.91 207.051 2669
1904.14 207.361 2673
1910.53 207.361 2673
1929.84 208.758 2691
1942.03 209.378 2699
1948.48 209.378 2699
1954.93 209.378 2699
1977.38 211.085 2721
1994.09 212.171 2735
2020.38 214.266 2762
2026.99 214.266 2762
2040.22 214.964 2771
2060.88 216.438 2790
2070.51 216.748 2794
2077.2 216.748 2794
2083.88 216.748 2794
2101.78 217.912 2809
2108.5 217.912 2809
2115.22 217.912 2809
2121.93 217.912 2809
2131.68 218.222 2813
2138.41 218.222 2813
2145.13 218.222 2813
2151.86 218.222 2813
-2330.03 248.872 3112
-2322.59 248.872 3112
-2311.43 248.472 3107
-2304 248.472 3107
-2287.7 247.513 3095
-2292.82 248.872 3112
-2285.38 248.872 3112
-2282.33 249.352 3118
-2283.63 250.312 3130
-2280.51 250.792 3136
-2273.01 250.792 3136
-2274.18 251.751 3148
-2266.65 251.751 3148
-2263.43 252.231 3154
-2255.89 252.231 3154
-2248.34 252.231 3154
-2236.54 251.751 3148
-2229.01 251.751 3148
-2221.48 251.751 3148
-2218.18 252.231 3154
-2223.25 253.671 3172
-2224.05 254.63 3184
-2216.43 254.63 3184
-2221.31 256.07 3202
-2213.65 256.07 3202
-2210.13 256.55 3208
-2202.45 256.55 3208
-2233.78 261.108 3265
-2225.97 261.108 3265
-2218.17 261.108 3265
-2201.56 260.068 3252
-2232.91 264.707 3310
-2260.62 268.945 3363
-2290.09 273.424 3419
-2281.91 273.424 3419
-2297.01 276.223 3454
-2288.75 276.223 3454
-2280.49 276.223 3454
-2272.23 276.223 3454
-2250.21 274.543 3433
-2260.28 276.782 3461
-2270.88 279.102 3490
-2262.53 279.102 3490
-2254.19 279.102 3490
-2250.34 279.661 3497
-2247.11 280.301 3505
-2238.73 280.301 3505
-2234.8 280.861 3512
-2226.4 280.861 3512
-2218.01 280.861 3512
-2209.61 280.861 3512
-2201.21 280.861 3512
-2192.81 280.861 3512
-2184.41 280.861 3512
-2176.01 280.861 3512
-2167.62 280.861 3512
-2159.22 280.861 3512
-2150.82 280.861 3512
-2107.04 276.223 3454
-2138.88 281.501 3520
-2161.94 285.659 3572
-2176.91 288.778 3611
-2168.27 288.778 3611
-2159.64 288.778 3611
-2151 288.778 3611
-2142.37 288.778 3611
-2133.73 288.778 3611
-2111.56 286.939 3588
-2093.61 285.659 3572
-2085.06 285.659 3572
-2067.8 284.46 3557
-2067.98 285.659 3572
-2064.05 286.299 3580
-2055.49 286.299 3580
-2046.93 286.299 3580
-2038.37 286.299 3580
-2012.23 283.82 3549
-2003.74 283.82 3549
-1986.82 282.62 3534
-1953.74 279.102 3490
-1945.4 279.102 3490
-1937.05 279.102 3490
-1920.97 277.982 3476
-1912.66 277.982 3476
-1896.13 276.782 3461
-1887.85 276.782 3461
-1856.76 273.424 3419
-1848.59 273.424 3419
-1851.72 275.103 3440
-1850.99 276.223 3454
-1842.73 276.223 3454
-1853.59 279.102 3490
-1845.25 279.102 3490
-1836.9 279.102 3490
-1828.56 279.102 3490
-1820.21 279.102 3490
-1785.91 275.103 3440
-1777.68 275.103 3440
-1776.66 276.223 3454
-1768.4 276.223 3454
-1778.48 279.102 3490
-1777.75 280.301 3505
-1772.9 280.861 3512
-1764.5 280.861 3512
-1756.1 280.861 3512
-1744.22 280.301 3505
-1750.2 282.62 3534
-1741.75 282.62 3534
-1733.3 282.62 3534
-1718.02 281.501 3520
-1709.6 281.501 3520
-1701.18 281.501 3520
-1696.13 282.061 3527
-1691.04 282.62 3534
-1686.4 283.26 3542
-1677.93 283.26 3542
-1676.53 284.46 3557
-1675.06 285.659 3572
-1670.25 286.299 3580
-1661.69 286.299 3580
-1656.82 286.939 3588
-1648.24 286.939 3588
-1639.66 286.939 3588
-1627.45 286.299 3580
-1618.89 286.299 3580
-1610.33 286.299 3580
-1601.76 286.299 3580
-1593.2 286.299 3580
-1584.64 286.299 3580
-1569.48 285.1 3565
-1560.95 285.1 3565
-1548.94 284.46 3557
-1536.97 283.82 3549
-1535.38 285.1 3565
-1529.85 285.659 3572
-1521.31 285.659 3572
-1512.77 285.659 3572
-1504.23 285.659 3572
-1495.68 285.659 3572
-1487.14 285.659 3572
-1469.08 283.82 3549
-1460.59 283.82 3549
-1458.65 285.1 3565
-1450.13 285.1 3565
-1444.43 285.659 3572
-1442.32 286.939 3588
-1436.54 287.499 3595
-1427.94 287.499 3595
-1419.35 287.499 3595
-1410.75 287.499 3595
-1408.39 288.778 3611
-1399.76 288.778 3611
-1391.12 288.778 3611
-1382.49 288.778 3611
-1379.94 290.058 3627
-1371.27 290.058 3627
-1362.6 290.058 3627
-1353.92 290.058 3627
-1345.25 290.058 3627
-1336.58 290.058 3627
-1327.9 290.058 3627
-1319.23 290.058 3627
-1310.56 290.058 3627
-1299.01 289.418 3619
-1290.36 289.418 3619
-604.073 138.271 1729
-600.632 138.431 1731
-596.493 138.431 1731
-592.353 138.431 1731
-587.534 138.271 1729
-583.4 138.271 1729
-579.265 138.271 1729
-574.465 138.111 1727
-569.015 137.791 1723
-563.255 137.392 1718
-559.147 137.392 1718
-554.069 137.152 1715
-548.044 136.672 1709
-543.639 136.592 1708
-539.555 136.592 1708
-533.276 136.032 1701
-527.342 135.552 1695
-521.436 135.072 1689
-517.397 135.072 1689
-512.143 134.753 1685
-506.002 134.193 1678
-500.195 133.713 1672
-490.558 132.193 1653
-486.605 132.193 1653
-479.44 131.314 1642
-472.618 130.514 1632
-466.992 130.034 1626
-463.104 130.034 1626
-457.803 129.634 1621
-452.807 129.314 1617
-447.83 128.995 1613
-443.973 128.995 1613
-440.115 128.995 1613
-434.365 128.435 1606
-429.184 128.035 1601
-425.356 128.035 1601
-420.737 127.795 1598
-416.394 127.635 1596
-412.319 127.555 1595
-407.993 127.395 1593
-404.184 127.395 1593
-400.123 127.315 1592
-395.818 127.155 1590
-392.509 127.315 1592
-388.946 127.395 1593
-385.137 127.395 1593
-381.806 127.555 1595
-377.992 127.555 1595
-374.413 127.635 1596
-370.596 127.635 1596
-366.78 127.635 1596
-364.1 128.035 1601
-360.272 128.035 1601
-356.443 128.035 1601
-353.275 128.275 1604
-349.876 128.435 1606
-346.251 128.515 1607
-342.408 128.515 1607
-339.197 128.755 1610
-335.764 128.915 1612
-332.526 129.154 1615
-328.664 129.154 1615
-325.205 129.314 1617
-321.934 129.554 1620
-318.257 129.634 1621
-314.38 129.634 1621
-310.504 129.634 1621
-307.006 129.794 1623
-303.685 130.034 1626
-299.797 130.034 1626
-295.909 130.034 1626
-292.559 130.274 1629
-289.018 130.434 1631
-285.118 130.434 1631
-281.39 130.514 1632
-278.338 130.914 1637
-274.758 131.074 1639
-270.839 131.074 1639
-267.734 131.474 1644
-263.803 131.474 1644
-260.346 131.714 1647
-256.407 131.714 1647
-252.622 131.794 1648
-249.285 132.113 1652
-245.78 132.353 1655
-241.822 132.353 1655
-238.296 132.593 1658
-234.896 132.913 1662
-231.061 132.993 1663
-227.084 132.993 1663
-223.778 133.393 1668
-219.79 133.393 1668
-216.707 133.953 1675
-212.955 134.113 1677
-208.945 134.113 1677
-205.301 134.353 1680
-201.643 134.593 1683
-197.854 134.753 1685
-193.824 134.753 1685
-190.583 135.312 1692
-186.868 135.552 1695
-183.57 136.112 1702
-179.5 136.112 1702
-175.842 136.432 1706
-172.064 136.672 1709
-168.371 136.992 1713
-164.275 136.992 1713
-160.459 137.232 1716
-156.72 137.552 1720
-153.405 138.271 1729
-149.271 138.271 1729
-145.724 138.831 1736
-142.143 139.391 1743
-138.292 139.711 1747
-134.114 139.711 1747
-129.937 139.711 1747
-125.759 139.711 1747
-121.582 139.711 1747
-117.404 139.711 1747
-226.07 301.174 3766
-217.064 301.174 3766
-208.059 301.174 3766
-199.053 301.174 3766
-189.19 299.814 3749
-179.407 298.455 3732
-170.483 298.455 3732
-161.559 298.455 3732
-152.634 298.455 3732
-143.71 298.455 3732
-134.786 298.455 3732
-125.861 298.455 3732
-116.937 298.455 3732
-108.013 298.455 3732
-99.0883 298.455 3732
-90.164 298.455 3732
-81.2396 298.455 3732
-72.0052 297.175 3716
-63.1192 297.175 3716
-54.2331 297.175 3716
-45.347 297.175 3716
-36.4609 297.175 3716
-27.8791 300.454 3757
-18.895 300.454 3757
-9.91083 300.454 3757
-0.926707 300.454 3757
8.07672 301.174 3766
17.2366 303.893 3800
26.3235 303.893 3800
35.4105 303.893 3800
44.4974 303.893 3800
53.8382 305.332 3818
62.9682 305.332 3818
72.0982 305.332 3818
81.2282 305.332 3818
90.3582 305.332 3818
314.744 319.967 4001
324.312 319.967 4001
333.879 319.967 4001
340.185 316.928 3963
347.985 315.409 3944
337.48 297.815 3724
346.385 297.815 3724
355.29 297.815 3724
364.195 297.815 3724
368.993 294.536 3683
377.8 294.536 3683
382.303 291.257 3642
388.543 289.418 3619
394.563 287.499 3595
403.16 287.499 3595
408.32 285.1 3565
412.402 282.061 3527
415.586 278.542 3483
419.534 275.663 3447
427.776 275.663 3447
429.821 271.744 3398
430.085 266.866 3337
435.439 265.267 3317
443.371 265.267 3317
451.303 265.267 3317
460.066 265.746 3323
468.012 265.746 3323
476.961 266.306 3330
484.924 266.306 3330
494.811 267.346 3343
512.13 272.304 3405
525.621 275.103 3440
533.847 275.103 3440
561.77 285.1 3565
577.654 288.778 3611
593.92 292.537 3658
602.667 292.537 3658
621.109 297.175 3716
635.59 299.814 3749
657.793 305.972 3826
666.942 305.972 3826
676.092 305.972 3826
685.241 305.972 3826
694.39 305.972 3826
703.539 305.972 3826
704.678 302.533 3783
712.027 301.814 3774
721.051 301.814 3774
730.076 301.814 3774
735.772 300.454 3757
743.17 299.814 3749
748.724 298.455 3732
757.649 298.455 3732
766.573 298.455 3732
768.64 295.816 3699
777.485 295.816 3699
786.331 295.816 3699
795.176 295.816 3699
804.022 295.816 3699
812.867 295.816 3699
827.266 297.815 3724
836.171 297.815 3724
845.077 297.815 3724
853.982 297.815 3724
864.741 298.455 3732
873.665 298.455 3732
888.502 300.454 3757
924.719 309.571 3871
940.49 311.73 3898
949.811 311.73 3898
961.347 312.45 3907
977.646 314.689 3935
994.08 316.928 3963
1003.56 316.928 3963
1027.6 321.487 4020
1037.22 321.487 4020
1046.83 321.487 4020
1056.44 321.487 4020
1055.98 318.448 3982
1065.5 318.448 3982
1075.02 318.448 3982
1084.55 318.448 3982
1094.07 318.448 3982
1095.55 316.129 3953
1105.01 316.129 3953
1114.46 316.129 3953
1121.35 315.409 3944
1120.17 312.45 3907
1129.52 312.45 3907
1138.86 312.45 3907
1148.2 312.45 3907
1154.88 311.73 3898
1161.51 311.01 3889
1170.81 311.01 3889
1177.38 310.291 3880
1186.66 310.291 3880
1184.84 307.412 3844
1194.03 307.412 3844
1195.09 305.332 3818
1201.38 304.613 3809
1213.35 305.332 3818
1222.48 305.332 3818
1231.61 305.332 3818
1240.74 305.332 3818
1249.87 305.332 3818
1253.06 303.893 3800
1262.15 303.893 3800
1268.56 303.253 3792
1277.63 303.253 3792
1286.7 303.253 3792
1295.76 303.253 3792
1304.83 303.253 3792
1307.66 301.814 3774
1319.83 302.533 3783
1332.03 303.253 3792
1341.1 303.253 3792
1350.17 303.253 3792
1359.24 303.253 3792
1368.31 303.253 3792
1377.37 303.253 3792
1386.44 303.253 3792
1401.77 304.613 3809
1417.17 305.972 3826
1429.68 306.692 3835
1438.85 306.692 3835
1451.41 307.412 3844
1460.61 307.412 3844
1483.56 310.291 3880
1492.84 310.291 3880
1509.09 311.73 3898
1518.41 311.73 3898
1527.73 311.73 3898
1537.05 311.73 3898
1546.37 311.73 3898
1562.88 313.17 3916
1572.24 313.17 3916
1581.61 313.17 3916
1526.37 300.454 3757
1525.14 298.455 3732
1537.35 299.095 3740
1574.83 304.613 3809
1583.93 304.613 3809
1653.27 316.129 3953
1666.93 316.928 3963
1676.4 316.928 3963
1685.88 316.928 3963
1691.08 316.129 3953
1696.66 315.409 3944
1706.09 315.409 3944
1711.61 314.689 3935
1689.09 308.851 3862
1686.45 306.692 3835
1695.62 306.692 3835
1674.12 301.174 3766
1730.05 309.571 3871
1755.49 312.45 3907
1781.54 315.409 3944
1790.97 315.409 3944
1800.41 315.409 3944
1805.71 314.689 3935
1815.12 314.689 3935
1824.53 314.689 3935
1829.28 313.889 3925
1838.66 313.889 3925
1835.33 311.73 3898
1844.66 311.73 3898
1841.14 309.571 3871
1816.45 303.893 3800
1813.05 301.814 3774
1822.07 301.814 3774
1814.6 299.095 3740
1811.84 297.175 3716
1824.65 297.815 3724
1833.56 297.815 3724
1842.46 297.815 3724
1838.94 295.816 3699
1831.8 293.257 3667
1816.47 289.418 3619
1825.13 289.418 3619
1809.97 285.659 3572
1814.94 285.1 3565
1796.36 280.861 3512
1804.76 280.861 3512
1798.19 278.542 3483
1802.88 277.982 3476
1811.2 277.982 3476
1834.69 280.301 3505
1843.07 280.301 3505
1859.37 281.501 3520
1871.51 282.061 3527
1883.67 282.62 3534
1900.15 283.82 3549
1908.64 283.82 3549
1917.13 283.82 3549
1929.95 284.46 3557
1938.46 284.46 3557
1946.97 284.46 3557
1993.95 290.058 3627
2010.91 291.257 3642
2037.92 293.896 3675
2046.71 293.896 3675
2078.43 297.175 3716
2149.1 305.972 3826
2158.25 305.972 3826
2167.4 305.972 3826
2340.79 322.286 4030
2350.42 322.286 4030
2360.06 322.286 4030
2369.7 322.286 4030
2367.52 320.687 4010
2388.97 322.286 4030
2398.61 322.286 4030
2408.24 322.286 4030
2400.48 319.967 4001
2410.05 319.967 4001
2402.08 317.648 3972
2411.58 317.648 3972
2421.08 317.648 3972
2436.69 318.448 3982
2463.42 320.687 4010
2473.01 320.687 4010
2506.74 323.806 4049
2516.42 323.806 4049
2532.34 324.606 4059
2542.05 324.606 4059
2558.04 325.405 4069
2567.77 325.405 4069
2577.5 325.405 4069
2587.23 325.405 4069
2565.69 321.487 4020
2575.3 321.487 4020
2584.92 321.487 4020
2594.53 321.487 4020
2591.83 319.967 4001
2601.4 319.967 4001
2623.37 321.487 4020
2632.98 321.487 4020
2642.59 321.487 4020
2571.72 311.73 3898
2542.51 305.972 3826
2551.66 305.972 3826
2560.81 305.972 3826
2569.96 305.972 3826
2579.11 305.972 3826
2588.26 305.972 3826
2597.41 305.972 3826
2601.11 305.332 3818
2610.24 305.332 3818
2577.52 300.454 3757
1888.53 213.445 2669
1894.91 213.445 2669
1904.14 213.765 2673
1910.53 213.765 2673
1942.03 216.564 2708
1954.98 217.283 2717
1964.36 217.603 2721
1970.87 217.603 2721
1983.92 218.323 2730
2013.78 220.882 2762
2026.96 221.602 2771
2033.59 221.602 2771
2050.52 222.722 2785
2067.53 223.841 2799
2081.63 224.641 2809
2088.35 224.641 2809
2095.06 224.641 2809
2104.77 224.961 2813
2111.5 224.961 2813
2118.23 224.961 2813
2124.95 224.961 2813
2131.68 224.961 2813
2142.21 225.361 2818
2148.95 225.361 2818
2155.69 225.361 2818
-2334.52 256.821 3118
-2327.07 256.821 3118
-2315.15 256.327 3112
-2304 255.915 3107
-2296.57 255.915 3107
-2297.24 256.821 3118
-2289.79 256.821 3118
-2286.72 257.316 3124
-2288.01 258.304 3136
-2280.51 258.304 3136
-2273.01 258.304 3136
-2274.18 259.292 3148
-2266.65 259.292 3148
-2263.43 259.787 3154
-2255.89 259.787 3154
-2248.34 259.787 3154
-2236.54 259.292 3148
-2229.01 259.292 3148
-2221.48 259.292 3148
-2218.18 259.787 3154
-2219.04 260.775 3166
-2224.05 262.258 3184
-2216.43 262.258 3184
-2221.31 263.74 3202
-2213.65 263.74 3202
-2205.99 263.74 3202
-2233.78 268.929 3265
-2225.97 268.929 3265
-2218.17 268.929 3265
-2201.56 267.859 3252
-2232.91 272.636 3310
-2298.26 281.614 3419
-2322.91 285.65 3468
-2314.61 285.65 3468
-2320.95 287.462 3490
-2312.61 287.462 3490
-2304.26 287.462 3490
-2291.31 286.885 3483
-2278.39 286.309 3476
-2270.08 286.309 3476
-2275.43 288.039 3497
-2267.07 288.039 3497
-2263.87 288.697 3505
-2255.49 288.697 3505
-2251.6 289.274 3512
-2243.2 289.274 3512
-2234.8 289.274 3512
-2226.4 289.274 3512
-2218.01 289.274 3512
-2209.61 289.274 3512
-2215 291.086 3534
-2206.55 291.086 3534
-2198.1 291.086 3534
-2189.65 291.086 3534
-2176.87 290.51 3527
-2168.44 290.51 3527
-2160.01 290.51 3527
-2190.39 298.087 3619
-2191.38 299.405 3635
-2182.69 299.405 3635
-2193.13 302.041 3667
-2184.36 302.041 3667
-2175.59 302.041 3667
-2156.78 300.641 3650
-2129.81 298.087 3619
-2107.09 296.111 3595
-2107.83 297.428 3611
-2099.19 297.428 3611
-2099.82 298.746 3627
-2091.15 298.746 3627
-2082.48 298.746 3627
-2073.8 298.746 3627
-2060.57 298.087 3619
-2038.31 296.111 3595
-2029.72 296.111 3595
-1999.76 292.981 3557
-1986.77 292.322 3549
-1969.92 291.086 3534
-1961.47 291.086 3534
-1936.99 288.697 3505
-1928.61 288.697 3505
-1912.01 287.462 3490
-1903.67 287.462 3490
-1883.38 285.65 3468
-1875.08 285.65 3468
-1886.71 288.697 3505
-1886.36 289.933 3520
-1877.95 289.933 3520
-1873.25 290.51 3527
-1864.81 290.51 3527
-1856.38 290.51 3527
-1847.94 290.51 3527
-1831.69 289.274 3512
-1808.23 286.885 3483
-1799.9 286.885 3483
-1791.57 286.885 3483
-1794.51 288.697 3505
-1789.69 289.274 3512
-1792.46 291.086 3534
-1784 291.086 3534
-1779.57 291.745 3542
-1771.1 291.745 3542
-1762.63 291.745 3542
-1757.63 292.322 3549
-1749.14 292.322 3549
-1740.66 292.322 3549
-1732.17 292.322 3549
-1723.68 292.322 3549
-1707.95 291.086 3534
-1699.5 291.086 3534
-1698.22 292.322 3549
-1693.54 292.981 3557
-1685.04 292.981 3557
-1683.6 294.216 3572
-1682.56 295.534 3588
-1677.25 296.111 3595
-1668.65 296.111 3595
-1660.06 296.111 3595
-1651.46 296.111 3595
-1642.86 296.111 3595
-1634.27 296.111 3595
-1625.67 296.111 3595
-1617.07 296.111 3595
-1608.48 296.111 3595
-1599.88 296.111 3595
-1591.28 296.111 3595
-1579.6 295.534 3588
-1571.02 295.534 3588
-1558.96 294.875 3580
-1550.4 294.875 3580
-1548.3 296.111 3595
-1543.13 296.769 3603
-1534.51 296.769 3603
-1525.9 296.769 3603
-1517.28 296.769 3603
-1508.67 296.769 3603
-1500.05 296.769 3603
-1485.22 295.534 3588
-1473.35 294.875 3580
-1468.06 295.534 3588
-1459.48 295.534 3588
-1456.97 296.769 3603
-1458 298.746 3627
-1449.33 298.746 3627
-1440.66 298.746 3627
-1431.98 298.746 3627
-1420.17 298.087 3619
-1414.64 298.746 3627
-1405.96 298.746 3627
-1400.37 299.405 3635
-1391.68 299.405 3635
-1385.65 299.982 3642
-1376.94 299.982 3642
-1368.23 299.982 3642
-1359.52 299.982 3642
-1350.81 299.982 3642
-1342.1 299.982 3642
-1333.39 299.982 3642
-1322.14 299.405 3635
-1313.45 299.405 3635
-1293.27 296.769 3603
-604.073 142.413 1729
-600.632 142.578 1731
-596.493 142.578 1731
-592.353 142.578 1731
-587.534 142.413 1729
-583.4 142.413 1729
-579.265 142.413 1729
-574.465 142.248 1727
-569.015 141.919 1723
-563.255 141.507 1718
-559.147 141.507 1718
-554.393 141.342 1716
-548.686 140.93 1711
-543.639 140.683 1708
-539.555 140.683 1708
-533.59 140.189 1702
-527.342 139.613 1695
-521.436 139.118 1689
-517.397 139.118 1689
-512.143 138.789 1685
-505.701 138.13 1677
-499.596 137.553 1670
-489.668 135.906 1650
-485.722 135.906 1650
-478.856 135.082 1640
-472.328 134.341 1631
-466.992 133.929 1626
-463.104 133.929 1626
-457.803 133.517 1621
-452.807 133.188 1617
-447.83 132.859 1613
-443.973 132.859 1613
-439.297 132.611 1610
-433.824 132.117 1604
-429.184 131.87 1601
-425.356 131.87 1601
-420.737 131.623 1598
-416.394 131.458 1596
-412.319 131.376 1595
-407.993 131.211 1593
-404.184 131.211 1593
-400.123 131.129 1592
-396.316 131.129 1592
-392.509 131.129 1592
-388.946 131.211 1593
-385.137 131.211 1593
-381.806 131.376 1595
-378.229 131.458 1596
-374.413 131.458 1596
-370.596 131.458 1596
-367.469 131.705 1599
-364.1 131.87 1601
-360.722 132.035 1603
-356.888 132.035 1603
-353.275 132.117 1604
-349.876 132.282 1606
-346.681 132.529 1609
-342.834 132.529 1609
-339.197 132.611 1610
-336.388 133.023 1615
-332.938 133.188 1617
-329.072 133.188 1617
-325.808 133.435 1620
-322.133 133.517 1621
-318.257 133.517 1621
-314.38 133.517 1621
-310.887 133.682 1623
-307.574 133.929 1626
-303.685 133.929 1626
-299.797 133.929 1626
-296.273 134.094 1628
-292.918 134.341 1631
-289.195 134.423 1632
-285.293 134.423 1632
-281.735 134.588 1634
-278.678 135 1639
-274.758 135 1639
-270.839 135 1639
-267.734 135.412 1644
-263.803 135.412 1644
-260.346 135.659 1647
