ply
format ascii 1.0
comment File generated
element vertex 2130
property float x
property float y
property float z
end_header
-2247.36 -809.606 3572
-652.178 -420.215 1854
-647.745 -420.215 1854
-643.311 -420.215 1854
-635.776 -418.175 1845
-630.68 -417.722 1843
-624.234 -416.362 1837
-619.841 -416.362 1837
-615.448 -416.362 1837
-609.725 -415.456 1833
-602.7 -413.642 1825
-598.336 -413.642 1825
-592.67 -412.736 1821
-587.669 -412.282 1819
-581.395 -410.922 1813
-572.922 -407.976 1800
-568.618 -407.976 1800
-563.686 -407.523 1798
-556.276 -405.256 1788
-550.148 -403.896 1782
-545.886 -403.896 1782
-536.458 -400.043 1765
-530.729 -398.91 1760
-523.23 -396.417 1749
-519.048 -396.417 1749
-512.51 -394.603 1741
-507.471 -393.923 1738
-501.288 -392.337 1731
-497.148 -392.337 1731
-491.87 -391.43 1727
-486.61 -390.524 1723
-481.65 -389.844 1720
-476.427 -388.937 1716
-472.323 -388.937 1716
-467.947 -388.71 1715
-463.305 -388.257 1713
-458.136 -387.35 1709
-454.049 -387.35 1709
-449.963 -387.35 1709
-445.876 -387.35 1709
-441.789 -387.35 1709
-437.702 -387.35 1709
-433.362 -387.124 1708
-429.278 -387.124 1708
-425.193 -387.124 1708
-421.109 -387.124 1708
-417.025 -387.124 1708
-412.94 -387.124 1708
-408.377 -386.671 1706
-404.298 -386.671 1706
-400.218 -386.671 1706
-396.138 -386.671 1706
-391.14 -385.764 1702
-387.07 -385.764 1702
-383 -385.764 1702
-378.93 -385.764 1702
-374.86 -385.764 1702
-370.79 -385.764 1702
-366.504 -385.537 1701
-362.437 -385.537 1701
-358.369 -385.537 1701
-354.301 -385.537 1701
-349.822 -385.084 1699
-345.352 -384.631 1697
-341.294 -384.631 1697
-336.64 -383.951 1694
-332.589 -383.951 1694
-328.15 -383.497 1692
-324.104 -383.497 1692
-319.68 -383.044 1690
-315.638 -383.044 1690
-311.597 -383.044 1690
-307.374 -382.817 1689
-303.335 -382.817 1689
-299.296 -382.817 1689
-295.257 -382.817 1689
-291.218 -382.817 1689
-286.839 -382.364 1687
-282.805 -382.364 1687
-278.771 -382.364 1687
-275.063 -382.817 1689
-271.024 -382.817 1689
-266.985 -382.817 1689
-262.946 -382.817 1689
-259.06 -383.044 1690
-255.019 -383.044 1690
-251.572 -383.951 1694
-247.521 -383.951 1694
-243.614 -384.177 1695
-240.55 -385.764 1702
-236.758 -386.217 1704
-232.683 -386.217 1704
-229.145 -387.124 1708
-225.192 -387.35 1709
-221.623 -388.257 1713
-217.527 -388.257 1713
-213.679 -388.71 1715
-209.701 -388.937 1716
-206.076 -389.844 1720
-201.963 -389.844 1720
-198.08 -390.297 1722
-194.3 -390.977 1725
-190.396 -391.43 1727
-186.698 -392.337 1731
-182.558 -392.337 1731
-178.419 -392.337 1731
-174.582 -393.017 1734
-170.632 -393.47 1736
-166.48 -393.47 1736
-162.516 -393.923 1738
-158.542 -394.377 1740
-154.381 -394.377 1740
-150.22 -394.377 1740
-146.143 -394.603 1741
-141.98 -394.603 1741
-137.975 -395.057 1743
-133.807 -395.057 1743
-129.788 -395.51 1745
-125.759 -395.963 1747
-121.582 -395.963 1747
-117.404 -395.963 1747
-113.356 -396.417 1749
-109.361 -397.097 1752
-105.171 -397.097 1752
-100.982 -397.097 1752
-96.7921 -397.097 1752
-92.6025 -397.097 1752
-88.413 -397.097 1752
-84.2234 -397.097 1752
-80.1252 -397.55 1754
-75.9309 -397.55 1754
-71.7365 -397.55 1754
-67.5422 -397.55 1754
-63.3478 -397.55 1754
-59.1535 -397.55 1754
-54.9591 -397.55 1754
-50.7648 -397.55 1754
-46.6767 -398.457 1758
-42.4727 -398.457 1758
-38.3559 -399.363 1762
-34.1424 -399.363 1762
-29.9799 -400.043 1765
-25.7884 -400.496 1767
-21.563 -400.496 1767
-17.3572 -400.95 1769
-13.127 -400.95 1769
-8.89677 -400.95 1769
38.1036 -926.785 4089
47.8816 -926.785 4089
57.6596 -926.785 4089
67.1078 -922.252 4069
76.6492 -919.986 4059
86.3555 -919.986 4059
95.8251 -917.719 4049
105.508 -917.719 4049
115.19 -917.719 4049
124.872 -917.719 4049
134.555 -917.719 4049
142.527 -906.84 4001
151.715 -904.573 3991
160.895 -902.534 3982
170.417 -902.534 3982
179.487 -900.267 3972
187.653 -893.921 3944
196.135 -889.614 3925
205.521 -889.614 3925
213.428 -883.495 3898
222.75 -883.495 3898
230.999 -879.415 3880
240.278 -879.415 3880
422.469 -891.881 3935
431.879 -891.881 3935
441.289 -891.881 3935
449.553 -889.614 3925
453.677 -879.415 3880
458.66 -871.255 3844
467.852 -871.255 3844
477.045 -871.255 3844
486.237 -871.255 3844
495.429 -871.255 3844
504.621 -871.255 3844
513.813 -871.255 3844
518.243 -863.322 3809
1725.05 -908.88 4010
1734.64 -908.88 4010
1744.23 -908.88 4010
1749.88 -906.84 4001
1734.39 -893.921 3944
1743.82 -893.921 3944
1753.25 -893.921 3944
1762.68 -893.921 3944
1776.16 -895.961 3953
1785.61 -895.961 3953
1795.06 -895.961 3953
1800.41 -893.921 3944
1792.86 -885.534 3907
1802.2 -885.534 3907
1799.02 -879.415 3880
1804.11 -877.375 3871
1856.46 -898.227 3963
1874.89 -902.534 3982
1884.41 -902.534 3982
1893.93 -902.534 3982
1903.45 -902.534 3982
3108.41 -926.785 4089
3118.19 -926.785 4089
3127.96 -926.785 4089
-2504.17 -829.53 3699
-2495.32 -829.53 3699
-2486.48 -829.53 3699
-2477.63 -829.53 3699
-2463.45 -827.736 3691
-2438.66 -822.353 3667
-2429.89 -822.353 3667
-2421.12 -822.353 3667
-2395.91 -816.747 3642
-2382.61 -815.177 3635
-2363.47 -811.589 3619
-2354.81 -811.589 3619
-2346.16 -811.589 3619
-2337.51 -811.589 3619
-2323.7 -809.795 3611
-2315.07 -809.795 3611
-2306.43 -809.795 3611
-2292.71 -808.001 3603
-2264.44 -801.049 3572
-2255.9 -801.049 3572
-2242.95 -799.479 3565
-652.178 -415.774 1854
-647.745 -415.774 1854
-643.311 -415.774 1854
-638.189 -415.325 1852
-630.68 -413.307 1843
-624.234 -411.962 1837
-619.841 -411.962 1837
-615.448 -411.962 1837
-609.725 -411.065 1833
-602.7 -409.27 1825
-598.336 -409.27 1825
-592.67 -408.373 1821
-587.669 -407.925 1819
-581.395 -406.579 1813
-572.922 -403.664 1800
-568.618 -403.664 1800
-563.686 -403.216 1798
-556.276 -400.973 1788
-549.53 -399.179 1780
-545.274 -399.179 1780
-535.546 -395.142 1762
-530.126 -394.245 1758
-522.632 -391.778 1747
-518.454 -391.778 1747
-512.51 -390.433 1741
-507.471 -389.76 1738
-501.288 -388.19 1731
-497.148 -388.19 1731
-491.87 -387.293 1727
-486.61 -386.396 1723
-481.65 -385.723 1720
-476.427 -384.826 1716
-472.323 -384.826 1716
-467.947 -384.602 1715
-463.305 -384.154 1713
-458.136 -383.257 1709
-454.049 -383.257 1709
-449.963 -383.257 1709
-445.876 -383.257 1709
-441.789 -383.257 1709
-437.702 -383.257 1709
-433.362 -383.032 1708
-429.278 -383.032 1708
-425.193 -383.032 1708
-421.109 -383.032 1708
-417.025 -383.032 1708
-412.457 -382.584 1706
-408.377 -382.584 1706
-404.298 -382.584 1706
-400.218 -382.584 1706
-395.21 -381.687 1702
-391.14 -381.687 1702
-387.07 -381.687 1702
-383 -381.687 1702
-378.93 -381.687 1702
-374.639 -381.463 1701
-370.572 -381.463 1701
-366.504 -381.463 1701
-362.01 -381.014 1699
-357.948 -381.014 1699
-353.885 -381.014 1699
-349.41 -380.565 1697
-345.352 -380.565 1697
-340.892 -380.117 1695
-336.64 -379.893 1694
-332.589 -379.893 1694
-328.15 -379.444 1692
-323.721 -378.996 1690
-319.68 -378.996 1690
-315.638 -378.996 1690
-311.413 -378.771 1689
-307.374 -378.771 1689
-303.335 -378.771 1689
-299.296 -378.771 1689
-295.257 -378.771 1689
-291.218 -378.771 1689
-286.839 -378.323 1687
-282.805 -378.323 1687
-278.771 -378.323 1687
-274.737 -378.323 1687
-270.703 -378.323 1687
-266.985 -378.771 1689
-262.946 -378.771 1689
-259.06 -378.996 1690
-255.019 -378.996 1690
-251.572 -379.893 1694
-247.521 -379.893 1694
-243.614 -380.117 1695
-240.55 -381.687 1702
-236.758 -382.135 1704
-232.683 -382.135 1704
-229.145 -383.032 1708
-225.192 -383.257 1709
-221.623 -384.154 1713
-217.527 -384.154 1713
-213.679 -384.602 1715
-209.945 -385.275 1718
-206.076 -385.723 1720
-201.963 -385.723 1720
-198.08 -386.172 1722
-194.3 -386.845 1725
-190.396 -387.293 1727
-186.698 -388.19 1731
-182.558 -388.19 1731
-178.419 -388.19 1731
-174.582 -388.863 1734
-170.632 -389.312 1736
-166.48 -389.312 1736
-162.516 -389.76 1738
-158.542 -390.209 1740
-154.381 -390.209 1740
-150.22 -390.209 1740
-146.143 -390.433 1741
-141.98 -390.433 1741
-137.975 -390.881 1743
-133.807 -390.881 1743
-129.788 -391.33 1745
-125.759 -391.778 1747
-121.582 -391.778 1747
-117.404 -391.778 1747
-113.356 -392.227 1749
-109.298 -392.675 1751
-105.171 -392.9 1752
-100.982 -392.9 1752
-96.7921 -392.9 1752
-92.6025 -392.9 1752
-88.413 -392.9 1752
-84.2234 -392.9 1752
-80.0339 -392.9 1752
-75.9309 -393.348 1754
-71.7365 -393.348 1754
-67.5422 -393.348 1754
-63.3478 -393.348 1754
-59.1535 -393.348 1754
-54.9591 -393.348 1754
-50.7648 -393.348 1754
-46.6235 -393.797 1756
-42.4244 -393.797 1756
-38.2688 -394.245 1758
-34.0649 -394.245 1758
-29.9799 -395.815 1765
-25.7884 -396.264 1767
-21.563 -396.264 1767
-17.3376 -396.264 1767
-13.1121 -396.264 1767
-8.88672 -396.264 1767
47.6474 -912.505 4069
57.3776 -912.505 4069
67.1078 -912.505 4069
76.6492 -910.262 4059
86.3555 -910.262 4059
95.8251 -908.02 4049
105.508 -908.02 4049
115.19 -908.02 4049
124.872 -908.02 4049
134.555 -908.02 4049
142.171 -895.013 3991
151.715 -895.013 3991
160.895 -892.995 3982
170.417 -892.995 3982
179.939 -892.995 3982
188.557 -888.734 3963
196.635 -882.454 3935
206.044 -882.454 3935
214.907 -880.212 3925
224.293 -880.212 3925
230.999 -870.12 3880
240.278 -870.12 3880
337.574 -858.01 3826
350.801 -868.102 3871
360.058 -868.102 3871
369.315 -868.102 3871
378.571 -868.102 3871
387.828 -868.102 3871
398.008 -870.12 3880
407.286 -870.12 3880
420.43 -878.194 3916
429.794 -878.194 3916
439.158 -878.194 3916
444.399 -870.12 3880
452.625 -868.102 3871
458.66 -862.047 3844
467.852 -862.047 3844
477.045 -862.047 3844
485.098 -860.029 3835
493.109 -858.01 3826
502.258 -858.01 3826
510.338 -856.216 3818
519.468 -856.216 3818
1725.05 -899.274 4010
1734.64 -899.274 4010
1744.23 -899.274 4010
1749.88 -897.255 4001
1742.74 -888.734 3963
1752.22 -888.734 3963
1753.25 -884.473 3944
1771.17 -888.734 3963
1784.69 -890.752 3972
1794.19 -890.752 3972
1803.69 -890.752 3972
1809.08 -888.734 3963
1792.86 -876.175 3907
1802.2 -876.175 3907
1799.02 -870.12 3880
1795.72 -864.065 3853
1856.46 -888.734 3963
1874.89 -892.995 3982
1884.41 -892.995 3982
1893.93 -892.995 3982
1903.45 -892.995 3982
3108.41 -916.99 4089
3118.19 -916.99 4089
3127.96 -916.99 4089
-2504.17 -820.669 3699
-2495.32 -820.669 3699
-2486.48 -820.669 3699
-2477.63 -820.669 3699
-2463.45 -818.894 3691
-2449.3 -817.119 3683
-2440.49 -817.119 3683
-2409.9 -809.797 3650
-2395.91 -808.022 3642
-2377.37 -804.695 3627
-2363.47 -802.92 3619
-2354.81 -802.92 3619
-2340.97 -801.145 3611
-2332.34 -801.145 3611
-2318.56 -799.37 3603
-2309.94 -799.37 3603
-2301.32 -799.37 3603
-2272.98 -792.492 3572
-2260 -790.939 3565
-2251.48 -790.939 3565
-2214.64 -780.955 3520
-652.178 -411.333 1854
-647.745 -411.333 1854
-643.311 -411.333 1854
-638.189 -410.889 1852
-630.68 -408.892 1843
-624.234 -407.561 1837
-619.841 -407.561 1837
-615.448 -407.561 1837
-609.06 -406.23 1831
-602.039 -404.455 1823
-597.68 -404.455 1823
-592.67 -404.011 1821
-587.023 -403.124 1817
-580.754 -401.793 1811
-572.922 -399.352 1800
-568.618 -399.352 1800
-562.432 -398.021 1794
-555.031 -395.802 1784
-548.604 -394.249 1777
-544.355 -394.249 1777
-535.546 -390.921 1762
-529.523 -389.59 1756
-522.632 -387.593 1747
-518.454 -387.593 1747
-512.51 -386.262 1741
-507.471 -385.597 1738
-501.288 -384.044 1731
-497.148 -384.044 1731
-491.87 -383.156 1727
-486.61 -382.269 1723
-481.09 -381.159 1718
-476.427 -380.716 1716
-472.323 -380.716 1716
-467.401 -380.05 1713
-463.305 -380.05 1713
-458.136 -379.163 1709
-454.049 -379.163 1709
-449.963 -379.163 1709
-445.876 -379.163 1709
-441.789 -379.163 1709
-437.702 -379.163 1709
-433.362 -378.941 1708
-429.278 -378.941 1708
-425.193 -378.941 1708
-421.109 -378.941 1708
-416.536 -378.497 1706
-411.973 -378.053 1704
-407.898 -378.053 1704
-403.824 -378.053 1704
-399.28 -377.61 1702
-395.21 -377.61 1702
-390.91 -377.388 1701
-386.842 -377.388 1701
-382.775 -377.388 1701
-378.707 -377.388 1701
-374.199 -376.944 1699
-370.136 -376.944 1699
-366.073 -376.944 1699
-361.584 -376.5 1697
-357.526 -376.5 1697
-353.468 -376.5 1697
-348.998 -376.057 1695
-344.945 -376.057 1695
-340.691 -375.835 1694
-336.242 -375.391 1692
-332.196 -375.391 1692
-327.762 -374.947 1690
-323.721 -374.947 1690
-319.491 -374.725 1689
-315.452 -374.725 1689
-311.413 -374.725 1689
-307.374 -374.725 1689
-302.976 -374.282 1687
-298.942 -374.282 1687
-294.907 -374.282 1687
-290.873 -374.282 1687
-286.839 -374.282 1687
-282.805 -374.282 1687
-278.771 -374.282 1687
-274.737 -374.282 1687
-270.703 -374.282 1687
-266.985 -374.725 1689
-262.946 -374.725 1689
-258.907 -374.725 1689
-255.019 -374.947 1690
-251.572 -375.835 1694
-247.521 -375.835 1694
-243.614 -376.057 1695
-240.408 -377.388 1701
-236.758 -378.053 1704
-232.683 -378.053 1704
-229.145 -378.941 1708
-225.192 -379.163 1709
-221.623 -380.05 1713
-217.527 -380.05 1713
-213.679 -380.494 1715
-209.945 -381.159 1718
-206.076 -381.603 1720
-201.963 -381.603 1720
-198.08 -382.047 1722
-194.3 -382.712 1725
-190.396 -383.156 1727
-186.482 -383.6 1729
-182.347 -383.6 1729
-178.419 -384.044 1731
-174.783 -385.153 1736
-170.632 -385.153 1736
-166.48 -385.153 1736
-162.516 -385.597 1738
-158.542 -386.04 1740
-154.47 -386.262 1741
-150.307 -386.262 1741
-146.143 -386.262 1741
-142.143 -386.706 1743
-138.134 -387.15 1745
-133.961 -387.15 1745
-129.937 -387.593 1747
-125.759 -387.593 1747
-121.582 -387.593 1747
-117.404 -387.593 1747
-113.356 -388.037 1749
-109.361 -388.703 1752
-105.171 -388.703 1752
-100.982 -388.703 1752
-96.7921 -388.703 1752
-92.6025 -388.703 1752
-88.413 -388.703 1752
-84.2234 -388.703 1752
-80.0339 -388.703 1752
-75.9309 -389.146 1754
-71.7365 -389.146 1754
-67.5422 -389.146 1754
-63.3478 -389.146 1754
-59.1535 -389.146 1754
-54.9591 -389.146 1754
-50.7648 -389.146 1754
-46.6767 -390.034 1758
-42.4727 -390.034 1758
-38.3124 -390.478 1760
-34.1037 -390.478 1760
-30.0139 -392.031 1767
-25.7884 -392.031 1767
-21.563 -392.031 1767
-17.3376 -392.031 1767
-13.1121 -392.031 1767
-8.87666 -391.587 1765
47.6474 -902.758 4069
57.3776 -902.758 4069
67.1078 -902.758 4069
76.6492 -900.539 4059
86.3555 -900.539 4059
95.8251 -898.32 4049
105.508 -898.32 4049
115.19 -898.32 4049
124.564 -896.102 4039
134.222 -896.102 4039
142.171 -885.452 3991
151.715 -885.452 3991
161.662 -887.671 4001
171.23 -887.671 4001
180.798 -887.671 4001
189.461 -883.456 3982
198.034 -879.24 3963
207.511 -879.24 3963
215.454 -873.028 3935
224.864 -873.028 3935
232.071 -864.819 3898
241.392 -864.819 3898
342.338 -860.826 3880
351.617 -860.826 3880
360.895 -860.826 3880
369.315 -858.829 3871
378.571 -858.829 3871
387.828 -858.829 3871
398.008 -860.826 3880
407.286 -860.826 3880
416.564 -860.826 3880
425.843 -860.826 3880
435.121 -860.826 3880
443.368 -858.829 3871
451.573 -856.832 3862
458.66 -852.839 3844
467.852 -852.839 3844
477.045 -852.839 3844
483.96 -848.845 3826
493.109 -848.845 3826
502.258 -848.845 3826
511.407 -848.845 3826
519.468 -847.07 3818
1729.36 -891.886 4020
1738.97 -891.886 4020
1748.58 -891.886 4020
1749.88 -887.671 4001
1742.74 -879.24 3963
1752.22 -879.24 3963
1753.25 -875.025 3944
1775.19 -881.237 3972
1793.23 -885.452 3991
1802.77 -885.452 3991
1812.32 -885.452 3991
1809.08 -879.24 3963
1792.86 -866.816 3907
1802.2 -866.816 3907
1799.02 -860.826 3880
1795.72 -854.835 3853
1856.46 -879.24 3963
1874.89 -883.456 3982
1884.41 -883.456 3982
1893.93 -883.456 3982
1903.45 -883.456 3982
3108.41 -907.195 4089
3118.19 -907.195 4089
3127.96 -907.195 4089
-2500.04 -804.785 3667
-2491.27 -804.785 3667
-2498.75 -810.052 3691
-2495.32 -811.808 3699
-2486.48 -811.808 3699
-2477.63 -811.808 3699
-2463.45 -810.052 3691
-2454.62 -810.052 3691
-2445.8 -810.052 3691
-2409.9 -801.054 3650
-2395.91 -799.298 3642
-2366.88 -792.495 3611
-2358.24 -792.495 3611
-2349.61 -792.495 3611
-2330.6 -788.983 3595
-2322.01 -788.983 3595
-2308.9 -787.447 3588
-2300.32 -787.447 3588
-2281.52 -783.935 3572
-2268.53 -782.399 3565
-2226.4 -770.767 3512
-2218.01 -770.767 3512
-652.178 -406.891 1854
-647.745 -406.891 1854
-643.311 -406.891 1854
-638.189 -406.452 1852
-630.68 -404.477 1843
-624.234 -403.16 1837
-619.841 -403.16 1837
-615.448 -403.16 1837
-609.06 -401.844 1831
-602.039 -400.088 1823
-597.68 -400.088 1823
-592.67 -399.649 1821
-587.023 -398.771 1817
-580.754 -397.454 1811
-572.922 -395.04 1800
-568.618 -395.04 1800
-562.432 -393.723 1794
-555.031 -391.529 1784
-548.604 -389.992 1777
-544.355 -389.992 1777
-535.546 -386.7 1762
-529.523 -385.384 1756
-522.632 -383.408 1747
-518.454 -383.408 1747
-512.51 -382.092 1741
-507.471 -381.433 1738
-501.288 -379.897 1731
-497.148 -379.897 1731
-491.87 -379.019 1727
-486.61 -378.141 1723
-481.09 -377.044 1718
-476.427 -376.605 1716
-472.323 -376.605 1716
-467.401 -375.947 1713
-463.305 -375.947 1713
-458.136 -375.069 1709
-454.049 -375.069 1709
-449.963 -375.069 1709
-445.876 -375.069 1709
-441.789 -375.069 1709
-437.702 -375.069 1709
-433.362 -374.849 1708
-429.278 -374.849 1708
-425.193 -374.849 1708
-421.109 -374.849 1708
-416.536 -374.41 1706
-411.973 -373.971 1704
-407.898 -373.971 1704
-403.824 -373.971 1704
-399.28 -373.532 1702
-395.21 -373.532 1702
-390.91 -373.313 1701
-386.842 -373.313 1701
-382.775 -373.313 1701
-378.707 -373.313 1701
-374.199 -372.874 1699
-370.136 -372.874 1699
-366.073 -372.874 1699
-361.584 -372.435 1697
-357.526 -372.435 1697
-353.468 -372.435 1697
-348.998 -371.996 1695
-344.945 -371.996 1695
-340.691 -371.777 1694
-336.242 -371.338 1692
-332.196 -371.338 1692
-327.762 -370.899 1690
-323.721 -370.899 1690
-319.491 -370.679 1689
-315.452 -370.679 1689
-311.413 -370.679 1689
-307.374 -370.679 1689
-302.976 -370.24 1687
-298.942 -370.24 1687
-294.907 -370.24 1687
-290.873 -370.24 1687
-286.839 -370.24 1687
-282.805 -370.24 1687
-278.771 -370.24 1687
-274.737 -370.24 1687
-270.703 -370.24 1687
-266.985 -370.679 1689
-262.946 -370.679 1689
-258.907 -370.679 1689
-255.019 -370.899 1690
-251.572 -371.777 1694
-247.521 -371.777 1694
-243.614 -371.996 1695
-240.408 -373.313 1701
-236.758 -373.971 1704
-232.683 -373.971 1704
-229.145 -374.849 1708
-225.192 -375.069 1709
-221.623 -375.947 1713
-217.527 -375.947 1713
-213.679 -376.386 1715
-209.945 -377.044 1718
-206.076 -377.483 1720
-201.963 -377.483 1720
-198.08 -377.922 1722
-194.3 -378.58 1725
-190.396 -379.019 1727
-186.698 -379.897 1731
-182.558 -379.897 1731
-178.522 -380.116 1732
-174.783 -380.994 1736
-170.828 -381.433 1738
-166.672 -381.433 1738
-162.516 -381.433 1738
-158.542 -381.872 1740
-154.47 -382.092 1741
-150.307 -382.092 1741
-146.143 -382.092 1741
-142.143 -382.531 1743
-138.134 -382.97 1745
-133.961 -382.97 1745
-129.937 -383.408 1747
-125.759 -383.408 1747
-121.721 -383.847 1749
-117.538 -383.847 1749
-113.486 -384.286 1751
-109.361 -384.506 1752
-105.171 -384.506 1752
-100.982 -384.506 1752
-96.7921 -384.506 1752
-92.6025 -384.506 1752
-88.413 -384.506 1752
-84.2234 -384.506 1752
-80.0339 -384.506 1752
-75.9309 -384.945 1754
-71.7365 -384.945 1754
-67.5422 -384.945 1754
-63.3478 -384.945 1754
-59.1535 -384.945 1754
-54.9591 -384.945 1754
-50.7648 -384.945 1754
-46.6767 -385.823 1758
-42.4727 -385.823 1758
-38.3124 -386.262 1760
-34.1037 -386.262 1760
-30.0139 -387.798 1767
-25.7884 -387.798 1767
-21.563 -387.798 1767
-17.3376 -387.798 1767
-13.1121 -387.798 1767
-8.87666 -387.359 1765
-4.65073 -386.92 1763
-0.434864 -386.92 1763
47.8816 -897.4 4089
57.6596 -897.4 4089
67.4377 -897.4 4089
76.838 -893.01 4069
86.5682 -893.01 4069
96.0618 -890.816 4059
105.508 -888.621 4049
115.19 -888.621 4049
124.564 -886.426 4039
134.222 -886.426 4039
143.881 -886.426 4039
152.817 -882.256 4020
162.43 -882.256 4020
172.043 -882.256 4020
181.656 -882.256 4020
190.365 -878.087 4001
199.933 -878.087 4001
209.5 -878.087 4001
216.987 -869.747 3963
224.864 -863.602 3935
232.071 -855.482 3898
241.392 -855.482 3898
342.338 -851.531 3880
351.617 -851.531 3880
360.895 -851.531 3880
370.173 -851.531 3880
378.571 -849.556 3871
387.828 -849.556 3871
398.008 -851.531 3880
407.286 -851.531 3880
416.564 -851.531 3880
425.843 -851.531 3880
435.121 -851.531 3880
443.368 -849.556 3871
451.573 -847.581 3862
458.66 -843.63 3844
467.852 -843.63 3844
477.045 -843.63 3844
485.098 -841.655 3835
496.589 -845.606 3853
505.803 -845.606 3853
515.016 -845.606 3853
524.23 -845.606 3853
1729.36 -882.256 4020
1738.97 -882.256 4020
1748.58 -882.256 4020
1758.19 -882.256 4020
1751.1 -873.917 3982
1764.6 -875.892 3991
1774.14 -875.892 3991
1788.16 -878.087 4001
1810.75 -884.451 4030
1820.39 -884.451 4030
1830.03 -884.451 4030
1835.1 -882.256 4020
3108.41 -897.4 4089
3118.19 -897.4 4089
3127.96 -897.4 4089
-2500.04 -796 3667
-2491.27 -796 3667
-2498.75 -801.21 3691
-2495.32 -802.947 3699
-2486.48 -802.947 3699
-2477.63 -802.947 3699
-2463.45 -801.21 3691
-2454.62 -801.21 3691
-2445.8 -801.21 3691
-2415.18 -794.047 3658
-2395.91 -790.574 3642
-2366.88 -783.844 3611
-2358.24 -783.844 3611
-2349.61 -783.844 3611
-2330.6 -780.371 3595
-2322.01 -780.371 3595
-2308.9 -778.852 3588
-2300.32 -778.852 3588
-2281.52 -775.379 3572
-2268.53 -773.859 3565
-2226.4 -762.354 3512
-2218.01 -762.354 3512
-643.902 -400.062 1843
-639.495 -400.062 1843
-635.087 -400.062 1843
-629.996 -399.628 1841
-624.234 -398.76 1837
-619.841 -398.76 1837
-614.108 -397.892 1833
-609.06 -397.458 1831
-601.379 -395.287 1821
-597.024 -395.287 1821
-592.019 -394.853 1819
-585.731 -393.55 1813
-580.112 -392.682 1809
-571.649 -389.86 1796
-567.354 -389.86 1796
-560.551 -388.123 1788
-553.475 -386.17 1779
-547.369 -384.867 1773
-543.129 -384.867 1773
-534.33 -381.611 1758
-528.317 -380.309 1752
-522.033 -378.789 1745
-517.861 -378.789 1745
-512.216 -377.704 1740
-506.303 -376.402 1734
-500.709 -375.316 1729
-496.574 -375.316 1729
-491.3 -374.448 1725
-486.61 -374.014 1723
-480.53 -372.494 1716
-476.427 -372.494 1716
-472.323 -372.494 1716
-467.401 -371.843 1713
-463.305 -371.843 1713
-458.136 -370.975 1709
-454.049 -370.975 1709
-449.963 -370.975 1709
-445.876 -370.975 1709
-441.789 -370.975 1709
-437.702 -370.975 1709
-433.362 -370.758 1708
-429.278 -370.758 1708
-424.695 -370.324 1706
-420.616 -370.324 1706
-416.048 -369.889 1704
-411.973 -369.889 1704
-407.42 -369.455 1702
-403.35 -369.455 1702
-399.28 -369.455 1702
-395.21 -369.455 1702
-390.91 -369.238 1701
-386.842 -369.238 1701
-382.325 -368.804 1699
-378.262 -368.804 1699
-374.199 -368.804 1699
-370.136 -368.804 1699
-366.073 -368.804 1699
-361.584 -368.37 1697
-357.105 -367.936 1695
-353.052 -367.936 1695
-348.998 -367.936 1695
-344.742 -367.719 1694
-340.288 -367.285 1692
-336.242 -367.285 1692
-332.196 -367.285 1692
-327.762 -366.85 1690
-323.721 -366.85 1690
-319.491 -366.633 1689
-315.452 -366.633 1689
-311.413 -366.633 1689
-307.01 -366.199 1687
-302.976 -366.199 1687
-298.942 -366.199 1687
-294.907 -366.199 1687
-290.873 -366.199 1687
-286.499 -365.765 1685
-282.47 -365.765 1685
-278.44 -365.765 1685
-274.411 -365.765 1685
-270.703 -366.199 1687
-266.669 -366.199 1687
-262.634 -366.199 1687
-258.907 -366.633 1689
-254.868 -366.633 1689
-251.275 -367.285 1692
-247.229 -367.285 1692
-243.614 -367.936 1695
-240.408 -369.238 1701
-236.758 -369.889 1704
-232.683 -369.889 1704
-229.145 -370.758 1708
-225.192 -370.975 1709
-221.623 -371.843 1713
-217.527 -371.843 1713
-213.679 -372.277 1715
-209.945 -372.928 1718
-206.076 -373.363 1720
-201.963 -373.363 1720
-198.08 -373.797 1722
-194.3 -374.448 1725
-190.396 -374.882 1727
-186.698 -375.75 1731
-182.558 -375.75 1731
-178.522 -375.967 1732
-174.783 -376.836 1736
-170.828 -377.27 1738
-166.672 -377.27 1738
-162.516 -377.27 1738
-158.542 -377.704 1740
-154.47 -377.921 1741
-150.307 -377.921 1741
-146.143 -377.921 1741
-142.143 -378.355 1743
-138.134 -378.789 1745
-133.961 -378.789 1745
-129.937 -379.224 1747
-125.759 -379.224 1747
-121.721 -379.658 1749
-117.538 -379.658 1749
-113.486 -380.092 1751
-109.361 -380.309 1752
-105.171 -380.309 1752
-100.982 -380.309 1752
-96.7921 -380.309 1752
-92.6025 -380.309 1752
-88.413 -380.309 1752
-84.2234 -380.309 1752
-80.0339 -380.309 1752
-75.9309 -380.743 1754
-71.7365 -380.743 1754
-67.5422 -380.743 1754
-63.3478 -380.743 1754
-59.1535 -380.743 1754
-54.9591 -380.743 1754
-50.7648 -380.743 1754
-46.6767 -381.611 1758
-42.4727 -381.611 1758
-38.3124 -382.045 1760
-34.1037 -382.045 1760
-30.0139 -383.565 1767
-25.7884 -383.565 1767
-21.563 -383.565 1767
-17.3376 -383.565 1767
-13.1121 -383.565 1767
-8.87666 -383.131 1765
-4.65073 -382.697 1763
-0.434864 -382.697 1763
47.8816 -887.604 4089
57.6596 -887.604 4089
67.4377 -887.604 4089
76.838 -883.263 4069
86.5682 -883.263 4069
96.0618 -881.092 4059
105.508 -878.922 4049
115.19 -878.922 4049
124.564 -876.751 4039
134.222 -876.751 4039
143.881 -876.751 4039
152.817 -872.627 4020
162.43 -872.627 4020
172.043 -872.627 4020
181.656 -872.627 4020
190.365 -868.502 4001
199.933 -868.502 4001
209.5 -868.502 4001
216.987 -860.253 3963
224.864 -854.175 3935
232.071 -846.144 3898
241.392 -846.144 3898
342.338 -842.237 3880
351.617 -842.237 3880
360.895 -842.237 3880
370.173 -842.237 3880
377.691 -838.329 3862
386.926 -838.329 3862
398.008 -842.237 3880
407.286 -842.237 3880
416.564 -842.237 3880
423.867 -838.329 3862
433.102 -838.329 3862
442.338 -838.329 3862
451.573 -838.329 3862
458.66 -834.422 3844
467.852 -834.422 3844
477.045 -834.422 3844
485.098 -832.468 3835
496.589 -836.376 3853
505.803 -836.376 3853
515.016 -836.376 3853
524.23 -836.376 3853
1729.36 -872.627 4020
1738.97 -872.627 4020
1748.58 -872.627 4020
1758.19 -872.627 4020
1751.1 -864.378 3982
1764.6 -866.331 3991
1774.14 -866.331 3991
1788.16 -868.502 4001
1810.75 -874.797 4030
1820.39 -874.797 4030
1830.03 -874.797 4030
1835.1 -872.627 4020
3093.2 -883.263 4069
3102.93 -883.263 4069
3112.66 -883.263 4069
-2500.04 -787.216 3667
-2491.27 -787.216 3667
-2493.34 -790.651 3683
-2489.93 -792.368 3691
-2481.1 -792.368 3691
-2472.27 -792.368 3691
-2463.45 -792.368 3691
-2454.62 -792.368 3691
-2445.8 -792.368 3691
-2415.18 -785.284 3658
-2391.3 -780.346 3635
-2366.88 -775.194 3611
-2353.02 -773.477 3603
-2344.4 -773.477 3603
-2330.6 -771.759 3595
-2317.48 -770.257 3588
-2298.61 -766.822 3572
-2290.07 -766.822 3572
-2271.94 -763.602 3557
-2244.35 -757.161 3527
-2226.4 -753.941 3512
-2218.01 -753.941 3512
-643.203 -395.218 1841
-638.801 -395.218 1841
-634.398 -395.218 1841
-628.627 -394.359 1837
-623.554 -393.93 1835
-619.166 -393.93 1835
-614.108 -393.501 1833
-608.395 -392.642 1829
-601.379 -390.925 1821
-597.024 -390.925 1821
-592.019 -390.495 1819
-585.084 -388.778 1811
-579.471 -387.919 1807
-571.012 -385.128 1794
-566.722 -385.128 1794
-560.551 -383.84 1788
-553.475 -381.908 1779
-547.369 -380.62 1773
-543.129 -380.62 1773
-534.938 -377.829 1760
-528.92 -376.541 1754
-522.033 -374.609 1745
-517.861 -374.609 1745
-512.216 -373.536 1740
-507.471 -373.106 1738
-500.709 -371.174 1729
-496.574 -371.174 1729
-491.3 -370.316 1725
-486.328 -369.672 1722
-480.53 -368.384 1716
-476.427 -368.384 1716
-472.323 -368.384 1716
-467.401 -367.74 1713
-463.305 -367.74 1713
-458.136 -366.881 1709
-454.049 -366.881 1709
-449.963 -366.881 1709
-445.876 -366.881 1709
-441.789 -366.881 1709
-437.702 -366.881 1709
-433.362 -366.666 1708
-429.278 -366.666 1708
-424.695 -366.237 1706
-420.616 -366.237 1706
-416.048 -365.807 1704
-411.973 -365.807 1704
-407.42 -365.378 1702
-403.35 -365.378 1702
-399.28 -365.378 1702
-395.21 -365.378 1702
-390.91 -365.163 1701
-386.842 -365.163 1701
-382.325 -364.734 1699
-378.262 -364.734 1699
-374.199 -364.734 1699
-370.136 -364.734 1699
-366.073 -364.734 1699
-361.584 -364.305 1697
-357.105 -363.875 1695
-353.052 -363.875 1695
-348.792 -363.661 1694
-344.742 -363.661 1694
-340.288 -363.231 1692
-335.845 -362.802 1690
-331.804 -362.802 1690
-327.762 -362.802 1690
-323.529 -362.587 1689
-319.491 -362.587 1689
-315.452 -362.587 1689
-311.044 -362.158 1687
-307.01 -362.158 1687
-302.976 -362.158 1687
-298.942 -362.158 1687
-294.907 -362.158 1687
-290.529 -361.729 1685
-286.159 -361.299 1683
-282.135 -361.299 1683
-278.11 -361.299 1683
-274.085 -361.299 1683
-270.382 -361.729 1685
-266.669 -362.158 1687
-262.634 -362.158 1687
-258.6 -362.158 1687
-254.868 -362.587 1689
-251.275 -363.231 1692
-247.229 -363.231 1692
-243.614 -363.875 1695
-240.126 -364.734 1699
-236.758 -365.807 1704
-232.683 -365.807 1704
-229.145 -366.666 1708
-225.192 -366.881 1709
-221.623 -367.74 1713
-217.527 -367.74 1713
-213.679 -368.169 1715
-209.945 -368.813 1718
-206.076 -369.242 1720
-201.963 -369.242 1720
-198.08 -369.672 1722
-194.3 -370.316 1725
-190.616 -371.174 1729
-186.698 -371.604 1731
-182.558 -371.604 1731
-178.522 -371.818 1732
-174.984 -373.106 1738
-170.828 -373.106 1738
-166.672 -373.106 1738
-162.703 -373.536 1740
-158.633 -373.751 1741
-154.47 -373.751 1741
-150.307 -373.751 1741
-146.311 -374.18 1743
-142.306 -374.609 1745
-138.292 -375.039 1747
-134.114 -375.039 1747
-129.937 -375.039 1747
-125.903 -375.468 1749
-121.86 -375.897 1751
-117.673 -375.897 1751
-113.486 -375.897 1751
-109.361 -376.112 1752
-105.171 -376.112 1752
-100.982 -376.112 1752
-96.7921 -376.112 1752
-92.7082 -376.541 1754
-88.5139 -376.541 1754
-84.3196 -376.541 1754
-80.1252 -376.541 1754
-75.9309 -376.541 1754
-71.7365 -376.541 1754
-67.5422 -376.541 1754
-63.3478 -376.541 1754
-59.1535 -376.541 1754
-54.9591 -376.541 1754
-50.7648 -376.541 1754
-46.6767 -377.4 1758
-42.4727 -377.4 1758
-38.3124 -377.829 1760
-34.1037 -377.829 1760
-29.9799 -378.903 1765
-25.7593 -378.903 1765
-21.5386 -378.903 1765
-17.318 -378.903 1765
-13.0973 -378.903 1765
-8.87666 -378.903 1765
-4.65601 -378.903 1765
-0.435358 -378.903 1765
47.8816 -877.809 4089
57.6596 -877.809 4089
67.4377 -877.809 4089
77.0269 -875.662 4079
86.781 -875.662 4079
96.0618 -871.369 4059
105.508 -869.222 4049
115.19 -869.222 4049
124.564 -867.075 4039
134.222 -867.075 4039
143.881 -867.075 4039
153.197 -865.143 4030
162.43 -862.997 4020
172.471 -865.143 4030
182.108 -865.143 4030
191.745 -865.143 4030
201.382 -865.143 4030
211.019 -865.143 4030
219.561 -860.85 4010
229.15 -860.85 4010
345.515 -840.67 3916
354.879 -840.67 3916
364.243 -840.67 3916
373.608 -840.67 3916
379.451 -832.942 3880
386.926 -829.078 3862
399.854 -836.806 3898
409.176 -836.806 3898
418.497 -836.806 3898
427.818 -836.806 3898
437.14 -836.806 3898
446.461 -836.806 3898
455.782 -836.806 3898
461.882 -831.01 3871
471.139 -831.01 3871
480.395 -831.01 3871
489.652 -831.01 3871
498.909 -831.01 3871
510.529 -834.874 3889
519.828 -834.874 3889
529.128 -834.874 3889
1741.83 -869.222 4049
1751.51 -869.222 4049
1761.2 -869.222 4049
1770.88 -869.222 4049
1767.81 -862.997 4020
1777.42 -862.997 4020
1787.03 -862.997 4020
1801.12 -865.143 4030
1814.8 -867.075 4039
1824.46 -867.075 4039
1834.11 -867.075 4039
1843.77 -867.075 4039
1844.71 -862.997 4020
1854.32 -862.997 4020
3078 -869.222 4049
3087.68 -869.222 4049
3097.36 -869.222 4049
-2493.34 -781.828 3683
-2506.79 -788.833 3716
-2503.28 -790.532 3724
-2494.38 -790.532 3724
-2485.47 -790.532 3724
-2471.25 -788.833 3716
-2462.36 -788.833 3716
-2436.97 -783.526 3691
-2406.43 -776.521 3658
-2382.61 -771.639 3635
-2358.24 -766.544 3611
-2349.61 -766.544 3611
-2340.97 -766.544 3611
-2327.17 -764.846 3603
-2308.9 -761.662 3588
-2300.32 -761.662 3588
-2281.52 -758.265 3572
-2268.53 -756.779 3565
-2240.35 -750.198 3534
-2231.9 -750.198 3534
-643.203 -390.808 1841
-638.801 -390.808 1841
-634.398 -390.808 1841
-629.311 -390.383 1839
-623.554 -389.534 1835
-619.166 -389.534 1835
-614.108 -389.11 1833
-608.395 -388.261 1829
-600.718 -386.138 1819
-596.369 -386.138 1819
-591.368 -385.713 1817
-584.438 -384.015 1809
-578.83 -383.166 1805
-571.012 -380.831 1794
-566.722 -380.831 1794
-560.551 -379.557 1788
-553.787 -377.859 1780
-547.369 -376.373 1773
-543.129 -376.373 1773
-534.938 -373.613 1760
-529.523 -372.764 1756
-522.632 -370.854 1747
-518.454 -370.854 1747
-512.51 -369.58 1741
-508.055 -369.368 1740
-500.709 -367.033 1729
-496.574 -367.033 1729
-491.87 -366.608 1727
-486.61 -365.759 1723
-481.09 -364.697 1718
-476.427 -364.273 1716
-472.323 -364.273 1716
-467.947 -364.061 1715
-463.305 -363.636 1713
-458.672 -363.212 1711
-454.581 -363.212 1711
-449.963 -362.787 1709
-445.876 -362.787 1709
-441.789 -362.787 1709
-437.702 -362.787 1709
-433.362 -362.575 1708
-429.278 -362.575 1708
-424.695 -362.15 1706
-420.616 -362.15 1706
-416.048 -361.726 1704
-411.973 -361.726 1704
-407.42 -361.301 1702
-403.35 -361.301 1702
-399.28 -361.301 1702
-395.21 -361.301 1702
-390.91 -361.089 1701
-386.842 -361.089 1701
-382.325 -360.664 1699
-378.262 -360.664 1699
-374.199 -360.664 1699
-370.136 -360.664 1699
-366.073 -360.664 1699
-361.584 -360.24 1697
-357.105 -359.815 1695
-353.052 -359.815 1695
-348.792 -359.603 1694
-344.335 -359.178 1692
-340.288 -359.178 1692
-335.845 -358.754 1690
-331.804 -358.754 1690
-327.568 -358.541 1689
-323.529 -358.541 1689
-319.491 -358.541 1689
-315.452 -358.541 1689
-311.044 -358.117 1687
-307.01 -358.117 1687
-302.976 -358.117 1687
-298.942 -358.117 1687
-294.558 -357.692 1685
-290.529 -357.692 1685
-286.159 -357.268 1683
-282.135 -357.268 1683
-278.11 -357.268 1683
-274.085 -357.268 1683
-270.382 -357.692 1685
-266.352 -357.692 1685
-262.323 -357.692 1685
-258.6 -358.117 1687
-254.868 -358.541 1689
-251.275 -359.178 1692
-247.229 -359.178 1692
-243.614 -359.815 1695
-240.126 -360.664 1699
-236.758 -361.726 1704
-232.683 -361.726 1704
-229.145 -362.575 1708
-225.192 -362.787 1709
-221.623 -363.636 1713
-217.527 -363.636 1713
-213.679 -364.061 1715
-210.189 -365.122 1720
-206.316 -365.547 1722
-202.198 -365.547 1722
-198.195 -365.759 1723
-194.751 -367.033 1729
-190.837 -367.457 1731
-186.805 -367.669 1732
-182.664 -367.669 1732
-178.934 -368.519 1736
-174.984 -368.943 1738
-171.025 -369.368 1740
-166.864 -369.368 1740
-162.797 -369.58 1741
-158.633 -369.58 1741
-154.647 -370.004 1743
-150.479 -370.004 1743
-146.479 -370.429 1745
-142.47 -370.854 1747
-138.292 -370.854 1747
-134.114 -370.854 1747
-130.085 -371.278 1749
-126.047 -371.703 1751
-121.86 -371.703 1751
-117.673 -371.703 1751
-113.55 -371.915 1752
-109.361 -371.915 1752
-105.291 -372.34 1754
-101.097 -372.34 1754
-96.9026 -372.34 1754
-92.7082 -372.34 1754
-88.5139 -372.34 1754
-84.3196 -372.34 1754
-80.1252 -372.34 1754
-75.9309 -372.34 1754
-71.7365 -372.34 1754
-67.5422 -372.34 1754
-63.2756 -371.915 1752
-59.086 -371.915 1752
-54.9591 -372.34 1754
-50.7648 -372.34 1754
-46.6235 -372.764 1756
-42.4727 -373.189 1758
-38.2688 -373.189 1758
-34.0649 -373.189 1758
-29.861 -373.189 1758
-25.7593 -374.675 1765
-21.5386 -374.675 1765
-17.318 -374.675 1765
-13.0973 -374.675 1765
-8.87666 -374.675 1765
-4.65601 -374.675 1765
-0.435358 -374.675 1765
47.8816 -868.014 4089
57.6596 -868.014 4089
67.4377 -868.014 4089
77.0269 -865.891 4079
86.781 -865.891 4079
96.0618 -861.646 4059
105.508 -859.523 4049
114.905 -857.4 4039
124.564 -857.4 4039
134.222 -857.4 4039
143.881 -857.4 4039
153.539 -857.4 4039
163.198 -857.4 4039
173.284 -859.523 4049
182.967 -859.523 4049
192.649 -859.523 4049
201.832 -857.4 4039
211.49 -857.4 4039
220.108 -853.367 4020
229.15 -851.244 4010
345.515 -831.289 3916
354.879 -831.289 3916
364.243 -831.289 3916
373.608 -831.289 3916
379.451 -823.647 3880
399.854 -827.468 3898
409.176 -827.468 3898
419.463 -829.379 3907
428.806 -829.379 3907
438.149 -829.379 3907
447.492 -829.379 3907
455.782 -827.468 3898
465.103 -827.468 3898
474.425 -827.468 3898
480.395 -821.737 3871
491.929 -825.558 3889
502.389 -827.468 3898
512.891 -829.379 3907
522.234 -829.379 3907
531.577 -829.379 3907
1741.83 -859.523 4049
1751.51 -859.523 4049
1761.2 -859.523 4049
1770.88 -859.523 4049
1767.81 -853.367 4020
1777.42 -853.367 4020
1787.03 -853.367 4020
1801.12 -855.489 4030
1814.8 -857.4 4039
1824.46 -857.4 4039
1834.11 -857.4 4039
1843.77 -857.4 4039
1844.71 -853.367 4020
1854.32 -853.367 4020
3085.6 -861.646 4059
3095.31 -861.646 4059
3105.01 -861.646 4059
-2493.34 -773.006 3683
-2512.19 -781.611 3724
-2508.66 -783.29 3732
-2499.74 -783.29 3732
-2490.81 -783.29 3732
-2481.89 -783.29 3732
-2472.96 -783.29 3732
-2458.76 -781.611 3724
-2433.41 -776.364 3699
-2408.83 -771.326 3675
-2400.04 -771.326 3675
-2380.19 -767.758 3658
-2356.53 -762.931 3635
-2342.67 -761.252 3627
-2318.56 -756.215 3603
-2309.94 -756.215 3603
-2296.21 -754.536 3595
-2268.53 -748.239 3565
-2260 -748.239 3565
-2251.48 -748.239 3565
-643.203 -386.398 1841
-638.801 -386.398 1841
-634.398 -386.398 1841
-629.311 -385.978 1839
-623.554 -385.139 1835
-619.166 -385.139 1835
-614.108 -384.719 1833
-608.395 -383.879 1829
-600.718 -381.78 1819
-596.369 -381.78 1819
-591.368 -381.361 1817
-584.438 -379.682 1809
-578.83 -378.842 1805
-571.012 -376.533 1794
-566.722 -376.533 1794
-560.551 -375.274 1788
-553.787 -373.595 1780
-547.369 -372.126 1773
-543.129 -372.126 1773
-535.546 -369.817 1762
-529.523 -368.558 1756
-522.632 -366.669 1747
-518.454 -366.669 1747
-512.51 -365.409 1741
-508.055 -365.199 1740
-500.709 -362.891 1729
-496.574 -362.891 1729
-491.87 -362.471 1727
-486.61 -361.631 1723
-481.09 -360.582 1718
-476.982 -360.582 1718
-472.874 -360.582 1718
-468.22 -360.162 1716
-463.846 -359.952 1715
-459.208 -359.533 1713
-455.112 -359.533 1713
-450.489 -359.113 1711
-445.876 -358.693 1709
-441.789 -358.693 1709
-437.702 -358.693 1709
-433.616 -358.693 1709
-429.278 -358.483 1708
-424.695 -358.063 1706
-420.616 -358.063 1706
-416.048 -357.644 1704
-411.973 -357.644 1704
-407.42 -357.224 1702
-403.35 -357.224 1702
-399.28 -357.224 1702
-395.21 -357.224 1702
-390.91 -357.014 1701
-386.842 -357.014 1701
-382.325 -356.594 1699
-378.262 -356.594 1699
-374.199 -356.594 1699
-370.136 -356.594 1699
-366.073 -356.594 1699
-361.584 -356.174 1697
-357.105 -355.755 1695
-353.052 -355.755 1695
-348.792 -355.545 1694
-344.335 -355.125 1692
-340.288 -355.125 1692
-335.845 -354.705 1690
-331.804 -354.705 1690
-327.568 -354.495 1689
-323.529 -354.495 1689
-319.491 -354.495 1689
-315.452 -354.495 1689
-311.044 -354.076 1687
-307.01 -354.076 1687
-302.976 -354.076 1687
-298.942 -354.076 1687
-294.558 -353.656 1685
-290.529 -353.656 1685
-286.159 -353.236 1683
-282.135 -353.236 1683
-278.11 -353.236 1683
-274.085 -353.236 1683
-270.382 -353.656 1685
-266.669 -354.076 1687
-262.634 -354.076 1687
-258.6 -354.076 1687
-254.868 -354.495 1689
-251.275 -355.125 1692
-247.229 -355.125 1692
-243.614 -355.755 1695
-240.126 -356.594 1699
-237.035 -358.063 1706
-232.956 -358.063 1706
-229.145 -358.483 1708
-225.192 -358.693 1709
-221.882 -359.952 1715
-217.781 -359.952 1715
-213.804 -360.162 1716
-210.189 -361.002 1720
-206.316 -361.422 1722
-202.198 -361.422 1722
-198.425 -362.051 1725
-194.976 -363.31 1731
-190.947 -363.52 1732
-186.805 -363.52 1732
-182.875 -363.94 1734
-178.934 -364.36 1736
-175.186 -365.199 1740
-171.123 -365.409 1741
-166.96 -365.409 1741
-162.984 -365.829 1743
-158.816 -365.829 1743
-154.825 -366.249 1745
-150.652 -366.249 1745
-146.647 -366.669 1747
-142.47 -366.669 1747
-138.45 -367.088 1749
-134.268 -367.088 1749
-130.234 -367.508 1751
-126.047 -367.508 1751
-121.929 -367.718 1752
-117.74 -367.718 1752
-113.68 -368.138 1754
-109.61 -368.558 1756
-105.411 -368.558 1756
-101.212 -368.558 1756
-97.0131 -368.558 1756
-92.814 -368.558 1756
-88.6148 -368.558 1756
-84.4157 -368.558 1756
-80.2166 -368.558 1756
-76.0174 -368.558 1756
-71.8183 -368.558 1756
-67.5422 -368.138 1754
-63.3478 -368.138 1754
-59.1535 -368.138 1754
-54.9591 -368.138 1754
-50.7648 -368.138 1754
-46.6235 -368.558 1756
-42.4727 -368.977 1758
-38.2688 -368.977 1758
-34.0649 -368.977 1758
-29.861 -368.977 1758
-25.7593 -370.447 1765
-21.5386 -370.447 1765
-17.318 -370.447 1765
-13.0973 -370.447 1765
-8.87666 -370.447 1765
-4.65601 -370.447 1765
-0.435358 -370.447 1765
47.8816 -858.219 4089
57.6596 -858.219 4089
67.4377 -858.219 4089
77.0269 -856.12 4079
86.781 -856.12 4079
96.0618 -851.922 4059
105.508 -849.823 4049
114.905 -847.724 4039
124.564 -847.724 4039
134.222 -847.724 4039
143.881 -847.724 4039
153.539 -847.724 4039
163.198 -847.724 4039
173.284 -849.823 4049
182.967 -849.823 4049
192.649 -849.823 4049
201.832 -847.724 4039
211.49 -847.724 4039
220.108 -843.737 4020
229.15 -841.638 4010
345.515 -821.909 3916
359.138 -831.773 3963
369.452 -833.662 3972
378.951 -833.662 3972
388.449 -833.662 3972
402.624 -823.798 3925
412.01 -823.798 3925
421.396 -823.798 3925
428.806 -820.02 3907
438.149 -820.02 3907
447.492 -820.02 3907
456.835 -820.02 3907
465.103 -818.131 3898
474.425 -818.131 3898
480.395 -812.464 3871
491.929 -816.242 3889
502.389 -818.131 3898
512.891 -820.02 3907
522.234 -820.02 3907
531.577 -820.02 3907
1741.83 -849.823 4049
1751.51 -849.823 4049
1761.2 -849.823 4049
1770.88 -849.823 4049
1767.81 -843.737 4020
1777.42 -843.737 4020
1787.03 -843.737 4020
1801.12 -845.836 4030
1814.8 -847.724 4039
1824.46 -847.724 4039
1834.11 -847.724 4039
1843.77 -847.724 4039
1844.71 -843.737 4020
1854.32 -843.737 4020
3085.6 -851.922 4059
3095.31 -851.922 4059
3105.01 -851.922 4059
-2498.75 -765.843 3691
-2512.19 -772.69 3724
-2508.66 -774.35 3732
-2499.74 -774.35 3732
-2490.81 -774.35 3732
-2481.89 -774.35 3732
-2472.96 -774.35 3732
-2458.76 -772.69 3724
-2444.59 -771.03 3716
-2424.56 -767.503 3699
-2415.71 -767.503 3699
-2391.25 -762.523 3675
-2371.44 -758.996 3658
-2357.53 -757.336 3650
-2334 -752.563 3627
-2325.33 -752.563 3627
-2311.54 -750.904 3619
-2287.62 -745.924 3595
-2269.51 -742.811 3580
-2260.95 -742.811 3580
-642.504 -381.573 1839
-638.107 -381.573 1839
-633.709 -381.573 1839
-629.311 -381.573 1839
-623.554 -380.743 1835
-619.166 -380.743 1835
-614.108 -380.328 1833
-608.395 -379.498 1829
-600.718 -377.423 1819
-596.369 -377.423 1819
-590.066 -376.178 1813
-583.792 -374.933 1807
-577.868 -373.896 1802
-571.012 -372.236 1794
-566.722 -372.236 1794
-559.924 -370.576 1786
-554.409 -369.746 1782
-547.369 -367.878 1773
-543.129 -367.878 1773
-535.546 -365.596 1762
-530.126 -364.766 1758
-522.632 -362.484 1747
-518.454 -362.484 1747
-512.51 -361.239 1741
-508.055 -361.031 1740
-500.709 -358.749 1729
-496.574 -358.749 1729
-491.87 -358.334 1727
-486.61 -357.504 1723
-481.09 -356.467 1718
-476.982 -356.467 1718
-472.874 -356.467 1718
-468.22 -356.052 1716
-463.846 -355.844 1715
-459.208 -355.429 1713
-455.112 -355.429 1713
-450.489 -355.014 1711
-445.876 -354.599 1709
-441.789 -354.599 1709
-437.702 -354.599 1709
-433.616 -354.599 1709
-429.278 -354.392 1708
-424.695 -353.977 1706
-420.616 -353.977 1706
-416.048 -353.562 1704
-411.973 -353.562 1704
-407.42 -353.147 1702
-403.35 -353.147 1702
-399.28 -353.147 1702
-395.21 -353.147 1702
-390.91 -352.939 1701
-386.842 -352.939 1701
-382.325 -352.524 1699
-378.262 -352.524 1699
-374.199 -352.524 1699
-370.136 -352.524 1699
-366.073 -352.524 1699
-361.584 -352.109 1697
-357.105 -351.694 1695
-353.052 -351.694 1695
-348.792 -351.487 1694
-344.335 -351.072 1692
-340.288 -351.072 1692
-335.845 -350.657 1690
-331.804 -350.657 1690
-327.568 -350.449 1689
-323.529 -350.449 1689
-319.112 -350.034 1687
-315.078 -350.034 1687
-311.044 -350.034 1687
-306.646 -349.619 1685
-302.617 -349.619 1685
-298.587 -349.619 1685
-294.558 -349.619 1685
-290.529 -349.619 1685
-286.159 -349.204 1683
-282.135 -349.204 1683
-278.11 -349.204 1683
-274.085 -349.204 1683
-270.382 -349.619 1685
-266.669 -350.034 1687
-262.634 -350.034 1687
-258.6 -350.034 1687
-254.868 -350.449 1689
-251.275 -351.072 1692
-247.229 -351.072 1692
-243.614 -351.694 1695
-240.126 -352.524 1699
-237.035 -353.977 1706
-232.956 -353.977 1706
-229.145 -354.392 1708
-225.192 -354.599 1709
-221.882 -355.844 1715
-217.781 -355.844 1715
-213.804 -356.052 1716
-210.189 -356.882 1720
-206.316 -357.296 1722
-202.198 -357.296 1722
-198.425 -357.919 1725
-194.976 -359.164 1731
-190.947 -359.371 1732
-186.805 -359.371 1732
-182.875 -359.786 1734
-178.934 -360.201 1736
-175.186 -361.031 1740
-171.123 -361.239 1741
-166.96 -361.239 1741
-162.984 -361.654 1743
-158.816 -361.654 1743
-154.825 -362.069 1745
-150.652 -362.069 1745
-146.647 -362.484 1747
-142.47 -362.484 1747
-138.45 -362.899 1749
-134.268 -362.899 1749
-130.234 -363.314 1751
-126.047 -363.314 1751
-121.929 -363.521 1752
-117.74 -363.521 1752
-113.68 -363.936 1754
-109.61 -364.351 1756
-105.411 -364.351 1756
-101.212 -364.351 1756
-97.0131 -364.351 1756
-92.814 -364.351 1756
-88.6148 -364.351 1756
-84.4157 -364.351 1756
-80.2166 -364.351 1756
-76.0174 -364.351 1756
-71.8183 -364.351 1756
-67.5422 -363.936 1754
-63.3478 -363.936 1754
-59.1535 -363.936 1754
-54.9591 -363.936 1754
-50.7648 -363.936 1754
-46.6235 -364.351 1756
-42.4244 -364.351 1756
-38.2253 -364.351 1756
-34.0262 -364.351 1756
-29.827 -364.351 1756
-25.6279 -364.351 1756
-21.4288 -364.351 1756
-17.2689 -365.181 1760
-13.0602 -365.181 1760
-8.85151 -365.181 1760
-4.64282 -365.181 1760
-0.434124 -365.181 1760
47.6474 -844.274 4069
57.3776 -844.274 4069
67.1078 -844.274 4069
76.6492 -842.199 4059
86.3555 -842.199 4059
95.3755 -836.182 4030
105.012 -836.182 4030
114.905 -838.049 4039
124.564 -838.049 4039
134.222 -838.049 4039
143.881 -838.049 4039
153.539 -838.049 4039
163.198 -838.049 4039
173.284 -840.124 4049
182.967 -840.124 4049
192.649 -840.124 4049
201.832 -838.049 4039
211.49 -838.049 4039
220.108 -834.107 4020
229.15 -832.032 4010
359.138 -822.28 3963
369.452 -824.147 3972
378.951 -824.147 3972
388.449 -824.147 3972
402.624 -814.395 3925
412.01 -814.395 3925
421.396 -814.395 3925
428.806 -810.66 3907
438.149 -810.66 3907
447.492 -810.66 3907
456.835 -810.66 3907
465.103 -808.793 3898
474.425 -808.793 3898
480.395 -803.191 3871
491.929 -806.926 3889
502.389 -808.793 3898
512.891 -810.66 3907
522.234 -810.66 3907
531.577 -810.66 3907
1741.83 -840.124 4049
1751.51 -840.124 4049
1761.2 -840.124 4049
1770.88 -840.124 4049
1767.81 -834.107 4020
1777.42 -834.107 4020
1787.03 -834.107 4020
1801.12 -836.182 4030
1814.8 -838.049 4039
1824.46 -838.049 4039
1834.11 -838.049 4039
1843.77 -838.049 4039
1844.71 -834.107 4020
1854.32 -834.107 4020
3085.6 -842.199 4059
3095.31 -842.199 4059
3105.01 -842.199 4059
-2498.75 -757.001 3691
-2512.19 -763.769 3724
-2508.66 -765.41 3732
-2499.74 -765.41 3732
-2490.81 -765.41 3732
-2481.89 -765.41 3732
-2472.96 -765.41 3732
-2458.76 -763.769 3724
-2444.59 -762.128 3716
-2424.56 -758.642 3699
-2415.71 -758.642 3699
-2391.25 -753.719 3675
-2371.44 -750.233 3658
-2357.53 -748.592 3650
-2334 -743.875 3627
-2325.33 -743.875 3627
-2311.54 -742.234 3619
-2287.62 -737.312 3595
-2269.51 -734.236 3580
-2260.95 -734.236 3580
-642.504 -377.167 1839
-638.107 -377.167 1839
-633.709 -377.167 1839
-629.311 -377.167 1839
-623.554 -376.347 1835
-619.166 -376.347 1835
-614.108 -375.937 1833
-607.729 -374.706 1827
-600.718 -373.065 1819
-596.369 -373.065 1819
-590.066 -371.835 1813
-583.792 -370.604 1807
-577.868 -369.579 1802
-571.012 -367.938 1794
-566.722 -367.938 1794
-559.924 -366.297 1786
-554.409 -365.477 1782
-547.369 -363.631 1773
-543.129 -363.631 1773
-535.546 -361.375 1762
-530.126 -360.555 1758
-522.632 -358.299 1747
-518.454 -358.299 1747
-512.216 -356.863 1740
-508.055 -356.863 1740
-501.288 -355.017 1731
-497.148 -355.017 1731
-491.87 -354.197 1727
-486.61 -353.376 1723
-481.09 -352.351 1718
-476.982 -352.351 1718
-472.874 -352.351 1718
-468.22 -351.941 1716
-463.846 -351.736 1715
-459.208 -351.326 1713
-455.112 -351.326 1713
-450.489 -350.915 1711
-446.398 -350.915 1711
-442.306 -350.915 1711
-438.215 -350.915 1711
-433.616 -350.505 1709
-429.278 -350.3 1708
-424.695 -349.89 1706
-420.616 -349.89 1706
-416.048 -349.48 1704
-411.973 -349.48 1704
-407.42 -349.07 1702
-403.35 -349.07 1702
-399.28 -349.07 1702
-395.21 -349.07 1702
-390.91 -348.864 1701
-386.842 -348.864 1701
-382.325 -348.454 1699
-378.262 -348.454 1699
-374.199 -348.454 1699
-370.136 -348.454 1699
-366.073 -348.454 1699
-361.584 -348.044 1697
-357.105 -347.634 1695
-353.052 -347.634 1695
-348.792 -347.429 1694
-344.335 -347.019 1692
-339.886 -346.608 1690
-335.646 -346.403 1689
-331.607 -346.403 1689
-327.568 -346.403 1689
-323.146 -345.993 1687
-319.112 -345.993 1687
-315.078 -345.993 1687
-310.675 -345.583 1685
-306.646 -345.583 1685
-302.617 -345.583 1685
-298.587 -345.583 1685
-294.558 -345.583 1685
-290.184 -345.173 1683
-286.159 -345.173 1683
-282.135 -345.173 1683
-278.11 -345.173 1683
-274.085 -345.173 1683
-270.382 -345.583 1685
-266.669 -345.993 1687
-262.634 -345.993 1687
