ply
format ascii 1.0
comment File generated
element vertex 2243
property float x
property float y
property float z
end_header
-1702.68 360.963 3826
-1693.53 360.963 3826
-1684.38 360.963 3826
-1667.79 359.36 3809
-1658.68 359.36 3809
-1660.83 361.813 3835
-1651.66 361.813 3835
-1642.49 361.813 3835
-1633.32 361.813 3835
-1616.95 360.209 3818
-1589.29 356.058 3774
-1580.27 356.058 3774
-1571.24 356.058 3774
-1558.91 355.303 3766
-1546.2 354.454 3757
-1537.21 354.454 3757
-1514.8 351.34 3724
-1505.9 351.34 3724
-1496.99 351.34 3724
-1488.09 351.34 3724
-1476.01 350.586 3716
-1460.41 348.982 3699
-1448.42 348.227 3691
-1439.6 348.227 3691
-1430.77 348.227 3691
-696.919 177.274 1879
-692.425 177.274 1879
-687.932 177.274 1879
-683.439 177.274 1879
-672.803 175.67 1862
-666.914 175.293 1858
-662.471 175.293 1858
-656.612 174.915 1854
-652.178 174.915 1854
-641.805 173.312 1837
-637.413 173.312 1837
-631.641 172.934 1833
-627.258 172.934 1833
-622.195 172.745 1831
-617.817 172.745 1831
-612.098 172.368 1827
-604.403 171.425 1817
-598.737 171.047 1813
-594.401 171.047 1813
-588.113 170.481 1807
-579.592 169.255 1794
-573.378 168.689 1788
-566.238 167.84 1779
-561.984 167.84 1779
-553.968 166.707 1767
-545.075 165.292 1752
-538.107 164.443 1743
-533.939 164.443 1743
-528.859 164.16 1740
-523.492 163.783 1736
-518.144 163.405 1732
-514.003 163.405 1732
-507.8 162.745 1725
-503.091 162.556 1723
-498.102 162.273 1720
-493.989 162.273 1720
-488.737 161.896 1716
-482.656 161.235 1709
-477.17 160.764 1704
-472.262 160.481 1701
-468.194 160.481 1701
-462.49 159.915 1695
-457.625 159.632 1692
-451.166 158.782 1683
-447.142 158.782 1683
-441.537 158.216 1677
-436.484 157.839 1673
-430.415 157.084 1665
-426.433 157.084 1665
-420.676 156.424 1658
-415.454 155.952 1653
-411.252 155.858 1652
-407.302 155.858 1652
-402.131 155.386 1647
-397.467 155.103 1644
-392.578 154.726 1640
-388.656 154.726 1640
-384.735 154.726 1640
-380.813 154.726 1640
-376.891 154.726 1640
-373.879 155.103 1644
-369.948 155.103 1644
-366.017 155.103 1644
-362.306 155.197 1645
-358.808 155.386 1647
-355.085 155.48 1648
-351.144 155.48 1648
-347.624 155.669 1650
-345.137 156.329 1657
-341.174 156.329 1657
-337.212 156.329 1657
-333.451 156.424 1658
-330.281 156.801 1662
-326.306 156.801 1662
-322.332 156.801 1662
-318.358 156.801 1662
-314.951 157.084 1665
-310.969 157.084 1665
-306.988 157.084 1665
-303.37 157.273 1667
-299.563 157.367 1668
-295.575 157.367 1668
-291.586 157.367 1668
-287.597 157.367 1668
-283.609 157.367 1668
-279.62 157.367 1668
-275.631 157.367 1668
-271.643 157.367 1668
-267.654 157.367 1668
-263.665 157.367 1668
-259.677 157.367 1668
-255.994 157.556 1670
-252.001 157.556 1670
-248.304 157.745 1672
-244.306 157.745 1672
-240.308 157.745 1672
-236.31 157.745 1672
-232.45 157.839 1673
-228.45 157.839 1673
-224.717 158.028 1675
-220.712 158.028 1675
-216.707 158.028 1675
-212.701 158.028 1675
-208.696 158.028 1675
-204.446 157.839 1673
-200.445 157.839 1673
-196.445 157.839 1673
-192.444 157.839 1673
-188.331 157.745 1672
-184.332 157.745 1672
-180.334 157.745 1672
-176.336 157.745 1672
-172.131 157.556 1670
-168.138 157.556 1670
-164.144 157.556 1670
-160.151 157.556 1670
-155.97 157.367 1668
-151.982 157.367 1668
-147.993 157.367 1668
-144.004 157.367 1668
-140.016 157.367 1668
-135.945 157.273 1667
-131.959 157.273 1667
-127.666 156.896 1663
-123.838 157.084 1665
-120 157.273 1667
-116.223 157.556 1670
-112.229 157.556 1670
-108.365 157.745 1672
-104.367 157.745 1672
-100.369 157.745 1672
-96.3706 157.745 1672
-92.3724 157.745 1672
-88.3741 157.745 1672
-198.071 370.304 3925
-188.685 370.304 3925
-179.3 370.304 3925
-169.914 370.304 3925
-160.528 370.304 3925
-150.102 367.756 3898
-140.781 367.756 3898
-130.246 364.36 3862
-122.138 367.756 3898
-112.817 367.756 3898
-103.496 367.756 3898
-94.1745 367.756 3898
-85.0491 368.605 3907
-76.0551 370.304 3925
-66.8391 371.247 3935
-57.4293 371.247 3935
-48.3612 373.889 3963
-39.3456 378.323 4010
-30.0459 382.002 4049
-20.3635 382.002 4049
-10.7603 384.833 4079
-1.00613 384.833 4079
8.74799 384.833 4079
18.5021 384.833 4079
28.0484 382.002 4049
359.897 384.833 4079
369.651 384.833 4079
379.405 384.833 4079
384.484 380.21 4030
389.427 375.681 3982
396.043 372.945 3953
405.496 372.945 3953
405.397 364.36 3862
406.15 356.907 3783
407.843 350.586 3716
416.729 350.586 3716
420.003 345.963 3667
422.224 340.679 3611
423.461 334.83 3549
426.593 330.679 3505
434.974 330.679 3505
435.134 324.546 3440
437.947 320.584 3398
444.235 319.263 3384
452.327 319.263 3384
460.419 319.263 3384
464.773 316.716 3357
471.815 316.055 3350
479.826 316.055 3350
484.924 314.168 3330
500.88 319.263 3384
510.025 319.923 3391
525.621 324.546 3440
533.847 324.546 3440
559.249 334.83 3549
567.736 334.83 3549
576.223 334.83 3549
673.396 374.738 3972
686.161 376.53 3991
695.705 376.53 3991
708.606 378.323 4010
718.195 378.323 4010
727.784 378.323 4010
735.719 377.474 4001
743.423 376.53 3991
751.269 375.681 3982
760.791 375.681 3982
770.313 375.681 3982
776.115 373.889 3963
785.591 373.889 3963
795.068 373.889 3963
798.86 371.247 3935
804.368 369.455 3916
813.732 369.455 3916
823.096 369.455 3916
832.461 369.455 3916
836.021 366.907 3889
837.495 363.511 3853
850.665 365.209 3871
859.921 365.209 3871
869.178 365.209 3871
880.477 366.058 3880
889.756 366.058 3880
907.375 369.455 3916
916.74 369.455 3916
930.597 371.247 3935
951.235 375.681 3982
962.928 376.53 3991
972.472 376.53 3991
984.476 377.474 4001
994.044 377.474 4001
1013.14 381.059 4039
1022.8 381.059 4039
1040.13 383.889 4069
1049.86 383.889 4069
1059.59 383.889 4069
1069.32 383.889 4069
1076.4 382.946 4059
1078.34 380.21 4030
1090.41 381.059 4039
1100.07 381.059 4039
1109.73 381.059 4039
1119.39 381.059 4039
1129.05 381.059 4039
1138.7 381.059 4039
1137.56 377.474 4001
1147.13 377.474 4001
1156.69 377.474 4001
1166.26 377.474 4001
1175.83 377.474 4001
1185.4 377.474 4001
1194.96 377.474 4001
1204.53 377.474 4001
1214.1 377.474 4001
1223.67 377.474 4001
1230.15 376.53 3991
1239.7 376.53 3991
1249.24 376.53 3991
1261.94 377.474 4001
1274.36 378.323 4010
1287.16 379.266 4020
1296.77 379.266 4020
1306.38 379.266 4020
1315.99 379.266 4020
1328.91 380.21 4030
1341.53 381.059 4039
1351.19 381.059 4039
1364.22 382.002 4049
1373.9 382.002 4049
1383.58 382.002 4049
1389.82 381.059 4039
1392.9 379.266 4020
1392.39 376.53 3991
1401.94 376.53 3991
1411.48 376.53 3991
1421.03 376.53 3991
1430.57 376.53 3991
1443.72 377.474 4001
1453.29 377.474 4001
1469.8 379.266 4020
1479.42 379.266 4020
1489.03 379.266 4020
1498.64 379.266 4020
1504.5 378.323 4010
1506.92 376.53 3991
1516.46 376.53 3991
1529.83 377.474 4001
1539.4 377.474 4001
1556.32 379.266 4020
1569.83 380.21 4030
1586.91 382.002 4049
1596.59 382.002 4049
1614.21 383.889 4069
1627.93 384.833 4079
1637.69 384.833 4079
1647.44 384.833 4079
1657.2 384.833 4079
1666.95 384.833 4079
1676.7 384.833 4079
1686.46 384.833 4079
1696.21 384.833 4079
1705.97 384.833 4079
1715.72 384.833 4079
1717.01 382.946 4059
1726.72 382.946 4059
1736.43 382.946 4059
1741.83 382.002 4049
1751.51 382.002 4049
1756.85 381.059 4039
1758.19 379.266 4020
1755.05 376.53 3991
1764.6 376.53 3991
1732.8 367.756 3898
1758.66 371.247 3935
1768.07 371.247 3935
1777.48 371.247 3935
1786.89 371.247 3935
1796.3 371.247 3935
1809.84 372.096 3944
1819.27 372.096 3944
1828.7 372.096 3944
1833.94 371.247 3935
1843.35 371.247 3935
1835.33 367.756 3898
1844.66 367.756 3898
1841.14 365.209 3871
1846.09 364.36 3862
1797.12 344.359 3650
1805.85 344.359 3650
1814.58 344.359 3650
1815.81 342.944 3635
1816.47 341.434 3619
1825.13 341.434 3619
1829.73 340.679 3611
1830.22 339.17 3595
1800.45 332.094 3520
1808.87 332.094 3520
1801.8 329.264 3490
1795.1 326.528 3461
1807.03 327.188 3468
1823.17 328.603 3483
1835.18 329.264 3490
1843.53 329.264 3490
1855.59 329.924 3497
1876.21 332.094 3520
1892.12 333.415 3534
1900.57 333.415 3534
1909.02 333.415 3534
1913.68 332.754 3527
1922.11 332.754 3527
1926.71 332.094 3520
1947.23 334.17 3542
1955.7 334.17 3542
1964.17 334.17 3542
2377.11 378.323 4010
2386.7 378.323 4010
2396.29 378.323 4010
2389.08 375.681 3982
2410.05 377.474 4001
2419.62 377.474 4001
2429.18 377.474 4001
2432.66 376.53 3991
2442.2 376.53 3991
2499.66 383.889 4069
2509.39 383.889 4069
2525.31 384.833 4079
2541.28 385.776 4089
2551.06 385.776 4089
2560.84 385.776 4089
2609.73 385.776 4089
2619.51 385.776 4089
2629.28 385.776 4089
2626.15 383.889 4069
2629.41 382.946 4059
2570.19 372.945 3953
2034.54 267.656 2837
2041.32 267.656 2837
2048.11 267.656 2837
2054.89 267.656 2837
2051.5 266.336 2823
2058.25 266.336 2823
548.525 70.2869 745
2099.29 268.128 2842
2106.08 268.128 2842
2112.88 268.128 2842
557.142 70.4756 747
558.929 70.4756 747
560.715 70.4756 747
562.501 70.4756 747
566.554 70.7587 750
569.863 70.9473 752
572.421 71.0417 753
574.222 71.0417 753
576.023 71.0417 753
-2334.52 301.637 3118
-2327.07 301.637 3118
-2315.15 301.056 3112
-2307.71 301.056 3112
-2304.7 301.637 3118
-2297.24 301.637 3118
-2289.79 301.637 3118
-2291.11 302.797 3130
-2283.63 302.797 3130
-2280.51 303.378 3136
-2273.01 303.378 3136
-2265.51 303.378 3136
-2262.33 303.958 3142
-2254.82 303.958 3142
-2247.3 303.958 3142
-2239.79 303.958 3142
-2240.8 305.119 3154
-2233.26 305.119 3154
-2225.72 305.119 3154
-2218.18 305.119 3154
-2198.02 303.378 3136
-2190.52 303.378 3136
-2521.09 360.261 3724
-2529.05 362.68 3749
-2520.09 362.68 3749
-2511.12 362.68 3749
-2485.47 360.261 3724
-2465.26 358.617 3707
-2456.4 358.617 3707
-2426.41 355.521 3675
-2412.35 354.747 3667
-2387.2 352.328 3642
-2378.49 352.328 3642
-2369.78 352.328 3642
-2356.53 351.651 3635
-2342.67 350.877 3627
-2334 350.877 3627
-2320.2 350.103 3619
-2306.43 349.33 3611
-2292.71 348.556 3603
-2284.09 348.556 3603
-2275.48 348.556 3603
-2266.86 348.556 3603
-2258.25 348.556 3603
-2249.63 348.556 3603
-2250.97 350.103 3619
-2242.31 350.103 3619
-2233.66 350.103 3619
-2128.72 347.104 3588
-2120.14 347.104 3588
-2111.56 347.104 3588
-2102.98 347.104 3588
-2094.4 347.104 3588
-2076.52 345.557 3572
-2067.98 345.557 3572
-2064.05 346.331 3580
-2055.49 346.331 3580
-2046.93 346.331 3580
-2038.37 346.331 3580
-2012.23 343.332 3549
-2003.74 343.332 3549
-1995.26 343.332 3549
-1986.77 343.332 3549
-1978.28 343.332 3549
-1969.8 343.332 3549
-1961.31 343.332 3549
-1928.61 339.075 3505
-1912.01 337.624 3490
-1903.67 337.624 3490
-1868.17 332.787 3440
-1871.3 334.818 3461
-1878.63 337.624 3490
-1886.36 340.526 3520
-1877.95 340.526 3520
-1893.43 344.879 3565
-1888.6 345.557 3572
-1880.06 345.557 3572
-1871.52 345.557 3572
-1862.98 345.557 3572
-1850.8 344.879 3565
-1845.9 345.557 3572
-1837.35 345.557 3572
-1832.91 346.331 3580
-1828.42 347.104 3588
-1827.45 348.556 3603
-1818.84 348.556 3603
-1822.28 350.877 3627
-1813.61 350.877 3627
-1816.38 353.102 3650
-1807.65 353.102 3650
-1802.86 353.876 3658
-1794.12 353.876 3658
-1785.37 353.876 3658
-1776.62 353.876 3658
-1764.01 353.102 3650
-1751.43 352.328 3642
-1746.55 353.102 3650
-1741.63 353.876 3658
-1732.88 353.876 3658
-1739.69 357.069 3691
-1742.59 359.487 3716
-1733.7 359.487 3716
-1740.13 362.68 3749
-1746.87 365.969 3783
-1741.96 366.84 3792
-1732.89 366.84 3792
-1735.64 369.355 3818
-1738.27 371.87 3844
-1737.17 373.611 3862
-1727.94 373.611 3862
-1718.7 373.611 3862
-1721.42 376.223 3889
-1712.12 376.223 3889
-1702.82 376.223 3889
-1693.52 376.223 3889
-1688.12 377.094 3898
-1678.8 377.094 3898
-1669.47 377.094 3898
-1660.15 377.094 3898
-1647.02 376.223 3889
-1622.56 372.741 3853
-1613.35 372.741 3853
-1604.13 372.741 3853
-1587.47 370.999 3835
-1560.6 366.84 3792
-1551.53 366.84 3792
-1528.23 363.454 3757
-1512.37 361.809 3740
-1503.43 361.809 3740
-1494.48 361.809 3740
-1482.36 361.035 3732
-1460.41 357.843 3699
-1451.56 357.843 3699
-1442.72 357.843 3699
-1430.77 357.069 3691
-696.919 181.775 1879
-692.425 181.775 1879
-687.932 181.775 1879
-683.439 181.775 1879
-672.803 180.131 1862
-668.35 180.131 1862
-663.898 180.131 1862
-656.612 179.357 1854
-652.178 179.357 1854
-643.203 178.099 1841
-638.801 178.099 1841
-631.641 177.325 1833
-627.258 177.325 1833
-622.195 177.132 1831
-617.817 177.132 1831
-612.098 176.745 1827
-604.403 175.777 1817
-598.737 175.39 1813
-594.401 175.39 1813
-588.113 174.81 1807
-580.238 173.746 1796
-573.378 172.972 1788
-566.238 172.101 1779
-561.984 172.101 1779
-553.968 170.94 1767
-545.698 169.683 1754
-538.725 168.812 1745
-534.552 168.812 1745
-529.771 168.618 1743
-524.698 168.328 1740
-519.341 167.941 1736
-515.19 167.941 1736
-509.566 167.458 1731
-503.675 166.877 1725
-498.971 166.684 1723
-494.851 166.684 1723
-489.876 166.393 1720
-484.351 165.91 1715
-478.29 165.233 1708
-473.095 164.846 1704
-469.02 164.846 1704
-463.581 164.362 1699
-458.166 163.878 1694
-451.702 163.008 1685
-447.673 163.008 1685
-441.801 162.33 1678
-436.484 161.847 1673
-430.415 161.073 1665
-426.433 161.073 1665
-420.676 160.396 1658
-415.454 159.912 1653
-411.252 159.815 1652
-407.302 159.815 1652
-402.131 159.331 1647
-397.467 159.041 1644
-392.578 158.654 1640
-388.656 158.654 1640
-384.735 158.654 1640
-380.813 158.654 1640
-376.891 158.654 1640
-373.879 159.041 1644
-369.948 159.041 1644
-366.017 159.041 1644
-362.306 159.138 1645
-358.808 159.331 1647
-355.085 159.428 1648
-351.144 159.428 1648
-347.624 159.622 1650
-345.137 160.299 1657
-341.174 160.299 1657
-337.212 160.299 1657
-333.451 160.396 1658
-330.281 160.783 1662
-326.306 160.783 1662
-322.332 160.783 1662
-318.358 160.783 1662
-314.951 161.073 1665
-310.969 161.073 1665
-306.988 161.073 1665
-303.37 161.266 1667
-299.563 161.363 1668
-295.575 161.363 1668
-291.586 161.363 1668
-287.597 161.363 1668
-283.609 161.363 1668
-279.62 161.363 1668
-275.631 161.363 1668
-271.643 161.363 1668
-267.654 161.363 1668
-264.297 161.75 1672
-260.299 161.75 1672
-256.301 161.75 1672
-252.303 161.75 1672
-248.304 161.75 1672
-244.306 161.75 1672
-240.308 161.75 1672
-236.451 161.847 1673
-232.728 162.04 1675
-228.723 162.04 1675
-224.717 162.04 1675
-220.975 162.234 1677
-216.965 162.234 1677
-212.955 162.234 1677
-208.696 162.04 1675
-204.446 161.847 1673
-200.445 161.847 1673
-196.445 161.847 1673
-192.444 161.847 1673
-188.331 161.75 1672
-184.332 161.75 1672
-180.334 161.75 1672
-176.336 161.75 1672
-172.131 161.556 1670
-168.138 161.556 1670
-164.144 161.556 1670
-160.151 161.556 1670
-155.97 161.363 1668
-151.982 161.363 1668
-147.993 161.363 1668
-144.004 161.363 1668
-140.016 161.363 1668
-135.945 161.266 1667
-131.959 161.266 1667
-127.666 160.879 1663
-123.838 161.073 1665
-120 161.266 1667
-116.223 161.556 1670
-112.229 161.556 1670
-108.365 161.75 1672
-104.367 161.75 1672
-100.369 161.75 1672
-96.3706 161.75 1672
-92.3724 161.75 1672
-88.3741 161.75 1672
-198.071 379.706 3925
-188.685 379.706 3925
-179.3 379.706 3925
-169.914 379.706 3925
-160.528 379.706 3925
-150.102 377.094 3898
-140.781 377.094 3898
-130.549 374.482 3871
-122.702 378.835 3916
-113.338 378.835 3916
-103.974 378.835 3916
-94.6094 378.835 3916
-85.6586 380.673 3935
-76.5976 382.415 3953
-67.3147 383.382 3963
-57.8379 383.382 3963
-48.7029 386.091 3991
-39.7283 391.702 4049
-30.3427 395.571 4089
-20.5647 395.571 4089
-10.7866 395.571 4089
-1.00613 394.604 4079
8.74799 394.604 4079
18.5021 394.604 4079
28.0484 391.702 4049
349.284 393.637 4069
359.897 394.604 4079
369.651 394.604 4079
379.405 394.604 4079
384.484 389.864 4030
389.427 385.22 3982
396.043 382.415 3953
405.496 382.415 3953
406.341 374.482 3871
407.117 366.84 3792
407.843 359.487 3716
416.729 359.487 3716
420.919 355.521 3675
423.16 350.103 3619
424.416 344.106 3557
426.593 339.075 3505
434.974 339.075 3505
436.905 334.141 3454
440.653 330.755 3419
447.91 330.078 3412
456.069 330.078 3412
464.229 330.078 3412
468.511 327.369 3384
472.801 324.757 3357
482.69 326.015 3370
490.749 326.015 3370
505.024 330.078 3412
517.395 332.787 3440
526.69 333.464 3447
534.933 333.464 3447
559.249 343.332 3549
567.736 343.332 3549
576.223 343.332 3549
676.618 386.091 3991
691.147 388.896 4020
700.76 388.896 4020
710.373 388.896 4020
719.986 388.896 4020
729.599 388.896 4020
737.374 387.929 4010
745.286 387.058 4001
752.967 386.091 3991
762.511 386.091 3991
772.055 386.091 3991
779.836 385.22 3982
789.358 385.22 3982
798.88 385.22 3982
804.545 383.382 3963
810.119 381.544 3944
819.55 381.544 3944
828.982 381.544 3944
838.413 381.544 3944
841.825 378.835 3916
845.32 376.223 3889
860.554 378.835 3916
874.139 380.673 3935
883.548 380.673 3935
895.001 381.544 3944
906.496 382.415 3953
920.351 384.253 3972
929.849 384.253 3972
946.206 387.058 4001
964.851 390.734 4039
984.161 394.604 4079
993.915 394.604 4079
1003.67 394.604 4079
1013.42 394.604 4079
1025.69 395.571 4089
1035.46 395.571 4089
1045.24 395.571 4089
1049.86 393.637 4069
1064.8 395.571 4089
1074.58 395.571 4089
1084.35 395.571 4089
1094.13 395.571 4089
1103.91 395.571 4089
1110.96 394.604 4079
1120.72 394.604 4079
1130.47 394.604 4079
1131.84 391.702 4049
1141.52 391.702 4049
1151.21 391.702 4049
1160.89 391.702 4049
1170.57 391.702 4049
1180.25 391.702 4049
1189.93 391.702 4049
1199.62 391.702 4049
1209.3 391.702 4049
1218.98 391.702 4049
1228.66 391.702 4049
1238.35 391.702 4049
1242.17 389.864 4030
1251.81 389.864 4030
1255.19 387.929 4010
1264.78 387.929 4010
1280.72 389.864 4030
1296.44 391.702 4049
1306.12 391.702 4049
1315.81 391.702 4049
1322.21 390.734 4039
1331.87 390.734 4039
1348.17 392.669 4059
1357.88 392.669 4059
1367.59 392.669 4059
1377.29 392.669 4059
1387 392.669 4059
1396.71 392.669 4059
1399.48 390.734 4039
1406 389.864 4030
1415.64 389.864 4030
1421.74 388.896 4020
1427.79 387.929 4010
1434.15 387.058 4001
1450.58 388.896 4020
1460.19 388.896 4020
1473.46 389.864 4030
1483.1 389.864 4030
1492.73 389.864 4030
1502.37 389.864 4030
1512.01 389.864 4030
1510.69 387.058 4001
1520.26 387.058 4001
1537.09 388.896 4020
1546.71 388.896 4020
1560.19 389.864 4030
1573.33 390.734 4039
1590.83 392.669 4059
1600.54 392.669 4059
1614.21 393.637 4069
1627.93 394.604 4079
1637.69 394.604 4079
1647.44 394.604 4079
1657.2 394.604 4079
1666.95 394.604 4079
1676.7 394.604 4079
1686.46 394.604 4079
1696.21 394.604 4079
1705.97 394.604 4079
1715.72 394.604 4079
1717.01 392.669 4059
1726.72 392.669 4059
1736.43 392.669 4059
1746.13 392.669 4059
1755.84 392.669 4059
1756.85 390.734 4039
1762.57 389.864 4030
1759.45 387.058 4001
1769.02 387.058 4001
1749.25 380.673 3935
1758.66 380.673 3935
1768.07 380.673 3935
1777.48 380.673 3935
1786.89 380.673 3935
1796.3 380.673 3935
1809.84 381.544 3944
1819.27 381.544 3944
1828.7 381.544 3944
1833.94 380.673 3935
1843.35 380.673 3935
1835.33 377.094 3898
1844.66 377.094 3898
1845.42 375.353 3880
1850.39 374.482 3871
1824.65 360.261 3724
1833.56 360.261 3724
1842.46 360.261 3724
1814.58 353.102 3650
1815.81 351.651 3635
1816.47 350.103 3619
1825.13 350.103 3619
1829.73 349.33 3611
1830.22 347.782 3595
1804.03 341.203 3527
1812.47 341.203 3527
1801.8 337.624 3490
1795.1 334.818 3461
1807.03 335.496 3468
1823.17 336.947 3483
1831.5 336.947 3483
1839.83 336.947 3483
1855.59 338.301 3497
1871.94 339.752 3512
1884.63 340.526 3520
1893.04 340.526 3520
1901.46 340.526 3520
1905.54 339.752 3512
1913.94 339.752 3512
1914.12 338.301 3497
1922.49 338.301 3497
2402.27 388.896 4020
2411.88 388.896 4020
2421.49 388.896 4020
2425.06 387.929 4010
2434.65 387.929 4010
2432.66 386.091 3991
2442.2 386.091 3991
2499.66 393.637 4069
2509.39 393.637 4069
2525.31 394.604 4079
2541.28 395.571 4089
2551.06 395.571 4089
2560.84 395.571 4089
2606.69 393.637 4069
2616.42 393.637 4069
2626.15 393.637 4069
2629.41 392.669 4059
544.23 71.9748 744
546.009 71.9748 744
548.525 72.0716 745
550.306 72.0716 745
552.829 72.1683 746
554.613 72.1683 746
556.397 72.1683 746
558.929 72.2651 747
560.715 72.2651 747
562.501 72.2651 747
566.554 72.5553 750
569.863 72.7488 752
572.421 72.8455 753
574.222 72.8455 753
576.023 72.8455 753
-2334.52 309.106 3118
-2327.07 309.106 3118
-2315.15 308.511 3112
-2307.71 308.511 3112
-2304.7 309.106 3118
-2297.24 309.106 3118
-2289.79 309.106 3118
-2291.11 310.295 3130
-2283.63 310.295 3130
-2280.51 310.89 3136
-2273.01 310.89 3136
-2265.51 310.89 3136
-2262.33 311.485 3142
-2254.82 311.485 3142
-2247.3 311.485 3142
-2239.79 311.485 3142
-2236.54 312.08 3148
-2229.01 312.08 3148
-2221.48 312.08 3148
-2213.96 312.08 3148
-2198.02 310.89 3136
-2190.52 310.89 3136
-2521.09 369.182 3724
-2529.05 371.66 3749
-2520.09 371.66 3749
-2511.12 371.66 3749
-2485.47 369.182 3724
-2465.26 367.497 3707
-2456.4 367.497 3707
-2426.41 364.324 3675
-2412.35 363.531 3667
-2387.2 361.053 3642
-2378.49 361.053 3642
-2369.78 361.053 3642
-2356.53 360.359 3635
-2342.67 359.566 3627
-2334 359.566 3627
-2320.2 358.773 3619
-2306.43 357.98 3611
-2292.71 357.187 3603
-2284.09 357.187 3603
-2275.48 357.187 3603
-2266.86 357.187 3603
-2258.25 357.187 3603
-2249.63 357.187 3603
-2250.97 358.773 3619
-2242.31 358.773 3619
-2233.66 358.773 3619
-2128.72 355.7 3588
-2120.14 355.7 3588
-2111.56 355.7 3588
-2102.98 355.7 3588
-2094.4 355.7 3588
-2076.52 354.113 3572
-2037.69 351.833 3549
-2029.2 351.833 3549
-2020.72 351.833 3549
-2008.26 351.139 3542
-1999.79 351.139 3542
-1991.32 351.139 3542
-1986.77 351.833 3549
-1978.28 351.833 3549
-1969.8 351.833 3549
-1961.31 351.833 3549
-1924.21 346.678 3497
-1873.12 338.946 3419
-1876.4 341.027 3440
-1868.17 341.027 3440
-1859.94 341.027 3440
-1878.63 345.984 3490
-1874.04 346.678 3497
-1865.67 346.678 3497
-1857.31 346.678 3497
-1888.6 354.113 3572
-1880.06 354.113 3572
-1871.52 354.113 3572
-1859.33 353.419 3565
-1846.65 352.626 3557
-1845.9 354.113 3572
-1837.35 354.113 3572
-1832.91 354.906 3580
-1828.42 355.7 3588
-1827.45 357.187 3603
-1818.84 357.187 3603
-1822.28 359.566 3627
-1813.61 359.566 3627
-1816.38 361.846 3650
-1807.65 361.846 3650
-1802.86 362.639 3658
-1794.12 362.639 3658
-1785.37 362.639 3658
-1776.62 362.639 3658
-1764.01 361.846 3650
-1751.43 361.053 3642
-1746.55 361.846 3650
-1741.63 362.639 3658
-1732.88 362.639 3658
-1739.69 365.911 3691
-1742.59 368.389 3716
-1733.7 368.389 3716
-1740.13 371.66 3749
-1746.87 375.031 3783
-1741.96 375.923 3792
-1732.89 375.923 3792
-1735.64 378.501 3818
-1738.27 381.078 3844
-1737.17 382.863 3862
-1727.94 382.863 3862
-1718.7 382.863 3862
-1721.42 385.539 3889
-1712.12 385.539 3889
-1702.82 385.539 3889
-1693.52 385.539 3889
-1688.12 386.432 3898
-1678.8 386.432 3898
-1669.47 386.432 3898
-1660.15 386.432 3898
-1647.02 385.539 3889
-1622.56 381.971 3853
-1613.35 381.971 3853
-1604.13 381.971 3853
-1587.47 380.186 3835
-1560.6 375.923 3792
-1551.53 375.923 3792
-1528.23 372.454 3757
-1512.37 370.768 3740
-1503.43 370.768 3740
-1494.48 370.768 3740
-1482.36 369.975 3732
-1460.41 366.704 3699
-1451.56 366.704 3699
-1442.72 366.704 3699
-696.919 186.276 1879
-692.425 186.276 1879
-687.932 186.276 1879
-683.439 186.276 1879
-672.803 184.591 1862
-668.35 184.591 1862
-663.898 184.591 1862
-656.612 183.798 1854
-652.178 183.798 1854
-643.203 182.509 1841
-638.801 182.509 1841
-631.641 181.716 1833
-627.258 181.716 1833
-622.195 181.518 1831
-617.817 181.518 1831
-612.098 181.121 1827
-604.403 180.13 1817
-598.737 179.733 1813
-594.401 179.733 1813
-588.113 179.139 1807
-580.238 178.048 1796
-573.378 177.255 1788
-566.238 176.363 1779
-561.984 176.363 1779
-553.968 175.173 1767
-545.698 173.884 1754
-538.725 172.992 1745
-534.552 172.992 1745
-529.771 172.794 1743
-524.698 172.496 1740
-519.341 172.1 1736
-515.19 172.1 1736
-509.566 171.604 1731
-503.675 171.009 1725
-498.971 170.811 1723
-494.851 170.811 1723
-489.876 170.514 1720
-484.351 170.018 1715
-478.29 169.324 1708
-473.095 168.928 1704
-469.02 168.928 1704
-463.581 168.432 1699
-458.166 167.936 1694
-451.702 167.044 1685
-447.673 167.044 1685
-441.801 166.35 1678
-436.484 165.854 1673
-430.415 165.061 1665
-426.433 165.061 1665
-420.422 164.268 1657
-415.454 163.872 1653
-410.755 163.574 1650
-406.809 163.574 1650
-402.131 163.277 1647
-396.984 162.781 1642
-392.578 162.583 1640
-388.656 162.583 1640
-384.735 162.583 1640
-380.813 162.583 1640
-376.661 162.484 1639
-373.424 162.781 1642
-369.948 162.979 1644
-366.017 162.979 1644
-362.085 162.979 1644
-358.808 163.277 1647
-355.085 163.376 1648
-351.144 163.376 1648
-347.203 163.376 1648
-344.303 163.872 1653
-341.174 164.268 1657
-337.212 164.268 1657
-333.451 164.367 1658
-330.281 164.764 1662
-326.306 164.764 1662
-322.332 164.764 1662
-318.358 164.764 1662
-314.951 165.061 1665
-310.969 165.061 1665
-306.988 165.061 1665
-303.006 165.061 1665
-299.563 165.359 1668
-295.575 165.359 1668
-291.586 165.359 1668
-287.597 165.359 1668
-283.609 165.359 1668
-279.62 165.359 1668
-275.631 165.359 1668
-271.643 165.359 1668
-267.654 165.359 1668
-264.297 165.755 1672
-260.299 165.755 1672
-256.301 165.755 1672
-252.303 165.755 1672
-248.304 165.755 1672
-244.306 165.755 1672
-240.308 165.755 1672
-236.451 165.854 1673
-232.728 166.053 1675
-228.723 166.053 1675
-224.717 166.053 1675
-220.975 166.251 1677
-216.965 166.251 1677
-212.955 166.251 1677
-208.696 166.053 1675
-204.446 165.854 1673
-200.445 165.854 1673
-196.445 165.854 1673
-192.444 165.854 1673
-188.331 165.755 1672
-184.332 165.755 1672
-180.334 165.755 1672
-176.336 165.755 1672
-171.925 165.359 1668
-167.937 165.359 1668
-163.948 165.359 1668
-159.959 165.359 1668
-155.97 165.359 1668
-151.982 165.359 1668
-147.993 165.359 1668
-143.918 165.26 1667
-139.932 165.26 1667
-135.945 165.26 1667
-131.959 165.26 1667
-127.589 164.764 1662
-123.838 165.061 1665
-120 165.26 1667
-116.084 165.359 1668
-112.095 165.359 1668
-108.365 165.755 1672
-104.367 165.755 1672
-100.369 165.755 1672
-96.3706 165.755 1672
-92.3724 165.755 1672
-198.071 389.108 3925
-188.685 389.108 3925
-179.3 389.108 3925
-169.914 389.108 3925
-160.528 389.108 3925
-148.716 382.863 3862
-139.806 383.755 3871
-130.549 383.755 3871
-122.702 388.216 3916
-113.338 388.216 3916
-103.974 388.216 3916
-94.6094 388.216 3916
-85.6586 390.1 3935
-76.5976 391.884 3953
-67.3147 392.876 3963
-57.8379 392.876 3963
-48.7029 395.651 3991
-39.7283 401.401 4049
-30.3427 405.367 4089
-20.5647 405.367 4089
-10.7866 405.367 4089
-1.00613 404.375 4079
8.74799 404.375 4079
18.5021 404.375 4079
330.634 404.375 4079
340.388 404.375 4079
350.142 404.375 4079
359.014 403.384 4069
368.744 403.384 4069
378.475 403.384 4069
383.53 398.526 4020
388.449 393.768 3972
395.142 390.992 3944
404.573 390.992 3944
406.341 383.755 3871
407.117 375.923 3792
407.843 368.389 3716
416.729 368.389 3716
420.919 364.324 3675
425.03 360.359 3635
427.16 354.906 3580
429.27 349.652 3527
437.705 349.652 3527
436.905 342.415 3454
440.653 338.946 3419
447.91 338.252 3412
456.069 338.252 3412
464.229 338.252 3412
468.511 335.476 3384
474.632 334.088 3370
485.698 336.17 3391
493.807 336.17 3391
509.169 341.027 3440
518.448 341.721 3447
531.121 344.596 3476
539.434 344.596 3476
559.249 351.833 3549
567.736 351.833 3549
576.223 351.833 3549
676.618 395.651 3991
691.147 398.526 4020
700.76 398.526 4020
710.373 398.526 4020
719.986 398.526 4020
729.599 398.526 4020
739.212 398.526 4020
746.963 397.535 4010
752.967 395.651 3991
762.511 395.651 3991
772.055 395.651 3991
781.598 395.651 3991
791.142 395.651 3991
800.686 395.651 3991
808.402 394.759 3982
817.924 394.759 3982
829.317 395.651 3991
838.86 395.651 3991
848.404 395.651 3991
853.863 393.768 3972
859.232 391.884 3953
877.035 395.651 3991
897.242 400.41 4039
906.9 400.41 4039
921.097 402.393 4059
930.804 402.393 4059
940.51 402.393 4059
950.216 402.393 4059
959.922 402.393 4059
974.406 404.375 4079
984.161 404.375 4079
993.915 404.375 4079
1003.67 404.375 4079
1013.42 404.375 4079
1025.69 405.367 4089
1035.46 405.367 4089
1045.24 405.367 4089
1049.86 403.384 4069
1064.8 405.367 4089
1074.58 405.367 4089
1084.35 405.367 4089
1094.13 405.367 4089
1103.91 405.367 4089
1110.96 404.375 4079
1120.72 404.375 4079
1130.47 404.375 4079
1140.23 404.375 4079
1149.98 404.375 4079
1154.05 402.393 4059
1163.75 402.393 4059
1179.24 404.375 4079
1189 404.375 4079
1198.75 404.375 4079
1208.51 404.375 4079
1215.27 403.384 4069
1225 403.384 4069
1231.7 402.393 4059
1241.41 402.393 4059
1248.03 401.401 4049
1257.71 401.401 4049
1267.39 401.401 4049
1277.08 401.401 4049
1286.76 401.401 4049
1306.05 404.375 4079
1315.8 404.375 4079
1328.8 405.367 4089
1338.58 405.367 4089
1348.36 405.367 4089
1358.14 405.367 4089
1367.92 405.367 4089
1367.59 402.393 4059
1377.29 402.393 4059
1390.42 403.384 4069
1400.15 403.384 4069
1409.88 403.384 4069
1419.61 403.384 4069
1429.34 403.384 4069
1435.53 402.393 4059
1441.68 401.401 4049
1444.55 399.518 4030
1454.19 399.518 4030
1463.82 399.518 4030
1480.41 401.401 4049
1490.09 401.401 4049
1499.77 401.401 4049
1509.45 401.401 4049
1519.14 401.401 4049
1521.64 399.518 4030
1520.26 396.643 4001
1537.09 398.526 4020
1546.71 398.526 4020
1563.68 400.41 4039
1581.13 402.393 4059
1594.75 403.384 4069
1604.48 403.384 4069
1618.18 404.375 4079
1627.93 404.375 4079
1637.69 404.375 4079
1647.44 404.375 4079
1657.2 404.375 4079
1666.95 404.375 4079
1676.7 404.375 4079
1686.46 404.375 4079
1696.21 404.375 4079
1705.97 404.375 4079
1715.72 404.375 4079
1717.01 402.393 4059
1726.72 402.393 4059
1736.43 402.393 4059
1746.13 402.393 4059
1755.84 402.393 4059
1761.2 401.401 4049
1762.57 399.518 4030
1759.45 396.643 4001
1769.02 396.643 4001
1757.25 391.884 3953
1766.7 391.884 3953
1776.16 391.884 3953
1785.61 391.884 3953
1786.89 390.1 3935
1796.3 390.1 3935
1809.84 390.992 3944
1819.27 390.992 3944
1828.7 390.992 3944
1833.94 390.1 3935
1843.35 390.1 3935
1835.33 386.432 3898
1844.66 386.432 3898
1845.42 384.647 3880
1850.39 383.755 3871
1809.21 373.346 3766
1818.21 373.346 3766
1818.97 371.66 3749
1815.74 369.182 3724
1824.65 369.182 3724
1833.56 369.182 3724
1842.46 369.182 3724
1827.01 364.324 3675
1815.81 360.359 3635
1816.47 358.773 3619
1825.13 358.773 3619
1829.73 357.98 3611
1830.22 356.394 3595
1804.03 349.652 3527
1812.47 349.652 3527
1801.8 345.984 3490
1795.1 343.109 3461
1807.03 343.803 3468
1823.17 345.29 3483
1831.5 345.29 3483
1839.83 345.29 3483
1855.59 346.678 3497
1871.94 348.165 3512
1884.63 348.958 3520
1893.04 348.958 3520
1901.46 348.958 3520
1905.54 348.165 3512
1913.94 348.165 3512
1914.12 346.678 3497
1922.49 346.678 3497
2408.24 399.518 4030
2417.88 399.518 4030
2427.52 399.518 4030
2437.15 399.518 4030
2446.79 399.518 4030
2450.33 398.526 4020
2477.69 401.401 4049
2499.66 403.384 4069
2509.39 403.384 4069
2531.5 405.367 4089
2541.28 405.367 4089
2551.06 405.367 4089
2560.84 405.367 4089
2606.69 403.384 4069
2616.42 403.384 4069
2626.15 403.384 4069
2629.41 402.393 4059
539.218 73.5588 742
542.451 73.7571 744
544.23 73.7571 744
546.009 73.7571 744
548.525 73.8562 745
550.306 73.8562 745
552.829 73.9554 746
554.613 73.9554 746
556.397 73.9554 746
558.929 74.0545 747
560.715 74.0545 747
562.501 74.0545 747
566.554 74.3519 750
569.863 74.5502 752
572.421 74.6493 753
574.222 74.6493 753
576.023 74.6493 753
-2334.52 316.575 3118
-2327.07 316.575 3118
-2319.61 316.575 3118
-2312.15 316.575 3118
-2304.7 316.575 3118
-2297.24 316.575 3118
-2289.79 316.575 3118
-2286.72 317.184 3124
-2283.63 317.793 3130
-2276.14 317.793 3130
-2268.66 317.793 3130
-2265.51 318.402 3136
-2258.01 318.402 3136
-2250.51 318.402 3136
-2243.01 318.402 3136
-2235.51 318.402 3136
-2232.28 319.012 3142
-2224.76 319.012 3142
-2217.25 319.012 3142
-2209.74 319.012 3142
-2198.02 318.402 3136
-2190.52 318.402 3136
-2521.09 378.103 3724
-2512.19 378.103 3724
-2520.09 380.641 3749
-2511.12 380.641 3749
-2502.16 380.641 3749
-2493.19 380.641 3749
-2484.23 380.641 3749
-2447.53 376.377 3707
-2428.14 374.752 3691
-2408.83 373.128 3675
-2400.04 373.128 3675
-2386.05 372.316 3667
-2366.26 370.59 3650
-2357.53 370.59 3650
-2348.8 370.59 3650
-2330.46 369.067 3635
-2321.76 369.067 3635
-2313.07 369.067 3635
-2304.38 369.067 3635
-2295.69 369.067 3635
-2286.99 369.067 3635
-2268.27 367.442 3619
-2259.62 367.442 3619
-2250.97 367.442 3619
-2242.31 367.442 3619
-2233.66 367.442 3619
-2128.72 364.295 3588
-2120.14 364.295 3588
-2111.56 364.295 3588
-2102.98 364.295 3588
-2094.4 364.295 3588
-2029.83 361.959 3565
-2021.3 361.959 3565
-2012.78 361.959 3565
-2004.25 361.959 3565
-1982.85 359.624 3542
-1872.17 361.147 3557
-1863.66 361.147 3557
-1855.16 361.147 3557
-1846.65 361.147 3557
-1845.9 362.67 3572
-1837.35 362.67 3572
-1832.91 363.482 3580
-1828.42 364.295 3588
-1827.45 365.818 3603
-1818.84 365.818 3603
-1822.28 368.254 3627
-1813.61 368.254 3627
-1812.4 369.777 3642
-1803.69 369.777 3642
-1802.86 371.402 3658
-1794.12 371.402 3658
-1785.37 371.402 3658
-1776.62 371.402 3658
-1764.01 370.59 3650
-1759.13 371.402 3658
-1750.38 371.402 3658
-1741.63 371.402 3658
-1744.73 373.94 3683
-1751.47 377.291 3716
-1758.06 380.641 3749
-1749.1 380.641 3749
-1763.81 385.819 3800
-1766.72 388.459 3826
-1761.71 389.373 3835
-1752.54 389.373 3835
-1763.83 393.942 3880
-1758.62 394.856 3889
-1761.46 397.597 3916
-1752.1 397.597 3916
-1742.73 397.597 3916
-1745.76 400.44 3944
-1736.33 400.44 3944
-1726.9 400.44 3944
-1721.39 401.354 3953
-1711.94 401.354 3953
-1702.48 401.354 3953
-1693.03 401.354 3953
-1675.91 399.526 3935
-1666.5 399.526 3935
-1657.09 399.526 3935
-1632.19 395.769 3898
-1622.87 395.769 3898
-1606.1 393.942 3880
-1596.82 393.942 3880
-1587.54 393.942 3880
-1559.96 389.373 3835
-1540.27 386.733 3809
-1531.16 386.733 3809
-1522.05 386.733 3809
-1502.62 384.093 3783
-1486.86 382.367 3766
-1451.56 375.565 3699
-1442.72 375.565 3699
-696.919 190.777 1879
-692.425 190.777 1879
-687.932 190.777 1879
-683.439 190.777 1879
-673.526 189.255 1864
-668.35 189.051 1862
-663.898 189.051 1862
-657.32 188.442 1856
-652.178 188.239 1854
-643.203 186.919 1841
-638.801 186.919 1841
-631.641 186.107 1833
-627.258 186.107 1833
-622.875 186.107 1833
-618.492 186.107 1833
-612.768 185.701 1829
-605.733 184.889 1821
-598.737 184.076 1813
-594.401 184.076 1813
-588.764 183.67 1809
-580.885 182.553 1798
-573.378 181.538 1788
-566.238 180.624 1779
-561.984 180.624 1779
-553.968 179.406 1767
-546.32 178.289 1756
-539.342 177.375 1747
-535.165 177.375 1747
-529.771 176.969 1743
-525 176.766 1741
-519.939 176.462 1738
-515.783 176.462 1738
-510.45 176.055 1734
-504.843 175.548 1729
-499.55 175.142 1725
-495.425 175.142 1725
-490.731 174.939 1723
-485.198 174.431 1718
-479.13 173.72 1711
-474.205 173.416 1708
-470.121 173.416 1708
-464.4 172.806 1702
-459.518 172.502 1699
-452.775 171.487 1689
-448.736 171.487 1689
-442.854 170.776 1682
-437.788 170.37 1678
-431.19 169.354 1668
-427.202 169.354 1668
-421.691 168.745 1662
-415.957 168.034 1655
-411.252 167.73 1652
-407.302 167.73 1652
-402.375 167.324 1648
-396.984 166.715 1642
-392.578 166.511 1640
-388.656 166.511 1640
-384.735 166.511 1640
-380.813 166.511 1640
-376.202 166.207 1637
-373.424 166.715 1642
-369.498 166.715 1642
-365.571 166.715 1642
-361.645 166.715 1642
-358.808 167.222 1647
-355.085 167.324 1648
-351.144 167.324 1648
-347.203 167.324 1648
-344.303 167.831 1653
-341.174 168.238 1657
-337.212 168.238 1657
-333.451 168.339 1658
-330.281 168.745 1662
-326.306 168.745 1662
-322.332 168.745 1662
-318.358 168.745 1662
-314.951 169.05 1665
-310.969 169.05 1665
-306.988 169.05 1665
-303.006 169.05 1665
-299.563 169.354 1668
-295.575 169.354 1668
-291.586 169.354 1668
-287.597 169.354 1668
-283.609 169.354 1668
-279.62 169.354 1668
-275.631 169.354 1668
-271.643 169.354 1668
-268.296 169.76 1672
-264.297 169.76 1672
-260.299 169.76 1672
-256.301 169.76 1672
-252.303 169.76 1672
-248.453 169.862 1673
-244.452 169.862 1673
-240.739 170.065 1675
-236.734 170.065 1675
-232.728 170.065 1675
-228.723 170.065 1675
-224.717 170.065 1675
-220.975 170.268 1677
-216.965 170.268 1677
-212.955 170.268 1677
-208.945 170.268 1677
-204.69 170.065 1675
-200.445 169.862 1673
-196.445 169.862 1673
-192.444 169.862 1673
-188.331 169.76 1672
-184.332 169.76 1672
-180.334 169.76 1672
-176.336 169.76 1672
-171.925 169.354 1668
-167.836 169.253 1667
-163.85 169.253 1667
-159.863 169.253 1667
-155.877 169.253 1667
-151.891 169.253 1667
-147.904 169.253 1667
-143.918 169.253 1667
-139.932 169.253 1667
-135.945 169.253 1667
-131.959 169.253 1667
-127.589 168.745 1662
-123.689 168.847 1663
-119.856 169.05 1665
-116.084 169.354 1668
-112.095 169.354 1668
-108.106 169.354 1668
-104.242 169.557 1670
-100.249 169.557 1670
-96.2554 169.557 1670
-188.685 398.511 3925
-179.3 398.511 3925
-169.914 398.511 3925
-160.528 398.511 3925
-149.063 393.028 3871
-141.431 397.597 3916
-132.067 397.597 3916
-122.984 398.511 3925
-113.888 399.526 3935
-104.717 400.44 3944
-95.2858 400.44 3944
-86.2681 402.369 3963
-77.1596 404.298 3982
-67.7903 405.212 3991
-58.2466 405.212 3991
-49.2886 410.085 4039
-39.7283 411.101 4049
-30.3427 415.162 4089
-20.5647 415.162 4089
-10.7866 415.162 4089
330.634 414.147 4079
340.388 414.147 4079
350.142 414.147 4079
359.014 413.131 4069
368.744 413.131 4069
374.847 409.172 4030
381.717 406.227 4001
388.449 403.283 3972
395.142 400.44 3944
404.573 400.44 3944
406.341 393.028 3871
407.117 385.007 3792
407.843 377.291 3716
416.729 377.291 3716
420.919 373.128 3675
425.03 369.067 3635
427.16 363.482 3580
429.27 358.101 3527
437.705 358.101 3527
436.905 350.689 3454
440.653 347.136 3419
447.91 346.425 3412
456.069 346.425 3412
464.229 346.425 3412
468.511 343.582 3384
474.632 342.161 3370
485.698 344.293 3391
493.807 344.293 3391
509.169 349.268 3440
518.448 349.979 3447
531.121 352.923 3476
539.434 352.923 3476
559.249 360.335 3549
567.736 360.335 3549
576.223 360.335 3549
676.618 405.212 3991
691.147 408.156 4020
700.76 408.156 4020
710.373 408.156 4020
719.986 408.156 4020
729.599 408.156 4020
739.212 408.156 4020
746.963 407.141 4010
752.967 405.212 3991
762.511 405.212 3991
772.055 405.212 3991
781.598 405.212 3991
791.142 405.212 3991
800.686 405.212 3991
808.402 404.298 3982
817.924 404.298 3982
829.317 405.212 3991
838.86 405.212 3991
848.404 405.212 3991
853.863 403.283 3972
859.232 401.354 3953
877.035 405.212 3991
897.242 410.085 4039
906.9 410.085 4039
921.097 412.116 4059
930.804 412.116 4059
940.51 412.116 4059
950.216 412.116 4059
959.922 412.116 4059
974.406 414.147 4079
984.161 414.147 4079
993.915 414.147 4079
1003.67 414.147 4079
1013.42 414.147 4079
1025.69 415.162 4089
1035.46 415.162 4089
1045.24 415.162 4089
1064.8 415.162 4089
1074.58 415.162 4089
1084.35 415.162 4089
1094.13 415.162 4089
1103.91 415.162 4089
1110.96 414.147 4079
1120.72 414.147 4079
1130.47 414.147 4079
1140.23 414.147 4079
1149.98 414.147 4079
1154.05 412.116 4059
1163.75 412.116 4059
1179.24 414.147 4079
1189 414.147 4079
1198.75 414.147 4079
1208.51 414.147 4079
1215.27 413.131 4069
1225 413.131 4069
1231.7 412.116 4059
1241.41 412.116 4059
1248.03 411.101 4049
1257.71 411.101 4049
1267.39 411.101 4049
1277.08 411.101 4049
1286.76 411.101 4049
1306.05 414.147 4079
1315.8 414.147 4079
1328.8 415.162 4089
1338.58 415.162 4089
1348.36 415.162 4089
1358.14 415.162 4089
1367.92 415.162 4089
1367.59 412.116 4059
1377.29 412.116 4059
1390.42 413.131 4069
1400.15 413.131 4069
1409.88 413.131 4069
1419.61 413.131 4069
1429.34 413.131 4069
1435.53 412.116 4059
1441.68 411.101 4049
1444.55 409.172 4030
1454.19 409.172 4030
1463.82 409.172 4030
1480.41 411.101 4049
1490.09 411.101 4049
1499.77 411.101 4049
1509.45 411.101 4049
1519.14 411.101 4049
1521.64 409.172 4030
1520.26 406.227 4001
1537.09 408.156 4020
1546.71 408.156 4020
1563.68 410.085 4039
1581.13 412.116 4059
1594.75 413.131 4069
1604.48 413.131 4069
1618.18 414.147 4079
1627.93 414.147 4079
1637.69 414.147 4079
1647.44 414.147 4079
1657.2 414.147 4079
1666.95 414.147 4079
1676.7 414.147 4079
1686.46 414.147 4079
1696.21 414.147 4079
1701.78 413.131 4069
1711.51 413.131 4069
1717.01 412.116 4059
1726.72 412.116 4059
1736.43 412.116 4059
1746.13 412.116 4059
1755.84 412.116 4059
1761.2 411.101 4049
1762.57 409.172 4030
1759.45 406.227 4001
1769.02 406.227 4001
1757.25 401.354 3953
1766.7 401.354 3953
1776.16 401.354 3953
1785.61 401.354 3953
1786.89 399.526 3935
1796.3 399.526 3935
1809.84 400.44 3944
1819.27 400.44 3944
1828.7 400.44 3944
1829.28 398.511 3925
1834.45 397.597 3916
1835.33 395.769 3898
1844.66 395.769 3898
1845.42 393.942 3880
1850.39 393.028 3871
1809.21 382.367 3766
1818.21 382.367 3766
1818.97 380.641 3749
1815.74 378.103 3724
1824.65 378.103 3724
1833.56 378.103 3724
1842.46 378.103 3724
1827.01 373.128 3675
1811.82 368.254 3627
1816.47 367.442 3619
1825.13 367.442 3619
1825.67 365.818 3603
1830.22 365.005 3595
1804.03 358.101 3527
1812.47 358.101 3527
1801.8 354.345 3490
1795.1 351.4 3461
1807.03 352.111 3468
1819.51 352.923 3476
1831.5 353.634 3483
1839.83 353.634 3483
1848.16 353.634 3483
1863.95 355.055 3497
1880.34 356.578 3512
1888.74 356.578 3512
1897.14 356.578 3512
1897.4 355.055 3497
1905.76 355.055 3497
1902.63 352.923 3476
1902.7 351.4 3461
2408.24 409.172 4030
2417.88 409.172 4030
2427.52 409.172 4030
2437.15 409.172 4030
2446.79 409.172 4030
2450.33 408.156 4020
2477.69 411.101 4049
2493.52 412.116 4059
2503.22 412.116 4059
2531.5 415.162 4089
2541.28 415.162 4089
2551.06 415.162 4089
2560.84 415.162 4089
539.218 75.3363 742
542.451 75.5394 744
544.23 75.5394 744
546.009 75.5394 744
547.788 75.5394 744
550.306 75.6409 745
552.088 75.6409 745
553.869 75.6409 745
556.397 75.7424 746
558.18 75.7424 746
560.715 75.844 747
562.501 75.844 747
565.043 75.9455 748
569.105 76.2501 751
571.661 76.3516 752
573.459 76.3516 752
575.258 76.3516 752
-2334.52 324.044 3118
-2327.07 324.044 3118
-2319.61 324.044 3118
-2312.15 324.044 3118
-2304.7 324.044 3118
-2297.24 324.044 3118
-2289.79 324.044 3118
-2286.72 324.668 3124
-2279.25 324.668 3124
-2276.14 325.291 3130
-2268.66 325.291 3130
-2261.18 325.291 3130
-2253.69 325.291 3130
-2246.21 325.291 3130
-2238.72 325.291 3130
-2231.24 325.291 3130
-2232.28 326.538 3142
-2224.76 326.538 3142
-2217.25 326.538 3142
-2209.74 326.538 3142
-2202.22 326.538 3142
-2194.71 326.538 3142
-2529.05 389.622 3749
-2554.37 394.922 3800
-2545.28 394.922 3800
-2536.2 394.922 3800
-2504.5 391.389 3766
-2495.49 391.389 3766
-2475.26 389.622 3749
-2438.67 385.257 3707
-2419.32 383.594 3691
-2410.49 383.594 3691
-2396.46 382.763 3683
-2382.47 381.931 3675
-2362.7 380.165 3658
-2353.95 380.165 3658
-2340.07 379.333 3650
-2331.34 379.333 3650
-2317.53 378.502 3642
-2308.82 378.502 3642
-2300.11 378.502 3642
-2291.4 378.502 3642
-2278.3 377.774 3635
-2269.61 377.774 3635
-2260.92 377.774 3635
-2247.27 376.943 3627
-2233.66 376.111 3619
-2029.83 370.499 3565
-2021.3 370.499 3565
-2012.78 370.499 3565
-2004.25 370.499 3565
-1872.17 369.668 3557
-1863.66 369.668 3557
-1883.32 375.28 3611
-1878.84 376.111 3619
-1870.18 376.111 3619
-1861.53 376.111 3619
-1856.97 376.943 3627
-1848.3 376.943 3627
-1839.62 376.943 3627
-1830.95 376.943 3627
-1818.26 376.111 3619
-1813.61 376.943 3627
-1812.4 378.502 3642
-1803.69 378.502 3642
-1798.92 379.333 3650
-1794.12 380.165 3658
-1785.37 380.165 3658
-1776.62 380.165 3658
-1776.09 381.931 3675
-1771.15 382.763 3683
-1766.17 383.594 3691
-1757.34 383.594 3691
-1760.36 386.192 3716
-1751.47 386.192 3716
-1758.06 389.622 3749
-1749.1 389.622 3749
-1817.65 406.978 3916
-1825.37 410.823 3953
-1815.92 410.823 3953
-1806.46 410.823 3953
-1814.29 414.772 3991
-1813.33 416.747 4010
-1803.74 416.747 4010
-1794.16 416.747 4010
-1784.57 416.747 4010
-1774.98 416.747 4010
-1765.39 416.747 4010
-1755.8 416.747 4010
-1750.56 417.786 4020
-1740.95 417.786 4020
-1731.34 417.786 4020
-1713.59 415.812 4001
-1704.02 415.812 4001
-1690.22 414.772 3991
-1680.67 414.772 3991
-1647.68 408.952 3935
-1638.27 408.952 3935
-1628.86 408.952 3935
-1615.34 407.913 3925
-1605.95 407.913 3925
-1596.57 407.913 3925
-1576.26 405.107 3898
-1566.94 405.107 3898
-1557.62 405.107 3898
-1526.85 399.495 3844
-1514.1 398.56 3835
-1448.42 383.594 3691
-1439.6 383.594 3691
-696.919 195.279 1879
-692.425 195.279 1879
-687.932 195.279 1879
-680.893 194.551 1872
-674.248 193.928 1866
-668.35 193.512 1862
-663.898 193.512 1862
-657.32 192.888 1856
-652.178 192.68 1854
-643.902 191.537 1843
-639.495 191.537 1843
-631.641 190.498 1833
-627.258 190.498 1833
-622.875 190.498 1833
-618.492 190.498 1833
-614.108 190.498 1833
-605.733 189.251 1821
-599.397 188.627 1815
-595.057 188.627 1815
-589.415 188.212 1811
-582.177 187.276 1802
-574.661 186.237 1792
-566.238 184.886 1779
-561.984 184.886 1779
-553.968 183.639 1767
-546.942 182.704 1758
-539.96 181.768 1749
-535.777 181.768 1749
-530.987 181.56 1747
-525.603 181.145 1743
-520.538 180.833 1740
-516.377 180.833 1740
-511.038 180.417 1736
-505.427 179.897 1731
-500.129 179.482 1727
-496 179.482 1727
-490.731 179.066 1723
-485.198 178.546 1718
-479.13 177.819 1711
-475.038 177.819 1711
-470.396 177.611 1709
-464.4 176.884 1702
-459.518 176.572 1699
-453.579 175.844 1692
-449.533 175.844 1692
-444.17 175.325 1687
-438.832 174.805 1682
-432.483 173.87 1673
-428.482 173.87 1673
-423.213 173.35 1668
-417.716 172.727 1662
-411.999 171.999 1655
-408.042 171.999 1655
-402.863 171.479 1650
-398.192 171.168 1647
-393.057 170.648 1642
-389.13 170.648 1642
-385.204 170.648 1642
-380.813 170.44 1640
-377.351 170.648 1642
-373.424 170.648 1642
-369.498 170.648 1642
-365.571 170.648 1642
-362.085 170.856 1644
-358.808 171.168 1647
-355.085 171.272 1648
-351.144 171.272 1648
-347.624 171.479 1650
-344.303 171.791 1653
-341.174 172.207 1657
-337.212 172.207 1657
-333.451 172.311 1658
-330.281 172.727 1662
-326.503 172.83 1663
-322.526 172.83 1663
-318.549 172.83 1663
-314.951 173.038 1665
-310.969 173.038 1665
-306.988 173.038 1665
-303.006 173.038 1665
-299.923 173.558 1670
-295.929 173.558 1670
-291.936 173.558 1670
-287.942 173.558 1670
-283.949 173.558 1670
-279.955 173.558 1670
-275.962 173.558 1670
-272.294 173.766 1672
-268.456 173.87 1673
-264.456 173.87 1673
-260.455 173.87 1673
-256.454 173.87 1673
-252.454 173.87 1673
-248.75 174.078 1675
-244.745 174.078 1675
-240.739 174.078 1675
-236.734 174.078 1675
-232.728 174.078 1675
-228.723 174.078 1675
-224.986 174.285 1677
-220.975 174.285 1677
-216.965 174.285 1677
-212.955 174.285 1677
-208.945 174.285 1677
-204.69 174.078 1675
-200.445 173.87 1673
-196.445 173.87 1673
-192.444 173.87 1673
-188.331 173.766 1672
-184.332 173.766 1672
-180.334 173.766 1672
-176.336 173.766 1672
-171.822 173.246 1667
-167.836 173.246 1667
-163.85 173.246 1667
-159.671 173.038 1665
-155.69 173.038 1665
-151.708 173.038 1665
-147.904 173.246 1667
-143.918 173.246 1667
-139.932 173.246 1667
-135.782 173.038 1665
-131.801 173.038 1665
-127.589 172.727 1662
-123.615 172.727 1662
-119.712 172.83 1663
-116.014 173.246 1667
-112.028 173.246 1667
-108.106 173.35 1668
-104.242 173.558 1670
-100.249 173.558 1670
-96.2554 173.558 1670
-188.685 407.913 3925
-179.3 407.913 3925
-169.914 407.913 3925
-158.687 403.236 3880
-149.063 402.301 3871
-141.756 407.913 3925
-132.37 407.913 3925
-123.298 408.952 3935
-114.409 410.823 3953
-105.222 411.862 3963
-95.7449 411.862 3963
-86.6817 413.837 3982
-77.7021 416.747 4010
-68.4527 418.825 4030
-58.8158 418.825 4030
-49.8988 424.957 4089
-40.1208 424.957 4089
-30.3427 424.957 4089
330.634 423.918 4079
340.388 423.918 4079
350.142 423.918 4079
356.367 419.761 4039
366.026 419.761 4039
374.847 418.825 4030
382.576 416.747 4010
390.307 414.772 3991
397.045 411.862 3963
406.522 411.862 3963
409.176 405.107 3898
408.942 395.858 3809
408.721 387.024 3724
417.626 387.024 3724
421.836 382.763 3683
425.849 378.502 3642
427.16 372.058 3580
430.122 367.278 3534
438.573 367.278 3534
438.676 360.419 3468
441.556 356.054 3426
447.91 354.599 3412
456.069 354.599 3412
464.229 354.599 3412
468.511 351.689 3384
476.603 351.689 3384
492.716 357.509 3440
500.943 357.509 3440
512.277 359.691 3461
523.862 361.977 3483
534.33 363.432 3497
542.693 363.432 3497
561.77 370.499 3565
570.295 370.499 3565
578.82 370.499 3565
683.229 418.825 4030
692.866 418.825 4030
702.503 418.825 4030
713.731 419.761 4039
723.389 419.761 4039
733.048 419.761 4039
739.212 417.786 4020
748.825 417.786 4020
756.552 416.747 4010
766.141 416.747 4010
773.989 415.812 4001
