ply
format ascii 1.0
comment File generated
element vertex 2241
property float x
property float y
property float z
end_header
1874.63 1020.86 3826
1883.78 1020.86 3826
1858.79 1002.45 3757
1847.39 991.509 3716
1827.3 976.033 3658
1816.47 965.627 3619
1825.13 965.627 3619
1825.67 961.358 3603
1818.51 953.086 3572
1823.47 951.219 3565
1831.99 951.219 3565
1836.39 949.084 3557
1844.9 949.084 3557
1849.23 946.95 3549
1861.91 949.084 3557
1870.41 949.084 3557
1886.84 953.086 3572
1903.87 957.356 3588
1924.71 963.492 3611
1933.35 963.492 3611
1958.66 971.764 3642
1976.01 976.033 3658
1998.32 982.704 3683
2033.83 995.778 3732
2042.75 995.778 3732
2098.96 1018.72 3818
2127.41 1028.06 3853
2156.59 1037.67 3889
2165.89 1037.67 3889
2175.19 1037.67 3889
2184.49 1037.67 3889
2193.79 1037.67 3889
2203.09 1037.67 3889
2202.15 1032.87 3871
2226.83 1040.07 3898
2236.15 1040.07 3898
2245.47 1040.07 3898
2244.38 1035.27 3880
2264.11 1040.07 3898
2273.44 1040.07 3898
2282.76 1040.07 3898
2292.08 1040.07 3898
2296.09 1037.67 3889
2305.39 1037.67 3889
2309.33 1035.27 3880
2313.23 1032.87 3871
2322.49 1032.87 3871
2342.58 1037.67 3889
2362.77 1042.47 3907
2372.11 1042.47 3907
2386.94 1044.87 3916
2407.93 1049.94 3935
2428.4 1054.75 3953
2437.85 1054.75 3953
2447.31 1054.75 3953
2456.76 1054.75 3953
2466.21 1054.75 3953
2470.03 1052.34 3944
2485.12 1054.75 3953
2500.88 1057.41 3963
2510.36 1057.41 3963
2519.83 1057.41 3963
2529.31 1057.41 3963
2526.62 1052.34 3944
2536.05 1052.34 3944
2533.22 1047.27 3925
2525.11 1040.07 3898
2534.43 1040.07 3898
2543.75 1040.07 3898
2553.07 1040.07 3898
2562.4 1040.07 3898
2559.84 1035.27 3880
2563.16 1032.87 3871
2572.42 1032.87 3871
2551.66 1020.86 3826
2560.81 1020.86 3826
2612.28 1037.67 3889
2684.27 1062.48 3982
2693.79 1062.48 3982
2709.42 1064.88 3991
2718.97 1064.88 3991
2728.51 1064.88 3991
2731.88 1062.48 3982
540.309 190.244 713
542.774 190.511 714
544.481 190.511 714
546.189 190.511 714
-2370.46 852.341 3166
-2362.89 852.341 3166
-2350.86 850.726 3160
-2338.85 849.11 3154
-2326.87 847.495 3148
-2319.35 847.495 3148
-2307.41 845.88 3142
-2295.51 844.265 3136
-2283.63 842.649 3130
-2276.14 842.649 3130
-2268.66 842.649 3130
-2265.51 844.265 3136
-2266.65 847.495 3148
-2259.12 847.495 3148
-2251.6 847.495 3148
-2256.9 852.341 3166
-2257.85 855.572 3178
-2258.75 858.802 3190
-2251.12 858.802 3190
-2251.93 862.033 3202
-2270.21 871.994 3239
-2298.09 885.724 3290
-2290.22 885.724 3290
-2314.96 898.377 3337
-2315.97 901.877 3350
-2307.96 901.877 3350
-2299.94 901.877 3350
-2296.72 903.762 3357
-2307.1 911.03 3384
-2308.52 914.799 3398
-2300.4 914.799 3398
-2306.44 920.453 3419
-2312.38 926.107 3440
-2308.84 927.991 3447
-2300.6 927.991 3447
-2301.67 931.76 3461
-2303.33 935.798 3476
-2299.64 937.683 3483
-2291.31 937.683 3483
-2287.57 939.567 3490
-2283.79 941.452 3497
-2275.43 941.452 3497
-2267.07 941.452 3497
-2258.71 941.452 3497
-2255.49 943.606 3505
-2247.11 943.606 3505
-2238.73 943.606 3505
-2239.89 947.644 3520
-2235.91 949.528 3527
-2236.95 953.567 3542
-2228.48 953.567 3542
-2224.4 955.451 3549
-2220.91 957.605 3557
-2217.38 959.759 3565
-2208.85 959.759 3565
-2209.59 963.797 3580
-2210.25 967.835 3595
-2206.55 969.989 3603
-2197.93 969.989 3603
-2194.18 972.143 3611
-2185.54 972.143 3611
-2181.73 974.296 3619
-2173.08 974.296 3619
-2164.42 974.296 3619
-2160.54 976.45 3627
-2151.86 976.45 3627
-2143.19 976.45 3627
-2134.52 976.45 3627
-2125.84 976.45 3627
-2117.17 976.45 3627
-2103.85 974.296 3619
-2090.56 972.143 3611
-2081.92 972.143 3611
-2073.29 972.143 3611
-2064.65 972.143 3611
-2060.57 974.296 3619
-2051.92 974.296 3619
-2043.27 974.296 3619
-2034.61 974.296 3619
-2025.96 974.296 3619
-2012.84 972.143 3611
-2004.21 972.143 3611
-1995.57 972.143 3611
-1986.94 972.143 3611
-1978.3 972.143 3611
-1969.67 972.143 3611
-1961.03 972.143 3611
-1956.73 974.296 3619
-1948.07 974.296 3619
-1939.42 974.296 3619
-1930.76 974.296 3619
-1917.86 972.143 3611
-1913.45 974.296 3619
-1913.22 978.604 3635
-1904.53 978.604 3635
-1899.49 980.488 3642
-1890.78 980.488 3642
-1882.07 980.488 3642
-1873.36 980.488 3642
-1861.07 978.604 3635
-1855.94 980.488 3642
-1851.29 982.642 3650
-1842.56 982.642 3650
-1833.83 982.642 3650
-1821.11 980.488 3642
-1812.4 980.488 3642
-1803.69 980.488 3642
-1798.92 982.642 3650
-1790.19 982.642 3650
-1781.46 982.642 3650
-1772.74 982.642 3650
-1756.76 978.604 3635
-1740.37 974.296 3619
-1731.72 974.296 3619
-1723.06 974.296 3619
-1714.41 974.296 3619
-1691.14 965.951 3588
-1678.81 963.797 3580
-1670.25 963.797 3580
-1654.73 959.759 3565
-1642.51 957.605 3557
-1630.33 955.451 3549
-1621.84 955.451 3549
-1606.54 951.413 3534
-1594.92 949.528 3527
-1583.34 947.644 3520
-1574.92 947.644 3520
-1566.5 947.644 3520
-1558.08 947.644 3520
-1546.15 945.49 3512
-1537.75 945.49 3512
-1526.3 943.606 3505
-1514.45 941.452 3497
-1506.09 941.452 3497
-1497.73 941.452 3497
-1489.37 941.452 3497
-1484.39 943.606 3505
-1482.33 947.644 3520
-1476.84 949.528 3527
-1468.41 949.528 3527
-1459.97 949.528 3527
-1451.54 949.528 3527
-1443.11 949.528 3527
-1434.67 949.528 3527
-1426.24 949.528 3527
-1417.8 949.528 3527
-1409.37 949.528 3527
-1400.93 949.528 3527
-1392.5 949.528 3527
-1384.07 949.528 3527
-1378.36 951.413 3534
-1369.91 951.413 3534
-1367.24 955.451 3549
-1358.75 955.451 3549
-1353.31 957.605 3557
-1344.8 957.605 3557
-1336.3 957.605 3557
-1327.79 957.605 3557
-1319.29 957.605 3557
-1310.78 957.605 3557
-1302.27 957.605 3557
-1290.86 955.451 3549
-1282.37 955.451 3549
-1273.89 955.451 3549
-1265.4 955.451 3549
-1256.91 955.451 3549
-1245.96 953.567 3542
-1237.49 953.567 3542
-1223.82 949.528 3527
-1215.38 949.528 3527
-1206.95 949.528 3527
-1198.52 949.528 3527
-1190.08 949.528 3527
-1179.3 947.644 3520
-1170.89 947.644 3520
-1164.78 949.528 3527
-1156.35 949.528 3527
-1147.91 949.528 3527
-1141.74 951.413 3534
-1133.29 951.413 3534
-1124.84 951.413 3534
-1116.39 951.413 3534
-533.939 469.245 1743
-529.771 469.245 1743
-526.206 469.784 1745
-522.033 469.784 1745
-517.861 469.784 1745
-513.688 469.784 1745
-509.515 469.784 1745
-504.184 468.707 1741
-500.02 468.707 1741
-495.003 467.899 1738
-490.282 467.361 1736
-485.01 466.284 1732
-480.869 466.284 1732
-475.901 465.476 1729
-471.767 465.476 1729
-467.632 465.476 1729
-463.498 465.476 1729
-457.769 463.861 1723
-452.859 463.053 1720
-447.702 461.976 1716
-443.34 461.707 1715
-439.239 461.707 1715
-434.123 460.63 1711
-428.272 458.746 1704
-423.451 457.938 1701
-419.383 457.938 1701
-414.827 457.4 1699
-409.555 456.054 1694
-404.308 454.708 1689
-400.269 454.708 1689
-395.292 453.631 1685
-390.566 452.823 1682
-385.624 451.746 1678
-381.612 451.746 1678
-377.374 451.477 1677
-372.918 450.939 1675
-368.472 450.4 1673
-364.472 450.4 1673
-360.471 450.4 1673
-356.257 450.131 1672
-352.259 450.131 1672
-348.261 450.131 1672
-344.263 450.131 1672
-340.264 450.131 1672
-336.467 450.4 1673
-332.467 450.4 1673
-329.251 451.477 1677
-325.241 451.477 1677
-321.422 451.746 1678
-318.166 452.823 1682
-314.144 452.823 1682
-310.122 452.823 1682
-306.282 453.092 1683
-302.617 453.631 1685
-298.942 454.169 1687
-294.907 454.169 1687
-291.218 454.708 1689
-287.349 454.977 1690
-283.643 455.515 1692
-279.597 455.515 1692
-276.04 456.323 1695
-272.307 456.861 1697
-268.249 456.861 1697
-264.191 456.861 1697
-260.9 458.207 1702
-256.83 458.207 1702
-253.354 459.284 1706
-249.274 459.284 1706
-245.482 459.823 1708
-241.539 460.092 1709
-237.452 460.092 1709
-233.366 460.092 1709
-229.547 460.63 1711
-225.719 461.169 1713
-221.882 461.707 1715
-217.781 461.707 1715
-213.804 461.976 1716
-209.701 461.976 1716
-205.597 461.976 1716
-201.494 461.976 1716
-384.019 1051.83 3907
-374.677 1051.83 3907
-365.334 1051.83 3907
-355.171 1049.41 3898
-345.85 1049.41 3898
-337.305 1051.83 3907
-327.962 1051.83 3907
-320.088 1056.68 3925
-311.493 1059.37 3935
-302.083 1059.37 3935
-292.674 1059.37 3935
-282.544 1056.68 3925
-273.854 1059.37 3935
-265.049 1061.79 3944
-255.618 1061.79 3944
-246.748 1064.21 3953
-237.296 1064.21 3953
-227.843 1064.21 3953
-218.39 1064.21 3953
-208.937 1064.21 3953
-199.484 1064.21 3953
-190.031 1064.21 3953
-179.756 1059.37 3935
-169.914 1056.68 3925
-160.16 1054.25 3916
-149.756 1046.98 3889
-140.456 1046.98 3889
-130.853 1044.56 3880
-120.164 1032.45 3835
-109.981 1023.02 3800
-100.894 1023.02 3800
-90.5747 1009.29 3749
-81.0655 1002.56 3724
-71.8309 997.987 3707
-62.9663 997.987 3707
-53.8682 993.68 3691
-44.6392 984.796 3658
-35.8133 982.642 3650
-27.0851 982.642 3650
-18.2412 976.45 3627
-9.48348 967.835 3595
-0.886748 967.835 3595
7.69497 965.951 3588
16.275 965.951 3588
24.7441 961.643 3572
33.2206 959.759 3565
41.7456 959.759 3565
50.2706 959.759 3565
58.5317 955.451 3549
67.0185 955.451 3549
75.3563 953.567 3542
83.8263 953.567 3542
92.0878 951.413 3534
100.539 951.413 3534
108.99 951.413 3534
117.44 951.413 3534
125.891 951.413 3534
134.076 949.528 3527
142.51 949.528 3527
150.944 949.528 3527
159.378 949.528 3527
167.813 949.528 3527
176.247 949.528 3527
184.314 947.644 3520
192.732 947.644 3520
200.692 945.49 3512
209.09 945.49 3512
217.055 943.606 3505
225.436 943.606 3505
233.818 943.606 3505
242.683 945.49 3512
251.081 945.49 3512
260.071 947.644 3520
268.488 947.644 3520
276.906 947.644 3520
286.458 951.413 3534
295.576 953.567 3542
304.046 953.567 3542
312.516 953.567 3542
320.986 953.567 3542
330.107 955.451 3549
338.594 955.451 3549
347.081 955.451 3549
356.369 957.605 3557
364.875 957.605 3557
373.381 957.605 3557
381.028 955.451 3549
388.746 953.567 3542
397.216 953.567 3542
402.25 945.49 3512
408.894 941.452 3497
415.586 937.683 3483
422.09 933.645 3468
430.383 933.645 3468
436.019 927.991 3447
441.556 922.338 3426
446.991 916.684 3405
455.134 916.684 3405
459.467 909.146 3377
464.773 903.762 3357
468.998 896.493 3330
476.961 896.493 3330
483.031 892.993 3317
489.927 891.108 3310
497.842 891.108 3310
505.757 891.108 3310
514.759 892.993 3317
522.691 892.993 3317
530.623 892.993 3317
539.529 894.608 3323
548.628 896.493 3330
556.591 896.493 3330
564.554 896.493 3330
572.517 896.493 3330
580.48 896.493 3330
588.444 896.493 3330
597.66 898.377 3337
605.64 898.377 3337
613.62 898.377 3337
621.6 898.377 3337
629.579 898.377 3337
637.559 898.377 3337
646.7 899.992 3343
654.694 899.992 3343
662.688 899.992 3343
670.682 899.992 3343
678.676 899.992 3343
686.67 899.992 3343
694.664 899.992 3343
701.397 898.377 3337
709.377 898.377 3337
715.852 896.493 3330
723.815 896.493 3330
730.24 894.608 3323
736.853 892.993 3317
744.785 892.993 3317
752.717 892.993 3317
760.649 892.993 3317
768.581 892.993 3317
776.513 892.993 3317
782.79 891.108 3310
789.033 889.224 3303
798.62 891.108 3310
808.241 892.993 3317
816.173 892.993 3317
824.105 892.993 3317
832.037 892.993 3317
841.488 894.608 3323
849.434 894.608 3323
866.153 903.762 3357
875.743 905.377 3363
891.144 912.915 3391
899.252 912.915 3391
918.6 924.222 3433
934.368 931.76 3461
950.543 939.567 3490
958.889 939.567 3490
977.489 949.528 3527
992.073 955.451 3549
1007.04 961.643 3572
1015.59 961.643 3572
1026.42 963.797 3580
1039.32 967.835 3595
1052.58 972.143 3611
1065.92 976.45 3627
1074.59 976.45 3627
1092.52 984.796 3658
1106.39 989.373 3675
1115.17 989.373 3675
1123.96 989.373 3675
1132.75 989.373 3675
1141.54 989.373 3675
1150.33 989.373 3675
1159.11 989.373 3675
1170.45 991.526 3683
1179.25 991.526 3683
1188.06 991.526 3683
1194.27 989.373 3675
1197.49 984.796 3658
1206.24 984.796 3658
1214.98 984.796 3658
1223.73 984.796 3658
1232.48 984.796 3658
1238.51 982.642 3650
1247.24 982.642 3650
1255.97 982.642 3650
1261.92 980.488 3642
1270.63 980.488 3642
1279.34 980.488 3642
1288.05 980.488 3642
1296.76 980.488 3642
1305.47 980.488 3642
1314.18 980.488 3642
1322.89 980.488 3642
1331.6 980.488 3642
1337.73 978.604 3635
1346.42 978.604 3635
1355.12 978.604 3635
1360.81 976.45 3627
1366.46 974.296 3619
1372.07 972.143 3611
1380.71 972.143 3611
1386.27 969.989 3603
1391.78 967.835 3595
1394.54 963.797 3580
1403.1 963.797 3580
1408.51 961.643 3572
1414.27 959.759 3565
1419.6 957.605 3557
1424.9 955.451 3549
1433.38 955.451 3549
1430.09 947.644 3520
1438.5 947.644 3520
1443.63 945.49 3512
1452.03 945.49 3512
1457.52 943.606 3505
1459.63 939.567 3490
1465.03 937.683 3483
1473.36 937.683 3483
1478.71 935.798 3476
1487.02 935.798 3476
1507.81 943.606 3505
1525.71 949.528 3527
1534.14 949.528 3527
1549.14 953.567 3542
1567.72 959.759 3565
1593.05 969.989 3603
1612.33 976.45 3627
1627.71 980.488 3642
1651.24 989.373 3675
1701.14 1013.87 3766
1710.14 1013.87 3766
1746.54 1030.02 3826
1763.95 1034.87 3844
1793.9 1046.98 3889
1815.72 1054.25 3916
1825.08 1054.25 3916
1843.35 1059.37 3935
1852.76 1059.37 3935
1862.17 1059.37 3935
1871.58 1059.37 3935
1876.2 1056.68 3925
1872.62 1049.41 3898
1881.94 1049.41 3898
1891.26 1049.41 3898
1874.25 1034.87 3844
1883.45 1034.87 3844
1892.64 1034.87 3844
1858.79 1011.45 3757
1847.39 1000.41 3716
1827.3 984.796 3658
1816.47 974.296 3619
1825.13 974.296 3619
1825.67 969.989 3603
1818.51 961.643 3572
1823.47 959.759 3565
1831.99 959.759 3565
1836.39 957.605 3557
1844.9 957.605 3557
1849.23 955.451 3549
1861.91 957.605 3557
1870.41 957.605 3557
1886.84 961.643 3572
1903.87 965.951 3588
1924.71 972.143 3611
1933.35 972.143 3611
1958.66 980.488 3642
1976.01 984.796 3658
1998.32 991.526 3683
2033.83 1004.72 3732
2042.75 1004.72 3732
2098.96 1027.87 3818
2127.41 1037.29 3853
2156.59 1046.98 3889
2165.89 1046.98 3889
2175.19 1046.98 3889
2184.49 1046.98 3889
2193.79 1046.98 3889
2203.09 1046.98 3889
2202.15 1042.14 3871
2226.83 1049.41 3898
2236.15 1049.41 3898
2245.47 1049.41 3898
2254.79 1049.41 3898
2274.57 1054.25 3916
2283.93 1054.25 3916
2293.3 1054.25 3916
2302.66 1054.25 3916
2296.09 1046.98 3889
2305.39 1046.98 3889
2309.33 1044.56 3880
2318.61 1044.56 3880
2327.89 1044.56 3880
2342.58 1046.98 3889
2362.77 1051.83 3907
2372.11 1051.83 3907
2386.94 1054.25 3916
2407.93 1059.37 3935
2428.4 1064.21 3953
2437.85 1064.21 3953
2447.31 1064.21 3953
2456.76 1064.21 3953
2466.21 1064.21 3953
2470.03 1061.79 3944
2485.12 1064.21 3953
2500.88 1066.91 3963
2510.36 1066.91 3963
2519.83 1066.91 3963
2529.31 1066.91 3963
2526.62 1061.79 3944
2536.05 1061.79 3944
2533.22 1056.68 3925
2525.11 1049.41 3898
2534.43 1049.41 3898
2543.75 1049.41 3898
2553.07 1049.41 3898
2562.4 1049.41 3898
2559.84 1044.56 3880
2563.16 1042.14 3871
2572.42 1042.14 3871
2551.66 1030.02 3826
2560.81 1030.02 3826
2612.28 1046.98 3889
2684.27 1072.02 3982
2693.79 1072.02 3982
2709.42 1074.45 3991
2718.97 1074.45 3991
2728.51 1074.45 3991
2731.88 1072.02 3982
540.309 191.952 713
542.774 192.221 714
544.481 192.221 714
546.189 192.221 714
-2374.95 861.555 3172
-2367.37 861.555 3172
-2355.32 859.925 3166
-2343.3 858.296 3160
-2326.87 855.036 3148
-2319.35 855.036 3148
-2311.82 855.036 3148
-2299.9 853.407 3142
-2283.63 850.147 3130
-2284.87 853.407 3142
-2277.36 853.407 3142
-2274.18 855.036 3148
-2266.65 855.036 3148
-2267.73 858.296 3160
-2260.18 858.296 3160
-2261.18 861.555 3172
-2257.85 863.185 3178
-2263 868.074 3196
-2255.36 868.074 3196
-2260.37 872.963 3214
-2279.32 883.284 3252
-2298.09 893.605 3290
-2290.22 893.605 3290
-2314.96 906.371 3337
-2315.97 909.902 3350
-2307.96 909.902 3350
-2299.94 909.902 3350
-2296.72 911.803 3357
-2307.1 919.137 3384
-2308.52 922.939 3398
-2300.4 922.939 3398
-2306.44 928.643 3419
-2312.38 934.347 3440
-2308.84 936.248 3447
-2300.6 936.248 3447
-2301.67 940.051 3461
-2303.33 944.125 3476
-2299.64 946.026 3483
-2291.31 946.026 3483
-2287.57 947.928 3490
-2283.79 949.829 3497
-2275.43 949.829 3497
-2267.07 949.829 3497
-2258.71 949.829 3497
-2255.49 952.002 3505
-2247.11 952.002 3505
-2238.73 952.002 3505
-2239.89 956.076 3520
-2235.91 957.977 3527
-2236.95 962.052 3542
-2228.48 962.052 3542
-2224.4 963.953 3549
-2220.91 966.126 3557
-2217.38 968.299 3565
-2208.85 968.299 3565
-2209.59 972.373 3580
-2210.25 976.447 3595
-2206.55 978.62 3603
-2197.93 978.62 3603
-2194.18 980.793 3611
-2185.54 980.793 3611
-2181.73 982.966 3619
-2173.08 982.966 3619
-2164.42 982.966 3619
-2160.54 985.139 3627
-2151.86 985.139 3627
-2143.19 985.139 3627
-2134.52 985.139 3627
-2125.84 985.139 3627
-2117.17 985.139 3627
-2103.85 982.966 3619
-2090.56 980.793 3611
-2081.92 980.793 3611
-2073.29 980.793 3611
-2064.65 980.793 3611
-2060.57 982.966 3619
-2051.92 982.966 3619
-2043.27 982.966 3619
-2034.61 982.966 3619
-2025.96 982.966 3619
-2012.84 980.793 3611
-2004.21 980.793 3611
-1995.57 980.793 3611
-1986.94 980.793 3611
-1978.3 980.793 3611
-1969.67 980.793 3611
-1961.03 980.793 3611
-1956.73 982.966 3619
-1948.07 982.966 3619
-1939.42 982.966 3619
-1930.76 982.966 3619
-1917.86 980.793 3611
-1913.45 982.966 3619
-1909.01 985.139 3627
-1900.34 985.139 3627
-1895.84 987.312 3635
-1887.14 987.312 3635
-1878.45 987.312 3635
-1869.76 987.312 3635
-1856.97 985.139 3627
-1855.94 989.213 3642
-1847.23 989.213 3642
-1838.52 989.213 3642
-1829.81 989.213 3642
-1821.11 989.213 3642
-1816.38 991.386 3650
-1807.65 991.386 3650
-1802.86 993.559 3658
-1794.12 993.559 3658
-1785.37 993.559 3658
-1776.62 993.559 3658
-1756.76 987.312 3635
-1748.07 987.312 3635
-1739.37 987.312 3635
-1730.68 987.312 3635
-1714.41 982.966 3619
-1691.14 974.546 3588
-1678.81 972.373 3580
-1670.25 972.373 3580
-1654.73 968.299 3565
-1638.82 963.953 3549
-1620.22 957.977 3527
-1611.79 957.977 3527
-1603.35 957.977 3527
-1588.14 953.903 3512
-1576.59 952.002 3505
-1568.21 952.002 3505
-1559.83 952.002 3505
-1551.45 952.002 3505
-1543.06 952.002 3505
-1534.68 952.002 3505
-1519.77 947.928 3490
-1511.42 947.928 3490
-1503.08 947.928 3490
-1497.73 949.829 3497
-1489.37 949.829 3497
-1481.01 949.829 3497
-1476.01 952.002 3505
-1473.91 956.076 3520
-1465.49 956.076 3520
-1457.08 956.076 3520
-1451.54 957.977 3527
-1443.11 957.977 3527
-1434.67 957.977 3527
-1426.24 957.977 3527
-1417.8 957.977 3527
-1409.37 957.977 3527
-1400.93 957.977 3527
-1392.5 957.977 3527
-1384.07 957.977 3527
-1375.63 957.977 3527
-1367.2 957.977 3527
-1361.46 959.879 3534
-1356.07 962.052 3542
-1350.27 963.953 3549
-1341.78 963.953 3549
-1336.3 966.126 3557
-1327.79 966.126 3557
-1319.29 966.126 3557
-1307.83 963.953 3549
-1299.35 963.953 3549
-1290.86 963.953 3549
-1282.37 963.953 3549
-1273.89 963.953 3549
-1265.4 963.953 3549
-1256.91 963.953 3549
-1243.15 959.879 3534
-1234.7 959.879 3534
-1223.82 957.977 3527
-1215.38 957.977 3527
-1204.55 956.076 3520
-1196.14 956.076 3520
-1187.72 956.076 3520
-1179.3 956.076 3520
-1170.89 956.076 3520
-1167.09 959.879 3534
-1158.64 959.879 3534
-1150.19 959.879 3534
-1141.74 959.879 3534
-1135.85 962.052 3542
-1127.38 962.052 3542
-1118.91 962.052 3542
-533.939 473.421 1743
-529.771 473.421 1743
-526.206 473.964 1745
-522.033 473.964 1745
-517.861 473.964 1745
-513.688 473.964 1745
-509.515 473.964 1745
-504.184 472.877 1741
-500.02 472.877 1741
-495.003 472.063 1738
-490.282 471.519 1736
-485.57 470.976 1734
-481.424 470.976 1734
-476.452 470.161 1731
-471.767 469.618 1729
-467.632 469.618 1729
-463.498 469.618 1729
-457.769 467.988 1723
-452.859 467.174 1720
-447.702 466.087 1716
-443.34 465.815 1715
-439.239 465.815 1715
-434.123 464.729 1711
-428.775 463.371 1706
-423.7 462.285 1702
-419.63 462.285 1702
-415.315 462.013 1701
-409.555 460.112 1694
-404.547 459.025 1690
-400.506 459.025 1690
-395.761 458.21 1687
-391.262 457.667 1685
-386.543 456.852 1682
-382.521 456.852 1682
-377.599 455.766 1678
-373.586 455.766 1678
-368.913 454.951 1675
-364.908 454.951 1675
-360.902 454.951 1675
-356.897 454.951 1675
-352.891 454.951 1675
-348.886 454.951 1675
-344.88 454.951 1675
-340.468 454.408 1673
-336.87 454.951 1675
-333.262 455.494 1677
-329.448 455.766 1678
-325.435 455.766 1678
-321.806 456.309 1680
-318.356 457.124 1683
-314.331 457.124 1683
-310.306 457.124 1683
-307.01 458.21 1687
-302.976 458.21 1687
-299.296 458.754 1689
-295.257 458.754 1689
-291.391 459.025 1690
-287.689 459.568 1692
-284.146 460.383 1695
-280.093 460.383 1695
-276.365 460.926 1697
-272.307 460.926 1697
-268.565 461.47 1699
-264.503 461.47 1699
-260.9 462.285 1702
-257.433 463.371 1706
-253.651 463.914 1708
-249.566 463.914 1708
-245.626 464.186 1709
-241.539 464.186 1709
-237.452 464.186 1709
-233.366 464.186 1709
-229.547 464.729 1711
-225.983 465.815 1715
-222.011 466.087 1716
-217.908 466.087 1716
-213.804 466.087 1716
-209.701 466.087 1716
-205.597 466.087 1716
-201.494 466.087 1716
-197.045 465.272 1713
-373.813 1058.75 3898
-364.492 1058.75 3898
-355.171 1058.75 3898
-345.85 1058.75 3898
-337.305 1061.19 3907
-327.962 1061.19 3907
-320.088 1066.08 3925
-311.493 1068.8 3935
-302.083 1068.8 3935
-292.674 1068.8 3935
-282.544 1066.08 3925
-273.854 1068.8 3935
-264.444 1068.8 3935
-255.035 1068.8 3935
-245.625 1068.8 3935
-236.215 1068.8 3935
-226.805 1068.8 3935
-216.843 1066.08 3925
-207.457 1066.08 3925
-198.071 1066.08 3925
-188.685 1066.08 3925
-179.3 1066.08 3925
-169.914 1066.08 3925
-158.319 1051.41 3871
-149.063 1051.41 3871
-139.806 1051.41 3871
-129.942 1046.52 3853
-120.164 1041.63 3835
-109.489 1027.51 3783
-100.442 1027.51 3783
-90.3572 1015.83 3740
-81.0655 1011.49 3724
-71.5208 1002.52 3691
-62.6945 1002.52 3691
-53.7515 1000.35 3683
-44.5416 991.386 3650
-35.7348 989.213 3642
-27.0257 989.213 3642
-18.2412 985.139 3627
-9.50459 978.62 3603
-0.886748 976.447 3595
7.70999 976.447 3595
16.3067 976.447 3595
24.7995 972.373 3580
33.2859 970.2 3572
41.7456 968.299 3565
50.2706 968.299 3565
58.5317 963.953 3549
67.0185 963.953 3549
75.3563 962.052 3542
83.8263 962.052 3542
92.0878 959.879 3534
100.539 959.879 3534
108.99 959.879 3534
117.44 959.879 3534
125.891 959.879 3534
134.076 957.977 3527
142.51 957.977 3527
150.944 957.977 3527
159.378 957.977 3527
167.813 957.977 3527
176.247 957.977 3527
184.314 956.076 3520
192.732 956.076 3520
200.692 953.903 3512
208.673 952.002 3505
217.055 952.002 3505
225.436 952.002 3505
233.818 952.002 3505
242.683 953.903 3512
251.081 953.903 3512
260.071 956.076 3520
268.488 956.076 3520
277.456 957.977 3527
287.106 962.052 3542
296.16 963.953 3549
304.647 963.953 3549
313.134 963.953 3549
321.621 963.953 3549
330.851 966.126 3557
339.357 966.126 3557
347.863 966.126 3557
357.17 968.299 3565
365.695 968.299 3565
374.22 968.299 3565
381.887 966.126 3557
389.514 963.953 3549
398.001 963.953 3549
403.166 956.076 3520
409.83 952.002 3505
415.586 946.026 3483
422.09 941.952 3468
430.383 941.952 3468
436.905 938.15 3454
441.556 930.544 3426
447.91 926.742 3412
456.069 926.742 3412
461.371 921.038 3391
465.604 913.433 3363
469.984 906.371 3337
477.964 906.371 3337
483.031 900.939 3317
489.927 899.037 3310
497.842 899.037 3310
506.827 900.939 3317
514.759 900.939 3317
522.691 900.939 3317
530.623 900.939 3317
540.665 904.47 3330
548.628 904.47 3330
556.591 904.47 3330
564.554 904.47 3330
572.517 904.47 3330
581.701 906.371 3337
589.68 906.371 3337
597.66 906.371 3337
606.729 908.001 3343
614.723 908.001 3343
622.717 908.001 3343
632.032 909.902 3350
640.043 909.902 3350
648.054 909.902 3350
656.065 909.902 3350
664.076 909.902 3350
672.086 909.902 3350
680.097 909.902 3350
688.108 909.902 3350
696.119 909.902 3350
702.659 908.001 3343
710.653 908.001 3343
718.647 908.001 3343
723.815 904.47 3330
731.778 904.47 3330
738.186 902.568 3323
746.133 902.568 3323
754.079 902.568 3323
762.025 902.568 3323
769.971 902.568 3323
777.918 902.568 3323
784.445 900.939 3317
790.705 899.037 3310
798.62 899.037 3310
808.241 900.939 3317
816.173 900.939 3317
824.105 900.939 3317
832.037 900.939 3317
841.488 902.568 3323
849.434 902.568 3323
866.153 911.803 3357
875.743 913.433 3363
891.144 921.038 3391
899.252 921.038 3391
918.6 932.446 3433
934.368 940.051 3461
948.636 946.026 3483
956.965 946.026 3483
977.489 957.977 3527
992.073 963.953 3549
1007.04 970.2 3572
1015.59 970.2 3572
1026.42 972.373 3580
1039.32 976.447 3595
1052.58 980.793 3611
1065.92 985.139 3627
1074.59 985.139 3627
1090.13 991.386 3650
1106.39 998.176 3675
1115.17 998.176 3675
1123.96 998.176 3675
1132.75 998.176 3675
1141.54 998.176 3675
1150.33 998.176 3675
1159.11 998.176 3675
1167.9 998.176 3675
1176.69 998.176 3675
1185.48 998.176 3675
1194.27 998.176 3675
1197.49 993.559 3658
1206.24 993.559 3658
1214.98 993.559 3658
1221.06 991.386 3650
1229.78 991.386 3650
1238.51 991.386 3650
1247.24 991.386 3650
1253.22 989.213 3642
1261.92 989.213 3642
1270.63 989.213 3642
1279.34 989.213 3642
1288.05 989.213 3642
1294.27 987.312 3635
1302.96 987.312 3635
1311.65 987.312 3635
1320.35 987.312 3635
1329.04 987.312 3635
1337.73 987.312 3635
1346.42 987.312 3635
1355.12 987.312 3635
1360.81 985.139 3627
1366.46 982.966 3619
1372.07 980.793 3611
1380.71 980.793 3611
1386.27 978.62 3603
1391.78 976.447 3595
1394.54 972.373 3580
1403.1 972.373 3580
1408.51 970.2 3572
1414.27 968.299 3565
1419.6 966.126 3557
1424.9 963.953 3549
1433.38 963.953 3549
1430.09 956.076 3520
1438.5 956.076 3520
1443.63 953.903 3512
1452.03 953.903 3512
1457.52 952.002 3505
1459.63 947.928 3490
1465.03 946.026 3483
1473.36 946.026 3483
1478.71 944.125 3476
1487.02 944.125 3476
1507.81 952.002 3505
1525.71 957.977 3527
1534.14 957.977 3527
1549.14 962.052 3542
1567.72 968.299 3565
1593.05 978.62 3603
1612.33 985.139 3627
1627.71 989.213 3642
1647.65 996.003 3667
1701.14 1022.89 3766
1710.14 1022.89 3766
1731.02 1029.95 3792
1763.95 1044.08 3844
1785.59 1051.41 3871
1803.2 1056.3 3889
1825.08 1063.63 3916
1843.35 1068.8 3935
1852.76 1068.8 3935
1862.17 1068.8 3935
1871.58 1068.8 3935
1876.2 1066.08 3925
1872.62 1058.75 3898
1881.94 1058.75 3898
1891.26 1058.75 3898
1874.25 1044.08 3844
1883.45 1044.08 3844
1892.64 1044.08 3844
1858.79 1020.45 3757
1847.39 1009.31 3716
1827.3 993.559 3658
1812.46 980.793 3611
1821.09 980.793 3611
1825.67 978.62 3603
1818.51 970.2 3572
1823.47 968.299 3565
1831.99 968.299 3565
1836.39 966.126 3557
1840.75 963.953 3549
1845.59 962.052 3542
1857.72 963.953 3549
1866.21 963.953 3549
1878.92 966.126 3557
1891.67 968.299 3565
1912.45 974.546 3588
1921.03 974.546 3588
1941.98 980.793 3611
1959.26 985.139 3627
1984.75 993.559 3658
2020.21 1006.87 3707
2029.07 1006.87 3707
2089.06 1032.13 3800
2127.41 1046.52 3853
2141.62 1048.97 3862
2150.85 1048.97 3862
2175.19 1056.3 3889
2184.49 1056.3 3889
2193.79 1056.3 3889
2203.09 1056.3 3889
2202.15 1051.41 3871
2226.83 1058.75 3898
2236.15 1058.75 3898
2245.47 1058.75 3898
2254.79 1058.75 3898
2274.57 1063.63 3916
2283.93 1063.63 3916
2293.3 1063.63 3916
2302.66 1063.63 3916
2296.09 1056.3 3889
2305.39 1056.3 3889
2309.33 1053.86 3880
2318.61 1053.86 3880
2327.89 1053.86 3880
2342.58 1056.3 3889
2357.33 1058.75 3898
2366.65 1058.75 3898
2381.46 1061.19 3907
2407.93 1068.8 3935
2417.34 1068.8 3935
2426.75 1068.8 3935
2447.31 1073.68 3953
2456.76 1073.68 3953
2466.21 1073.68 3953
2464.39 1068.8 3935
2479.46 1071.24 3944
2488.89 1071.24 3944
2498.32 1071.24 3944
2507.75 1071.24 3944
2517.18 1071.24 3944
2508.68 1063.63 3916
2518.04 1063.63 3916
2509.98 1056.3 3889
2495.96 1046.52 3853
2505.17 1046.52 3853
2502.64 1041.63 3835
2511.81 1041.63 3835
2520.98 1041.63 3835
2518.94 1037.02 3818
2504.89 1027.51 3783
2513.94 1027.51 3783
2505.64 1020.45 3757
2514.63 1020.45 3757
2606.23 1053.86 3880
2639.78 1063.63 3916
2649.14 1063.63 3916
2658.51 1063.63 3916
540.309 193.66 713
542.774 193.931 714
544.481 193.931 714
546.189 193.931 714
-2374.95 869.154 3172
-2367.37 869.154 3172
-2355.32 867.509 3166
-2343.3 865.865 3160
-2326.87 862.577 3148
-2319.35 862.577 3148
-2311.82 862.577 3148
-2299.9 860.933 3142
-2283.63 857.645 3130
-2284.87 860.933 3142
-2277.36 860.933 3142
-2274.18 862.577 3148
-2266.65 862.577 3148
-2267.73 865.865 3160
-2260.18 865.865 3160
-2261.18 869.154 3172
-2257.85 870.798 3178
-2263 875.73 3196
-2255.36 875.73 3196
-2260.37 880.662 3214
-2279.32 891.074 3252
-2298.09 901.486 3290
-2290.22 901.486 3290
-2314.96 914.365 3337
-2315.97 917.927 3350
-2307.96 917.927 3350
-2299.94 917.927 3350
-2296.72 919.845 3357
-2307.1 927.243 3384
-2308.52 931.079 3398
-2300.4 931.079 3398
-2306.44 936.833 3419
-2302.97 938.752 3426
-2308.84 944.506 3447
-2300.6 944.506 3447
-2297.01 946.424 3454
-2298.03 950.26 3468
-2289.73 950.26 3468
-2281.44 950.26 3468
-2282.98 954.37 3483
-2274.65 954.37 3483
-2266.32 954.37 3483
-2257.99 954.37 3483
-2249.66 954.37 3483
-2241.34 954.37 3483
-2247.11 960.398 3505
-2238.73 960.398 3505
-2230.35 960.398 3505
-2235.91 966.426 3527
-2227.48 966.426 3527
-2219.05 966.426 3527
-2220.01 970.536 3542
-2215.91 972.455 3549
-2217.38 976.839 3565
-2208.85 976.839 3565
-2204.65 978.757 3572
-2210.25 985.059 3595
-2206.55 987.251 3603
-2197.93 987.251 3603
-2194.18 989.443 3611
-2185.54 989.443 3611
-2176.91 989.443 3611
-2168.27 989.443 3611
-2164.42 991.635 3619
-2160.54 993.827 3627
-2151.86 993.827 3627
-2143.19 993.827 3627
-2134.52 993.827 3627
-2125.84 993.827 3627
-2117.17 993.827 3627
-2099.19 989.443 3611
-2090.56 989.443 3611
-2077.31 987.251 3603
-2068.7 987.251 3603
-2060.08 987.251 3603
-2056.02 989.443 3611
-2047.38 989.443 3611
-2038.75 989.443 3611
-2030.11 989.443 3611
-2021.48 989.443 3611
-2008.39 987.251 3603
-1999.77 987.251 3603
-1991.15 987.251 3603
-1982.54 987.251 3603
-1969.54 985.059 3595
-1960.94 985.059 3595
-1952.35 985.059 3595
-1948.07 987.251 3603
-1939.46 987.251 3603
-1930.84 987.251 3603
-1922.23 987.251 3603
-1913.61 987.251 3603
-1913.45 991.635 3619
-1909.01 993.827 3627
-1900.34 993.827 3627
-1895.84 996.019 3635
-1887.14 996.019 3635
-1878.45 996.019 3635
-1869.76 996.019 3635
-1861.07 996.019 3635
-1855.94 997.937 3642
-1847.23 997.937 3642
-1838.52 997.937 3642
-1829.81 997.937 3642
-1825.11 1000.13 3650
-1820.36 1002.32 3658
-1811.61 1002.32 3658
-1807.3 1004.79 3667
-1798.53 1004.79 3667
-1789.76 1004.79 3667
-1780.99 1004.79 3667
-1764.01 1000.13 3650
-1755.28 1000.13 3650
-1746.55 1000.13 3650
-1734.01 997.937 3642
-1721.99 996.019 3635
-1694.44 985.059 3595
-1678.81 980.949 3580
-1670.25 980.949 3580
-1654.73 976.839 3565
-1638.82 972.455 3549
-1620.22 966.426 3527
-1611.79 966.426 3527
-1603.35 966.426 3527
-1588.14 962.316 3512
-1576.59 960.398 3505
-1568.21 960.398 3505
-1559.83 960.398 3505
-1551.45 960.398 3505
-1543.06 960.398 3505
-1534.68 960.398 3505
-1519.77 956.288 3490
-1511.42 956.288 3490
-1503.08 956.288 3490
-1497.73 958.206 3497
-1489.37 958.206 3497
-1481.01 958.206 3497
-1476.01 960.398 3505
-1473.91 964.508 3520
-1465.49 964.508 3520
-1457.08 964.508 3520
-1451.54 966.426 3527
-1443.11 966.426 3527
-1434.67 966.426 3527
-1426.24 966.426 3527
-1417.8 966.426 3527
-1409.37 966.426 3527
-1400.93 966.426 3527
-1392.5 966.426 3527
-1384.07 966.426 3527
-1375.63 966.426 3527
-1367.2 966.426 3527
-1361.46 968.344 3534
-1356.07 970.536 3542
-1350.27 972.455 3549
-1341.78 972.455 3549
-1336.3 974.647 3557
-1327.79 974.647 3557
-1319.29 974.647 3557
-1307.83 972.455 3549
-1299.35 972.455 3549
-1290.86 972.455 3549
-1282.37 972.455 3549
-1273.89 972.455 3549
-1265.4 972.455 3549
-1256.91 972.455 3549
-1243.15 968.344 3534
-1234.7 968.344 3534
-1223.82 966.426 3527
-1215.38 966.426 3527
-1204.55 964.508 3520
-1196.14 964.508 3520
-1187.72 964.508 3520
-1179.3 964.508 3520
-1170.89 964.508 3520
-1167.09 968.344 3534
-1158.64 968.344 3534
-1150.19 968.344 3534
-1141.74 968.344 3534
-1138.1 972.455 3549
-1129.61 972.455 3549
-1121.12 972.455 3549
-1112.64 972.455 3549
-1104.15 972.455 3549
-536.564 476.226 1738
-533.939 477.596 1743
-529.771 477.596 1743
-526.206 478.144 1745
-522.033 478.144 1745
-517.861 478.144 1745
-513.688 478.144 1745
-509.515 478.144 1745
-504.184 477.048 1741
-500.02 477.048 1741
-495.003 476.226 1738
-490.282 475.678 1736
-485.57 475.13 1734
-481.424 475.13 1734
-476.452 474.308 1731
-472.312 474.308 1731
-467.632 473.76 1729
-463.498 473.76 1729
-458.3 472.664 1725
-452.859 471.294 1720
-448.746 471.294 1720
-443.599 470.198 1716
-439.495 470.198 1716
-434.631 469.376 1713
-428.775 467.458 1706
-424.197 466.91 1704
-420.123 466.91 1704
-415.315 466.088 1701
-409.797 464.444 1695
-405.026 463.622 1692
-400.98 463.622 1692
-396.464 463.074 1690
-391.727 462.252 1687
-386.773 461.156 1683
-382.749 461.156 1683
-378.049 460.333 1680
-373.586 459.785 1678
-369.574 459.785 1678
-365.561 459.785 1678
-360.902 458.963 1675
-356.897 458.963 1675
-353.313 459.511 1677
-349.302 459.511 1677
-345.292 459.511 1677
-340.875 458.963 1675
-337.473 459.785 1678
-333.46 459.785 1678
-330.233 460.882 1682
-326.211 460.882 1682
-322.189 460.882 1682
-318.734 461.704 1685
-314.705 461.704 1685
-310.675 461.704 1685
-307.01 462.252 1687
-303.335 462.8 1689
-299.473 463.074 1690
-295.432 463.074 1690
-291.735 463.622 1692
-287.689 463.622 1692
-284.146 464.444 1695
-280.093 464.444 1695
-276.365 464.992 1697
-272.628 465.54 1699
-268.565 465.54 1699
-264.503 465.54 1699
-260.9 466.362 1702
-257.735 468.006 1708
-253.651 468.006 1708
-249.566 468.006 1708
-245.626 468.28 1709
-241.539 468.28 1709
-237.73 468.828 1711
-233.639 468.828 1711
-229.547 468.828 1711
-225.983 469.924 1715
-222.011 470.198 1716
-217.908 470.198 1716
-213.804 470.198 1716
-209.701 470.198 1716
-205.597 470.198 1716
-201.494 470.198 1716
-197.275 469.924 1715
-372.95 1065.62 3889
-363.651 1065.62 3889
-355.171 1068.08 3898
-346.648 1070.55 3907
-337.305 1070.55 3907
-327.962 1070.55 3907
-319.354 1073.02 3916
-309.989 1073.02 3916
-300.625 1073.02 3916
-291.261 1073.02 3916
-281.248 1070.55 3907
-271.906 1070.55 3907
-263.168 1073.02 3916
-253.803 1073.02 3916
-245.001 1075.48 3925
-235.615 1075.48 3925
-226.229 1075.48 3925
-215.351 1068.08 3898
-206.03 1068.08 3898
-196.709 1068.08 3898
-186.955 1065.62 3889
-177.655 1065.62 3889
-167.576 1060.69 3871
-158.319 1060.69 3871
-148.369 1055.75 3853
-139.156 1055.75 3853
-129.942 1055.75 3853
-120.164 1050.82 3835
-109.489 1036.57 3783
-100.442 1036.57 3783
-89.9707 1020.41 3724
-80.8913 1018.21 3716
-71.6758 1013.56 3699
-62.8304 1013.56 3699
-53.7515 1009.17 3683
-44.5416 1000.13 3650
-35.7348 997.937 3642
-27.0257 997.937 3642
-18.2814 996.019 3635
-9.50459 987.251 3603
-0.888721 987.251 3603
7.70999 985.059 3595
16.3067 985.059 3595
24.855 983.141 3588
33.2859 978.757 3572
41.8276 978.757 3572
50.3693 978.757 3572
58.6637 974.647 3557
67.0185 972.455 3549
75.5052 972.455 3549
83.9919 972.455 3549
92.0878 968.344 3534
100.539 968.344 3534
108.99 968.344 3534
117.44 968.344 3534
125.891 968.344 3534
134.342 968.344 3534
142.51 966.426 3527
150.944 966.426 3527
159.378 966.426 3527
167.813 966.426 3527
176.247 966.426 3527
184.314 964.508 3520
192.732 964.508 3520
200.692 962.316 3512
208.673 960.398 3505
217.055 960.398 3505
225.436 960.398 3505
233.818 960.398 3505
242.683 962.316 3512
251.081 962.316 3512
260.071 964.508 3520
268.488 964.508 3520
277.456 966.426 3527
287.106 970.536 3542
296.16 972.455 3549
304.647 972.455 3549
313.134 972.455 3549
321.621 972.455 3549
330.851 974.647 3557
339.357 974.647 3557
347.863 974.647 3557
357.17 976.839 3565
365.695 976.839 3565
374.22 976.839 3565
381.887 974.647 3557
389.514 972.455 3549
398.001 972.455 3549
403.166 964.508 3520
409.83 960.398 3505
415.586 954.37 3483
422.09 950.26 3468
430.383 950.26 3468
436.905 946.424 3454
441.556 938.752 3426
447.91 934.915 3412
456.069 934.915 3412
461.371 929.161 3391
465.604 921.489 3363
469.984 914.365 3337
477.964 914.365 3337
483.031 908.885 3317
490.963 908.885 3317
497.842 906.967 3310
506.827 908.885 3317
514.759 908.885 3317
522.691 908.885 3317
530.623 908.885 3317
540.665 912.447 3330
548.628 912.447 3330
556.591 912.447 3330
564.554 912.447 3330
572.517 912.447 3330
581.701 914.365 3337
589.68 914.365 3337
597.66 914.365 3337
606.729 916.009 3343
614.723 916.009 3343
622.717 916.009 3343
632.032 917.927 3350
640.043 917.927 3350
648.054 917.927 3350
656.065 917.927 3350
665.463 919.845 3357
673.491 919.845 3357
681.518 919.845 3357
688.108 917.927 3350
696.119 917.927 3350
702.659 916.009 3343
710.653 916.009 3343
718.647 916.009 3343
726.641 916.009 3343
734.635 916.009 3343
739.741 912.447 3330
747.704 912.447 3330
755.667 912.447 3330
762.025 910.529 3323
769.971 910.529 3323
777.918 910.529 3323
785.864 910.529 3323
790.705 906.967 3310
798.62 906.967 3310
808.241 908.885 3317
816.173 908.885 3317
824.105 908.885 3317
832.037 908.885 3317
841.488 910.529 3323
849.434 910.529 3323
866.153 919.845 3357
875.743 921.489 3363
891.144 929.161 3391
899.252 929.161 3391
914.854 936.833 3419
934.368 948.342 3461
948.636 954.37 3483
956.965 954.37 3483
975.549 964.508 3520
987.88 968.344 3534
1002.81 974.647 3557
1011.32 974.647 3557
1024.13 978.757 3572
1037.29 983.141 3588
1052.58 989.443 3611
1065.92 993.827 3627
1074.59 993.827 3627
1090.13 1000.13 3650
1106.39 1006.98 3675
1115.17 1006.98 3675
1123.96 1006.98 3675
1132.75 1006.98 3675
1139.05 1004.79 3667
1150.33 1006.98 3675
1159.11 1006.98 3675
1167.9 1006.98 3675
1176.69 1006.98 3675
1185.48 1006.98 3675
1194.27 1006.98 3675
1197.49 1002.32 3658
1206.24 1002.32 3658
1214.98 1002.32 3658
1221.06 1000.13 3650
1229.78 1000.13 3650
1238.51 1000.13 3650
1247.24 1000.13 3650
1253.22 997.937 3642
1261.92 997.937 3642
1270.63 997.937 3642
1279.34 997.937 3642
1285.58 996.019 3635
1294.27 996.019 3635
1302.96 996.019 3635
1314.18 997.937 3642
1322.89 997.937 3642
1331.6 997.937 3642
1340.31 997.937 3642
1346.42 996.019 3635
1355.12 996.019 3635
1360.81 993.827 3627
1369.48 993.827 3627
1372.07 989.443 3611
1380.71 989.443 3611
1389.34 989.443 3611
1394.88 987.251 3603
1397.65 983.141 3588
1406.23 983.141 3588
1411.66 980.949 3580
1417.05 978.757 3572
1422.79 976.839 3565
1428.11 974.647 3557
1436.61 974.647 3557
1435.78 968.344 3534
1438.5 964.508 3520
1446.92 964.508 3520
1455.34 964.508 3520
1460.43 962.316 3512
1462.56 958.206 3497
1465.03 954.37 3483
1473.36 954.37 3483
1478.71 952.452 3476
1487.02 952.452 3476
1507.81 960.398 3505
1522.68 964.508 3520
1531.1 964.508 3520
1545.64 968.344 3534
1567.72 976.839 3565
1593.05 987.251 3603
1612.33 993.827 3627
1621 993.827 3627
1643.61 1002.32 3658
1682.17 1020.41 3724
1691.07 1020.41 3724
1722.8 1034.11 3774
1747.89 1043.7 3809
1777.29 1055.75 3853
1803.2 1065.62 3889
1812.5 1065.62 3889
1838.66 1075.48 3925
1852.76 1078.22 3935
1862.17 1078.22 3935
1871.58 1078.22 3935
1876.2 1075.48 3925
1876.94 1070.55 3907
1886.29 1070.55 3907
1886.9 1065.62 3889
1874.25 1053.29 3844
1883.45 1053.29 3844
1892.64 1053.29 3844
1858.79 1029.45 3757
1842.91 1015.75 3707
1819.31 997.937 3642
1812.46 989.443 3611
1821.09 989.443 3611
1818.07 983.141 3588
1818.51 978.757 3572
1815.29 972.455 3549
1823.77 972.455 3549
1832.26 972.455 3549
1837.12 970.536 3542
1834.12 964.508 3520
1846.2 966.426 3527
1854.64 966.426 3527
1871 970.536 3542
1883.18 972.455 3549
1895.93 974.647 3557
1921.03 983.141 3588
1929.61 983.141 3588
1946.3 987.251 3603
1967.93 993.827 3627
2002.77 1006.98 3675
2011.55 1006.98 3675
2089.06 1041.23 3800
2108.09 1046.16 3818
2141.62 1058.22 3862
2150.85 1058.22 3862
2170.15 1063.15 3880
2179.43 1063.15 3880
2188.71 1063.15 3880
2187.79 1058.22 3862
2207.27 1063.15 3880
2221.69 1065.62 3889
2236.15 1068.08 3898
2245.47 1068.08 3898
2260 1070.55 3907
2285.61 1078.22 3935
2295.02 1078.22 3935
2304.42 1078.22 3935
2313.83 1078.22 3935
2301.4 1068.08 3898
2310.72 1068.08 3898
2320.04 1068.08 3898
2329.36 1068.08 3898
2338.68 1068.08 3898
2348.01 1068.08 3898
2357.33 1068.08 3898
2366.65 1068.08 3898
2381.46 1070.55 3907
2407.93 1078.22 3935
2428.4 1083.15 3953
2437.85 1083.15 3953
2447.31 1083.15 3953
2456.76 1083.15 3953
2466.21 1083.15 3953
2464.39 1078.22 3935
2479.46 1080.69 3944
2494.57 1083.15 3953
2504.02 1083.15 3953
2513.48 1083.15 3953
2517.18 1080.69 3944
2497.15 1068.08 3898
2506.47 1068.08 3898
2498.36 1060.69 3871
2495.96 1055.75 3853
2505.17 1055.75 3853
2502.64 1050.82 3835
2511.81 1050.82 3835
2509.81 1046.16 3818
2489.91 1034.11 3774
2487.68 1029.45 3757
2496.66 1029.45 3757
2494.31 1024.79 3740
2503.25 1024.79 3740
2496.07 1018.21 3716
2504.96 1018.21 3716
542.014 195.368 713
543.719 195.368 713
545.424 195.368 713
-2374.95 876.752 3172
-2367.37 876.752 3172
-2355.32 875.094 3166
-2343.3 873.435 3160
-2331.31 871.777 3154
-2323.77 871.777 3154
-2311.82 870.118 3148
-2299.9 868.46 3142
-2288.01 866.802 3136
-2289.23 870.118 3148
-2281.71 870.118 3148
-2278.51 871.777 3154
-2279.61 875.094 3166
-2272.04 875.094 3166
-2264.47 875.094 3166
-2265.45 878.41 3178
-2270.64 883.386 3196
-2267.25 885.044 3202
-2259.59 885.044 3202
-2260.37 888.361 3214
-2279.32 898.864 3252
-2298.09 909.368 3290
-2290.22 909.368 3290
-2310.1 920.424 3330
-2315.97 925.952 3350
-2307.96 925.952 3350
-2299.94 925.952 3350
-2296.72 927.887 3357
-2292.79 929.545 3363
-2299.01 935.35 3384
-2290.92 935.35 3384
-2287.55 937.284 3391
-2298.26 945.024 3419
-2294.77 946.959 3426
-2286.58 946.959 3426
-2287.7 950.828 3440
-2284.11 952.763 3447
-2285.11 956.633 3461
-2276.84 956.633 3461
-2273.15 958.568 3468
-2264.86 958.568 3468
-2256.56 958.568 3468
-2248.27 958.568 3468
-2239.98 958.568 3468
-2241.34 962.714 3483
-2241.98 966.583 3497
-2233.62 966.583 3497
-2230.35 968.794 3505
-2231.48 972.94 3520
-2231.9 976.81 3534
-2223.45 976.81 3534
-2220.01 979.021 3542
-2220.91 983.167 3557
-2217.38 985.379 3565
-2208.85 985.379 3565
-2204.65 987.313 3572
-2210.25 993.671 3595
-2206.55 995.882 3603
-2197.93 995.882 3603
-2194.18 998.093 3611
-2185.54 998.093 3611
-2176.91 998.093 3611
-2168.27 998.093 3611
-2164.42 1000.3 3619
-2160.54 1002.52 3627
-2151.86 1002.52 3627
-2143.19 1002.52 3627
-2134.52 1002.52 3627
-2121.15 1000.3 3619
-2112.5 1000.3 3619
-2099.19 998.093 3611
-2085.93 995.882 3603
-2072.7 993.671 3595
-2068.7 995.882 3603
-2060.08 995.882 3603
-2051.46 995.882 3603
-2042.85 995.882 3603
-2034.23 995.882 3603
-2025.62 995.882 3603
-2017 995.882 3603
-2003.93 993.671 3595
-1995.33 993.671 3595
-1986.73 993.671 3595
-1978.14 993.671 3595
-1965.7 991.736 3588
-1957.12 991.736 3588
-1948.54 991.736 3588
-1943.75 993.671 3595
-1935.15 993.671 3595
-1926.56 993.671 3595
-1917.96 993.671 3595
-1909.36 993.671 3595
-1909.22 998.093 3611
-1904.8 1000.3 3619
-1896.15 1000.3 3619
-1895.84 1004.73 3635
-1887.14 1004.73 3635
-1878.45 1004.73 3635
-1869.76 1004.73 3635
-1861.07 1004.73 3635
-1855.94 1006.66 3642
-1847.23 1006.66 3642
-1838.52 1006.66 3642
-1829.81 1006.66 3642
-1825.11 1008.87 3650
-1820.36 1011.08 3658
-1811.61 1011.08 3658
-1807.3 1013.57 3667
-1798.53 1013.57 3667
-1789.76 1013.57 3667
-1780.99 1013.57 3667
-1764.01 1008.87 3650
-1755.28 1008.87 3650
-1746.55 1008.87 3650
-1734.01 1006.66 3642
-1721.99 1004.73 3635
-1694.44 993.671 3595
-1675.06 987.313 3572
-1666.52 987.313 3572
-1651.02 983.167 3557
-1635.58 979.021 3542
-1613.33 970.729 3512
-1604.93 970.729 3512
-1596.54 970.729 3512
-1578.19 964.648 3490
-1569.84 964.648 3490
-1561.5 964.648 3490
-1546.92 960.779 3476
-1538.61 960.779 3476
-1530.3 960.779 3476
-1521.98 960.779 3476
-1513.67 960.779 3476
-1498.86 956.633 3461
-1493.6 958.568 3468
-1488.74 960.779 3476
-1480.42 960.779 3476
-1478.04 964.648 3490
-1472.64 966.583 3497
-1467.63 968.794 3505
-1459.25 968.794 3505
-1450.87 968.794 3505
-1445.37 970.729 3512
-1436.97 970.729 3512
-1428.57 970.729 3512
-1423.41 972.94 3520
-1414.99 972.94 3520
-1409.37 974.875 3527
-1400.93 974.875 3527
-1392.5 974.875 3527
-1381.32 972.94 3520
-1372.9 972.94 3520
-1364.48 972.94 3520
-1361.46 976.81 3534
-1353.01 976.81 3534
-1347.6 979.021 3542
-1339.13 979.021 3542
-1330.66 979.021 3542
-1322.19 979.021 3542
-1313.72 979.021 3542
-1305.25 979.021 3542
-1296.78 979.021 3542
-1290.86 980.956 3549
-1282.37 980.956 3549
-1273.89 980.956 3549
-1265.4 980.956 3549
-1254.43 979.021 3542
-1243.15 976.81 3534
-1234.7 976.81 3534
-1221.39 972.94 3520
-1212.97 972.94 3520
-1204.55 972.94 3520
-1196.14 972.94 3520
-1187.72 972.94 3520
-1179.3 972.94 3520
-1170.89 972.94 3520
-1167.09 976.81 3534
-1158.64 976.81 3534
-1150.19 976.81 3534
-1141.74 976.81 3534
-1138.1 980.956 3549
-1129.61 980.956 3549
-1121.12 980.956 3549
-1112.64 980.956 3549
-1104.15 980.956 3549
-536.564 480.389 1738
-533.327 481.219 1741
-529.163 481.219 1741
-525.603 481.771 1743
-521.435 481.771 1743
-517.267 481.771 1743
-513.099 481.771 1743
-508.931 481.771 1743
-504.184 481.219 1741
-500.02 481.219 1741
-495.003 480.389 1738
-490.282 479.837 1736
-485.57 479.284 1734
-481.424 479.284 1734
-476.452 478.455 1731
-472.312 478.455 1731
-467.632 477.902 1729
-463.498 477.902 1729
-458.3 476.796 1725
-452.859 475.414 1720
-448.746 475.414 1720
-443.599 474.308 1716
-439.495 474.308 1716
-434.631 473.479 1713
-428.775 471.544 1706
-424.197 470.992 1704
-420.123 470.992 1704
-415.315 470.162 1701
-409.797 468.504 1695
-405.026 467.675 1692
-400.98 467.675 1692
-396.464 467.122 1690
-391.727 466.293 1687
-386.773 465.187 1683
-382.749 465.187 1683
-378.049 464.358 1680
-373.586 463.805 1678
-369.574 463.805 1678
-365.561 463.805 1678
-360.902 462.976 1675
-356.897 462.976 1675
-353.313 463.529 1677
-349.302 463.529 1677
-345.292 463.529 1677
-340.875 462.976 1675
-337.473 463.805 1678
-333.46 463.805 1678
-330.233 464.911 1682
-326.211 464.911 1682
-322.189 464.911 1682
-318.734 465.74 1685
-314.705 465.74 1685
-310.675 465.74 1685
-307.01 466.293 1687
-303.335 466.846 1689
-299.473 467.122 1690
-295.432 467.122 1690
-291.735 467.675 1692
-287.689 467.675 1692
-284.146 468.504 1695
-280.093 468.504 1695
-276.365 469.057 1697
-272.628 469.61 1699
-268.882 470.162 1701
-264.814 470.162 1701
-260.9 470.439 1702
-257.735 472.097 1708
-253.799 472.374 1709
-249.712 472.374 1709
-245.626 472.374 1709
-241.822 472.926 1711
-237.73 472.926 1711
-233.639 472.926 1711
-229.815 473.479 1713
-225.983 474.032 1715
-222.011 474.308 1716
-217.908 474.308 1716
-214.053 474.861 1718
-209.945 474.861 1718
-205.837 474.861 1718
-201.728 474.861 1718
-197.62 474.861 1718
-372.95 1074.93 3889
-363.651 1074.93 3889
-355.171 1077.42 3898
-346.648 1079.91 3907
-337.305 1079.91 3907
-327.962 1079.91 3907
-319.354 1082.4 3916
-309.989 1082.4 3916
-300.625 1082.4 3916
-291.261 1082.4 3916
-281.248 1079.91 3907
-271.906 1079.91 3907
-263.168 1082.4 3916
-253.803 1082.4 3916
-245.001 1084.88 3925
-235.615 1084.88 3925
-226.229 1084.88 3925
-215.351 1077.42 3898
-206.03 1077.42 3898
-196.709 1077.42 3898
-186.955 1074.93 3889
-177.655 1074.93 3889
-167.576 1069.96 3871
-158.319 1069.96 3871
-148.369 1064.98 3853
-139.156 1064.98 3853
-129.942 1064.98 3853
-120.164 1060.01 3835
-109.489 1045.63 3783
-100.442 1045.63 3783
-89.9707 1029.33 3724
-80.8913 1027.12 3716
-71.6758 1022.42 3699
-62.8304 1022.42 3699
-53.7515 1017.99 3683
-44.5416 1008.87 3650
-35.7348 1006.66 3642
-27.0257 1006.66 3642
-18.2814 1004.73 3635
-9.50459 995.882 3603
-0.888721 995.882 3603
7.70999 993.671 3595
16.3067 993.671 3595
24.855 991.736 3588
33.2859 987.313 3572
41.8276 987.313 3572
50.3693 987.313 3572
58.6637 983.167 3557
67.0185 980.956 3549
75.5052 980.956 3549
83.9919 980.956 3549
92.0878 976.81 3534
100.539 976.81 3534
108.99 976.81 3534
117.44 976.81 3534
125.891 976.81 3534
134.342 976.81 3534
142.51 974.875 3527
150.944 974.875 3527
159.378 974.875 3527
167.813 974.875 3527
176.247 974.875 3527
184.314 972.94 3520
192.732 972.94 3520
200.692 970.729 3512
208.673 968.794 3505
217.055 968.794 3505
225.436 968.794 3505
233.818 968.794 3505
242.683 970.729 3512
251.081 970.729 3512
260.071 972.94 3520
268.488 972.94 3520
277.456 974.875 3527
287.106 979.021 3542
296.16 980.956 3549
304.647 980.956 3549
313.134 980.956 3549
321.621 980.956 3549
330.851 983.167 3557
339.357 983.167 3557
347.863 983.167 3557
357.17 985.379 3565
365.695 985.379 3565
374.22 985.379 3565
381.887 983.167 3557
389.514 980.956 3549
398.001 980.956 3549
403.166 972.94 3520
409.83 968.794 3505
415.586 962.714 3483
422.09 958.568 3468
430.383 958.568 3468
436.905 954.698 3454
441.556 946.959 3426
447.91 943.089 3412
456.069 943.089 3412
461.371 937.284 3391
465.604 929.545 3363
469.984 922.359 3337
477.964 922.359 3337
483.905 918.489 3323
490.963 916.831 3317
498.895 916.831 3317
506.827 916.831 3317
514.759 916.831 3317
522.691 916.831 3317
530.623 916.831 3317
540.665 920.424 3330
