ply
format ascii 1.0
comment File generated
element vertex 2256
property float x
property float y
property float z
end_header
364.258 607.152 3818
372.508 605.721 3809
379.913 603.018 3792
388.981 603.018 3792
396.159 600.155 3774
399.816 592.204 3724
404.221 585.684 3683
413.029 585.684 3683
416.338 578.051 3635
422.224 574.234 3611
428.95 571.69 3595
432.922 565.647 3557
441.428 565.647 3557
445.253 559.763 3520
451.737 557.378 3505
455.262 551.494 3468
463.555 551.494 3468
469.943 549.268 3454
477.233 548.154 3447
484.49 547.041 3440
492.716 547.041 3440
500.943 547.041 3440
509.169 547.041 3440
518.448 548.154 3447
527.76 549.268 3454
536.019 549.268 3454
545.382 550.381 3461
560.697 557.378 3505
575.086 563.262 3542
583.556 563.262 3542
595.87 566.919 3565
610.838 572.962 3603
623.58 576.779 3627
632.253 576.779 3627
647.995 583.14 3667
658.196 584.412 3675
666.984 584.412 3675
678.715 586.956 3691
687.541 586.956 3691
696.367 586.956 3691
705.194 586.956 3691
714.02 586.956 3691
722.846 586.956 3691
731.672 586.956 3691
740.499 586.956 3691
749.325 586.956 3691
758.151 586.956 3691
766.978 586.956 3691
777.485 588.228 3699
786.331 588.228 3699
795.176 588.228 3699
804.022 588.228 3699
812.867 588.228 3699
825.489 590.932 3716
834.375 590.932 3716
846.892 593.476 3732
859.715 596.18 3749
872.619 598.883 3766
881.625 598.883 3766
900.799 605.721 3809
909.908 605.721 3809
919.016 605.721 3809
923.982 603.018 3792
928.621 600.155 3774
937.646 600.155 3774
946.671 600.155 3774
951.391 597.452 3757
960.375 597.452 3757
969.359 597.452 3757
978.343 597.452 3757
989.692 598.883 3766
998.698 598.883 3766
1007.7 598.883 3766
1014.28 597.452 3757
1023.26 597.452 3757
1032.25 597.452 3757
1041.23 597.452 3757
1047.98 596.18 3749
1056.94 596.18 3749
1063.35 594.748 3740
1072.29 594.748 3740
1081.24 594.748 3740
1090.18 594.748 3740
1094.42 592.204 3724
1103.33 592.204 3724
1114.62 593.476 3732
1123.55 593.476 3732
1134.9 594.748 3740
1143.84 594.748 3740
1155.56 596.18 3749
1164.52 596.18 3749
1175.99 597.452 3757
1184.98 597.452 3757
1193.96 597.452 3757
1202.95 597.452 3757
1214.83 598.883 3766
1223.84 598.883 3766
1232.84 598.883 3766
1241.85 598.883 3766
1250.86 598.883 3766
1259.86 598.883 3766
1268.87 598.883 3766
1277.87 598.883 3766
1286.88 598.883 3766
1295.88 598.883 3766
1304.89 598.883 3766
1313.9 598.883 3766
1325.71 600.155 3774
1334.74 600.155 3774
1343.76 600.155 3774
1352.79 600.155 3774
1361.81 600.155 3774
1367.93 598.883 3766
1376.94 598.883 3766
1382.63 597.452 3757
1388.65 596.18 3749
1403.95 598.883 3766
1412.96 598.883 3766
1421.96 598.883 3766
1430.97 598.883 3766
1439.97 598.883 3766
1445.52 597.452 3757
1451.4 596.18 3749
1470.11 600.155 3774
1479.13 600.155 3774
1488.16 600.155 3774
1500.75 601.586 3783
1526.96 608.424 3826
1536.11 608.424 3826
1545.26 608.424 3826
1554.41 608.424 3826
1556.61 605.721 3809
1569.42 607.152 3818
1581.85 608.424 3826
1591 608.424 3826
1600.15 608.424 3826
1624.44 614.149 3862
1641.29 617.012 3880
1650.57 617.012 3880
1659.85 617.012 3880
1665.26 615.58 3871
1674.51 615.58 3871
1683.77 615.58 3871
1716.65 624.168 3925
1726.03 624.168 3925
1739.84 625.758 3935
1749.25 625.758 3935
1758.66 625.758 3935
1789.19 633.232 3982
1802.77 634.663 3991
1812.32 634.663 3991
1826.43 636.253 4001
1840.12 637.685 4010
1849.71 637.685 4010
1859.3 637.685 4010
1868.89 637.685 4010
1865.36 633.232 3982
1874.89 633.232 3982
1884.41 633.232 3982
1893.93 633.232 3982
1903.45 633.232 3982
1903.85 630.211 3963
1913.32 630.211 3963
1909.21 625.758 3935
1904.97 621.305 3907
1896.68 615.58 3871
1905.93 615.58 3871
1880.06 604.29 3800
1847.39 590.932 3716
1839.79 585.684 3683
1824.5 578.051 3635
1833.2 578.051 3635
1837.84 576.779 3627
1838.36 574.234 3611
1838.81 571.69 3595
1855.63 574.234 3611
1864.27 574.234 3611
1872.9 574.234 3611
1897.69 579.164 3642
1906.4 579.164 3642
1915.11 579.164 3642
1923.82 579.164 3642
1932.53 579.164 3642
1945.5 580.436 3650
1954.23 580.436 3650
1976.4 584.412 3675
2007.34 590.932 3716
2029.25 594.748 3740
2038.19 594.748 3740
2104.06 611.287 3844
2178.67 630.211 3963
2209.13 636.253 4001
2218.7 636.253 4001
2233.28 637.685 4010
2248.46 639.275 4020
2258.07 639.275 4020
2267.69 639.275 4020
2277.3 639.275 4020
2297.72 642.296 4039
2307.38 642.296 4039
2317.04 642.296 4039
2326.7 642.296 4039
2331.15 640.865 4030
2340.79 640.865 4030
2350.42 640.865 4030
2360.06 640.865 4030
2363.82 639.275 4020
2373.43 639.275 4020
2383.04 639.275 4020
2386.7 637.685 4010
2396.29 637.685 4010
2405.88 637.685 4010
2415.47 637.685 4010
2431.11 639.275 4020
2440.72 639.275 4020
2456.43 640.865 4030
2471.57 642.296 4039
2487.37 643.887 4049
2497.06 643.887 4049
2506.74 643.887 4049
2516.42 643.887 4049
2526.1 643.887 4049
2535.79 643.887 4049
2545.47 643.887 4049
2555.15 643.887 4049
2564.83 643.887 4049
2574.52 643.887 4049
2572.07 640.865 4030
2568.9 637.685 4010
2578.49 637.685 4010
2575.81 634.663 3991
2560.74 628.62 3953
2564.34 627.189 3944
2573.77 627.189 3944
2583.2 627.189 3944
530.298 117.2 737
532.782 117.359 738
534.547 117.359 738
536.312 117.359 738
538.076 117.359 738
539.841 117.359 738
541.606 117.359 738
543.371 117.359 738
544.397 117.2 737
546.159 117.2 737
547.922 117.2 737
549.684 117.2 737
551.446 117.2 737
553.209 117.2 737
554.971 117.2 737
556.734 117.2 737
558.496 117.2 737
560.258 117.2 737
562.021 117.2 737
563.783 117.2 737
-2343.51 505.242 3130
-2336.02 505.242 3130
-2319.61 503.305 3118
-2307.71 502.336 3112
-2296.57 501.529 3107
-2289.14 501.529 3107
-2281.71 501.529 3107
-2277.94 502.336 3112
-2274.87 503.305 3118
-2284.87 507.179 3142
-2277.36 507.179 3142
-2278.51 509.116 3154
-2288.25 512.99 3178
-2306.49 518.801 3214
-2298.8 518.801 3214
-2327.47 527.033 3265
-2419.13 549.632 3405
-2410.99 549.632 3405
-2402.84 549.632 3405
-2507.23 575.459 3565
-2530.94 582.884 3611
-2522.31 582.884 3611
-2546.39 590.471 3658
-2543.89 591.924 3667
-2540.65 593.215 3675
-2531.86 593.215 3675
-2523.07 593.215 3675
-2519.76 594.507 3683
-2510.95 594.507 3683
-2502.14 594.507 3683
-2482.51 591.924 3667
-2473.74 591.924 3667
-2464.97 591.924 3667
-2450.17 590.471 3658
-2436.08 589.18 3650
-2422.04 587.888 3642
-2413.33 587.888 3642
-2404.62 587.888 3642
-2391.3 586.758 3635
-2382.61 586.758 3635
-2373.92 586.758 3635
-2365.23 586.758 3635
-2351.35 585.467 3627
-2337.51 584.176 3619
-2328.85 584.176 3619
-2309.94 581.593 3603
-2301.32 581.593 3603
-2287.62 580.302 3595
-2284.09 581.593 3603
-2295.69 586.758 3635
-2286.99 586.758 3635
-2292.72 590.471 3658
-2294.58 593.215 3675
-2285.8 593.215 3675
-2277.01 593.215 3675
-2268.22 593.215 3675
-2259.43 593.215 3675
-2005.43 656.814 4069
-1995.7 656.814 4069
-1985.97 656.814 4069
-1966.52 653.586 4049
-1947.66 650.519 4030
-1924.08 645.838 4001
-1914.51 645.838 4001
-1900.18 644.224 3991
-1890.64 644.224 3991
-1881.09 644.224 3991
-1871.55 644.224 3991
-1857.81 642.771 3982
-1848.28 642.771 3982
-1838.76 642.771 3982
-1829.24 642.771 3982
-1819.72 642.771 3982
-1801.56 639.704 3963
-1783.49 636.637 3944
-1774.06 636.637 3944
-1752.1 632.117 3916
-1726.71 626.306 3880
-1721.42 627.759 3889
-1724.01 632.117 3916
-1714.64 632.117 3916
-1705.28 632.117 3916
-1695.91 632.117 3916
-1698.61 636.637 3944
-1689.18 636.637 3944
-1679.74 636.637 3944
-1682.17 641.157 3972
-1684.89 645.838 4001
-1675.32 645.838 4001
-1665.75 645.838 4001
-1656.18 645.838 4001
-1646.61 645.838 4001
-1637.05 645.838 4001
-1615.68 641.157 3972
-1602.55 639.704 3963
-1589.05 638.09 3953
-1591.18 642.771 3982
-1581.66 642.771 3982
-1572.14 642.771 3982
-1562.62 642.771 3982
-1553.1 642.771 3982
-1539.7 641.157 3972
-1515.94 635.184 3935
-1506.54 635.184 3935
-1507.78 639.704 3963
-1498.3 639.704 3963
-1492.21 641.157 3972
-1482.71 641.157 3972
-1473.21 641.157 3972
-1460.39 639.704 3963
-1443.96 636.637 3944
-1417.8 629.212 3898
-1408.48 629.212 3898
-1399.16 629.212 3898
-1396.25 632.117 3916
-1393.62 635.184 3935
-1400.74 642.771 3982
-1391.22 642.771 3982
-1381.7 642.771 3982
-1375.28 644.224 3991
-1375.66 648.905 4020
-1366.04 648.905 4020
-1359.8 650.519 4030
-1350.17 650.519 4030
-1340.53 650.519 4030
-597.416 292.007 1809
-595.057 292.976 1815
-590.717 292.976 1815
-586.377 292.976 1815
-580.754 292.33 1811
-576.423 292.33 1811
-572.092 292.33 1811
-567.135 292.007 1809
-562.809 292.007 1809
-557.866 291.684 1807
-553.545 291.684 1807
-549.223 291.684 1807
-543.998 291.2 1804
-537.889 290.232 1798
-533.589 290.232 1798
-526.346 288.617 1788
-518.858 286.842 1777
-510.555 284.582 1763
-506.339 284.582 1763
-498.99 282.806 1752
-491.694 281.031 1741
-485.57 279.901 1734
-481.424 279.901 1734
-473.975 277.964 1722
-468.765 277.318 1718
-462.764 276.188 1711
-456.796 275.058 1704
-452.721 275.058 1704
-447.856 274.574 1701
-441.962 273.444 1694
-436.102 272.314 1687
-432.068 272.314 1687
-426.765 271.507 1682
-422.24 271.184 1680
-416.978 270.377 1675
-412.973 270.377 1675
-408.235 269.893 1672
-403.028 269.086 1667
-398.563 268.763 1665
-394.581 268.763 1665
-389.427 267.956 1660
-384.993 267.633 1658
-381.028 267.633 1658
-377.063 267.633 1658
-371.748 266.664 1652
-367.352 266.342 1650
-362.306 265.534 1645
-357.283 264.727 1640
-353.361 264.727 1640
-348.8 264.243 1637
-343.832 263.436 1632
-339.304 262.952 1629
-335.409 262.952 1629
-331.514 262.952 1629
-327.618 262.952 1629
-323.723 262.952 1629
-319.827 262.952 1629
-315.738 262.79 1628
-311.845 262.79 1628
-307.574 262.467 1626
-303.685 262.467 1626
-299.244 261.983 1623
-295.363 261.983 1623
-291.482 261.983 1623
-287.601 261.983 1623
-283.195 261.499 1620
-278.804 261.015 1617
-275.447 261.499 1620
-272.244 262.145 1624
-268.36 262.145 1624
-264.803 262.467 1626
-261.717 263.275 1631
-258.291 263.759 1634
-254.383 263.759 1634
-250.936 264.243 1637
-247.021 264.243 1637
-243.107 264.243 1637
-239.484 264.566 1639
-235.565 264.566 1639
-231.787 264.727 1640
-228.56 265.534 1645
-225.582 266.664 1652
-221.632 266.664 1652
-218.472 267.633 1658
-215.025 268.279 1662
-212.32 269.893 1672
-208.322 269.893 1672
-205.057 270.861 1678
-201.523 271.507 1682
-197.619 271.668 1683
-193.594 271.668 1683
-190.245 272.637 1689
-186.868 273.605 1695
-183.462 274.574 1701
-179.394 274.574 1701
-175.43 274.735 1702
-171.762 275.381 1706
-167.879 275.704 1708
-163.795 275.704 1708
-159.804 275.865 1709
-155.9 276.188 1711
-151.808 276.188 1711
-147.717 276.188 1711
-143.793 276.511 1713
-139.697 276.511 1713
-135.601 276.511 1713
-131.504 276.511 1713
-127.408 276.511 1713
-122.952 275.704 1708
-118.867 275.704 1708
-237.896 639.704 3963
-228.938 641.157 3972
-219.44 641.157 3972
-209.941 641.157 3972
-200.948 642.771 3982
-191.426 642.771 3982
-182.315 644.224 3991
-172.771 644.224 3991
-163.227 644.224 3991
-154.8 648.905 4020
-145.548 650.519 4030
-135.911 650.519 4030
-126.87 653.586 4049
-117.766 656.814 4069
-108.036 656.814 4069
-98.3058 656.814 4069
164.814 658.429 4079
174.568 658.429 4079
184.322 658.429 4079
194.076 658.429 4079
203.831 658.429 4079
213.585 658.429 4079
222.791 656.814 4069
230.807 651.972 4039
237.608 644.224 3991
247.152 644.224 3991
254.251 638.09 3953
261.236 632.117 3916
268.734 627.759 3889
278.034 627.759 3889
284.674 621.948 3853
292.515 619.042 3835
301.685 619.042 3835
310.856 619.042 3835
320.027 619.042 3835
326.966 614.845 3809
335.28 613.393 3800
344.367 613.393 3800
353.454 613.393 3800
362.541 613.393 3800
370.845 612.101 3792
379.011 610.649 3783
388.058 610.649 3783
393.535 605.16 3749
396.273 595.798 3691
400.599 589.18 3650
409.328 589.18 3650
415.422 585.467 3627
422.224 582.884 3611
428.115 579.172 3588
431.948 572.876 3549
440.435 572.876 3549
445.253 568.195 3520
450.706 564.483 3497
455.262 559.802 3468
463.555 559.802 3468
468.991 556.412 3447
476.264 555.282 3440
484.49 555.282 3440
492.716 555.282 3440
498.904 553.022 3426
507.096 553.022 3426
517.395 555.282 3440
526.69 556.412 3447
534.933 556.412 3447
545.382 558.672 3461
557.178 562.223 3483
571.514 568.195 3520
579.931 568.195 3520
593.196 572.876 3549
605.582 576.589 3572
620.829 582.884 3611
629.464 582.884 3611
640.926 585.467 3627
655.152 590.471 3658
663.899 590.471 3658
675.773 593.215 3675
684.561 593.215 3675
693.349 593.215 3675
702.137 593.215 3675
710.925 593.215 3675
719.713 593.215 3675
731.672 595.798 3691
740.499 595.798 3691
749.325 595.798 3691
758.151 595.798 3691
765.315 594.507 3683
774.122 594.507 3683
782.93 594.507 3683
791.737 594.507 3683
800.544 594.507 3683
807.593 593.215 3675
816.381 593.215 3675
825.169 593.215 3675
835.773 594.507 3683
844.58 594.507 3683
861.033 599.833 3716
869.919 599.833 3716
878.806 599.833 3716
887.692 599.833 3716
896.578 599.833 3716
905.464 599.833 3716
910.167 597.089 3699
919.012 597.089 3699
923.844 594.507 3683
934.677 595.798 3691
943.504 595.798 3691
952.33 595.798 3691
963.24 597.089 3699
974.187 598.381 3707
983.052 598.381 3707
994.325 599.833 3716
1003.21 599.833 3716
1012.1 599.833 3716
1020.98 599.833 3716
1029.87 599.833 3716
1040.99 601.125 3724
1049.9 601.125 3724
1058.8 601.125 3724
1067.71 601.125 3724
1076.61 601.125 3724
1085.52 601.125 3724
1094.42 601.125 3724
1103.33 601.125 3724
1109.84 599.833 3716
1123.55 602.416 3732
1134.9 603.708 3740
1143.84 603.708 3740
1155.56 605.16 3749
1164.52 605.16 3749
1175.99 606.452 3757
1184.98 606.452 3757
1193.96 606.452 3757
1202.95 606.452 3757
1214.83 607.904 3766
1223.84 607.904 3766
1232.84 607.904 3766
1241.85 607.904 3766
1250.86 607.904 3766
1256.85 606.452 3757
1265.83 606.452 3757
1274.82 606.452 3757
1283.8 606.452 3757
1292.79 606.452 3757
1299 605.16 3749
1307.96 605.16 3749
1316.93 605.16 3749
1325.89 605.16 3749
1334.86 605.16 3749
1343.82 605.16 3749
1352.79 605.16 3749
1361.75 605.16 3749
1370.72 605.16 3749
1379.68 605.16 3749
1385.32 603.708 3740
1394.26 603.708 3740
1403.2 603.708 3740
1418.57 606.452 3757
1427.55 606.452 3757
1436.53 606.452 3757
1445.52 606.452 3757
1447.92 603.708 3740
1460.37 605.16 3749
1476 607.904 3766
1485 607.904 3766
1500.75 610.649 3783
1513.39 612.101 3792
1522.46 612.101 3792
1531.53 612.101 3792
1540.59 612.101 3792
1549.66 612.101 3792
1562.02 613.393 3800
1571.11 613.393 3800
1580.19 613.393 3800
1589.28 613.393 3800
1602.15 614.845 3809
1626.07 620.495 3844
1635.26 620.495 3844
1644.45 620.495 3844
1645.9 617.59 3826
1655.05 617.59 3826
1656.8 614.845 3809
1681.22 620.495 3844
1690.41 620.495 3844
1715.52 626.306 3880
1724.8 626.306 3880
1734.08 626.306 3880
1759.53 632.117 3916
1777.48 635.184 3935
1786.89 635.184 3935
1800.41 636.637 3944
1809.84 636.637 3944
1819.27 636.637 3944
1828.7 636.637 3944
1838.13 636.637 3944
1843.35 635.184 3935
1852.76 635.184 3935
1862.17 635.184 3935
1862.54 632.117 3916
1871.9 632.117 3916
1881.27 632.117 3916
1890.63 632.117 3916
1900 632.117 3916
1900.58 629.212 3898
1887.86 621.948 3853
1897.07 621.948 3853
1871.65 610.649 3783
1847.39 599.833 3716
1839.79 594.507 3683
1824.5 586.758 3635
1833.2 586.758 3635
1837.84 585.467 3627
1838.36 582.884 3611
1838.81 580.302 3595
1855.63 582.884 3611
1864.27 582.884 3611
1872.9 582.884 3611
1897.69 587.888 3642
1906.4 587.888 3642
1915.11 587.888 3642
1923.82 587.888 3642
1932.53 587.888 3642
1945.5 589.18 3650
1954.23 589.18 3650
1976.4 593.215 3675
2007.34 599.833 3716
2029.25 603.708 3740
2038.19 603.708 3740
2104.06 620.495 3844
2178.67 639.704 3963
2209.13 645.838 4001
2218.7 645.838 4001
2233.28 647.291 4010
2248.46 648.905 4020
2258.07 648.905 4020
2267.69 648.905 4020
2277.3 648.905 4020
2292.6 650.519 4030
2302.24 650.519 4030
2311.87 650.519 4030
2321.51 650.519 4030
2331.15 650.519 4030
2340.79 650.519 4030
2350.42 650.519 4030
2360.06 650.519 4030
2363.82 648.905 4020
2367.52 647.291 4010
2377.11 647.291 4010
2386.7 647.291 4010
2396.29 647.291 4010
2400.48 645.838 4001
2410.05 645.838 4001
2425.06 647.291 4010
2434.65 647.291 4010
2450.33 648.905 4020
2466.07 650.519 4030
2475.7 650.519 4030
2485.34 650.519 4030
2500.55 651.972 4039
2510.21 651.972 4039
2519.87 651.972 4039
2523.89 650.519 4030
2533.52 650.519 4030
2530.54 647.291 4010
2540.13 647.291 4010
2549.72 647.291 4010
2547.18 644.224 3991
2556.72 644.224 3991
2566.27 644.224 3991
2557.74 639.704 3963
2542.6 633.57 3925
2551.99 633.57 3925
2561.37 633.57 3925
2570.76 633.57 3925
530.298 118.966 737
532.782 119.127 738
534.547 119.127 738
536.312 119.127 738
538.076 119.127 738
539.841 119.127 738
541.606 119.127 738
542.634 118.966 737
544.397 118.966 737
546.159 118.966 737
547.178 118.804 736
548.938 118.804 736
550.698 118.804 736
552.458 118.804 736
554.218 118.804 736
555.978 118.804 736
557.738 118.804 736
559.498 118.804 736
561.258 118.804 736
563.018 118.804 736
-2356.98 515.688 3148
-2349.46 515.688 3148
-2328.54 512.74 3130
-2316.6 511.757 3124
-2304.7 510.774 3118
-2297.24 510.774 3118
-2289.79 510.774 3118
-2282.33 510.774 3118
-2288.01 513.723 3136
-2284.87 514.706 3142
-2277.36 514.706 3142
-2278.51 516.671 3154
-2288.25 520.603 3178
-2306.49 526.5 3214
-2298.8 526.5 3214
-2327.47 534.855 3265
-2419.13 557.789 3405
-2410.99 557.789 3405
-2402.84 557.789 3405
-2507.23 583.999 3565
-2530.94 591.535 3611
-2522.31 591.535 3611
-2546.39 599.234 3658
-2543.89 600.708 3667
-2540.65 602.019 3675
-2531.86 602.019 3675
-2523.07 602.019 3675
-2519.76 603.329 3683
-2510.95 603.329 3683
-2502.14 603.329 3683
-2482.51 600.708 3667
-2473.74 600.708 3667
-2464.97 600.708 3667
-2450.17 599.234 3658
-2436.08 597.923 3650
-2422.04 596.613 3642
-2413.33 596.613 3642
-2404.62 596.613 3642
-2395.91 596.613 3642
-2387.2 596.613 3642
-2378.49 596.613 3642
-2365.23 595.466 3635
-2356.53 595.466 3635
-2342.67 594.156 3627
-2334 594.156 3627
-2325.33 594.156 3627
-2301.32 590.224 3603
-2292.71 590.224 3603
-2284.09 590.224 3603
-2295.69 595.466 3635
-2291.4 596.613 3642
-2298.36 600.708 3667
-2294.58 602.019 3675
-2285.8 602.019 3675
-2296.84 607.261 3707
-2287.97 607.261 3707
-2279.11 607.261 3707
-2034.84 669.838 4089
-2025.06 669.838 4089
-2015.28 669.838 4089
-2000.6 668.2 4079
-1990.85 668.2 4079
-1971.38 664.924 4059
-1961.67 664.924 4059
-1928.4 656.897 4010
-1918.81 656.897 4010
-1904.94 655.422 4001
-1886.37 652.31 3982
-1876.85 652.31 3982
-1867.33 652.31 3982
-1857.81 652.31 3982
-1848.28 652.31 3982
-1834.14 650.672 3972
-1824.64 650.672 3972
-1815.15 650.672 3972
-1797.01 647.559 3953
-1770.83 641.498 3916
-1761.46 641.498 3916
-1735.99 635.601 3880
-1714.7 631.178 3853
-1713.45 634.126 3871
-1704.19 634.126 3871
-1694.94 634.126 3871
-1685.68 634.126 3871
-1676.42 634.126 3871
-1667.17 634.126 3871
-1657.91 634.126 3871
-1671.65 642.972 3925
-1662.27 642.972 3925
-1676.88 652.31 3982
-1667.36 652.31 3982
-1657.84 652.31 3982
-1652.04 653.784 3991
-1642.5 653.784 3991
-1632.96 653.784 3991
-1619.75 652.31 3982
-1602.55 649.197 3963
-1593.07 649.197 3963
-1587.19 650.672 3972
-1577.69 650.672 3972
-1568.19 650.672 3972
-1558.69 650.672 3972
-1549.2 650.672 3972
-1539.7 650.672 3972
-1512.09 642.972 3925
-1509.98 646.085 3944
-1507.78 649.197 3963
-1498.3 649.197 3963
-1492.21 650.672 3972
-1482.71 650.672 3972
-1473.21 650.672 3972
-1460.39 649.197 3963
-1443.96 646.085 3944
-1417.8 638.549 3898
-1408.48 638.549 3898
-1399.16 638.549 3898
-1389.84 638.549 3898
-1390.08 642.972 3925
-1390.54 647.559 3953
-1381.09 647.559 3953
-1381.7 652.31 3982
-1375.28 653.784 3991
-1375.66 658.535 4020
-1366.04 658.535 4020
-1359.8 660.173 4030
-1350.17 660.173 4030
-1340.53 660.173 4030
-600.058 297.651 1817
-595.713 297.651 1817
-591.368 297.651 1817
-587.023 297.651 1817
-582.678 297.651 1817
-578.333 297.651 1817
-573.356 297.324 1815
-567.762 296.668 1811
-563.431 296.668 1811
-558.483 296.341 1809
-554.157 296.341 1809
-549.223 296.013 1807
-543.998 295.522 1804
-537.889 294.539 1798
-533.589 294.539 1798
-526.346 292.901 1788
-518.858 291.099 1777
-510.555 288.805 1763
-506.339 288.805 1763
-498.99 287.003 1752
-491.694 285.201 1741
-485.57 284.055 1734
-481.424 284.055 1734
-473.975 282.089 1722
-469.311 281.761 1720
-462.764 280.287 1711
-457.332 279.468 1706
-453.252 279.468 1706
-448.646 279.14 1704
-442.223 277.666 1695
-436.878 276.847 1690
-432.836 276.847 1690
-428.034 276.355 1687
-422.24 275.209 1680
-417.476 274.717 1677
-413.466 274.717 1677
-408.479 274.062 1673
-403.753 273.57 1670
-399.041 273.079 1667
-395.055 273.079 1667
-390.6 272.751 1665
-386.154 272.424 1663
-382.177 272.424 1663
-378.2 272.424 1663
-373.098 271.605 1658
-367.798 270.622 1652
-362.966 269.967 1648
-358.154 269.311 1644
-354.223 269.311 1644
-349.439 268.656 1640
-344.253 267.673 1634
-339.929 267.345 1632
-336.027 267.345 1632
-332.124 267.345 1632
-328.221 267.345 1632
-324.319 267.345 1632
-320.416 267.345 1632
-316.32 267.182 1631
-312.42 267.182 1631
-307.952 266.69 1628
-304.059 266.69 1628
-299.797 266.363 1626
-295.909 266.363 1626
-292.02 266.363 1626
-288.132 266.363 1626
-283.72 265.871 1623
-279.494 265.544 1621
-276.127 266.035 1624
-273.082 266.854 1629
-269.187 266.854 1629
-265.617 267.182 1631
-262.198 267.673 1634
-258.765 268.165 1637
-254.85 268.165 1637
-251.396 268.656 1640
-247.474 268.656 1640
-243.849 268.984 1642
-239.923 268.984 1642
-235.996 268.984 1642
-232.494 269.475 1645
-229.255 270.294 1650
-226.265 271.441 1657
-222.303 271.441 1657
-218.999 272.26 1662
-216.06 273.57 1670
-212.701 274.389 1675
-208.696 274.389 1675
-205.301 275.209 1680
-201.643 275.7 1683
-197.854 276.028 1685
-193.824 276.028 1685
-190.02 276.355 1687
-186.868 277.666 1695
-183.462 278.649 1701
-179.394 278.649 1701
-175.43 278.812 1702
-171.762 279.468 1706
-167.879 279.795 1708
-163.795 279.795 1708
-159.804 279.959 1709
-155.9 280.287 1711
-151.986 280.614 1713
-147.889 280.614 1713
-143.961 280.942 1715
-139.86 280.942 1715
-135.838 281.106 1716
-131.735 281.106 1716
-127.631 281.106 1716
-122.952 279.795 1708
-118.867 279.795 1708
-244.439 641.498 3916
-237.896 649.197 3963
-228.419 649.197 3963
-218.942 649.197 3963
-209.941 650.672 3972
-200.948 652.31 3982
-191.426 652.31 3982
-182.315 653.784 3991
-172.771 653.784 3991
-164.004 656.897 4010
-155.185 660.173 4030
-145.548 660.173 4030
-135.911 660.173 4030
-126.87 663.285 4049
-117.766 666.562 4069
-108.036 666.562 4069
-98.3058 666.562 4069
134.555 663.285 4049
144.237 663.285 4049
153.919 663.285 4049
164.814 668.2 4079
174.568 668.2 4079
184.322 668.2 4079
193.601 666.562 4069
203.331 666.562 4069
213.061 666.562 4069
221.149 661.647 4039
228.636 655.422 4001
235.345 647.559 3953
244.798 647.559 3953
250.714 638.549 3898
257.033 631.178 3853
265.625 629.703 3844
274.817 629.703 3844
282.088 625.444 3818
289.845 622.496 3800
298.303 621.185 3792
307.371 621.185 3792
316.438 621.185 3792
323.274 616.926 3766
332.28 616.926 3766
341.286 616.926 3766
350.291 616.926 3766
359.297 616.926 3766
368.303 616.926 3766
375.605 614.141 3749
384.57 614.141 3749
391.751 611.356 3732
395.414 603.329 3683
400.599 597.923 3650
409.328 597.923 3650
413.589 591.535 3611
421.289 590.224 3603
427.16 586.456 3580
431.096 580.231 3542
439.566 580.231 3542
444.241 575.317 3512
449.804 571.713 3490
455.262 568.109 3468
463.555 568.109 3468
468.991 564.669 3447
475.295 562.376 3433
482.519 561.229 3426
490.711 561.229 3426
498.904 561.229 3426
506.06 560.082 3419
516.342 562.376 3433
525.621 563.522 3440
533.847 563.522 3440
544.279 565.816 3454
557.178 570.566 3483
570.215 575.317 3512
578.613 575.317 3512
590.689 578.921 3534
601.683 581.378 3549
615.499 586.456 3580
624.06 586.456 3580
638.099 591.535 3611
648.167 592.845 3619
656.821 592.845 3619
666.946 594.156 3627
675.619 594.156 3627
685.802 595.466 3635
694.494 595.466 3635
707.636 599.234 3658
716.383 599.234 3658
725.131 599.234 3658
733.878 599.234 3658
742.626 599.234 3658
751.373 599.234 3658
756.796 596.613 3642
765.505 596.613 3642
774.214 596.613 3642
782.923 596.613 3642
790.111 595.466 3635
797.045 594.156 3627
807.495 595.466 3635
816.188 595.466 3635
824.88 595.466 3635
837.012 597.923 3650
849.68 600.708 3667
858.449 600.708 3667
867.217 600.708 3667
875.986 600.708 3667
884.755 600.708 3667
893.524 600.708 3667
902.293 600.708 3667
908.826 599.234 3658
917.573 599.234 3658
928.6 600.708 3667
937.369 600.708 3667
950.266 603.329 3683
959.073 603.329 3683
969.983 604.64 3691
978.809 604.64 3691
989.776 605.95 3699
1000.78 607.261 3707
1009.65 607.261 3707
1018.51 607.261 3707
1029.87 608.735 3716
1038.76 608.735 3716
1047.64 608.735 3716
1056.53 608.735 3716
1065.41 608.735 3716
1074.3 608.735 3716
1083.19 608.735 3716
1092.07 608.735 3716
1100.96 608.735 3716
1109.84 608.735 3716
1121.14 610.046 3724
1132.47 611.356 3732
1141.4 611.356 3732
1152.79 612.667 3740
1161.73 612.667 3740
1173.49 614.141 3749
1182.45 614.141 3749
1191.42 614.141 3749
1202.95 615.452 3757
1211.93 615.452 3757
1220.91 615.452 3757
1229.9 615.452 3757
1236.24 614.141 3749
1245.21 614.141 3749
1254.17 614.141 3749
1263.14 614.141 3749
1266.34 611.356 3732
1275.26 611.356 3732
1284.18 611.356 3732
1293.11 611.356 3732
1302.03 611.356 3732
1313.77 612.667 3740
1325.89 614.141 3749
1334.86 614.141 3749
1343.82 614.141 3749
1352.79 614.141 3749
1361.75 614.141 3749
1370.72 614.141 3749
1373.43 611.356 3732
1376.43 608.735 3716
1385.31 608.735 3716
1394.2 608.735 3716
1406.11 610.046 3724
1415.01 610.046 3724
1423.92 610.046 3724
1432.82 610.046 3724
1441.73 610.046 3724
1453.75 611.356 3732
1462.67 611.356 3732
1471.6 611.356 3732
1487.26 614.141 3749
1503.01 616.926 3766
1518.85 619.711 3783
1527.89 619.711 3783
1536.94 619.711 3783
1532.09 614.141 3749
1544.34 615.452 3757
1557.05 616.926 3766
1566.05 616.926 3766
1582.17 619.711 3783
1598.37 622.496 3800
1607.45 622.496 3800
1616.54 622.496 3800
1625.63 622.496 3800
1634.71 622.496 3800
1643.8 622.496 3800
1652.89 622.496 3800
1665.91 623.97 3809
1682.5 626.755 3826
1695.62 628.229 3835
1704.79 628.229 3835
1722.01 631.178 3853
1747.4 637.075 3889
1768.89 641.498 3916
1778.26 641.498 3916
1796.3 644.611 3935
1809.84 646.085 3944
1819.27 646.085 3944
1828.7 646.085 3944
1838.13 646.085 3944
1834.45 641.498 3916
1843.81 641.498 3916
1853.17 641.498 3916
1862.54 641.498 3916
1871.9 641.498 3916
1881.27 641.498 3916
1890.63 641.498 3916
1900 641.498 3916
1900.58 638.549 3898
1883.45 629.703 3844
1892.64 629.703 3844
1871.65 619.711 3783
1851.37 610.046 3724
1839.79 603.329 3683
1828.02 596.613 3642
1836.73 596.613 3642
1829.73 591.535 3611
1838.36 591.535 3611
1835.23 587.767 3588
1851.52 590.224 3603
1860.14 590.224 3603
1872.9 591.535 3611
1897.69 596.613 3642
1906.4 596.613 3642
1915.11 596.613 3642
1923.82 596.613 3642
1932.53 596.613 3642
1941.24 596.613 3642
1949.95 596.613 3642
1972.1 600.708 3667
1998.15 605.95 3699
2024.91 611.356 3732
2033.83 611.356 3732
2094.21 626.755 3826
2163.28 644.611 3935
2198.64 652.31 3982
2208.16 652.31 3982
2228.26 655.422 4001
2242.87 656.897 4010
2252.46 656.897 4010
2262.04 656.897 4010
2271.63 656.897 4010
2286.91 658.535 4020
2296.52 658.535 4020
2306.14 658.535 4020
2315.75 658.535 4020
2325.36 658.535 4020
2334.98 658.535 4020
2344.59 658.535 4020
2354.2 658.535 4020
2357.94 656.897 4010
2367.52 656.897 4010
2377.11 656.897 4010
2386.7 656.897 4010
2390.91 655.422 4001
2394.48 653.784 3991
2404.03 653.784 3991
2419.62 655.422 4001
2429.18 655.422 4001
2444.24 656.897 4010
2453.83 656.897 4010
2469.56 658.535 4020
2479.17 658.535 4020
2488.79 658.535 4020
2498.4 658.535 4020
2508.01 658.535 4020
2511.36 656.897 4010
2520.95 656.897 4010
2518.55 653.784 3991
2528.09 653.784 3991
2537.64 653.784 3991
2535.05 650.672 3972
2538.79 649.197 3963
2548.26 649.197 3963
2533.22 642.972 3925
2519.28 637.075 3889
2528.58 637.075 3889
2537.88 637.075 3889
2547.18 637.075 3889
529.578 120.568 736
532.06 120.731 737
533.823 120.731 737
535.585 120.731 737
537.347 120.731 737
539.11 120.731 737
540.872 120.731 737
541.898 120.568 736
543.658 120.568 736
545.418 120.568 736
546.435 120.404 735
548.192 120.404 735
549.95 120.404 735
551.708 120.404 735
553.465 120.404 735
555.223 120.404 735
556.98 120.404 735
558.738 120.404 735
560.496 120.404 735
562.253 120.404 735
-2356.98 523.229 3148
-2349.46 523.229 3148
-2328.54 520.238 3130
-2316.6 519.24 3124
-2304.7 518.243 3118
-2297.24 518.243 3118
-2289.79 518.243 3118
-2282.33 518.243 3118
-2288.01 521.235 3136
-2284.87 522.232 3142
-2277.36 522.232 3142
-2278.51 524.227 3154
-2288.25 528.216 3178
-2297.88 532.205 3202
-2290.22 532.205 3202
-2308.94 538.355 3239
-2394.26 560.128 3370
-2386.2 560.128 3370
-2378.15 560.128 3370
-2501.6 591.209 3557
-2519.73 597.525 3595
-2511.13 597.525 3595
-2540.82 606.667 3650
-2543.89 609.493 3667
-2540.65 610.822 3675
-2531.86 610.822 3675
-2523.07 610.822 3675
-2519.76 612.152 3683
-2510.95 612.152 3683
-2502.14 612.152 3683
-2482.51 609.493 3667
-2473.74 609.493 3667
-2464.97 609.493 3667
-2450.17 607.997 3658
-2436.08 606.667 3650
-2422.04 605.337 3642
-2413.33 605.337 3642
-2404.62 605.337 3642
-2395.91 605.337 3642
-2387.2 605.337 3642
-2378.49 605.337 3642
-2365.23 604.174 3635
-2356.53 604.174 3635
-2342.67 602.844 3627
-2334 602.844 3627
-2325.33 602.844 3627
-2301.32 598.855 3603
-2292.71 598.855 3603
-2284.09 598.855 3603
-2295.69 604.174 3635
-2291.4 605.337 3642
-2298.36 609.493 3667
-2294.58 610.822 3675
-2285.8 610.822 3675
-2296.84 616.141 3707
-2287.97 616.141 3707
-2279.11 616.141 3707
-2034.84 679.633 4089
-2025.06 679.633 4089
-2015.28 679.633 4089
-2000.6 677.971 4079
-1990.85 677.971 4079
-1976.24 676.309 4069
-1961.67 674.647 4059
-1942.35 671.323 4039
-1932.69 671.323 4039
-1904.94 665.007 4001
-1886.37 661.849 3982
-1876.85 661.849 3982
-1867.33 661.849 3982
-1857.81 661.849 3982
-1848.28 661.849 3982
-1834.14 660.187 3972
-1824.64 660.187 3972
-1815.15 660.187 3972
-1797.01 657.029 3953
-1770.83 650.879 3916
-1761.46 650.879 3916
-1740.02 646.391 3889
-1714.7 640.408 3853
-1713.45 643.399 3871
-1704.19 643.399 3871
-1694.94 643.399 3871
-1685.68 643.399 3871
-1676.42 643.399 3871
-1667.17 643.399 3871
-1657.91 643.399 3871
-1671.65 652.375 3925
-1662.27 652.375 3925
-1676.88 661.849 3982
-1667.36 661.849 3982
-1661.59 663.345 3991
-1664.05 668.165 4020
-1654.43 668.165 4020
-1644.82 668.165 4020
-1631.14 666.503 4010
-1610.23 661.849 3982
-1593.07 658.691 3963
-1587.19 660.187 3972
-1577.69 660.187 3972
-1568.19 660.187 3972
-1558.69 660.187 3972
-1549.2 660.187 3972
-1539.7 660.187 3972
-1512.09 652.375 3925
-1509.98 655.533 3944
-1507.78 658.691 3963
-1498.3 658.691 3963
-1492.21 660.187 3972
-1482.71 660.187 3972
-1473.21 660.187 3972
-1460.39 658.691 3963
-1443.96 655.533 3944
-1417.8 647.887 3898
-1408.48 647.887 3898
-1399.16 647.887 3898
-1389.84 647.887 3898
-1390.08 652.375 3925
-1394.06 658.691 3963
-1384.58 658.691 3963
-1381.7 661.849 3982
-1381.82 666.503 4010
-1375.66 668.165 4020
-1366.04 668.165 4020
-1359.8 669.827 4030
-1350.17 669.827 4030
-1340.53 669.827 4030
-600.058 302.004 1817
-595.713 302.004 1817
-591.368 302.004 1817
-587.023 302.004 1817
-582.678 302.004 1817
-578.333 302.004 1817
-573.988 302.004 1817
-569.016 301.671 1815
-564.053 301.339 1813
-559.718 301.339 1813
-554.77 301.007 1811
-549.223 300.342 1807
-543.998 299.843 1804
-537.889 298.846 1798
-533.589 298.846 1798
-526.346 297.184 1788
-518.858 295.355 1777
-511.134 293.361 1765
-506.913 293.361 1765
-498.99 291.2 1752
-491.694 289.372 1741
-485.57 288.208 1734
-481.424 288.208 1734
-473.975 286.214 1722
-469.311 285.881 1720
-462.764 284.386 1711
-457.332 283.555 1706
-453.252 283.555 1706
-448.646 283.222 1704
-442.223 281.726 1695
-436.878 280.895 1690
-432.836 280.895 1690
-428.541 280.729 1689
-422.743 279.565 1682
-418.223 279.233 1680
-414.205 279.233 1680
-408.967 278.402 1675
-404.478 278.07 1673
-399.281 277.238 1668
-395.292 277.238 1668
-390.6 276.74 1665
-386.618 276.74 1665
-382.177 276.407 1663
-378.2 276.407 1663
-374.223 276.407 1663
-367.798 274.579 1652
-363.407 274.247 1650
-358.154 273.249 1644
-354.223 273.249 1644
-349.865 272.917 1642
-344.675 271.92 1636
-340.346 271.587 1634
-336.439 271.587 1634
-332.531 271.587 1634
-328.624 271.587 1634
-324.716 271.587 1634
-320.809 271.587 1634
-316.902 271.587 1634
-312.42 271.089 1631
-308.519 271.089 1631
-304.619 271.089 1631
-300.166 270.59 1628
-296.273 270.59 1628
-292.38 270.59 1628
-288.487 270.59 1628
-284.244 270.258 1626
-280.011 269.925 1624
-276.978 270.756 1629
-273.417 271.089 1631
-269.517 271.089 1631
-266.105 271.587 1634
-262.68 272.086 1637
-259.239 272.585 1640
-255.317 272.585 1640
-252.009 273.249 1644
-248.228 273.416 1645
-244.295 273.416 1645
-240.361 273.416 1645
-236.715 273.748 1647
-232.918 273.914 1648
-230.227 275.41 1657
-226.265 275.41 1657
-222.973 276.241 1662
-219.658 277.072 1667
-216.318 277.903 1672
-212.701 278.402 1675
-209.069 278.901 1678
-205.546 279.565 1682
-201.643 279.732 1683
-197.854 280.064 1685
-193.824 280.064 1685
-190.245 280.729 1689
-186.868 281.726 1695
-183.462 282.723 1701
-179.394 282.723 1701
-175.43 282.89 1702
-171.762 283.555 1706
-167.879 283.887 1708
-163.795 283.887 1708
-159.804 284.053 1709
-155.9 284.386 1711
-151.986 284.718 1713
-147.889 284.718 1713
-143.961 285.05 1715
-139.86 285.05 1715
-135.838 285.217 1716
-131.735 285.217 1716
-127.631 285.217 1716
-122.952 283.887 1708
-118.867 283.887 1708
-262.563 649.383 3907
-253.22 649.383 3907
-244.439 650.879 3916
-237.896 658.691 3963
-228.419 658.691 3963
-218.942 658.691 3963
-209.941 660.187 3972
-200.948 661.849 3982
-191.426 661.849 3982
-182.315 663.345 3991
-172.771 663.345 3991
-164.004 666.503 4010
-155.185 669.827 4030
-145.873 671.323 4039
-136.215 671.323 4039
-126.87 672.985 4049
-117.766 676.309 4069
-108.036 676.309 4069
-98.3058 676.309 4069
115.759 676.309 4069
125.489 676.309 4069
135.219 676.309 4069
144.237 672.985 4049
153.919 672.985 4049
164.814 677.971 4079
174.568 677.971 4079
184.322 677.971 4079
193.601 676.309 4069
203.331 676.309 4069
213.061 676.309 4069
221.149 671.323 4039
228.636 665.007 4001
235.345 657.029 3953
244.798 657.029 3953
250.714 647.887 3898
257.033 640.408 3853
265.625 638.912 3844
274.817 638.912 3844
282.088 634.59 3818
289.845 631.599 3800
298.303 630.269 3792
307.371 630.269 3792
316.438 630.269 3792
323.274 625.947 3766
332.28 625.947 3766
341.286 625.947 3766
350.291 625.947 3766
359.297 625.947 3766
368.303 625.947 3766
375.605 623.122 3749
384.57 623.122 3749
391.751 620.296 3732
394.555 610.822 3675
398.075 602.844 3627
406.748 602.844 3627
412.673 598.855 3603
419.535 596.362 3588
424.416 591.209 3557
430.122 587.387 3534
438.573 587.387 3534
443.356 582.567 3505
448 577.746 3476
452.505 572.926 3447
460.748 572.926 3447
466.133 569.436 3426
474.326 569.436 3426
482.519 569.436 3426
490.711 569.436 3426
497.884 568.272 3419
505.024 567.109 3412
514.236 568.272 3419
525.621 571.763 3440
533.847 571.763 3440
544.279 574.09 3454
557.178 578.91 3483
569.079 582.567 3505
577.46 582.567 3505
587.012 583.73 3512
600.496 588.716 3542
611.545 591.209 3557
624.06 595.032 3580
632.621 595.032 3580
643.868 597.525 3595
653.917 598.855 3603
662.533 598.855 3603
671.149 598.855 3603
679.765 598.855 3603
689.909 600.185 3611
698.544 600.185 3611
707.179 600.185 3611
715.814 600.185 3611
724.449 600.185 3611
733.084 600.185 3611
741.719 600.185 3611
748.692 598.855 3603
755.626 597.525 3595
764.223 597.525 3595
772.819 597.525 3595
781.416 597.525 3595
790.013 597.525 3595
800.387 598.855 3603
809.003 598.855 3603
819.434 600.185 3611
828.069 600.185 3611
843.887 605.337 3642
852.596 605.337 3642
861.305 605.337 3642
870.014 605.337 3642
878.723 605.337 3642
889.382 606.667 3650
898.11 606.667 3650
906.838 606.667 3650
915.567 606.667 3650
926.321 607.997 3658
935.068 607.997 3658
946.138 609.493 3667
956.99 610.822 3675
967.88 612.152 3683
976.687 612.152 3683
987.635 613.482 3691
998.621 614.811 3699
1009.65 616.141 3707
1018.51 616.141 3707
1027.37 616.141 3707
1036.24 616.141 3707
1045.1 616.141 3707
1053.97 616.141 3707
1062.83 616.141 3707
1071.7 616.141 3707
1080.56 616.141 3707
1089.43 616.141 3707
1098.29 616.141 3707
1109.84 617.637 3716
1118.73 617.637 3716
1132.47 620.296 3732
1141.4 620.296 3732
1150.32 620.296 3732
1161.73 621.626 3740
1170.67 621.626 3740
1179.62 621.626 3740
1188.56 621.626 3740
1197.5 621.626 3740
1206.45 621.626 3740
1215.39 621.626 3740
1224.33 621.626 3740
1233.28 621.626 3740
1242.22 621.626 3740
1251.16 621.626 3740
1260.11 621.626 3740
1266.34 620.296 3732
1275.26 620.296 3732
1284.18 620.296 3732
1290.34 618.967 3724
1299.24 618.967 3724
1308.15 618.967 3724
1317.05 618.967 3724
1325.96 618.967 3724
1334.86 618.967 3724
1334.75 614.811 3699
1343.59 614.811 3699
1352.44 614.811 3699
1361.28 614.811 3699
1370.13 614.811 3699
1378.97 614.811 3699
1387.82 614.811 3699
1396.67 614.811 3699
1405.51 614.811 3699
1414.36 614.811 3699
1423.2 614.811 3699
1432.05 614.811 3699
1440.89 614.811 3699
1449.74 614.811 3699
1458.58 614.811 3699
1477.35 618.967 3724
1489.44 620.296 3732
1501.58 621.626 3740
1510.52 621.626 3740
1519.47 621.626 3740
1521.87 618.967 3724
1534.07 620.296 3732
1546.3 621.626 3740
1555.24 621.626 3740
1571.3 624.451 3757
1587.43 627.277 3774
1600.26 628.773 3783
1609.31 628.773 3783
1618.35 628.773 3783
1627.4 628.773 3783
1636.45 628.773 3783
1641.58 627.277 3774
1661.97 631.599 3800
1675.02 633.094 3809
1691.64 635.92 3826
1700.79 635.92 3826
1713.97 637.416 3835
1739.31 643.399 3871
1756.7 646.391 3889
1766 646.391 3889
1787.62 650.879 3916
1805.71 654.037 3935
1819.27 655.533 3944
1828.7 655.533 3944
1838.13 655.533 3944
1834.45 650.879 3916
1843.81 650.879 3916
1857.43 652.375 3925
1866.82 652.375 3925
1885.29 655.533 3944
1894.72 655.533 3944
1904.15 655.533 3944
1900 650.879 3916
1900.58 647.887 3898
1905.5 646.391 3889
1914.79 646.391 3889
1884.51 633.094 3809
1863.79 623.122 3749
1860.27 618.967 3724
1869.18 618.967 3724
1840.76 606.667 3650
1837.84 602.844 3627
1838.36 600.185 3611
1838.81 597.525 3595
1855.63 600.185 3611
1864.27 600.185 3611
1877.05 601.514 3619
1897.69 605.337 3642
1910.59 606.667 3650
1919.32 606.667 3650
1928.04 606.667 3650
1932.53 605.337 3642
1945.5 606.667 3650
1954.23 606.667 3650
1972.1 609.493 3667
1998.15 614.811 3699
2024.91 620.296 3732
2033.83 620.296 3732
2070.67 628.773 3783
2137.99 646.391 3889
2177.66 655.533 3944
2187.09 655.533 3944
2217.68 661.849 3982
2237.83 665.007 4001
2247.4 665.007 4001
2256.97 665.007 4001
2266.54 665.007 4001
2281.22 666.503 4010
2290.81 666.503 4010
2300.4 666.503 4010
2309.99 666.503 4010
2319.58 666.503 4010
2329.17 666.503 4010
2338.76 666.503 4010
2348.35 666.503 4010
2352.64 665.007 4001
2356.31 663.345 3991
2365.85 663.345 3991
2375.39 663.345 3991
2379.56 661.849 3982
2389.08 661.849 3982
2404.03 663.345 3991
2413.57 663.345 3991
2423.11 663.345 3991
2438.75 665.007 4001
2453.83 666.503 4010
2463.42 666.503 4010
2473.01 666.503 4010
2482.59 666.503 4010
2492.18 666.503 4010
2501.77 666.503 4010
2505.73 665.007 4001
2515.29 665.007 4001
2512.87 661.849 3982
2522.39 661.849 3982
2519.83 658.691 3963
2529.31 658.691 3963
2532.38 657.029 3953
2541.83 657.029 3953
2521.6 649.383 3907
2513.45 644.895 3880
2522.73 644.895 3880
2532.01 644.895 3880
2541.29 644.895 3880
2532.81 640.408 3853
530.298 122.497 737
532.06 122.497 737
533.823 122.497 737
535.585 122.497 737
537.347 122.497 737
539.11 122.497 737
540.138 122.331 736
541.898 122.331 736
542.919 122.164 735
544.677 122.164 735
546.435 122.164 735
547.446 121.998 734
549.95 122.164 735
551.708 122.164 735
553.465 122.164 735
555.223 122.164 735
556.223 121.998 734
557.978 121.998 734
559.733 121.998 734
561.488 121.998 734
-2361.48 531.782 3154
-2353.94 531.782 3154
-2337.47 529.759 3142
-2325.5 528.747 3136
-2309.13 526.724 3124
-2301.66 526.724 3124
-2294.19 526.724 3124
-2286.72 526.724 3124
-2288.01 528.747 3136
-2289.23 530.771 3148
-2281.71 530.771 3148
-2295.85 535.829 3178
-2292.57 536.84 3184
-2311.51 543.079 3221
-2303.81 543.079 3221
-2318.2 548.306 3252
-2370.82 562.637 3337
-2362.84 562.637 3337
-2354.86 562.637 3337
-2480.5 594.672 3527
-2498.7 601.079 3565
-2490.18 601.079 3565
-2546.39 616.759 3658
-2543.89 618.277 3667
-2551.71 622.323 3691
-2542.88 622.323 3691
-2534.06 622.323 3691
-2525.23 622.323 3691
-2516.41 622.323 3691
-2502.14 620.975 3683
-2493.34 620.975 3683
-2484.53 620.975 3683
-2475.72 620.975 3683
-2461.56 619.626 3675
-2441.42 616.759 3658
-2438.66 618.277 3667
-2429.89 618.277 3667
-2421.12 618.277 3667
-2412.35 618.277 3667
-2387.2 614.062 3642
-2378.49 614.062 3642
-2369.78 614.062 3642
-2356.53 612.882 3635
-2347.84 612.882 3635
-2339.15 612.882 3635
-2330.46 612.882 3635
-2301.32 607.486 3603
-2292.71 607.486 3603
-2289.16 608.835 3611
-2280.53 608.835 3611
-2291.4 614.062 3642
-2298.36 618.277 3667
-2294.58 619.626 3675
-2285.8 619.626 3675
-2302.41 626.539 3716
-2293.53 626.539 3716
-2284.64 626.539 3716
-2034.84 689.428 4089
-2025.06 689.428 4089
-2015.28 689.428 4089
-2000.6 687.742 4079
-1990.85 687.742 4079
-1976.24 686.056 4069
-1961.67 684.37 4059
-1942.35 680.998 4039
-1932.69 680.998 4039
-1904.94 674.591 4001
-1886.37 671.388 3982
-1876.85 671.388 3982
-1867.33 671.388 3982
-1857.81 671.388 3982
-1848.28 671.388 3982
-1834.14 669.702 3972
-1824.64 669.702 3972
-1815.15 669.702 3972
-1797.01 666.498 3953
-1770.83 660.26 3916
-1761.46 660.26 3916
-1740.02 655.707 3889
-1714.7 649.638 3853
-1713.45 652.672 3871
-1704.19 652.672 3871
-1694.94 652.672 3871
-1685.68 652.672 3871
-1672.53 651.155 3862
-1663.29 651.155 3862
-1654.06 651.155 3862
-1663.99 658.742 3907
-1662.27 661.777 3925
-1672.67 669.702 3972
-1663.17 669.702 3972
-1661.59 672.905 3991
-1664.05 677.795 4020
-1654.43 677.795 4020
-1644.82 677.795 4020
-1631.14 676.109 4010
-1610.23 671.388 3982
-1593.07 668.184 3963
-1587.19 669.702 3972
-1577.69 669.702 3972
-1568.19 669.702 3972
-1558.69 669.702 3972
-1549.2 669.702 3972
-1536.21 668.184 3963
-1512.09 661.777 3925
-1509.98 664.981 3944
-1503.97 666.498 3953
-1494.52 666.498 3953
-1488.82 668.184 3963
-1479.35 668.184 3963
-1469.87 668.184 3963
-1460.39 668.184 3963
-1443.96 664.981 3944
-1417.8 657.225 3898
-1408.48 657.225 3898
-1399.16 657.225 3898
-1389.84 657.225 3898
-1390.08 661.777 3925
-1394.06 668.184 3963
-1384.58 668.184 3963
-1378.23 669.702 3972
-1381.82 676.109 4010
-1372.23 676.109 4010
-1362.64 676.109 4010
-1353.06 676.109 4010
-600.058 306.356 1817
-595.713 306.356 1817
-591.368 306.356 1817
-587.023 306.356 1817
-582.678 306.356 1817
-578.333 306.356 1817
-573.988 306.356 1817
-569.016 306.019 1815
-564.053 305.682 1813
-559.718 305.682 1813
-554.77 305.345 1811
-549.223 304.67 1807
-543.998 304.165 1804
-536.692 302.479 1794
-532.402 302.479 1794
-526.346 301.467 1788
-518.858 299.612 1777
-511.134 297.589 1765
-506.913 297.589 1765
-498.99 295.397 1752
-491.412 293.374 1740
-485.01 292.025 1732
-480.869 292.025 1732
-473.975 290.339 1722
-469.311 290.002 1720
-462.764 288.484 1711
-457.332 287.641 1706
-453.252 287.641 1706
-448.646 287.304 1704
-442.223 285.787 1695
-436.878 284.944 1690
-432.836 284.944 1690
-428.541 284.775 1689
-422.743 283.595 1682
-418.223 283.257 1680
-414.205 283.257 1680
-408.967 282.414 1675
-404.478 282.077 1673
-399.281 281.234 1668
-395.292 281.234 1668
-390.6 280.728 1665
-386.618 280.728 1665
-382.177 280.391 1663
-378.2 280.391 1663
-374.223 280.391 1663
-367.798 278.537 1652
-363.407 278.199 1650
-358.154 277.188 1644
-354.223 277.188 1644
-349.865 276.85 1642
-344.675 275.839 1636
-340.346 275.502 1634
-336.439 275.502 1634
-332.531 275.502 1634
-328.624 275.502 1634
-324.716 275.502 1634
-320.809 275.502 1634
-316.902 275.502 1634
-312.42 274.996 1631
-308.519 274.996 1631
-304.619 274.996 1631
-300.166 274.49 1628
-296.273 274.49 1628
-292.38 274.49 1628
-288.487 274.49 1628
-284.244 274.153 1626
-280.011 273.816 1624
-276.978 274.659 1629
-273.417 274.996 1631
-269.517 274.996 1631
-266.105 275.502 1634
-262.68 276.007 1637
-259.239 276.513 1640
-255.317 276.513 1640
-252.009 277.188 1644
-248.228 277.356 1645
-244.295 277.356 1645
-240.361 277.356 1645
-236.715 277.694 1647
-232.918 277.862 1648
-230.227 279.38 1657
-226.265 279.38 1657
-222.973 280.223 1662
-219.658 281.066 1667
-216.318 281.909 1672
-212.701 282.414 1675
-209.069 282.92 1678
-205.546 283.595 1682
-201.643 283.763 1683
-197.854 284.101 1685
-193.824 284.101 1685
-190.245 284.775 1689
-186.868 285.787 1695
-183.246 286.461 1699
-179.183 286.461 1699
-175.43 286.967 1702
-171.762 287.641 1706
-167.879 287.978 1708
-163.795 287.978 1708
-159.804 288.147 1709
-155.9 288.484 1711
-151.986 288.821 1713
-147.889 288.821 1713
-143.961 289.159 1715
-139.86 289.159 1715
-135.838 289.327 1716
-131.735 289.327 1716
-127.631 289.327 1716
-262.563 658.742 3907
-253.22 658.742 3907
-244.439 660.26 3916
-237.296 666.498 3953
-228.419 668.184 3963
-218.942 668.184 3963
-209.466 668.184 3963
-200.948 671.388 3982
-191.426 671.388 3982
-182.315 672.905 3991
-172.771 672.905 3991
-164.004 676.109 4010
-155.185 679.481 4030
-145.873 680.998 4039
-136.215 680.998 4039
-126.87 682.684 4049
-117.766 686.056 4069
-108.036 686.056 4069
-98.3058 686.056 4069
105.768 684.37 4059
115.759 686.056 4069
125.489 686.056 4069
135.219 686.056 4069
144.237 682.684 4049
153.919 682.684 4049
163.198 680.998 4039
172.856 680.998 4039
182.108 679.481 4030
190.365 674.591 4001
199.933 674.591 4001
209.5 674.591 4001
218.028 671.388 3982
225.893 666.498 3953
232.071 657.225 3898
241.392 657.225 3898
247.819 649.638 3853
252.964 639.353 3792
260.788 636.318 3774
269.812 636.318 3774
277.581 633.451 3757
286.565 633.451 3757
294.92 632.103 3749
303.885 632.103 3749
312.85 632.103 3749
320.356 629.236 3732
329.986 630.585 3740
338.929 630.585 3740
347.873 630.585 3740
356.816 630.585 3740
365.76 630.585 3740
373.902 629.236 3732
382.826 629.236 3732
388.287 623.672 3699
394.555 619.626 3675
398.075 611.533 3627
406.748 611.533 3627
412.673 607.486 3603
419.535 604.957 3588
424.416 599.73 3557
430.122 595.852 3534
438.573 595.852 3534
443.356 590.963 3505
448 586.073 3476
452.505 581.184 3447
460.748 581.184 3447
466.133 577.643 3426
474.326 577.643 3426
482.519 577.643 3426
490.711 577.643 3426
497.884 576.463 3419
505.024 575.282 3412
514.236 576.463 3419
525.621 580.003 3440
533.847 580.003 3440
544.279 582.364 3454
557.178 587.253 3483
569.079 590.963 3505
577.46 590.963 3505
587.012 592.143 3512
600.496 597.201 3542
611.545 599.73 3557
624.06 603.608 3580
632.621 603.608 3580
643.868 606.137 3595
653.917 607.486 3603
662.533 607.486 3603
671.149 607.486 3603
679.765 607.486 3603
689.909 608.835 3611
698.544 608.835 3611
707.179 608.835 3611
715.814 608.835 3611
724.449 608.835 3611
733.084 608.835 3611
741.719 608.835 3611
748.692 607.486 3603
755.626 606.137 3595
764.223 606.137 3595
772.819 606.137 3595
781.416 606.137 3595
790.013 606.137 3595
800.387 607.486 3603
809.003 607.486 3603
819.434 608.835 3611
828.069 608.835 3611
843.887 614.062 3642
852.596 614.062 3642
861.305 614.062 3642
870.014 614.062 3642
878.723 614.062 3642
889.382 615.411 3650
898.11 615.411 3650
906.838 615.411 3650
915.567 615.411 3650
926.321 616.759 3658
935.068 616.759 3658
946.138 618.277 3667
956.99 619.626 3675
967.88 620.975 3683
976.687 620.975 3683
987.635 622.323 3691
998.621 623.672 3699
1009.65 625.021 3707
1018.51 625.021 3707
1027.37 625.021 3707
1036.24 625.021 3707
1045.1 625.021 3707
1053.97 625.021 3707
1062.83 625.021 3707
1071.7 625.021 3707
1080.56 625.021 3707
1089.43 625.021 3707
1098.29 625.021 3707
1109.84 626.539 3716
1118.73 626.539 3716
1132.47 629.236 3732
1141.4 629.236 3732
1150.32 629.236 3732
1161.73 630.585 3740
1170.67 630.585 3740
1179.62 630.585 3740
1188.56 630.585 3740
1197.5 630.585 3740
1206.45 630.585 3740
1215.39 630.585 3740
1224.33 630.585 3740
1233.28 630.585 3740
1242.22 630.585 3740
1251.16 630.585 3740
1260.11 630.585 3740
1266.34 629.236 3732
1275.26 629.236 3732
1284.18 629.236 3732
1290.34 627.887 3724
1299.24 627.887 3724
1308.15 627.887 3724
1317.05 627.887 3724
1325.96 627.887 3724
1334.86 627.887 3724
1334.75 623.672 3699
1343.59 623.672 3699
1352.44 623.672 3699
1361.28 623.672 3699
1370.13 623.672 3699
