ply
format ascii 1.0
comment File generated
element vertex 2125
property float x
property float y
property float z
end_header
-19.3778 -1408.63 3853
-10.2828 -1425.08 3898
-0.961487 -1425.08 3898
8.35981 -1425.08 3898
17.6811 -1425.08 3898
27.0024 -1425.08 3898
35.9882 -1411.92 3862
45.0127 -1405.34 3844
54.2048 -1405.34 3844
63.2486 -1402.05 3835
72.0982 -1395.83 3818
80.675 -1386.33 3792
89.7429 -1386.33 3792
97.4557 -1367.32 3740
105.233 -1352.33 3699
367.422 -1373.53 3757
377.308 -1376.82 3766
389.802 -1389.25 3800
398.889 -1389.25 3800
413.666 -1408.63 3853
423.867 -1411.92 3862
436.13 -1421.79 3889
445.43 -1421.79 3889
454.73 -1421.79 3889
464.03 -1421.79 3889
473.329 -1421.79 3889
482.629 -1421.79 3889
490.791 -1418.5 3880
493.109 -1398.76 3826
2971.49 -1480.29 4049
2981.18 -1480.29 4049
2990.86 -1480.29 4049
3000.54 -1480.29 4049
3010.22 -1480.29 4049
3019.91 -1480.29 4049
3029.59 -1480.29 4049
3025.01 -1473.34 4030
3027.12 -1469.68 4020
3036.73 -1469.68 4020
3046.34 -1469.68 4020
3055.95 -1469.68 4020
3065.57 -1469.68 4020
3075.18 -1469.68 4020
-477.871 -659.203 1815
-473.531 -659.203 1815
-469.191 -659.203 1815
-464.338 -658.477 1813
-460.003 -658.477 1813
-456.673 -659.93 1817
-452.826 -660.656 1819
-448.476 -660.656 1819
-444.615 -661.382 1821
-440.26 -661.382 1821
-435.905 -661.382 1821
-431.077 -660.656 1819
-426.727 -660.656 1819
-421.913 -659.93 1817
-417.108 -659.203 1815
-412.768 -659.203 1815
-407.528 -657.75 1811
-402.752 -657.024 1809
-396.884 -654.482 1802
-392.575 -654.482 1802
-387.835 -653.755 1800
-383.531 -653.755 1800
-378.805 -653.029 1798
-374.505 -653.029 1798
-369.794 -652.302 1796
-365.092 -651.576 1794
-360.4 -650.85 1792
-356.115 -650.85 1792
-351.044 -649.397 1788
-346.381 -648.67 1786
-341.727 -647.944 1784
-337.461 -647.944 1784
-333.195 -647.944 1784
-328.929 -647.944 1784
-324.299 -647.218 1782
-320.037 -647.218 1782
-315.776 -647.218 1782
-311.165 -646.491 1780
-306.736 -646.128 1779
-302.482 -646.128 1779
-298.228 -646.128 1779
-293.643 -645.402 1777
-289.394 -645.402 1777
-284.503 -643.949 1773
-280.263 -643.949 1773
-276.023 -643.949 1773
-271.783 -643.949 1773
-267.543 -643.949 1773
-263.304 -643.949 1773
-258.479 -642.496 1769
-254.249 -642.496 1769
-250.302 -643.222 1771
-246.067 -643.222 1771
-241.832 -643.222 1771
-237.597 -643.222 1771
-232.571 -641.043 1765
-228.35 -641.043 1765
-223.241 -638.501 1758
-219.286 -639.227 1760
-215.077 -639.227 1760
-210.869 -639.227 1760
-206.66 -639.227 1760
-202.451 -639.227 1760
-198.243 -639.227 1760
-195.467 -643.949 1773
-191.227 -643.949 1773
-186.988 -643.949 1773
-182.748 -643.949 1773
-178.508 -643.949 1773
-174.268 -643.949 1773
-170.029 -643.949 1773
-165.789 -643.949 1773
-161.913 -645.402 1777
-157.664 -645.402 1777
-153.674 -646.491 1780
-149.417 -646.491 1780
-145.161 -646.491 1780
-99.7521 -1364.53 3757
-90.768 -1364.53 3757
-81.9798 -1367.8 3766
-73.1291 -1370.71 3774
-64.2572 -1373.98 3783
-55.2109 -1373.98 3783
-46.3721 -1380.15 3800
-37.7168 -1396.13 3844
-28.5915 -1399.4 3853
-19.3778 -1399.4 3853
-10.259 -1412.47 3889
-0.959267 -1412.47 3889
8.34051 -1412.47 3889
17.6403 -1412.47 3889
26.9401 -1412.47 3889
35.9882 -1402.67 3862
45.0127 -1396.13 3844
54.2048 -1396.13 3844
63.2486 -1392.86 3835
72.0982 -1386.69 3818
80.675 -1377.24 3792
89.7429 -1377.24 3792
97.8987 -1364.53 3757
105.944 -1352.55 3724
370.845 -1377.24 3792
380.715 -1380.15 3800
390.725 -1383.42 3809
399.833 -1383.42 3809
415.598 -1405.94 3871
428.806 -1419.01 3907
440.167 -1425.55 3925
449.553 -1425.55 3925
460.108 -1429.18 3935
469.518 -1429.18 3935
478.928 -1429.18 3935
488.338 -1429.18 3935
497.748 -1429.18 3935
507.157 -1429.18 3935
516.567 -1429.18 3935
2971.49 -1470.59 4049
2981.18 -1470.59 4049
2990.86 -1470.59 4049
3000.54 -1470.59 4049
3010.22 -1470.59 4049
3019.91 -1470.59 4049
3029.59 -1470.59 4049
3039.27 -1470.59 4049
3034.65 -1463.69 4030
3051.08 -1466.95 4039
3060.74 -1466.95 4039
3085.6 -1474.22 4059
3095.31 -1474.22 4059
3105.01 -1474.22 4059
-491.974 -656.298 1819
-487.624 -656.298 1819
-483.274 -656.298 1819
-478.924 -656.298 1819
-473.531 -654.855 1815
-469.191 -654.855 1815
-464.338 -654.134 1813
-460.003 -654.134 1813
-455.668 -654.134 1813
-451.332 -654.134 1813
-446.997 -654.134 1813
-442.661 -654.134 1813
-438.326 -654.134 1813
-433.99 -654.134 1813
-429.655 -654.134 1813
-424.85 -653.412 1811
-420.52 -653.412 1811
-415.729 -652.69 1809
-411.404 -652.69 1809
-407.078 -652.69 1809
-401.861 -651.247 1805
-396.444 -649.443 1800
-392.139 -649.443 1800
-387.835 -649.443 1800
-383.531 -649.443 1800
-378.805 -648.722 1798
-374.505 -648.722 1798
-369.794 -648 1796
-365.092 -647.278 1794
-360.4 -646.557 1792
-356.115 -646.557 1792
-351.437 -645.835 1790
-346.381 -644.392 1786
-341.727 -643.67 1784
-337.461 -643.67 1784
-333.195 -643.67 1784
-328.929 -643.67 1784
-324.662 -643.67 1784
-320.396 -643.67 1784
-315.776 -642.949 1782
-311.165 -642.227 1780
-306.736 -641.866 1779
-302.482 -641.866 1779
-298.228 -641.866 1779
-293.643 -641.145 1777
-289.394 -641.145 1777
-284.182 -638.98 1771
-279.947 -638.98 1771
-275.4 -638.258 1769
-271.17 -638.258 1769
-266.94 -638.258 1769
-262.71 -638.258 1769
-258.187 -637.537 1767
-253.674 -636.815 1765
-249.171 -636.094 1763
-244.955 -636.094 1763
-240.739 -636.094 1763
-236.523 -636.094 1763
-232.176 -635.733 1762
-227.962 -635.733 1762
-222.987 -633.568 1756
-218.539 -632.846 1754
-214.344 -632.846 1754
-210.15 -632.846 1754
-205.956 -632.846 1754
-201.991 -633.568 1756
-198.243 -635.011 1760
-194.806 -637.537 1767
-190.58 -637.537 1767
-186.777 -638.98 1771
-182.542 -638.98 1771
-178.307 -638.98 1771
-174.072 -638.98 1771
-169.837 -638.98 1771
-165.976 -640.423 1775
-162.096 -641.866 1779
-157.842 -641.866 1779
-153.674 -642.227 1780
-149.417 -642.227 1780
-145.161 -642.227 1780
-140.904 -642.227 1780
-108.736 -1355.53 3757
-99.9911 -1358.78 3766
-90.9854 -1358.78 3766
-81.9798 -1358.78 3766
-73.1291 -1361.67 3774
-64.2572 -1364.91 3783
-55.2109 -1364.91 3783
-46.3721 -1371.05 3800
-37.7168 -1386.92 3844
-28.5247 -1386.92 3844
-19.423 -1393.42 3862
-10.259 -1403.16 3889
-0.959267 -1403.16 3889
8.34051 -1403.16 3889
17.6403 -1403.16 3889
26.8154 -1396.66 3871
35.9882 -1393.42 3862
44.6028 -1374.29 3809
53.7113 -1374.29 3809
62.8198 -1374.29 3809
71.6072 -1368.16 3792
80.675 -1368.16 3792
89.7429 -1368.16 3792
97.8987 -1355.53 3757
105.944 -1343.63 3724
370.845 -1368.16 3792
380.715 -1371.05 3800
390.725 -1374.29 3809
399.833 -1374.29 3809
419.463 -1409.65 3907
431.879 -1419.76 3935
441.289 -1419.76 3935
450.699 -1419.76 3935
464.435 -1433.1 3972
475.126 -1436.71 3982
484.648 -1436.71 3982
494.171 -1436.71 3982
502.428 -1433.1 3972
511.926 -1433.1 3972
521.424 -1433.1 3972
530.923 -1433.1 3972
2964.16 -1457.28 4039
2981.18 -1460.89 4049
2990.86 -1460.89 4049
3007.95 -1464.49 4059
3032.53 -1471.71 4079
3042.28 -1471.71 4079
3052.04 -1471.71 4079
3061.79 -1471.71 4079
3071.54 -1471.71 4079
3081.3 -1471.71 4079
3075.9 -1464.49 4059
3085.6 -1464.49 4059
3095.31 -1464.49 4059
3105.01 -1464.49 4059
-505.578 -652.658 1821
-501.224 -652.658 1821
-496.869 -652.658 1821
-491.974 -651.941 1819
-487.624 -651.941 1819
-483.274 -651.941 1819
-478.924 -651.941 1819
-473.531 -650.507 1815
-469.191 -650.507 1815
-464.338 -649.791 1813
-460.003 -649.791 1813
-455.668 -649.791 1813
-451.332 -649.791 1813
-446.997 -649.791 1813
-442.173 -649.074 1811
-437.842 -649.074 1811
-433.512 -649.074 1811
-429.181 -649.074 1811
-424.381 -648.357 1809
-420.055 -648.357 1809
-415.729 -648.357 1809
-411.404 -648.357 1809
-406.628 -647.64 1807
-401.861 -646.923 1805
-396.444 -645.131 1800
-392.139 -645.131 1800
-387.835 -645.131 1800
-383.531 -645.131 1800
-378.805 -644.415 1798
-374.505 -644.415 1798
-369.794 -643.698 1796
-365.092 -642.981 1794
-360.4 -642.264 1792
-356.115 -642.264 1792
-351.437 -641.547 1790
-346.381 -640.114 1786
-341.727 -639.397 1784
-337.461 -639.397 1784
-333.195 -639.397 1784
-328.929 -639.397 1784
-324.662 -639.397 1784
-320.396 -639.397 1784
-315.776 -638.68 1782
-311.165 -637.963 1780
-306.736 -637.605 1779
-302.482 -637.605 1779
-298.228 -637.605 1779
-293.643 -636.888 1777
-289.394 -636.888 1777
-284.182 -634.738 1771
-279.947 -634.738 1771
-275.4 -634.021 1769
-271.17 -634.021 1769
-266.94 -634.021 1769
-262.71 -634.021 1769
-258.187 -633.304 1767
-253.674 -632.587 1765
-249.171 -631.87 1763
-244.955 -631.87 1763
-240.739 -631.87 1763
-236.523 -631.87 1763
-232.176 -631.512 1762
-227.962 -631.512 1762
-222.987 -629.361 1756
-218.788 -629.361 1756
-214.833 -630.078 1758
-210.629 -630.078 1758
-206.425 -630.078 1758
-202.221 -630.078 1758
-198.581 -631.87 1763
-195.247 -634.738 1771
-191.012 -634.738 1771
-186.777 -634.738 1771
-182.542 -634.738 1771
-178.307 -634.738 1771
-174.072 -634.738 1771
-170.029 -635.454 1773
-165.976 -636.171 1775
-162.187 -637.963 1780
-157.93 -637.963 1780
-153.674 -637.963 1780
-149.417 -637.963 1780
-145.161 -637.963 1780
-140.904 -637.963 1780
-136.648 -637.963 1780
-108.997 -1349.76 3766
-99.9911 -1349.76 3766
-90.9854 -1349.76 3766
-82.1539 -1352.63 3774
-73.1291 -1352.63 3774
-64.2572 -1355.85 3783
-55.2109 -1355.85 3783
-46.3721 -1361.94 3800
-37.7168 -1377.71 3844
-28.5247 -1377.71 3844
-19.423 -1384.17 3862
-10.259 -1393.84 3889
-0.959267 -1393.84 3889
8.34051 -1393.84 3889
17.6403 -1393.84 3889
26.8777 -1390.62 3880
35.9882 -1384.17 3862
44.6028 -1365.17 3809
53.7113 -1365.17 3809
62.8198 -1365.17 3809
71.6072 -1359.08 3792
80.675 -1359.08 3792
89.7429 -1359.08 3792
97.8987 -1346.53 3757
105.944 -1334.71 3724
370.845 -1359.08 3792
380.715 -1361.94 3800
390.725 -1365.17 3809
399.833 -1365.17 3809
419.463 -1400.29 3907
431.879 -1410.33 3935
441.289 -1410.33 3935
450.699 -1410.33 3935
467.826 -1433.98 4001
477.393 -1433.98 4001
486.961 -1433.98 4001
496.529 -1433.98 4001
503.693 -1427.17 3982
513.215 -1427.17 3982
522.737 -1427.17 3982
530.923 -1423.59 3972
2981.18 -1451.19 4049
2990.86 -1451.19 4049
3007.95 -1454.77 4059
3032.53 -1461.94 4079
3042.28 -1461.94 4079
3052.04 -1461.94 4079
3061.79 -1461.94 4079
3071.54 -1461.94 4079
3081.3 -1461.94 4079
3075.9 -1454.77 4059
3085.6 -1454.77 4059
3095.31 -1454.77 4059
3105.01 -1454.77 4059
-505.578 -648.296 1821
-501.224 -648.296 1821
-496.869 -648.296 1821
-492.515 -648.296 1821
-488.16 -648.296 1821
-483.274 -647.584 1819
-478.924 -647.584 1819
-473.531 -646.16 1815
-469.191 -646.16 1815
-464.338 -645.448 1813
-460.003 -645.448 1813
-455.668 -645.448 1813
-451.332 -645.448 1813
-446.997 -645.448 1813
-442.173 -644.736 1811
-437.842 -644.736 1811
-433.512 -644.736 1811
-429.181 -644.736 1811
-424.381 -644.023 1809
-420.055 -644.023 1809
-415.729 -644.023 1809
-411.404 -644.023 1809
-406.628 -643.312 1807
-401.861 -642.599 1805
-396.444 -640.819 1800
-392.139 -640.819 1800
-387.835 -640.819 1800
-383.531 -640.819 1800
-378.805 -640.107 1798
-374.505 -640.107 1798
-369.794 -639.395 1796
-365.092 -638.683 1794
-359.998 -637.259 1790
-355.717 -637.259 1790
-351.437 -637.259 1790
-346.381 -635.835 1786
-341.727 -635.123 1784
-337.461 -635.123 1784
-333.195 -635.123 1784
-328.929 -635.123 1784
-324.662 -635.123 1784
-320.396 -635.123 1784
-315.776 -634.411 1782
-311.165 -633.699 1780
-306.736 -633.343 1779
-302.482 -633.343 1779
-297.893 -632.631 1777
-293.643 -632.631 1777
-289.394 -632.631 1777
-283.861 -629.783 1769
-279.631 -629.783 1769
-275.089 -629.071 1767
-270.864 -629.071 1767
-266.638 -629.071 1767
-262.413 -629.071 1767
-257.895 -628.359 1765
-253.387 -627.647 1763
-249.171 -627.647 1763
-244.955 -627.647 1763
-240.739 -627.647 1763
-236.389 -627.291 1762
-232.176 -627.291 1762
-227.962 -627.291 1762
-222.987 -625.155 1756
-218.788 -625.155 1756
-214.833 -625.867 1758
-210.629 -625.867 1758
-206.425 -625.867 1758
-202.221 -625.867 1758
-198.581 -627.647 1763
-195.247 -630.495 1771
-191.012 -630.495 1771
-186.777 -630.495 1771
-182.542 -630.495 1771
-178.307 -630.495 1771
-174.072 -630.495 1771
-170.029 -631.207 1773
-165.976 -631.919 1775
-162.187 -633.699 1780
-157.93 -633.699 1780
-153.674 -633.699 1780
-149.417 -633.699 1780
-145.161 -633.699 1780
-140.904 -633.699 1780
-136.648 -633.699 1780
-108.997 -1340.74 3766
-99.9911 -1340.74 3766
-90.9854 -1340.74 3766
-82.1539 -1343.58 3774
-73.1291 -1343.58 3774
-64.1043 -1343.58 3774
-55.0796 -1343.58 3774
-46.1646 -1346.79 3783
-37.3734 -1356.05 3809
-28.5247 -1368.51 3844
-19.423 -1374.91 3862
-10.1878 -1374.91 3862
-0.957047 -1381.32 3880
8.32121 -1381.32 3880
17.5995 -1381.32 3880
26.8777 -1381.32 3880
35.7366 -1365.3 3835
44.6028 -1356.05 3809
53.7113 -1356.05 3809
62.6713 -1352.84 3800
71.4373 -1346.79 3783
80.2921 -1343.58 3774
89.3169 -1343.58 3774
97.8987 -1337.53 3757
105.944 -1325.78 3724
370.845 -1349.99 3792
380.715 -1352.84 3800
390.725 -1356.05 3809
399.833 -1356.05 3809
419.463 -1390.93 3907
431.879 -1400.9 3935
441.289 -1400.9 3935
450.699 -1400.9 3935
467.826 -1424.4 4001
477.393 -1424.4 4001
486.961 -1424.4 4001
496.529 -1424.4 4001
503.693 -1417.64 3982
513.215 -1417.64 3982
522.737 -1417.64 3982
530.923 -1414.07 3972
3007.95 -1445.05 4059
3032.53 -1452.17 4079
3042.28 -1452.17 4079
3052.04 -1452.17 4079
3061.79 -1452.17 4079
3071.54 -1452.17 4079
3081.3 -1452.17 4079
3075.9 -1445.05 4059
3108.41 -1455.73 4089
3118.19 -1455.73 4089
3127.96 -1455.73 4089
-505.578 -643.933 1821
-501.224 -643.933 1821
-496.869 -643.933 1821
-492.515 -643.933 1821
-488.16 -643.933 1821
-483.274 -643.226 1819
-477.871 -641.812 1815
-473.531 -641.812 1815
-469.191 -641.812 1815
-464.338 -641.104 1813
-458.988 -639.69 1809
-454.662 -639.69 1809
-450.336 -639.69 1809
-446.011 -639.69 1809
-441.685 -639.69 1809
-437.359 -639.69 1809
-433.033 -639.69 1809
-428.707 -639.69 1809
-424.381 -639.69 1809
-419.591 -638.983 1807
-415.27 -638.983 1807
-410.949 -638.983 1807
-406.178 -638.276 1805
-400.748 -636.508 1800
-396.444 -636.508 1800
-392.139 -636.508 1800
-387.835 -636.508 1800
-383.105 -635.8 1798
-378.384 -635.093 1796
-374.089 -635.093 1796
-369.382 -634.386 1794
-364.685 -633.679 1792
-359.998 -632.971 1790
-355.717 -632.971 1790
-351.044 -632.264 1788
-345.993 -630.85 1784
-341.727 -630.85 1784
-337.461 -630.85 1784
-333.195 -630.85 1784
-328.929 -630.85 1784
-324.299 -630.142 1782
-320.037 -630.142 1782
-315.776 -630.142 1782
-311.165 -629.435 1780
-306.736 -629.082 1779
-302.482 -629.082 1779
-297.893 -628.374 1777
-293.313 -627.667 1775
-288.742 -626.96 1773
-283.54 -624.838 1767
-279.314 -624.838 1767
-275.089 -624.838 1767
-270.864 -624.838 1767
-266.336 -624.131 1765
-262.116 -624.131 1765
-257.895 -624.131 1765
-253.387 -623.424 1763
-249.171 -623.424 1763
-244.955 -623.424 1763
-240.739 -623.424 1763
-236.389 -623.07 1762
-232.176 -623.07 1762
-227.962 -623.07 1762
-222.987 -620.948 1756
-219.037 -621.656 1758
-214.833 -621.656 1758
-210.629 -621.656 1758
-206.425 -621.656 1758
-202.451 -622.363 1760
-198.581 -623.424 1763
-195.247 -626.253 1771
-191.012 -626.253 1771
-186.777 -626.253 1771
-182.542 -626.253 1771
-178.307 -626.253 1771
-174.072 -626.253 1771
-170.029 -626.96 1773
-165.976 -627.667 1775
-162.187 -629.435 1780
-157.93 -629.435 1780
-153.674 -629.435 1780
-149.417 -629.435 1780
-145.161 -629.435 1780
-141.379 -631.557 1786
-137.108 -631.557 1786
-133.135 -632.971 1790
-128.855 -632.971 1790
-124.574 -632.971 1790
-120.294 -632.971 1790
-108.997 -1331.72 3766
-100.203 -1334.54 3774
-91.1787 -1334.54 3774
-82.3498 -1337.73 3783
-73.3035 -1337.73 3783
-64.2572 -1337.73 3783
-55.2109 -1337.73 3783
-46.1646 -1337.73 3783
-37.4617 -1350.1 3818
-28.5247 -1359.3 3844
-19.423 -1365.66 3862
-10.2828 -1378.39 3898
-0.968146 -1387.94 3925
8.41772 -1387.94 3925
17.8036 -1387.94 3925
27.0024 -1378.39 3898
36.156 -1372.03 3880
44.9073 -1356.11 3835
54.0779 -1356.11 3835
62.9682 -1350.1 3818
71.7583 -1343.74 3800
80.2921 -1334.54 3774
89.3169 -1334.54 3774
97.8987 -1328.53 3757
350.291 -1331.72 3766
359.297 -1331.72 3766
369.085 -1334.54 3774
379.913 -1340.91 3792
390.725 -1346.92 3809
399.833 -1346.92 3809
419.463 -1381.57 3907
430.782 -1387.94 3925
441.289 -1391.48 3935
450.699 -1391.48 3935
467.826 -1414.81 4001
477.393 -1414.81 4001
486.961 -1414.81 4001
496.529 -1414.81 4001
503.693 -1408.1 3982
513.215 -1408.1 3982
522.737 -1408.1 3982
530.923 -1404.56 3972
539.196 -1401.38 3963
3108.41 -1445.93 4089
3118.19 -1445.93 4089
3127.96 -1445.93 4089
-511.053 -640.976 1825
-506.689 -640.976 1825
-502.325 -640.976 1825
-497.415 -640.274 1823
-492.515 -639.571 1821
-488.16 -639.571 1821
-483.274 -638.869 1819
-477.871 -637.464 1815
-473.531 -637.464 1815
-469.191 -637.464 1815
-464.338 -636.761 1813
-458.988 -635.357 1809
-454.16 -634.654 1807
-449.839 -634.654 1807
-445.517 -634.654 1807
-441.196 -634.654 1807
-436.392 -633.952 1805
-432.075 -633.952 1805
-427.048 -632.898 1802
-422.739 -632.898 1802
-418.43 -632.898 1802
-414.121 -632.898 1802
-409.812 -632.898 1802
-405.052 -632.196 1800
-400.748 -632.196 1800
-396.003 -631.493 1798
-391.704 -631.493 1798
-386.542 -630.088 1794
-382.252 -630.088 1794
-377.962 -630.088 1794
-373.672 -630.088 1794
-368.559 -628.683 1790
-363.871 -627.981 1788
-359.596 -627.981 1788
-355.32 -627.981 1788
-350.652 -627.279 1786
-345.605 -625.874 1782
-341.344 -625.874 1782
-337.082 -625.874 1782
-332.821 -625.874 1782
-328.56 -625.874 1782
-323.935 -625.171 1780
-319.678 -625.171 1780
-315.422 -625.171 1780
-310.99 -624.82 1779
-306.391 -624.118 1777
-302.142 -624.118 1777
-297.557 -623.415 1775
-292.982 -622.713 1773
-288.417 -622.01 1771
-283.219 -619.903 1765
-278.998 -619.903 1765
-274.778 -619.903 1765
-270.557 -619.903 1765
-266.336 -619.903 1765
-262.116 -619.903 1765
-257.457 -618.849 1762
-253.243 -618.849 1762
-249.03 -618.849 1762
-244.816 -618.849 1762
-240.603 -618.849 1762
-236.389 -618.849 1762
-232.176 -618.849 1762
-227.962 -618.849 1762
-222.987 -616.742 1756
-219.037 -617.444 1758
-214.833 -617.444 1758
-210.629 -617.444 1758
-206.425 -617.444 1758
-202.451 -618.147 1760
-198.581 -619.2 1763
-195.026 -621.308 1769
-190.796 -621.308 1769
-186.777 -622.01 1771
-182.542 -622.01 1771
-178.307 -622.01 1771
-174.072 -622.01 1771
-169.837 -622.01 1771
-165.789 -622.713 1773
-161.731 -623.415 1775
-157.487 -623.415 1775
-153.674 -625.171 1780
-149.417 -625.171 1780
-145.161 -625.171 1780
-141.379 -627.279 1786
-137.108 -627.279 1786
-133.135 -628.683 1790
-128.855 -628.683 1790
-124.574 -628.683 1790
-120.294 -628.683 1790
-116.013 -628.683 1790
-111.733 -628.683 1790
-107.452 -628.683 1790
-108.997 -1322.69 3766
-100.442 -1328.66 3783
-91.3961 -1328.66 3783
-82.3498 -1328.66 3783
-73.3035 -1328.66 3783
-64.6988 -1337.8 3809
-55.5904 -1337.8 3809
-46.5917 -1340.96 3818
-37.6285 -1346.93 3835
-28.725 -1359.57 3871
-19.4683 -1359.57 3871
-10.354 -1378.54 3925
-0.972833 -1385.21 3944
8.51852 -1395.04 3972
18.0168 -1395.04 3972
27.515 -1395.04 3972
36.5753 -1378.54 3925
45.5396 -1365.89 3889
55.2201 -1375.38 3916
64.5845 -1375.38 3916
73.9488 -1375.38 3916
83.3132 -1375.38 3916
92.6775 -1375.38 3916
350.291 -1322.69 3766
359.297 -1322.69 3766
368.303 -1322.69 3766
379.913 -1331.83 3792
389.802 -1334.64 3800
398.889 -1334.64 3800
414.632 -1356.41 3862
428.806 -1372.22 3907
441.289 -1382.05 3935
450.699 -1382.05 3935
463.382 -1391.88 3963
477.393 -1405.23 4001
486.961 -1405.23 4001
496.529 -1405.23 4001
503.693 -1398.56 3982
513.215 -1398.56 3982
525.231 -1405.23 4001
534.799 -1405.23 4001
544.367 -1405.23 4001
3108.41 -1436.14 4089
3118.19 -1436.14 4089
3127.96 -1436.14 4089
-526.443 -639.395 1833
-522.06 -639.395 1833
-517.677 -639.395 1833
-512.733 -638.697 1831
-508.355 -638.697 1831
-503.426 -638 1829
-497.415 -635.907 1823
-492.515 -635.209 1821
-488.16 -635.209 1821
-483.274 -634.511 1819
-478.398 -633.814 1817
-473.531 -633.116 1815
-469.191 -633.116 1815
-464.338 -632.418 1813
-458.988 -631.023 1809
-454.16 -630.325 1807
-449.839 -630.325 1807
-445.517 -630.325 1807
-441.196 -630.325 1807
-436.15 -629.279 1804
-431.836 -629.279 1804
-427.048 -628.581 1802
-422.27 -627.884 1800
-417.966 -627.884 1800
-413.202 -627.186 1798
-408.902 -627.186 1798
-404.602 -627.186 1798
-399.858 -626.488 1796
-395.122 -625.791 1794
-390.832 -625.791 1794
-386.111 -625.093 1792
-381.826 -625.093 1792
-377.541 -625.093 1792
-373.256 -625.093 1792
-368.147 -623.698 1788
-363.464 -623 1786
-358.791 -622.302 1784
-354.525 -622.302 1784
-349.866 -621.605 1782
-345.023 -620.558 1779
-340.769 -620.558 1779
-336.704 -620.907 1780
-332.448 -620.907 1780
-328.191 -620.907 1780
-323.935 -620.907 1780
-319.678 -620.907 1780
-315.244 -620.558 1779
-310.641 -619.861 1777
-306.046 -619.163 1775
-301.802 -619.163 1775
-297.222 -618.465 1773
-292.652 -617.768 1771
-287.765 -616.372 1767
-282.898 -614.977 1763
-278.682 -614.977 1763
-274.311 -614.628 1762
-270.097 -614.628 1762
-265.884 -614.628 1762
-261.67 -614.628 1762
-257.457 -614.628 1762
-253.243 -614.628 1762
-249.03 -614.628 1762
-244.816 -614.628 1762
-240.603 -614.628 1762
-236.389 -614.628 1762
-232.176 -614.628 1762
-227.962 -614.628 1762
-222.987 -612.535 1756
-219.037 -613.233 1758
-214.833 -613.233 1758
-210.629 -613.233 1758
-206.425 -613.233 1758
-202.451 -613.931 1760
-198.581 -614.977 1763
-195.026 -617.07 1769
-190.796 -617.07 1769
-186.777 -617.768 1771
-182.542 -617.768 1771
-178.307 -617.768 1771
-174.072 -617.768 1771
-169.837 -617.768 1771
-165.789 -618.465 1773
-161.731 -619.163 1775
-157.487 -619.163 1775
-153.674 -620.907 1780
-149.417 -620.907 1780
-145.161 -620.907 1780
-141.379 -623 1786
-137.108 -623 1786
-133.135 -624.395 1790
-128.855 -624.395 1790
-124.574 -624.395 1790
-120.294 -624.395 1790
-116.013 -624.395 1790
-111.733 -624.395 1790
-107.452 -624.395 1790
-102.711 -621.605 1782
-108.997 -1313.67 3766
-100.442 -1319.6 3783
-91.3961 -1319.6 3783
-82.7199 -1325.53 3800
-73.6329 -1325.53 3800
-64.8517 -1331.81 3818
-55.7217 -1331.81 3818
-46.6894 -1334.6 3826
-37.6285 -1337.74 3835
-29.1257 -1369.14 3925
-19.7399 -1369.14 3925
-10.354 -1369.14 3925
-0.994046 -1405.76 4030
8.64291 -1405.76 4030
18.2799 -1405.76 4030
27.9168 -1405.76 4030
37.3674 -1398.79 4010
46.9565 -1398.79 4010
56.4187 -1395.65 4001
65.9863 -1395.65 4001
74.3076 -1372.62 3935
83.7174 -1372.62 3935
93.1272 -1372.62 3935
101.807 -1362.86 3907
336.755 -1296.23 3716
350.291 -1313.67 3766
359.297 -1313.67 3766
368.303 -1313.67 3766
379.913 -1322.74 3792
389.802 -1325.53 3800
398.889 -1325.53 3800
414.632 -1347.16 3862
428.806 -1362.86 3907
441.289 -1372.62 3935
450.699 -1372.62 3935
465.604 -1389.02 3982
477.393 -1395.65 4001
486.961 -1395.65 4001
496.529 -1395.65 4001
503.693 -1389.02 3982
513.215 -1389.02 3982
525.231 -1395.65 4001
534.799 -1395.65 4001
544.367 -1395.65 4001
3108.41 -1426.34 4089
3118.19 -1426.34 4089
3127.96 -1426.34 4089
-535.794 -635.697 1835
-531.406 -635.697 1835
-527.018 -635.697 1835
-522.63 -635.697 1835
-518.241 -635.697 1835
-513.293 -635.004 1833
-508.91 -635.004 1833
-503.426 -633.618 1829
-498.506 -632.925 1827
-493.056 -631.54 1823
-488.696 -631.54 1823
-483.274 -630.154 1819
-478.924 -630.154 1819
-473.531 -628.768 1815
-469.191 -628.768 1815
-464.851 -628.768 1815
-458.988 -626.69 1809
-454.16 -625.997 1807
-449.839 -625.997 1807
-445.517 -625.997 1807
-441.196 -625.997 1807
-436.15 -624.957 1804
-431.836 -624.957 1804
-427.048 -624.265 1802
-422.27 -623.572 1800
-417.966 -623.572 1800
-413.202 -622.879 1798
-408.902 -622.879 1798
-404.602 -622.879 1798
-399.858 -622.186 1796
-395.122 -621.493 1794
-390.832 -621.493 1794
-386.111 -620.8 1792
-381.826 -620.8 1792
-377.541 -620.8 1792
-373.256 -620.8 1792
-368.147 -619.415 1788
-363.464 -618.722 1786
-358.791 -618.029 1784
-354.525 -618.029 1784
-349.866 -617.336 1782
-345.023 -616.297 1779
-340.769 -616.297 1779
-336.704 -616.643 1780
-332.448 -616.643 1780
-328.191 -616.643 1780
-323.935 -616.643 1780
-319.678 -616.643 1780
-315.244 -616.297 1779
-310.641 -615.604 1777
-306.046 -614.911 1775
-301.802 -614.911 1775
-297.222 -614.218 1773
-292.652 -613.525 1771
-287.765 -612.14 1767
-282.898 -610.754 1763
-278.682 -610.754 1763
-274.311 -610.407 1762
-270.097 -610.407 1762
-265.884 -610.407 1762
-261.67 -610.407 1762
-257.457 -610.407 1762
-253.243 -610.407 1762
-249.03 -610.407 1762
-244.816 -610.407 1762
-240.603 -610.407 1762
-236.389 -610.407 1762
-231.912 -609.715 1760
-227.704 -609.715 1760
-222.987 -608.329 1756
-219.037 -609.022 1758
-214.833 -609.022 1758
-210.629 -609.022 1758
-206.425 -609.022 1758
-202.221 -609.022 1758
-198.468 -610.407 1762
-194.806 -612.14 1767
-190.58 -612.14 1767
-186.355 -612.14 1767
-182.336 -612.832 1769
-178.105 -612.832 1769
-173.875 -612.832 1769
-169.453 -612.14 1767
-165.228 -612.14 1767
-161.367 -613.525 1771
-157.132 -613.525 1771
-152.897 -613.525 1771
-148.83 -614.218 1773
-144.916 -615.604 1777
-141.379 -618.722 1786
-137.108 -618.722 1786
-132.837 -618.722 1786
-128.855 -620.107 1790
-124.574 -620.107 1790
-120.294 -620.107 1790
-116.013 -620.107 1790
-111.733 -620.107 1790
-107.452 -620.107 1790
-102.711 -617.336 1782
-100.442 -1310.54 3783
-91.3961 -1310.54 3783
-82.7199 -1316.43 3800
-73.6329 -1316.43 3800
-64.8517 -1322.66 3818
-55.7217 -1322.66 3818
-46.6894 -1325.44 3826
-37.6285 -1328.55 3835
-29.1257 -1359.73 3925
-19.7399 -1359.73 3925
-10.354 -1359.73 3925
-0.994046 -1396.11 4030
8.64291 -1396.11 4030
18.2799 -1396.11 4030
27.9168 -1396.11 4030
37.3674 -1389.18 4010
46.9565 -1389.18 4010
56.4187 -1386.06 4001
65.9863 -1386.06 4001
74.3076 -1363.2 3935
83.7174 -1363.2 3935
93.1272 -1363.2 3935
101.807 -1353.5 3907
336.755 -1287.33 3716
347.129 -1292.87 3732
356.053 -1292.87 3732
368.303 -1304.65 3766
378.11 -1307.42 3774
388.981 -1313.66 3792
398.049 -1313.66 3792
414.632 -1337.91 3862
423.867 -1337.91 3862
438.149 -1353.5 3907
447.492 -1353.5 3907
465.604 -1379.48 3982
475.126 -1379.48 3982
484.648 -1379.48 3982
494.171 -1379.48 3982
501.289 -1372.9 3963
510.766 -1372.9 3963
525.231 -1386.06 4001
534.799 -1386.06 4001
544.367 -1386.06 4001
3069.3 -1416.55 4089
3079.07 -1416.55 4089
3088.85 -1416.55 4089
3091.05 -1413.08 4079
3108.41 -1416.55 4089
3118.19 -1416.55 4089
3127.96 -1416.55 4089
-535.794 -631.301 1835
-531.406 -631.301 1835
-527.018 -631.301 1835
-522.63 -631.301 1835
-518.241 -631.301 1835
-513.293 -630.613 1833
-508.91 -630.613 1833
-503.426 -629.237 1829
-498.506 -628.549 1827
-493.056 -627.173 1823
-488.696 -627.173 1823
-483.274 -625.796 1819
-478.924 -625.796 1819
-473.531 -624.42 1815
-469.191 -624.42 1815
-464.851 -624.42 1815
-458.988 -622.356 1809
-454.16 -621.668 1807
-449.839 -621.668 1807
-445.517 -621.668 1807
-441.196 -621.668 1807
-436.15 -620.636 1804
-431.836 -620.636 1804
-427.048 -619.948 1802
-422.27 -619.26 1800
-417.501 -618.572 1798
-413.202 -618.572 1798
-408.902 -618.572 1798
-404.602 -618.572 1798
-399.412 -617.196 1794
-394.682 -616.508 1792
-390.397 -616.508 1792
-386.111 -616.508 1792
-381.826 -616.508 1792
-377.541 -616.508 1792
-373.256 -616.508 1792
-367.735 -614.443 1786
-363.464 -614.443 1786
-358.389 -613.067 1782
-354.128 -613.067 1782
-349.866 -613.067 1782
-345.023 -612.035 1779
-340.386 -611.347 1777
-336.515 -612.035 1779
-332.261 -612.035 1779
-328.007 -612.035 1779
-323.389 -611.347 1777
-319.139 -611.347 1777
-314.89 -611.347 1777
-309.941 -609.971 1773
-305.702 -609.971 1773
-301.462 -609.971 1773
-296.551 -608.595 1769
-291.991 -607.907 1767
-287.44 -607.219 1765
-282.738 -606.187 1762
-278.524 -606.187 1762
-273.688 -604.81 1758
-269.484 -604.81 1758
-265.28 -604.81 1758
-261.076 -604.81 1758
-256.872 -604.81 1758
-252.668 -604.81 1758
-248.464 -604.81 1758
-244.538 -605.499 1760
-240.33 -605.499 1760
-236.121 -605.499 1760
-231.649 -604.81 1758
-227.445 -604.81 1758
-222.987 -604.122 1756
-218.788 -604.122 1756
-214.589 -604.122 1756
-210.39 -604.122 1756
-206.19 -604.122 1756
-201.991 -604.122 1756
-198.017 -604.81 1758
-194.585 -607.219 1765
-190.365 -607.219 1765
-186.144 -607.219 1765
-181.923 -607.219 1765
-177.703 -607.219 1765
-173.482 -607.219 1765
-169.07 -606.531 1763
-164.854 -606.531 1763
-161.002 -607.907 1767
-156.777 -607.907 1767
-152.551 -607.907 1767
-148.662 -609.283 1771
-144.427 -609.283 1771
-140.667 -611.347 1777
-136.417 -611.347 1777
-132.391 -612.379 1780
-128.135 -612.379 1780
-124.157 -613.755 1784
-119.89 -613.755 1784
-115.624 -613.755 1784
-111.358 -613.755 1784
-107.092 -613.755 1784
-102.711 -613.067 1782
-100.442 -1301.48 3783
-91.3961 -1301.48 3783
-82.7199 -1307.33 3800
-73.6329 -1307.33 3800
-64.8517 -1313.52 3818
-55.7217 -1313.52 3818
-46.6894 -1316.27 3826
-37.6285 -1319.37 3835
-29.1257 -1350.33 3925
-19.7399 -1350.33 3925
-10.354 -1350.33 3925
-0.994046 -1386.45 4030
8.64291 -1386.45 4030
18.2799 -1386.45 4030
27.9168 -1386.45 4030
37.3674 -1379.57 4010
46.9565 -1379.57 4010
56.5456 -1379.57 4010
66.1348 -1379.57 4010
75.5539 -1376.48 4001
83.7174 -1353.77 3935
93.1272 -1353.77 3935
101.807 -1344.14 3907
338.204 -1283.93 3732
347.129 -1283.93 3732
356.053 -1283.93 3732
369.085 -1298.38 3774
379.011 -1301.48 3783
389.802 -1307.33 3800
398.889 -1307.33 3800
413.666 -1325.56 3853
423.867 -1328.66 3862
452.952 -1389.55 4039
462.61 -1389.55 4039
472.269 -1389.55 4039
479.66 -1383.01 4020
489.273 -1383.01 4020
494.171 -1369.94 3982
506.096 -1376.48 4001
515.664 -1376.48 4001
525.231 -1376.48 4001
534.799 -1376.48 4001
544.367 -1376.48 4001
3034.82 -1399.87 4069
3044.55 -1399.87 4069
3069.3 -1406.75 4089
3079.07 -1406.75 4089
3088.85 -1406.75 4089
3091.05 -1403.31 4079
3100.81 -1403.31 4079
3110.56 -1403.31 4079
3120.31 -1403.31 4079
-568.555 -634.08 1856
-564.117 -634.08 1856
-559.678 -634.08 1856
-553.445 -632.03 1850
-549.021 -632.03 1850
-544.597 -632.03 1850
-538.714 -630.322 1845
-533.722 -629.638 1843
-529.315 -629.638 1843
-522.63 -626.905 1835
-518.241 -626.905 1835
-513.293 -626.222 1833
-508.91 -626.222 1833
-503.426 -624.855 1829
-498.506 -624.172 1827
-493.597 -623.489 1825
-489.233 -623.489 1825
-483.806 -622.122 1821
-478.924 -621.439 1819
-474.575 -621.439 1819
-470.225 -621.439 1819
-464.851 -620.073 1815
-458.988 -618.023 1809
-454.16 -617.339 1807
-449.839 -617.339 1807
-445.517 -617.339 1807
-441.196 -617.339 1807
-436.15 -616.314 1804
-431.836 -616.314 1804
-426.574 -614.948 1800
-421.801 -614.265 1798
-417.501 -614.265 1798
-412.742 -613.581 1796
-408.447 -613.581 1796
-404.152 -613.581 1796
-399.412 -612.898 1794
-394.682 -612.215 1792
-390.397 -612.215 1792
-386.111 -612.215 1792
-381.826 -612.215 1792
-376.698 -610.848 1788
-372.423 -610.848 1788
-367.735 -610.165 1786
-362.65 -608.798 1782
-358.389 -608.798 1782
-354.128 -608.798 1782
-349.474 -608.115 1780
-344.247 -606.407 1775
-340.003 -606.407 1775
-336.137 -607.09 1777
-331.887 -607.09 1777
-327.638 -607.09 1777
-323.025 -606.407 1775
-318.78 -606.407 1775
-314.181 -605.724 1773
-309.592 -605.04 1771
-305.012 -604.357 1769
-300.782 -604.357 1769
-296.216 -603.674 1767
-291.33 -602.307 1763
-286.951 -601.966 1762
-282.096 -600.599 1758
-277.892 -600.599 1758
-273.688 -600.599 1758
-269.484 -600.599 1758
-265.28 -600.599 1758
-261.076 -600.599 1758
-256.58 -599.916 1756
-252.093 -599.233 1754
-248.182 -599.916 1756
-244.26 -600.599 1758
-240.057 -600.599 1758
-235.853 -600.599 1758
-231.385 -599.916 1756
-227.186 -599.916 1756
-222.733 -599.233 1754
-218.539 -599.233 1754
-214.344 -599.233 1754
-210.15 -599.233 1754
-205.956 -599.233 1754
-201.761 -599.233 1754
-198.017 -600.599 1758
-194.255 -601.966 1762
-190.041 -601.966 1762
-185.933 -602.307 1763
-181.717 -602.307 1763
-177.501 -602.307 1763
-173.285 -602.307 1763
-168.974 -601.966 1762
-164.76 -601.966 1762
-160.638 -602.307 1763
-156.422 -602.307 1763
-152.206 -602.307 1763
-148.158 -602.991 1765
-143.937 -602.991 1765
-140.033 -604.357 1769
-135.803 -604.357 1769
-131.573 -604.357 1769
-127.631 -605.724 1773
-123.669 -607.09 1777
-119.42 -607.09 1777
-115.3 -607.774 1779
-111.046 -607.774 1779
-106.792 -607.774 1779
-102.538 -607.774 1779
-98.2838 -607.774 1779
-100.203 -1289.34 3774
-91.1787 -1289.34 3774
-82.3498 -1292.42 3783
-73.3035 -1292.42 3783
-64.6988 -1301.3 3809
-55.5904 -1301.3 3809
-46.4819 -1301.3 3809
-37.6285 -1310.18 3835
-29.1257 -1340.93 3925
-19.7399 -1340.93 3925
-10.354 -1340.93 3925
-0.982206 -1360.4 3982
8.62146 -1373.38 4020
18.2345 -1373.38 4020
27.8475 -1373.38 4020
37.3674 -1369.97 4010
46.9565 -1369.97 4010
56.5456 -1369.97 4010
66.1348 -1369.97 4010
75.7239 -1369.97 4010
85.1215 -1366.89 4001
94.6891 -1366.89 4001
101.807 -1334.78 3907
338.204 -1274.99 3732
351.873 -1292.42 3783
360.919 -1292.42 3783
371.628 -1298.22 3800
383.32 -1307.11 3826
392.469 -1307.11 3826
401.618 -1307.11 3826
407.976 -1298.22 3800
443.293 -1379.87 4039
454.073 -1383.29 4049
463.756 -1383.29 4049
473.438 -1383.29 4049
481.927 -1379.87 4039
491.586 -1379.87 4039
498.886 -1373.38 4020
507.235 -1369.97 4010
516.824 -1369.97 4010
526.413 -1369.97 4010
536.002 -1369.97 4010
545.591 -1369.97 4010
3049.74 -1396.96 4089
3059.52 -1396.96 4089
3069.3 -1396.96 4089
3079.07 -1396.96 4089
3088.85 -1396.96 4089
3098.63 -1396.96 4089
3100.81 -1393.54 4079
3110.56 -1393.54 4079
3120.31 -1393.54 4079
-575.463 -632.348 1864
-571.006 -632.348 1864
-566.548 -632.348 1864
-559.678 -629.634 1856
-553.445 -627.598 1850
-549.021 -627.598 1850
-544.597 -627.598 1850
-538.714 -625.902 1845
-533.722 -625.223 1843
-529.315 -625.223 1843
-522.63 -622.509 1835
-518.241 -622.509 1835
-513.293 -621.831 1833
-508.91 -621.831 1833
-503.426 -620.474 1829
-498.506 -619.796 1827
-493.597 -619.117 1825
-489.233 -619.117 1825
-483.806 -617.76 1821
-478.924 -617.082 1819
-474.575 -617.082 1819
-470.225 -617.082 1819
-464.851 -615.725 1815
-458.988 -613.689 1809
-454.16 -613.011 1807
-449.839 -613.011 1807
-445.517 -613.011 1807
-440.708 -612.332 1805
-436.15 -611.993 1804
-431.836 -611.993 1804
-426.1 -609.958 1798
-421.331 -609.279 1796
-417.037 -609.279 1796
-412.282 -608.601 1794
-407.992 -608.601 1794
-403.702 -608.601 1794
-398.522 -607.244 1790
-394.241 -607.244 1790
-389.961 -607.244 1790
-385.25 -606.565 1788
-380.974 -606.565 1788
-376.277 -605.887 1786
-372.006 -605.887 1786
-366.5 -603.851 1780
-362.243 -603.851 1780
-357.383 -602.833 1777
-353.134 -602.833 1777
-348.885 -602.833 1777
-343.86 -601.476 1773
-339.62 -601.476 1773
-335.758 -602.155 1775
-331.514 -602.155 1775
-327.269 -602.155 1775
-322.297 -600.798 1771
-318.062 -600.798 1771
-313.827 -600.798 1771
-309.242 -600.12 1769
-304.322 -598.763 1765
-300.102 -598.763 1765
-295.546 -598.084 1763
-291.164 -597.745 1762
-286.625 -597.066 1760
-282.096 -596.388 1758
-277.892 -596.388 1758
-273.376 -595.709 1756
-269.177 -595.709 1756
-264.978 -595.709 1756
-260.779 -595.709 1756
-256.288 -595.031 1754
-252.093 -595.031 1754
-247.899 -595.031 1754
-243.705 -595.031 1754
-239.51 -595.031 1754
-235.316 -595.031 1754
-231.122 -595.031 1754
-226.927 -595.031 1754
-222.733 -595.031 1754
-218.289 -594.352 1752
-214.1 -594.352 1752
-209.91 -594.352 1752
-205.721 -594.352 1752
-201.761 -595.031 1754
-197.567 -595.031 1754
-193.814 -596.388 1758
-189.61 -596.388 1758
-185.617 -597.066 1760
-181.614 -597.745 1762
-177.401 -597.745 1762
-173.187 -597.745 1762
-168.782 -597.066 1760
-164.573 -597.066 1760
-160.547 -597.745 1762
-156.422 -598.084 1763
-152.206 -598.084 1763
-148.158 -598.763 1765
-143.937 -598.763 1765
-140.033 -600.12 1769
-135.803 -600.12 1769
-131.573 -600.12 1769
-127.631 -601.476 1773
-123.669 -602.833 1777
-119.42 -602.833 1777
-115.3 -603.512 1779
-111.046 -603.512 1779
-106.792 -603.512 1779
-102.538 -603.512 1779
-98.2838 -603.512 1779
-108.997 -1277.59 3766
-100.203 -1280.3 3774
-91.1787 -1280.3 3774
-82.3498 -1283.35 3783
-73.4779 -1286.41 3792
-64.6988 -1292.17 3809
-55.5904 -1292.17 3809
-46.4819 -1292.17 3809
-37.6285 -1300.99 3835
-29.1257 -1331.53 3925
-19.7399 -1331.53 3925
-10.354 -1331.53 3925
-0.982206 -1350.86 3982
8.62146 -1363.75 4020
18.2345 -1363.75 4020
27.8475 -1363.75 4020
37.3674 -1360.36 4010
46.9565 -1360.36 4010
56.5456 -1360.36 4010
66.1348 -1360.36 4010
75.7239 -1360.36 4010
85.1215 -1357.31 4001
94.6891 -1357.31 4001
101.807 -1325.42 3907
122.498 -1347.47 3972
132.328 -1350.86 3982
141.85 -1350.86 3982
151.372 -1350.86 3982
160.895 -1350.86 3982
170.417 -1350.86 3982
338.204 -1266.05 3732
351.873 -1283.35 3783
360.919 -1283.35 3783
371.628 -1289.12 3800
383.32 -1297.94 3826
392.469 -1297.94 3826
401.618 -1297.94 3826
434.709 -1373.59 4049
444.391 -1373.59 4049
454.073 -1373.59 4049
463.756 -1373.59 4049
473.438 -1373.59 4049
481.927 -1370.2 4039
491.586 -1370.2 4039
501.244 -1370.2 4039
508.499 -1363.75 4020
518.112 -1363.75 4020
527.726 -1363.75 4020
537.339 -1363.75 4020
546.952 -1363.75 4020
3049.74 -1387.16 4089
3059.52 -1387.16 4089
3069.3 -1387.16 4089
3079.07 -1387.16 4089
3088.85 -1387.16 4089
3098.63 -1387.16 4089
3100.81 -1383.77 4079
3102.93 -1380.38 4069
3112.66 -1380.38 4069
-585.005 -628.556 1866
-580.543 -628.556 1866
-576.08 -628.556 1866
-571.006 -627.882 1864
-566.548 -627.882 1864
-559.678 -625.188 1856
-553.445 -623.166 1850
-549.021 -623.166 1850
-544.597 -623.166 1850
-538.714 -621.482 1845
-533.722 -620.808 1843
-529.315 -620.808 1843
-522.63 -618.114 1835
-518.241 -618.114 1835
-513.293 -617.44 1833
-508.91 -617.44 1833
-503.426 -616.093 1829
-498.506 -615.419 1827
-493.597 -614.745 1825
-489.233 -614.745 1825
-483.806 -613.398 1821
-478.924 -612.724 1819
-474.575 -612.724 1819
-470.225 -612.724 1819
-464.851 -611.377 1815
-458.988 -609.356 1809
-454.16 -608.682 1807
-449.839 -608.682 1807
-445.517 -608.682 1807
-440.708 -608.008 1805
-436.15 -607.671 1804
-431.836 -607.671 1804
-426.1 -605.65 1798
-421.331 -604.977 1796
-417.037 -604.977 1796
-412.282 -604.303 1794
-407.992 -604.303 1794
-403.702 -604.303 1794
-398.522 -602.956 1790
-394.241 -602.956 1790
-389.961 -602.956 1790
-385.25 -602.282 1788
-380.974 -602.282 1788
-376.277 -601.608 1786
-372.006 -601.608 1786
-366.5 -599.587 1780
-362.243 -599.587 1780
-357.383 -598.577 1777
-353.134 -598.577 1777
-348.885 -598.577 1777
-343.86 -597.229 1773
-339.62 -597.229 1773
-335.758 -597.903 1775
-331.514 -597.903 1775
-327.269 -597.903 1775
-322.297 -596.556 1771
-318.062 -596.556 1771
-313.827 -596.556 1771
-309.242 -595.882 1769
-304.322 -594.534 1765
-300.102 -594.534 1765
-295.546 -593.861 1763
-291.164 -593.524 1762
-286.625 -592.85 1760
-282.096 -592.177 1758
-277.892 -592.177 1758
-273.376 -591.503 1756
-269.177 -591.503 1756
-264.978 -591.503 1756
-260.779 -591.503 1756
-256.288 -590.829 1754
-252.093 -590.829 1754
-247.899 -590.829 1754
-243.705 -590.829 1754
-239.51 -590.829 1754
-235.316 -590.829 1754
-231.122 -590.829 1754
-226.927 -590.829 1754
-222.733 -590.829 1754
-218.289 -590.155 1752
-214.1 -590.155 1752
-209.91 -590.155 1752
-205.721 -590.155 1752
-201.761 -590.829 1754
-197.567 -590.829 1754
-193.814 -592.177 1758
-189.61 -592.177 1758
-185.617 -592.85 1760
-181.614 -593.524 1762
-177.401 -593.524 1762
-173.187 -593.524 1762
-168.782 -592.85 1760
-164.573 -592.85 1760
-160.547 -593.524 1762
-156.422 -593.861 1763
-152.206 -593.861 1763
-147.99 -593.861 1763
-143.774 -593.861 1763
-139.717 -594.534 1765
-135.496 -594.534 1765
-131.276 -594.534 1765
-127.343 -595.882 1769
-123.113 -595.882 1769
-118.882 -595.882 1769
-114.911 -597.229 1773
-110.672 -597.229 1773
-106.792 -599.25 1779
-102.538 -599.25 1779
-98.2838 -599.25 1779
-92.444 -589.145 1749
-88.2616 -589.145 1749
-108.997 -1268.56 3766
-100.203 -1271.26 3774
-91.1787 -1271.26 3774
-82.3498 -1274.29 3783
-73.6329 -1280.02 3800
-64.546 -1280.02 3800
-55.459 -1280.02 3800
-46.4819 -1283.05 3809
-37.6285 -1291.81 3835
-29.059 -1319.09 3916
-19.6946 -1319.09 3916
-10.354 -1322.12 3925
-0.982206 -1341.32 3982
8.58071 -1347.72 4001
18.1483 -1347.72 4001
27.7159 -1347.72 4001
37.3674 -1350.76 4010
46.9565 -1350.76 4010
56.5456 -1350.76 4010
66.1348 -1350.76 4010
75.7239 -1350.76 4010
85.1215 -1347.72 4001
94.6891 -1347.72 4001
122.498 -1337.96 3972
132.328 -1341.32 3982
141.85 -1341.32 3982
151.372 -1341.32 3982
160.895 -1341.32 3982
170.417 -1341.32 3982
338.204 -1257.11 3732
351.873 -1274.29 3783
360.919 -1274.29 3783
371.628 -1280.02 3800
383.32 -1288.78 3826
392.469 -1288.78 3826
401.618 -1288.78 3826
434.709 -1363.89 4049
444.391 -1363.89 4049
454.073 -1363.89 4049
463.756 -1363.89 4049
473.438 -1363.89 4049
481.927 -1360.52 4039
491.586 -1360.52 4039
501.244 -1360.52 4039
508.499 -1354.12 4020
518.112 -1354.12 4020
527.726 -1354.12 4020
537.339 -1354.12 4020
546.952 -1354.12 4020
3049.74 -1377.37 4089
3059.52 -1377.37 4089
3069.3 -1377.37 4089
3079.07 -1377.37 4089
3088.85 -1377.37 4089
3098.63 -1377.37 4089
3108.41 -1377.37 4089
3102.93 -1370.63 4069
3112.66 -1370.63 4069
-585.005 -624.086 1866
-580.543 -624.086 1866
-576.08 -624.086 1866
-571.006 -623.417 1864
-566.548 -623.417 1864
-559.678 -620.741 1856
-553.445 -618.735 1850
-549.021 -618.735 1850
-543.714 -617.731 1847
-538.714 -617.062 1845
-533.143 -615.725 1841
-528.741 -615.725 1841
-522.63 -613.718 1835
-517.677 -613.049 1833
-512.733 -612.38 1831
-508.355 -612.38 1831
-502.875 -611.042 1827
-497.961 -610.373 1825
-493.056 -609.705 1823
-488.696 -609.705 1823
-483.806 -609.036 1821
-478.924 -608.367 1819
-474.053 -607.698 1817
-469.708 -607.698 1817
-464.851 -607.029 1815
-458.481 -604.353 1807
-454.16 -604.353 1807
-449.839 -604.353 1807
-445.024 -603.684 1805
-440.464 -603.35 1804
-434.699 -601.343 1798
-429.921 -600.674 1796
-425.626 -600.674 1796
-419.924 -598.668 1790
-415.643 -598.668 1790
-410.903 -597.999 1788
-406.628 -597.999 1788
-402.352 -597.999 1788
-397.631 -597.33 1786
-393.36 -597.33 1786
-389.089 -597.33 1786
-383.957 -595.992 1782
-379.269 -595.323 1780
-375.013 -595.323 1780
-370.756 -595.323 1780
-365.882 -594.32 1777
-361.633 -594.32 1777
-356.579 -592.982 1773
-352.339 -592.982 1773
-348.099 -592.982 1773
-343.084 -591.644 1769
-338.854 -591.644 1769
-334.623 -591.644 1769
-330.393 -591.644 1769
-326.163 -591.644 1769
-321.933 -591.644 1769
-317.702 -591.644 1769
-312.763 -590.306 1765
-308.543 -590.306 1765
-303.977 -589.637 1763
-299.251 -588.634 1760
-295.043 -588.634 1760
-290.503 -587.965 1758
-285.974 -587.296 1756
-281.454 -586.627 1754
-277.259 -586.627 1754
-272.598 -585.624 1751
-268.411 -585.624 1751
-264.224 -585.624 1751
-260.037 -585.624 1751
-255.849 -585.624 1751
-251.375 -584.955 1749
-247.192 -584.955 1749
-243.427 -585.958 1752
-239.237 -585.958 1752
-235.048 -585.958 1752
-230.858 -585.958 1752
-226.669 -585.958 1752
-222.479 -585.958 1752
-218.165 -585.624 1751
-213.978 -585.624 1751
-209.79 -585.624 1751
-205.603 -585.624 1751
-201.531 -585.958 1752
-197.567 -586.627 1754
-193.373 -586.627 1754
-189.178 -586.627 1754
-185.406 -587.965 1758
-181.408 -588.634 1760
-177.199 -588.634 1760
-172.991 -588.634 1760
-168.59 -587.965 1758
-164.386 -587.965 1758
-160.364 -588.634 1760
-156.156 -588.634 1760
-151.947 -588.634 1760
-147.738 -588.634 1760
-143.53 -588.634 1760
-139.558 -589.637 1763
-135.343 -589.637 1763
-131.127 -589.637 1763
-127.055 -590.306 1765
-122.834 -590.306 1765
-118.614 -590.306 1765
-114.652 -591.644 1769
-110.422 -591.644 1769
-106.192 -591.644 1769
-101.962 -591.644 1769
-97.7313 -591.644 1769
-92.444 -584.955 1749
-88.2616 -584.955 1749
-108.997 -1259.54 3766
-100.203 -1262.22 3774
-91.1787 -1262.22 3774
-82.3498 -1265.23 3783
-73.6329 -1270.91 3800
-64.546 -1270.91 3800
-55.459 -1270.91 3800
-46.4819 -1273.92 3809
-37.5402 -1279.61 3826
-28.725 -1294.66 3871
-19.4683 -1294.66 3871
-10.3303 -1309.71 3916
-0.968146 -1312.72 3925
8.53996 -1331.78 3982
18.0621 -1331.78 3982
27.5843 -1331.78 3982
37.1903 -1334.79 3991
46.734 -1334.79 3991
56.4187 -1338.14 4001
65.9863 -1338.14 4001
75.5539 -1338.14 4001
85.1215 -1338.14 4001
94.6891 -1338.14 4001
103.996 -1334.79 3991
113.54 -1334.79 3991
123.084 -1334.79 3991
132.627 -1334.79 3991
142.171 -1334.79 3991
152.437 -1341.15 4010
162.026 -1341.15 4010
171.615 -1341.15 4010
411.343 -1341.15 4010
420.932 -1341.15 4010
434.709 -1354.19 4049
445.489 -1357.54 4059
455.195 -1357.54 4059
464.901 -1357.54 4059
473.438 -1354.19 4049
481.927 -1350.85 4039
491.586 -1350.85 4039
501.244 -1350.85 4039
510.903 -1350.85 4039
519.401 -1347.84 4030
529.038 -1347.84 4030
537.339 -1344.49 4020
546.952 -1344.49 4020
3049.74 -1367.57 4089
3059.52 -1367.57 4089
3069.3 -1367.57 4089
3079.07 -1367.57 4089
3088.85 -1367.57 4089
3098.63 -1367.57 4089
3108.41 -1367.57 4089
3118.19 -1367.57 4089
3127.96 -1367.57 4089
-599.033 -620.28 1868
-594.566 -620.28 1868
-590.099 -620.28 1868
-585.005 -619.616 1866
-580.543 -619.616 1866
-576.08 -619.616 1866
-571.006 -618.952 1864
-565.332 -617.624 1860
-559.075 -615.631 1854
-553.445 -614.303 1850
-549.021 -614.303 1850
-543.125 -612.643 1845
-538.13 -611.979 1843
-532.564 -610.65 1839
-528.166 -610.65 1839
-522.06 -608.658 1833
-517.112 -607.994 1831
-512.733 -607.994 1831
-508.355 -607.994 1831
-502.875 -606.666 1827
-497.961 -606.002 1825
-493.056 -605.338 1823
-488.696 -605.338 1823
-483.274 -604.009 1819
-478.924 -604.009 1819
-473.531 -602.681 1815
-469.191 -602.681 1815
-463.826 -601.353 1811
-458.481 -600.025 1807
-453.657 -599.361 1805
-449.341 -599.361 1805
-444.778 -599.029 1804
-439.487 -597.7 1800
-434.216 -596.372 1796
-428.485 -594.38 1790
-424.204 -594.38 1790
-418.986 -593.051 1786
-414.715 -593.051 1786
-409.984 -592.387 1784
-405.718 -592.387 1784
-401.452 -592.387 1784
-396.295 -591.059 1780
-392.039 -591.059 1780
-387.782 -591.059 1780
-383.31 -590.727 1779
-379.056 -590.727 1779
-374.381 -590.063 1777
-370.131 -590.063 1777
-365.058 -588.735 1773
-360.412 -588.071 1771
-355.372 -586.742 1767
-351.147 -586.742 1767
-346.921 -586.742 1767
-342.308 -586.078 1765
-338.47 -586.742 1767
-334.245 -586.742 1767
-330.02 -586.742 1767
-325.794 -586.742 1767
-321.205 -586.078 1765
-316.984 -586.078 1765
-312.232 -585.082 1762
-308.018 -585.082 1762
-303.46 -584.418 1760
-298.571 -583.09 1756
-294.372 -583.09 1756
-289.842 -582.426 1754
-285.648 -582.426 1754
-280.972 -581.43 1751
-276.785 -581.43 1751
-272.287 -580.765 1749
-268.104 -580.765 1749
-263.922 -580.765 1749
-259.74 -580.765 1749
-255.265 -580.101 1747
-251.375 -580.765 1749
-247.192 -580.765 1749
-243.01 -580.765 1749
-238.828 -580.765 1749
-234.645 -580.765 1749
-230.726 -581.43 1751
-226.539 -581.43 1751
-222.352 -581.43 1751
-218.165 -581.43 1751
-213.978 -581.43 1751
-209.79 -581.43 1751
-205.603 -581.43 1751
-201.416 -581.43 1751
-197.567 -582.426 1754
-193.373 -582.426 1754
-189.178 -582.426 1754
-184.984 -582.426 1754
-181.202 -583.754 1758
-176.998 -583.754 1758
-172.794 -583.754 1758
-168.59 -583.754 1758
-164.386 -583.754 1758
-160 -583.09 1756
-155.801 -583.09 1756
-151.602 -583.09 1756
-147.403 -583.09 1756
-143.203 -583.09 1756
-139.004 -583.09 1756
-134.805 -583.09 1756
-130.457 -582.426 1754
-126.263 -582.426 1754
-122.069 -582.426 1754
-117.874 -582.426 1754
-113.68 -582.426 1754
-109.486 -582.426 1754
-105.291 -582.426 1754
-101.097 -582.426 1754
-96.7921 -581.762 1752
-92.444 -580.765 1749
-88.2616 -580.765 1749
-83.7908 -578.773 1743
-108.997 -1250.52 3766
-100.442 -1256.17 3783
-91.3961 -1256.17 3783
-82.3498 -1256.17 3783
-73.6329 -1261.81 3800
-64.6988 -1264.8 3809
-55.5904 -1264.8 3809
-46.4819 -1264.8 3809
-37.5402 -1270.45 3826
-28.5247 -1276.42 3844
-19.3325 -1276.42 3844
-10.2828 -1294.35 3898
-0.963707 -1297.34 3907
8.47777 -1312.62 3953
17.9306 -1312.62 3953
27.4527 -1315.94 3963
37.1903 -1325.23 3991
46.734 -1325.23 3991
56.2777 -1325.23 3991
65.8214 -1325.23 3991
75.3651 -1325.23 3991
84.9088 -1325.23 3991
94.4525 -1325.23 3991
103.996 -1325.23 3991
113.54 -1325.23 3991
123.084 -1325.23 3991
132.627 -1325.23 3991
142.171 -1325.23 3991
152.437 -1331.54 4010
162.026 -1331.54 4010
171.615 -1331.54 4010
347.191 -1306.64 3935
357.417 -1309.63 3944
367.685 -1312.62 3953
377.138 -1312.62 3953
390.307 -1325.23 3991
401.754 -1331.54 4010
415.344 -1344.49 4049
425.026 -1344.49 4049
439.003 -1357.78 4089
448.781 -1357.78 4089
458.559 -1357.78 4089
468.337 -1357.78 4089
478.115 -1357.78 4089
481.927 -1341.17 4039
497.671 -1357.78 4089
507.449 -1357.78 4089
517.227 -1357.78 4089
523.139 -1347.81 4059
