ply
format ascii 1.0
comment File generated
element vertex 2251
property float x
property float y
property float z
end_header
-142.175 587.32 1852
41.8276 1132.78 3572
50.4821 1135.32 3580
59.043 1135.32 3580
67.7549 1137.85 3588
76.4839 1140.07 3595
85.2699 1142.61 3603
93.8858 1142.61 3603
102.502 1142.61 3603
111.118 1142.61 3603
119.733 1142.61 3603
128.064 1140.07 3595
136.661 1140.07 3595
145.258 1140.07 3595
153.854 1140.07 3595
162.135 1137.85 3588
170.334 1135.32 3580
178.895 1135.32 3580
187.875 1137.85 3588
196.838 1140.07 3595
205.435 1140.07 3595
214.032 1140.07 3595
222.628 1140.07 3595
231.225 1140.07 3595
239.822 1140.07 3595
248.419 1140.07 3595
255.943 1135.32 3580
264.504 1135.32 3580
273.065 1135.32 3580
281.625 1135.32 3580
290.186 1135.32 3580
298.747 1135.32 3580
307.308 1135.32 3580
315.869 1135.32 3580
323.705 1132.78 3572
334.386 1140.07 3595
342.983 1140.07 3595
353.926 1147.68 3619
362.581 1147.68 3619
371.235 1147.68 3619
378.209 1142.61 3603
385.215 1137.85 3588
384.685 1111.53 3505
393.067 1111.53 3505
394.003 1090.92 3440
398.956 1082.04 3412
405.444 1077.6 3398
411.866 1073.16 3384
419.958 1073.16 3384
426.279 1068.72 3370
432.663 1064.6 3357
439.771 1062.38 3350
447.782 1062.38 3350
454.024 1058.25 3337
462.004 1058.25 3337
469.984 1058.25 3337
477.964 1058.25 3337
485.943 1058.25 3337
491.851 1053.81 3323
497.842 1049.69 3310
505.757 1049.69 3310
513.672 1049.69 3310
521.588 1049.69 3310
530.623 1051.91 3317
539.529 1053.81 3323
547.475 1053.81 3323
555.421 1053.81 3323
563.368 1053.81 3323
571.314 1053.81 3323
579.26 1053.81 3323
587.207 1053.81 3323
596.407 1056.03 3330
604.37 1056.03 3330
613.62 1058.25 3337
621.6 1058.25 3337
629.579 1058.25 3337
636.222 1056.03 3330
644.185 1056.03 3330
652.148 1056.03 3330
660.111 1056.03 3330
669.478 1058.25 3337
677.458 1058.25 3337
685.438 1058.25 3337
691.963 1056.03 3330
702.659 1060.16 3343
710.653 1060.16 3343
718.647 1060.16 3343
726.641 1060.16 3343
734.635 1060.16 3343
742.629 1060.16 3343
750.623 1060.16 3343
758.617 1060.16 3343
766.612 1060.16 3343
774.606 1060.16 3343
784.238 1062.38 3350
792.249 1062.38 3350
800.26 1062.38 3350
809.96 1064.6 3357
817.988 1064.6 3357
826.015 1064.6 3357
837.273 1068.72 3370
845.331 1068.72 3370
853.39 1068.72 3370
861.449 1068.72 3370
869.507 1068.72 3370
877.566 1068.72 3370
885.625 1068.72 3370
893.683 1068.72 3370
903.615 1070.94 3377
917.36 1077.6 3398
925.486 1077.6 3398
935.535 1079.82 3405
943.677 1079.82 3405
963.56 1093.14 3447
975.75 1097.58 3461
990.281 1104.55 3483
998.61 1104.55 3483
1008.96 1106.77 3490
1021.68 1111.53 3505
1040.94 1123.26 3542
1049.41 1123.26 3542
1064.75 1130.56 3565
1091.94 1150.22 3627
1100.61 1150.22 3627
1109.28 1150.22 3627
1117.96 1150.22 3627
1129.11 1152.76 3635
1137.81 1152.76 3635
1146.5 1152.76 3635
1155.19 1152.76 3635
1163.88 1152.76 3635
1172.58 1152.76 3635
1181.27 1152.76 3635
1189.96 1152.76 3635
1198.65 1152.76 3635
1207.35 1152.76 3635
1216.04 1152.76 3635
1232.48 1160.05 3658
1241.23 1160.05 3658
1249.97 1160.05 3658
1258.72 1160.05 3658
1267.47 1160.05 3658
1270.63 1154.98 3642
1279.34 1154.98 3642
1290.88 1157.51 3650
1299.61 1157.51 3650
1308.34 1157.51 3650
1317.07 1157.51 3650
1325.79 1157.51 3650
1334.52 1157.51 3650
1343.25 1157.51 3650
1351.98 1157.51 3650
1360.71 1157.51 3650
1369.44 1157.51 3650
1378.16 1157.51 3650
1386.89 1157.51 3650
1395.62 1157.51 3650
1401.27 1154.98 3642
1397.98 1145.15 3611
1382.46 1125.48 3549
1390.95 1125.48 3549
1393.52 1120.73 3534
1399.19 1118.51 3527
1407.63 1118.51 3527
1416.06 1118.51 3527
1424.5 1118.51 3527
1426.84 1113.75 3512
1432.37 1111.53 3505
1431.71 1104.55 3483
1440.04 1104.55 3483
1445.46 1102.33 3476
1441.64 1093.14 3447
1449.89 1093.14 3447
1458.13 1093.14 3447
1466.37 1093.14 3447
1474.61 1093.14 3447
1479.85 1090.92 3440
1488.07 1090.92 3440
1487.16 1084.26 3419
1492.28 1082.04 3412
1494.28 1077.6 3398
1490.03 1068.72 3370
1510.53 1077.6 3398
1518.66 1077.6 3398
1536.22 1084.26 3419
1553.88 1090.92 3440
1565.29 1093.14 3447
1573.53 1093.14 3447
1581.77 1093.14 3447
1586.79 1090.92 3440
1595.01 1090.92 3440
1570.61 1068.72 3370
1583.82 1056.03 3330
1591.79 1056.03 3330
1645.87 1086.48 3426
1657.44 1088.7 3433
1665.65 1088.7 3433
1673.86 1088.7 3433
1703.14 1102.33 3476
1711.45 1102.33 3476
1719.76 1102.33 3476
1713.66 1093.14 3447
1676.94 1064.6 3357
1664.89 1051.91 3317
1672.82 1051.91 3317
1667.07 1043.35 3290
1665.27 1037.32 3271
1676.67 1039.54 3278
1684.51 1039.54 3278
1692.35 1039.54 3278
1696.56 1037.32 3271
1681.45 1023.37 3227
1686.03 1021.47 3221
1693.73 1021.47 3221
1701.43 1021.47 3221
1705.42 1019.25 3214
1703.51 1013.54 3196
1711.16 1013.54 3196
1715.57 1011.64 3190
1723.2 1011.64 3190
1711.29 1000.22 3154
1718.84 1000.22 3154
1716.53 994.511 3136
1717.43 990.705 3124
-2356.98 1005.86 3148
-2349.46 1005.86 3148
-2341.93 1005.86 3148
-2329.95 1003.94 3142
-2313.57 1000.11 3130
-2319.35 1005.86 3148
-2311.82 1005.86 3148
-2308.68 1007.77 3154
-2305.52 1009.69 3160
-2302.32 1011.61 3166
-2294.75 1011.61 3166
-2295.85 1015.44 3178
-2292.57 1017.36 3184
-2289.26 1019.28 3190
-2281.64 1019.28 3190
-2282.56 1023.11 3202
-2310.43 1039.09 3252
-2316.1 1045.16 3271
-2308.28 1045.16 3271
-2309.6 1049.31 3284
-2310.86 1053.47 3297
-2335.11 1068.16 3343
-2327.12 1068.16 3343
-2381.56 1096.92 3433
-2378.19 1099.16 3440
-2369.96 1099.16 3440
-2361.73 1099.16 3440
-2343.93 1094.68 3426
-2335.74 1094.68 3426
-2318.03 1090.21 3412
-2309.87 1090.21 3412
-2287.55 1083.5 3391
-2274.73 1081.26 3384
-2266.64 1081.26 3384
-2258.55 1081.26 3384
-2255.11 1083.5 3391
-2247 1083.5 3391
-2238.9 1083.5 3391
-2230.79 1083.5 3391
-2208.91 1076.79 3370
-2187.79 1070.4 3350
-2211.01 1085.74 3398
-2202.89 1085.74 3398
-2230.93 1103.63 3454
-2222.67 1103.63 3454
-2214.41 1103.63 3454
-2206.15 1103.63 3454
-2184.53 1096.92 3433
-2176.32 1096.92 3433
-2172.53 1099.16 3440
-2164.31 1099.16 3440
-2160.47 1101.39 3447
-2170.33 1110.66 3476
-2166.38 1112.9 3483
-2158.05 1112.9 3483
-2149.72 1112.9 3483
-2141.39 1112.9 3483
-2146.53 1119.93 3505
-2138.15 1119.93 3505
-2143.14 1126.96 3527
-2148.02 1133.99 3549
-2144.36 1136.54 3557
-2135.85 1136.54 3557
-2132.13 1139.1 3565
-2123.6 1139.1 3565
-2115.08 1139.1 3565
-2101.83 1136.54 3557
-2088.61 1133.99 3549
-2080.13 1133.99 3549
-2076.31 1136.54 3557
-2067.8 1136.54 3557
-2063.93 1139.1 3565
-2055.4 1139.1 3565
-2046.88 1139.1 3565
-2038.35 1139.1 3565
-2016.73 1131.75 3542
-2008.26 1131.75 3542
-2008.26 1136.54 3557
-1999.76 1136.54 3557
-1995.73 1139.1 3565
-1991.11 1141.34 3572
-1982.56 1141.34 3572
-1974.02 1141.34 3572
-1965.48 1141.34 3572
-1965.7 1146.45 3588
-1965.31 1151.24 3603
-1956.69 1151.24 3603
-1956.73 1156.35 3619
-1948.07 1156.35 3619
-1956.03 1166.26 3650
-1947.3 1166.26 3650
-1942.82 1168.81 3658
-1934.07 1168.81 3658
-1925.33 1168.81 3658
-1896.15 1156.35 3619
-1903.66 1166.26 3650
-1907.91 1174.25 3675
-1924.44 1189.9 3724
-1915.54 1189.9 3724
-1910.73 1192.46 3732
-1923.21 1205.88 3774
-1918.75 1208.75 3783
-1909.7 1208.75 3783
-1900.66 1208.75 3783
-1887.11 1205.88 3774
-1878.08 1205.88 3774
-1869.06 1205.88 3774
-1847.71 1197.89 3749
-1818.15 1184.47 3707
-1809.28 1184.47 3707
-1792.65 1179.36 3691
-1749.03 1156.35 3619
-1732.68 1151.24 3603
-1724.06 1151.24 3603
-1704.5 1143.89 3580
-1688.83 1139.1 3565
-1676.53 1136.54 3557
-1668.03 1136.54 3557
-1659.52 1136.54 3557
-1630.13 1122.16 3512
-1618.5 1119.93 3505
-1596.79 1110.66 3476
-1588.48 1110.66 3476
-1563.8 1099.16 3440
-1542.92 1090.21 3412
-1522.16 1081.26 3384
-1514.07 1081.26 3384
-1499.75 1076.79 3370
-1491.69 1076.79 3370
-1477.91 1072.64 3357
-1472.51 1074.55 3363
-1464.46 1074.55 3363
-1465.52 1081.26 3384
-1457.43 1081.26 3384
-1455.33 1085.74 3398
-1447.2 1085.74 3398
-1442.04 1087.97 3405
-1439.8 1092.45 3419
-1434.55 1094.68 3426
-1426.36 1094.68 3426
-1418.17 1094.68 3426
-1412.85 1096.92 3433
-1404.64 1096.92 3433
-1396.44 1096.92 3433
-1388.23 1096.92 3433
-1380.02 1096.92 3433
-1374.6 1099.16 3440
-1366.38 1099.16 3440
-1358.15 1099.16 3440
-1352.67 1101.39 3447
-1347.16 1103.63 3454
-1338.9 1103.63 3454
-1333.34 1105.87 3461
-1333.48 1112.9 3483
-1325.16 1112.9 3483
-1316.83 1112.9 3483
-1311.13 1115.13 3490
-1302.78 1115.13 3490
-1294.44 1115.13 3490
-1277.98 1108.1 3468
-1259.44 1099.16 3440
-1248.67 1096.92 3433
-1248.05 1103.63 3454
-1242.3 1105.87 3461
-1234.02 1105.87 3461
-1225.75 1105.87 3461
-1217.47 1105.87 3461
-1209.19 1105.87 3461
-1191.2 1096.92 3433
-1190.23 1103.63 3454
-1181.97 1103.63 3454
-1173.71 1103.63 3454
-1165.45 1103.63 3454
-1157.19 1103.63 3454
-1134.96 1090.21 3412
-1126.8 1090.21 3412
-567.517 553.094 1731
-563.703 553.413 1732
-559.562 553.413 1732
-556.703 554.691 1736
-552.551 554.691 1736
-549.032 555.33 1738
-544.876 555.33 1738
-540.72 555.33 1738
-536.564 555.33 1738
-533.02 555.969 1740
-528.859 555.969 1740
-524.698 555.969 1740
-520.538 555.969 1740
-516.377 555.969 1740
-512.216 555.969 1740
-506.887 554.691 1736
-502.736 554.691 1736
-498.584 554.691 1736
-493.864 554.052 1734
-489.717 554.052 1734
-485.57 554.052 1734
-481.424 554.052 1734
-477.277 554.052 1734
-473.131 554.052 1734
-469.525 554.691 1736
-465.374 554.691 1736
-461.223 554.691 1736
-457.071 554.691 1736
-453.964 555.969 1740
-449.803 555.969 1740
-445.642 555.969 1740
-443.257 558.206 1747
-439.582 558.845 1749
-437.142 561.082 1756
-432.943 561.082 1756
-429.721 562.36 1760
-427.688 565.236 1769
-424.894 567.153 1775
-420.65 567.153 1775
-416.874 567.792 1777
-412.625 567.792 1777
-408.375 567.792 1777
-404.126 567.792 1777
-399.427 567.153 1775
-394.292 565.875 1771
-389.176 564.597 1767
-384.95 564.597 1767
-379.647 562.999 1762
-374.582 561.721 1758
-369.535 560.443 1754
-365.341 560.443 1754
-360.735 559.804 1752
-354.713 556.928 1743
-349.54 555.33 1738
-345.384 555.33 1738
-340.442 554.052 1734
-335.714 553.094 1731
-330.042 550.538 1723
-325.922 550.538 1723
-320.868 548.94 1718
-316.76 548.94 1718
-312.105 547.981 1715
-308.004 547.981 1715
-303.549 547.342 1713
-299.453 547.342 1713
-295.356 547.342 1713
-291.77 548.301 1716
-288.337 549.579 1720
-284.224 549.579 1720
-280.437 550.218 1722
-276.319 550.218 1722
-272.675 551.177 1725
-268.55 551.177 1725
-265.345 553.094 1731
-262.262 555.33 1738
-258.551 556.289 1741
-254.388 556.289 1741
-251.806 559.804 1752
-248.464 561.721 1758
-244.955 563.319 1763
-240.739 563.319 1763
-237.865 566.514 1773
-235.602 571.307 1788
-231.844 572.585 1792
-227.558 572.585 1792
-224.27 575.141 1800
-220.454 576.419 1804
-216.5 577.378 1807
-212.179 577.378 1807
-208.548 579.295 1813
-204.213 579.295 1813
-200.098 579.934 1815
-195.757 579.934 1815
-191.628 580.573 1817
-187.695 581.851 1821
-184.348 585.046 1831
-179.969 585.046 1831
-175.591 585.046 1831
-171.586 586.324 1835
-167.38 586.963 1837
-162.988 586.963 1837
-159.458 590.158 1847
-155.041 590.158 1847
-150.625 590.158 1847
-146.208 590.158 1847
-141.791 590.158 1847
50.3693 1141.34 3572
58.9111 1141.34 3572
67.6039 1143.89 3580
76.3349 1146.45 3588
85.0806 1148.68 3595
93.6773 1148.68 3595
102.502 1151.24 3603
111.118 1151.24 3603
119.733 1151.24 3603
128.064 1148.68 3595
136.661 1148.68 3595
145.258 1148.68 3595
153.854 1148.68 3595
162.135 1146.45 3588
170.334 1143.89 3580
178.895 1143.89 3580
187.875 1146.45 3588
196.455 1146.45 3588
205.035 1146.45 3588
214.032 1148.68 3595
222.628 1148.68 3595
231.225 1148.68 3595
239.355 1146.45 3588
247.935 1146.45 3588
255.943 1143.89 3580
264.504 1143.89 3580
272.454 1141.34 3572
280.445 1139.1 3565
289.538 1141.34 3572
298.08 1141.34 3572
306.621 1141.34 3572
315.163 1141.34 3572
322.345 1136.54 3557
333.735 1146.45 3588
342.315 1146.45 3588
351.579 1148.68 3595
360.176 1148.68 3595
368.773 1148.68 3595
377.37 1148.68 3595
383.497 1141.34 3572
384.685 1119.93 3505
393.067 1119.93 3505
394.003 1099.16 3440
398.956 1090.21 3412
405.444 1085.74 3398
411.866 1081.26 3384
419.958 1081.26 3384
426.279 1076.79 3370
432.663 1072.64 3357
439.771 1070.4 3350
447.782 1070.4 3350
454.024 1066.25 3337
462.004 1066.25 3337
469.984 1066.25 3337
477.964 1066.25 3337
485.943 1066.25 3337
491.851 1061.77 3323
497.842 1057.62 3310
505.757 1057.62 3310
513.672 1057.62 3310
521.588 1057.62 3310
530.623 1059.86 3317
539.529 1061.77 3323
547.475 1061.77 3323
555.421 1061.77 3323
563.368 1061.77 3323
571.314 1061.77 3323
579.26 1061.77 3323
587.207 1061.77 3323
596.407 1064.01 3330
604.37 1064.01 3330
613.62 1066.25 3337
621.6 1066.25 3337
629.579 1066.25 3337
636.222 1064.01 3330
644.185 1064.01 3330
652.148 1064.01 3330
660.111 1064.01 3330
669.478 1066.25 3337
677.458 1066.25 3337
685.438 1066.25 3337
691.963 1064.01 3330
702.659 1068.16 3343
710.653 1068.16 3343
718.647 1068.16 3343
726.641 1068.16 3343
734.635 1068.16 3343
742.629 1068.16 3343
750.623 1068.16 3343
758.617 1068.16 3343
766.612 1068.16 3343
774.606 1068.16 3343
782.6 1068.16 3343
790.594 1068.16 3343
798.588 1068.16 3343
808.271 1070.4 3350
816.282 1070.4 3350
824.293 1070.4 3350
834.043 1072.64 3357
842.07 1072.64 3357
850.098 1072.64 3357
858.126 1072.64 3357
866.153 1072.64 3357
874.181 1072.64 3357
883.785 1074.55 3363
891.827 1074.55 3363
903.615 1079.03 3377
917.36 1085.74 3398
925.486 1085.74 3398
935.535 1087.97 3405
943.677 1087.97 3405
961.603 1099.16 3440
975.75 1105.87 3461
988.291 1110.66 3476
996.603 1110.66 3476
1008.96 1115.13 3490
1019.35 1117.37 3497
1040.94 1131.75 3542
1049.41 1131.75 3542
1062.36 1136.54 3557
1091.94 1158.91 3627
1100.61 1158.91 3627
1109.28 1158.91 3627
1117.96 1158.91 3627
1126.63 1158.91 3627
1137.81 1161.46 3635
1146.5 1161.46 3635
1155.19 1161.46 3635
1163.88 1161.46 3635
1172.58 1161.46 3635
1181.27 1161.46 3635
1187.34 1158.91 3627
1193.38 1156.35 3619
1204.69 1158.91 3627
1213.36 1158.91 3627
1222.03 1158.91 3627
1233.42 1161.46 3635
1242.11 1161.46 3635
1250.81 1161.46 3635
1259.5 1161.46 3635
1265.4 1158.91 3627
1274.07 1158.91 3627
1279.92 1156.35 3619
1288.57 1156.35 3619
1300.09 1158.91 3627
1308.77 1158.91 3627
1317.44 1158.91 3627
1326.11 1158.91 3627
1328.9 1153.8 3611
1337.53 1153.8 3611
1352.13 1158.91 3627
1360.81 1158.91 3627
1369.48 1158.91 3627
1378.15 1158.91 3627
1386.83 1158.91 3627
1389.34 1153.8 3611
1380.17 1139.1 3565
1382.46 1133.99 3549
1390.95 1133.99 3549
1393.52 1129.19 3534
1399.19 1126.96 3527
1407.63 1126.96 3527
1416.06 1126.96 3527
1424.5 1126.96 3527
1426.84 1122.16 3512
1432.37 1119.93 3505
1431.71 1112.9 3483
1440.04 1112.9 3483
1445.46 1110.66 3476
1441.64 1101.39 3447
1449.89 1101.39 3447
1458.13 1101.39 3447
1466.37 1101.39 3447
1474.61 1101.39 3447
1479.85 1099.16 3440
1488.07 1099.16 3440
1487.16 1092.45 3419
1492.28 1090.21 3412
1494.28 1085.74 3398
1490.03 1076.79 3370
1510.53 1085.74 3398
1518.66 1085.74 3398
1536.22 1092.45 3419
1553.88 1099.16 3440
1565.29 1101.39 3447
1573.53 1101.39 3447
1581.77 1101.39 3447
1586.79 1099.16 3440
1595.01 1099.16 3440
1570.61 1076.79 3370
1547.29 1055.38 3303
1555.18 1055.38 3303
1563.08 1055.38 3303
1583.82 1064.01 3330
1591.79 1064.01 3330
1645.87 1094.68 3426
1657.44 1096.92 3433
1665.65 1096.92 3433
1673.86 1096.92 3433
1703.14 1110.66 3476
1711.45 1110.66 3476
1719.76 1110.66 3476
1713.66 1101.39 3447
1676.94 1072.64 3357
1664.89 1059.86 3317
1672.82 1059.86 3317
1667.07 1051.23 3290
1665.27 1045.16 3271
1676.67 1047.4 3278
1684.51 1047.4 3278
1692.35 1047.4 3278
1696.56 1045.16 3271
1681.45 1031.1 3227
1686.03 1029.18 3221
1693.73 1029.18 3221
1701.43 1029.18 3221
1705.42 1026.95 3214
1703.51 1021.19 3196
1711.16 1021.19 3196
1715.57 1019.28 3190
1723.2 1019.28 3190
1711.29 1007.77 3154
1718.84 1007.77 3154
1716.53 1002.02 3136
1717.43 998.189 3124
-2356.98 1013.4 3148
-2349.46 1013.4 3148
-2337.47 1011.47 3142
-2321.05 1007.6 3130
-2313.57 1007.6 3130
-2319.35 1013.4 3148
-2311.82 1013.4 3148
-2308.68 1015.33 3154
-2305.52 1017.26 3160
-2302.32 1019.19 3166
-2294.75 1019.19 3166
-2295.85 1023.06 3178
-2288.25 1023.06 3178
-2289.26 1026.92 3190
-2281.64 1026.92 3190
-2282.56 1030.78 3202
-2301.19 1042.69 3239
-2311.86 1051.06 3265
-2304.05 1051.06 3265
-2309.6 1057.18 3284
-2310.86 1061.36 3297
-2335.11 1076.17 3343
-2327.12 1076.17 3343
-2381.56 1105.15 3433
-2378.19 1107.4 3440
-2369.96 1107.4 3440
-2361.73 1107.4 3440
-2343.93 1102.89 3426
-2335.74 1102.89 3426
-2318.03 1098.38 3412
-2309.87 1098.38 3412
-2287.55 1091.62 3391
-2274.73 1089.37 3384
-2266.64 1089.37 3384
-2258.55 1089.37 3384
-2255.11 1091.62 3391
-2247 1091.62 3391
-2238.9 1091.62 3391
-2230.79 1091.62 3391
-2208.91 1084.86 3370
-2187.79 1078.43 3350
-2211.01 1093.88 3398
-2202.89 1093.88 3398
-2230.93 1111.91 3454
-2222.67 1111.91 3454
-2214.41 1111.91 3454
-2206.15 1111.91 3454
-2184.53 1105.15 3433
-2176.32 1105.15 3433
-2172.53 1107.4 3440
-2164.31 1107.4 3440
-2160.47 1109.65 3447
-2170.33 1118.99 3476
-2166.38 1121.24 3483
-2158.05 1121.24 3483
-2149.72 1121.24 3483
-2141.39 1121.24 3483
-2146.53 1128.32 3505
-2138.15 1128.32 3505
-2143.14 1135.41 3527
-2148.02 1142.49 3549
-2144.36 1145.06 3557
-2135.85 1145.06 3557
-2132.13 1147.64 3565
-2123.6 1147.64 3565
-2115.08 1147.64 3565
-2101.83 1145.06 3557
-2088.61 1142.49 3549
-2080.13 1142.49 3549
-2076.31 1145.06 3557
-2067.8 1145.06 3557
-2063.93 1147.64 3565
-2055.4 1147.64 3565
-2046.88 1147.64 3565
-2038.35 1147.64 3565
-2016.73 1140.23 3542
-2008.26 1140.23 3542
-2008.26 1145.06 3557
-1999.76 1145.06 3557
-1995.73 1147.64 3565
-1991.11 1149.89 3572
-1982.56 1149.89 3572
-1974.02 1149.89 3572
-1965.48 1149.89 3572
-1965.7 1155.04 3588
-1965.31 1159.87 3603
-1956.69 1159.87 3603
-1956.73 1165.02 3619
-1948.07 1165.02 3619
-1956.03 1175 3650
-1947.3 1175 3650
-1942.82 1177.58 3658
-1934.07 1177.58 3658
-1925.33 1177.58 3658
-1896.15 1165.02 3619
-1916.7 1183.05 3675
-1929.2 1196.25 3716
-1924.44 1198.82 3724
-1915.54 1198.82 3724
-1910.73 1201.4 3732
-1936.46 1223.29 3800
-1927.37 1223.29 3800
-1918.28 1223.29 3800
-1900.66 1217.82 3783
-1887.11 1214.92 3774
-1878.08 1214.92 3774
-1869.06 1214.92 3774
-1851.66 1209.45 3757
-1818.15 1193.35 3707
-1809.28 1193.35 3707
-1792.65 1188.2 3691
-1760.14 1172.43 3642
-1732.68 1159.87 3603
-1724.06 1159.87 3603
-1704.5 1152.47 3580
-1692.14 1149.89 3572
-1680.3 1147.64 3565
-1671.78 1147.64 3565
-1663.25 1147.64 3565
-1637.09 1135.41 3527
-1618.5 1128.32 3505
-1596.79 1118.99 3476
-1588.48 1118.99 3476
-1570.17 1111.91 3454
-1549.25 1102.89 3426
-1534.76 1098.38 3412
-1526.6 1098.38 3412
-1505.98 1089.37 3384
-1497.89 1089.37 3384
-1483.63 1084.86 3370
-1478.64 1087.12 3377
-1470.56 1087.12 3377
-1465.52 1089.37 3384
-1460.44 1091.62 3391
-1455.33 1093.88 3398
-1447.2 1093.88 3398
-1442.04 1096.13 3405
-1439.8 1100.64 3419
-1434.55 1102.89 3426
-1426.36 1102.89 3426
-1418.17 1102.89 3426
-1412.85 1105.15 3433
-1404.64 1105.15 3433
-1396.44 1105.15 3433
-1388.23 1105.15 3433
-1380.02 1105.15 3433
-1374.6 1107.4 3440
-1366.38 1107.4 3440
-1358.15 1107.4 3440
-1352.67 1109.65 3447
-1347.16 1111.91 3454
-1338.9 1111.91 3454
-1333.34 1114.16 3461
-1333.48 1121.24 3483
-1325.16 1121.24 3483
-1316.83 1121.24 3483
-1311.13 1123.49 3490
-1302.78 1123.49 3490
-1294.44 1123.49 3490
-1277.98 1116.41 3468
-1259.44 1107.4 3440
-1248.67 1105.15 3433
-1248.05 1111.91 3454
-1242.3 1114.16 3461
-1234.02 1114.16 3461
-1225.75 1114.16 3461
-1210.08 1107.4 3440
-1201.86 1107.4 3440
-1186.34 1100.64 3419
-1180.58 1102.89 3426
-1179.57 1109.65 3447
-1171.33 1109.65 3447
-1163.09 1109.65 3447
-1154.85 1109.65 3447
-1141.95 1105.15 3433
-1133.74 1105.15 3433
-566.862 556.597 1729
-562.727 556.597 1729
-558.592 556.597 1729
-555.42 557.562 1732
-551.915 558.206 1734
-549.032 559.494 1738
-544.876 559.494 1738
-540.72 559.494 1738
-536.564 559.494 1738
-533.02 560.138 1740
-528.859 560.138 1740
-524.698 560.138 1740
-520.538 560.138 1740
-516.377 560.138 1740
-512.216 560.138 1740
-507.471 559.494 1738
-502.736 558.85 1736
-498.584 558.85 1736
-494.433 558.85 1736
-489.717 558.206 1734
-485.57 558.206 1734
-481.424 558.206 1734
-477.277 558.206 1734
-473.131 558.206 1734
-469.525 558.85 1736
-465.374 558.85 1736
-461.223 558.85 1736
-457.598 559.494 1738
-453.964 560.138 1740
-450.061 560.46 1741
-445.898 560.46 1741
-443.257 562.391 1747
-440.085 563.679 1751
-437.64 565.932 1758
-433.436 565.932 1758
-429.721 566.576 1760
-427.688 569.473 1769
-424.415 570.761 1773
-420.176 570.761 1773
-416.405 571.405 1775
-412.16 571.405 1775
-407.916 571.405 1775
-403.671 571.405 1775
-399.427 571.405 1775
-394.292 570.117 1771
-389.176 568.829 1767
-384.95 568.829 1767
-379.647 567.22 1762
-375.008 566.576 1760
-369.956 565.288 1756
-365.757 565.288 1756
-360.735 564.001 1752
-354.713 561.103 1743
-350.143 560.46 1741
-345.98 560.46 1741
-340.442 558.206 1734
-335.714 557.24 1731
-330.042 554.665 1723
-325.922 554.665 1723
-321.241 553.699 1720
-316.76 553.055 1718
-312.105 552.09 1715
-308.004 552.09 1715
-303.549 551.446 1713
-299.453 551.446 1713
-295.356 551.446 1713
-291.77 552.412 1716
-288.337 553.699 1720
-284.224 553.699 1720
-280.111 553.699 1720
-276.319 554.343 1722
-272.675 555.309 1725
-268.55 555.309 1725
-265.345 557.24 1731
-262.262 559.494 1738
-258.551 560.46 1741
-254.388 560.46 1741
-251.662 563.679 1751
-248.464 565.932 1758
-244.955 567.542 1763
-240.739 567.542 1763
-237.865 570.761 1773
-235.075 574.302 1784
-231.585 576.234 1790
-227.304 576.234 1790
-224.021 578.809 1798
-220.21 580.097 1802
-216.26 581.062 1805
-211.944 581.062 1805
-207.858 581.706 1807
-204.213 583.638 1813
-200.098 584.282 1815
-195.757 584.282 1815
-191.628 584.925 1817
-188.108 587.501 1825
-184.348 589.432 1831
-179.969 589.432 1831
-175.782 590.076 1833
-171.586 590.72 1835
-167.38 591.364 1837
-162.988 591.364 1837
-159.458 594.583 1847
-155.461 596.193 1852
-151.032 596.193 1852
-146.604 596.193 1852
50.3693 1149.89 3572
58.9111 1149.89 3572
67.4528 1149.89 3572
76.3349 1155.04 3588
85.0806 1157.3 3595
93.6773 1157.3 3595
102.274 1157.3 3595
110.871 1157.3 3595
119.468 1157.3 3595
128.064 1157.3 3595
136.661 1157.3 3595
230.26 1152.47 3580
238.821 1152.47 3580
247.382 1152.47 3580
255.371 1149.89 3572
263.913 1149.89 3572
272.454 1149.89 3572
280.445 1147.64 3565
288.97 1147.64 3565
297.495 1147.64 3565
306.02 1147.64 3565
313.84 1145.06 3557
322.345 1145.06 3557
333.735 1155.04 3588
342.315 1155.04 3588
351.579 1157.3 3595
360.176 1157.3 3595
368.773 1157.3 3595
377.37 1157.3 3595
383.497 1149.89 3572
381.502 1118.99 3476
384.992 1105.15 3433
393.202 1105.15 3433
398.137 1096.13 3405
405.444 1093.88 3398
411.866 1089.37 3384
419.958 1089.37 3384
426.279 1084.86 3370
432.663 1080.68 3357
439.771 1078.43 3350
447.782 1078.43 3350
454.841 1076.17 3343
462.835 1076.17 3343
469.984 1074.24 3337
477.964 1074.24 3337
485.943 1074.24 3337
492.887 1071.99 3330
499.797 1069.73 3323
507.744 1069.73 3323
515.69 1069.73 3323
522.691 1067.8 3317
530.623 1067.8 3317
539.529 1069.73 3323
547.475 1069.73 3323
555.421 1069.73 3323
563.368 1069.73 3323
571.314 1069.73 3323
580.48 1071.99 3330
588.444 1071.99 3330
596.407 1071.99 3330
604.37 1071.99 3330
613.62 1074.24 3337
621.6 1074.24 3337
629.579 1074.24 3337
636.222 1071.99 3330
644.185 1071.99 3330
652.148 1071.99 3330
660.111 1071.99 3330
669.478 1074.24 3337
677.458 1074.24 3337
685.438 1074.24 3337
691.963 1071.99 3330
702.659 1076.17 3343
710.653 1076.17 3343
718.647 1076.17 3343
726.641 1076.17 3343
734.635 1076.17 3343
742.629 1076.17 3343
750.623 1076.17 3343
758.617 1076.17 3343
766.612 1076.17 3343
773.215 1074.24 3337
782.6 1076.17 3343
790.594 1076.17 3343
798.588 1076.17 3343
808.271 1078.43 3350
816.282 1078.43 3350
824.293 1078.43 3350
832.304 1078.43 3350
840.315 1078.43 3350
848.325 1078.43 3350
854.547 1076.17 3343
862.541 1076.17 3343
870.535 1076.17 3343
878.529 1076.17 3343
886.523 1076.17 3343
899.869 1082.61 3363
911.691 1087.12 3377
921.673 1089.37 3384
933.611 1093.88 3398
941.737 1093.88 3398
949.863 1093.88 3398
969.829 1107.4 3440
984.026 1114.16 3461
992.302 1114.16 3461
1004.92 1118.99 3476
1017.31 1123.49 3490
1032.12 1130.58 3512
1040.52 1130.58 3512
1062.36 1145.06 3557
1091.94 1167.6 3627
1100.61 1167.6 3627
1109.28 1167.6 3627
1117.96 1167.6 3627
1126.63 1167.6 3627
1135.3 1167.6 3627
1143.98 1167.6 3627
1155.19 1170.17 3635
1163.88 1170.17 3635
1172.58 1170.17 3635
1173.47 1162.45 3611
1182.1 1162.45 3611
1190.74 1162.45 3611
1199.37 1162.45 3611
1208.01 1162.45 3611
1216.64 1162.45 3611
1225.28 1162.45 3611
1233.91 1162.45 3611
1242.55 1162.45 3611
1251.18 1162.45 3611
1254.24 1157.3 3595
1260.37 1155.04 3588
1268.95 1155.04 3588
1274.69 1152.47 3580
1283.25 1152.47 3580
1288.92 1149.89 3572
1297.46 1149.89 3572
1306 1149.89 3572
1314.55 1149.89 3572
1323.09 1149.89 3572
1340.2 1157.3 3595
1348.8 1157.3 3595
1357.4 1157.3 3595
1363.33 1155.04 3588
1371.91 1155.04 3588
1380.49 1155.04 3588
1380.17 1147.64 3565
1376.62 1137.66 3534
1385.07 1137.66 3534
1378.93 1125.75 3497
1387.29 1125.75 3497
1398.85 1128.32 3505
1407.23 1128.32 3505
1415.61 1128.32 3505
1420.74 1125.75 3497
1429.11 1125.75 3497
1428.84 1118.99 3476
1437.15 1118.99 3476
1433.4 1109.65 3447
1432.86 1102.89 3426
1444 1105.15 3433
1455.17 1107.4 3440
1463.39 1107.4 3440
1471.62 1107.4 3440
1476.84 1105.15 3433
1485.04 1105.15 3433
1487.16 1100.64 3419
1489.22 1096.13 3405
1488.12 1089.37 3384
1490.03 1084.86 3370
1501.2 1087.12 3377
1509.27 1087.12 3377
1533.07 1098.38 3412
1544.4 1100.64 3419
1555.75 1102.89 3426
1563.94 1102.89 3426
1572.14 1102.89 3426
1570.64 1096.13 3405
1578.78 1096.13 3405
1570.61 1084.86 3370
1547.29 1063.3 3303
1555.18 1063.3 3303
1563.08 1063.3 3303
1583.82 1071.99 3330
1591.79 1071.99 3330
1632.42 1093.88 3398
1650.68 1100.64 3419
1658.86 1100.64 3419
1667.03 1100.64 3419
1675.21 1100.64 3419
1683.38 1100.64 3419
1691.56 1100.64 3419
1668.91 1080.68 3357
1659.96 1069.73 3323
1651.34 1059.11 3290
1659.21 1059.11 3290
1644.78 1044.95 3246
1652.54 1044.95 3246
1673.09 1052.99 3271
1680.91 1052.99 3271
1688.73 1052.99 3271
1673.74 1038.83 3227
1681.45 1038.83 3227
1682.36 1034.65 3214
1690.05 1034.65 3214
1697.74 1034.65 3214
1689.5 1024.99 3184
1697.12 1024.99 3184
1704.73 1024.99 3184
1712.34 1024.99 3184
1706.99 1017.26 3160
1708.04 1013.4 3148
1715.57 1013.4 3148
1716.53 1009.54 3136
-2348 1017.05 3136
-2340.5 1017.05 3136
-2333 1017.05 3136
-2321.05 1015.1 3130
-2309.13 1013.16 3124
-2319.35 1020.94 3148
-2311.82 1020.94 3148
-2308.68 1022.89 3154
-2305.52 1024.83 3160
-2297.96 1024.83 3160
-2290.4 1024.83 3160
-2291.52 1028.72 3172
-2288.25 1030.67 3178
-2284.96 1032.61 3184
-2277.34 1032.61 3184
-2278.28 1036.51 3196
-2296.93 1048.51 3233
-2302.65 1054.67 3252
-2294.87 1054.67 3252
-2300.46 1060.83 3271
-2305.96 1066.99 3290
-2330.92 1082.23 3337
-2322.94 1082.23 3337
-2376.7 1111.1 3426
-2368.51 1111.1 3426
-2360.32 1111.1 3426
-2352.12 1111.1 3426
-2334.35 1106.56 3412
-2321.42 1104.29 3405
-2313.28 1104.29 3405
-2295.66 1099.75 3391
-2278.1 1095.21 3377
-2270.03 1095.21 3377
-2261.95 1095.21 3377
-2253.88 1095.21 3377
-2245.8 1095.21 3377
-2233.09 1092.94 3370
-2225.03 1092.94 3370
-2216.97 1092.94 3370
-2200.39 1088.72 3357
-2187.79 1086.45 3350
-2179.78 1086.45 3350
-2171.77 1086.45 3350
-2203.81 1106.56 3412
-2218.17 1117.91 3447
-2209.93 1117.91 3447
-2201.68 1117.91 3447
-2184.53 1113.37 3433
-2176.32 1113.37 3433
-2168.11 1113.37 3433
-2159.9 1113.37 3433
-2156.08 1115.64 3440
-2165.34 1124.72 3468
-2166.38 1129.58 3483
-2158.05 1129.58 3483
-2149.72 1129.58 3483
-2141.39 1129.58 3483
-2141.63 1134.13 3497
-2133.27 1134.13 3497
-2134.02 1138.99 3512
-2148.02 1150.99 3549
-2139.53 1150.99 3549
-2131.05 1150.99 3549
-2127.34 1153.58 3557
-2118.84 1153.58 3557
-2110.33 1153.58 3557
-2097.1 1150.99 3549
-2088.61 1150.99 3549
-2080.13 1150.99 3549
-2076.31 1153.58 3557
-2067.8 1153.58 3557
-2063.93 1156.18 3565
-2055.4 1156.18 3565
-2046.88 1156.18 3565
-2038.35 1156.18 3565
-2016.73 1148.72 3542
-2008.26 1148.72 3542
-2008.26 1153.58 3557
-1999.76 1153.58 3557
-1995.73 1156.18 3565
-1987.2 1156.18 3565
-1982.56 1158.45 3572
-1974.02 1158.45 3572
-1965.48 1158.45 3572
-1965.7 1163.64 3588
-1965.31 1168.5 3603
-1956.69 1168.5 3603
-1956.73 1173.69 3619
-1948.07 1173.69 3619
-1947.99 1178.88 3635
-1939.3 1178.88 3635
-1930.61 1178.88 3635
-1921.91 1178.88 3635
-1913.22 1178.88 3635
-1883.57 1165.91 3595
-1916.7 1191.85 3675
-1929.2 1205.15 3716
-1924.44 1207.74 3724
-1915.54 1207.74 3724
-1910.73 1210.34 3732
-1936.46 1232.39 3800
-1927.37 1232.39 3800
-1918.28 1232.39 3800
-1900.66 1226.88 3783
-1887.11 1223.96 3774
-1878.08 1223.96 3774
-1869.06 1223.96 3774
-1851.66 1218.45 3757
-1818.15 1202.23 3707
-1809.28 1202.23 3707
-1792.65 1197.04 3691
-1760.14 1181.15 3642
-1732.68 1168.5 3603
-1724.06 1168.5 3603
-1700.69 1158.45 3572
-1692.14 1158.45 3572
-1680.3 1156.18 3565
-1671.78 1156.18 3565
-1663.25 1156.18 3565
-1637.09 1143.85 3527
-1618.5 1136.72 3505
-1596.79 1127.31 3476
-1588.48 1127.31 3476
-1570.17 1120.18 3454
-1549.25 1111.1 3426
-1534.76 1106.56 3412
-1526.6 1106.56 3412
-1505.98 1097.48 3384
-1497.89 1097.48 3384
-1483.63 1092.94 3370
-1478.64 1095.21 3377
-1470.56 1095.21 3377
-1465.52 1097.48 3384
-1460.44 1099.75 3391
-1455.33 1102.02 3398
-1447.2 1102.02 3398
-1442.04 1104.29 3405
-1436.85 1106.56 3412
-1428.69 1106.56 3412
-1420.53 1106.56 3412
-1409.47 1104.29 3405
-1401.33 1104.29 3405
-1396.05 1106.56 3412
-1387.89 1106.56 3412
-1382.56 1108.83 3419
-1377.2 1111.1 3426
-1369.01 1111.1 3426
-1360.82 1111.1 3426
-1349.86 1108.83 3419
-1341.69 1108.83 3419
-1341.7 1115.64 3440
-1333.47 1115.64 3440
-1330.64 1120.18 3454
-1322.38 1120.18 3454
-1314.12 1120.18 3454
-1305.86 1120.18 3454
-1297.6 1120.18 3454
-1289.34 1120.18 3454
-1275.89 1115.64 3440
-1267.67 1115.64 3440
-1249.19 1106.56 3412
-1241.03 1106.56 3412
-1240.46 1113.37 3433
-1237.27 1117.91 3447
-1229.03 1117.91 3447
-1220.79 1117.91 3447
-1210.08 1115.64 3440
-1201.86 1115.64 3440
-1188.77 1111.1 3426
-1187.82 1117.91 3447
-1181.97 1120.18 3454
-1173.71 1120.18 3454
-1165.45 1120.18 3454
-1157.19 1120.18 3454
-1141.95 1113.37 3433
-1133.74 1113.37 3433
-567.845 561.711 1732
-563.703 561.711 1732
-559.562 561.711 1732
-556.061 562.36 1734
-552.551 563.009 1736
-549.032 563.657 1738
-544.876 563.657 1738
-540.72 563.657 1738
-537.181 564.306 1740
-533.02 564.306 1740
-528.859 564.306 1740
-525 564.63 1741
-520.837 564.63 1741
-516.674 564.63 1741
-512.216 564.306 1740
-507.471 563.657 1738
-503.315 563.657 1738
-499.159 563.657 1738
-494.433 563.009 1736
-490.282 563.009 1736
-485.57 562.36 1734
-481.424 562.36 1734
-477.277 562.36 1734
-473.677 563.009 1736
-470.066 563.657 1738
-465.91 563.657 1738
-461.754 563.657 1738
-458.125 564.306 1740
-454.225 564.63 1741
-450.578 565.279 1743
-446.41 565.279 1743
-443.765 567.225 1749
-440.085 567.873 1751
-437.64 570.143 1758
-433.436 570.143 1758
-430.209 571.441 1762
-427.688 573.711 1769
-424.415 575.008 1773
-420.176 575.008 1773
-416.405 575.657 1775
-412.16 575.657 1775
-407.916 575.657 1775
-403.671 575.657 1775
-399.427 575.657 1775
-394.292 574.36 1771
-389.176 573.062 1767
-384.95 573.062 1767
-380.294 572.414 1765
-375.008 570.792 1760
-369.956 569.495 1756
-365.757 569.495 1756
-360.735 568.198 1752
-354.713 565.279 1743
-350.143 564.63 1741
-345.98 564.63 1741
-340.442 562.36 1734
-335.714 561.387 1731
-330.042 558.793 1723
-325.922 558.793 1723
-321.241 557.82 1720
-316.76 557.171 1718
-312.105 556.198 1715
-308.004 556.198 1715
-303.549 555.549 1713
-299.453 555.549 1713
-295.356 555.549 1713
-291.77 556.522 1716
-288.337 557.82 1720
-284.224 557.82 1720
-280.111 557.82 1720
-276.319 558.468 1722
-272.675 559.441 1725
-268.55 559.441 1725
-265.345 561.387 1731
-262.262 563.657 1738
-258.551 564.63 1741
-254.388 564.63 1741
-251.662 567.873 1751
-248.464 570.143 1758
-244.955 571.765 1763
-240.739 571.765 1763
-237.865 575.008 1773
-235.075 578.576 1784
-231.585 580.522 1790
-227.304 580.522 1790
-224.27 583.765 1800
-220.21 584.413 1802
-216.26 585.386 1805
-211.944 585.386 1805
-207.858 586.035 1807
-204.438 588.629 1815
-200.098 588.629 1815
-195.757 588.629 1815
-191.839 589.927 1819
-188.108 591.873 1825
-184.348 593.818 1831
-179.969 593.818 1831
-175.782 594.467 1833
-171.586 595.116 1835
-167.38 595.764 1837
-162.988 595.764 1837
-159.89 600.629 1852
-155.461 600.629 1852
-151.032 600.629 1852
-146.604 600.629 1852
50.1578 1153.58 3557
58.6637 1153.58 3557
67.1695 1153.58 3557
75.9945 1158.45 3572
84.5363 1158.45 3572
93.078 1158.45 3572
245.793 1153.58 3557
254.299 1153.58 3557
262.804 1153.58 3557
271.31 1153.58 3557
279.187 1150.99 3549
287.674 1150.99 3549
296.16 1150.99 3549
304.647 1150.99 3549
311.81 1146.12 3534
320.261 1146.12 3534
330.851 1153.58 3557
339.357 1153.58 3557
350.895 1163.64 3588
359.475 1163.64 3588
368.055 1163.64 3588
374.955 1158.45 3572
381.028 1150.99 3549
379.088 1120.18 3454
383.422 1108.83 3419
391.598 1108.83 3419
398.137 1104.29 3405
404.609 1099.75 3391
411.866 1097.48 3384
419.958 1097.48 3384
427.165 1095.21 3377
435.24 1095.21 3377
440.69 1088.72 3357
448.718 1088.72 3357
455.793 1086.45 3350
463.804 1086.45 3350
471.815 1086.45 3350
479.826 1086.45 3350
487.836 1086.45 3350
493.923 1082.23 3337
500.85 1079.96 3330
508.813 1079.96 3330
515.69 1077.69 3323
522.691 1075.75 3317
530.623 1075.75 3317
539.529 1077.69 3323
547.475 1077.69 3323
555.421 1077.69 3323
563.368 1077.69 3323
571.314 1077.69 3323
580.48 1079.96 3330
588.444 1079.96 3330
596.407 1079.96 3330
604.37 1079.96 3330
612.333 1079.96 3330
620.296 1079.96 3330
628.259 1079.96 3330
636.222 1079.96 3330
644.185 1079.96 3330
652.148 1079.96 3330
658.723 1077.69 3323
668.074 1079.96 3330
676.037 1079.96 3330
684 1079.96 3330
693.418 1082.23 3337
701.397 1082.23 3337
712.141 1086.45 3350
720.152 1086.45 3350
728.162 1086.45 3350
736.173 1086.45 3350
744.184 1086.45 3350
752.195 1086.45 3350
760.206 1086.45 3350
766.612 1084.18 3343
774.606 1084.18 3343
782.6 1084.18 3343
790.594 1084.18 3343
798.588 1084.18 3343
809.96 1088.72 3357
817.988 1088.72 3357
826.015 1088.72 3357
834.043 1088.72 3357
842.07 1088.72 3357
850.098 1088.72 3357
854.547 1084.18 3343
860.993 1082.23 3337
868.973 1082.23 3337
878.529 1084.18 3343
886.523 1084.18 3343
894.518 1084.18 3343
907.911 1090.67 3363
915.953 1090.67 3363
925.918 1092.94 3370
933.977 1092.94 3370
945.949 1097.48 3384
957.988 1102.02 3398
974.075 1111.1 3426
982.267 1111.1 3426
990.46 1111.1 3426
1000.69 1113.37 3433
1025.65 1131.85 3490
1034 1131.85 3490
1057.88 1148.72 3542
1077.79 1161.04 3580
1100.61 1176.29 3627
1109.28 1176.29 3627
1117.96 1176.29 3627
1124.14 1173.69 3619
1132.8 1173.69 3619
1141.45 1173.69 3619
1147.56 1171.1 3611
1153.64 1168.5 3603
1162.25 1168.5 3603
1168.27 1165.91 3595
1171.96 1161.04 3580
1180.52 1161.04 3580
1194.06 1165.91 3595
1202.66 1165.91 3595
1211.25 1165.91 3595
1219.85 1165.91 3595
1228.45 1165.91 3595
1237.04 1165.91 3595
1243.21 1163.64 3588
1243.77 1156.18 3565
1252.3 1156.18 3565
1260.82 1156.18 3565
1263.65 1150.99 3549
1272.13 1150.99 3549
1280.62 1150.99 3549
1289.11 1150.99 3549
1297.59 1150.99 3549
1300.56 1146.12 3534
1309.01 1146.12 3534
1331.63 1158.45 3572
1340.17 1158.45 3572
1348.71 1158.45 3572
1354.59 1156.18 3565
1363.12 1156.18 3565
1371.64 1156.18 3565
1380.17 1156.18 3565
1362.21 1134.13 3497
1370.57 1134.13 3497
1373.41 1129.58 3483
1381.74 1129.58 3483
1392.86 1131.85 3490
1401.21 1131.85 3490
1409.55 1131.85 3490
1415.06 1129.58 3483
1423.38 1129.58 3483
1425.55 1124.72 3468
1433.84 1124.72 3468
1424.67 1111.1 3426
1429.93 1108.83 3419
1435.16 1106.56 3412
1449.25 1111.1 3426
1457.44 1111.1 3426
1465.63 1111.1 3426
1467.8 1106.56 3412
1475.96 1106.56 3412
1481.07 1104.29 3405
1480.03 1097.48 3384
1473.17 1086.45 3350
1486.93 1090.67 3363
1498.09 1092.94 3370
1506.14 1092.94 3370
1551.95 1120.18 3454
1560.21 1120.18 3454
1568.46 1120.18 3454
1557.55 1106.56 3412
1562.5 1104.29 3405
1542.04 1084.18 3343
1550.04 1084.18 3343
1542.65 1073.48 3310
1547.29 1071.21 3303
1555.18 1071.21 3303
1563.08 1071.21 3303
1583.82 1079.96 3330
1591.79 1079.96 3330
1603.11 1082.23 3337
1613.99 1084.18 3343
1621.98 1084.18 3343
1629.98 1084.18 3343
1644.83 1088.72 3357
1652.86 1088.72 3357
1660.89 1088.72 3357
1652.01 1077.69 3323
1643.47 1066.99 3290
1622.73 1048.51 3233
1630.46 1048.51 3233
1632.11 1044.61 3221
1639.81 1044.61 3221
1640.87 1040.4 3208
1648.54 1040.4 3208
1656.21 1040.4 3208
1663.88 1040.4 3208
1668.43 1038.45 3202
1663.52 1030.67 3178
1671.12 1030.67 3178
1675.55 1028.72 3172
1676.77 1024.83 3160
1684.32 1024.83 3160
1691.88 1024.83 3160
1689.76 1018.99 3142
1697.27 1018.99 3142
1698.27 1015.1 3130
1705.76 1015.1 3130
1700.65 1007.64 3107
-2343.51 1022.6 3130
-2336.02 1022.6 3130
-2328.54 1022.6 3130
-2312.15 1018.68 3118
-2300.26 1016.72 3112
-2314.93 1026.52 3142
-2307.41 1026.52 3142
-2304.29 1028.48 3148
-2301.14 1030.44 3154
-2297.96 1032.4 3160
-2290.4 1032.4 3160
-2282.85 1032.4 3160
-2283.93 1036.32 3172
-2280.65 1038.28 3178
-2273.05 1038.28 3178
-2274.01 1042.2 3190
-2279.17 1048.08 3208
-2289.2 1056.25 3233
-2281.47 1056.25 3233
-2296.24 1066.71 3265
-2301.75 1072.91 3284
-2330.92 1090.23 3337
-2322.94 1090.23 3337
-2376.7 1119.31 3426
-2368.51 1119.31 3426
-2360.32 1119.31 3426
-2352.12 1119.31 3426
-2329.56 1112.44 3405
-2321.42 1112.44 3405
-2313.28 1112.44 3405
-2281.44 1101.01 3370
-2259.89 1094.48 3350
-2251.88 1094.48 3350
-2243.87 1094.48 3350
-2217.84 1085.65 3323
-2209.89 1085.65 3323
-2201.94 1085.65 3323
-2194 1085.65 3323
-2186.05 1085.65 3323
-2174.17 1083.69 3317
-2148.61 1074.87 3290
-2140.74 1074.87 3290
-2128.98 1072.91 3284
-2159.24 1092.19 3343
-2160.25 1096.76 3357
-2152.23 1096.76 3357
-2144.2 1096.76 3357
-2136.17 1096.76 3357
-2128.14 1096.76 3357
-2141.59 1107.87 3391
-2133.48 1107.87 3391
-2156.08 1123.88 3440
-2160.97 1130.74 3461
-2162.02 1135.64 3476
-2153.71 1135.64 3476
-2145.4 1135.64 3476
-2137.08 1135.64 3476
-2128.77 1135.64 3476
-2120.46 1135.64 3476
-2124.91 1142.5 3497
-2125.63 1147.4 3512
-2130.49 1154.59 3534
-2122.04 1154.59 3534
-2122.56 1159.49 3549
-2114.07 1159.49 3549
-2105.59 1159.49 3549
-2097.1 1159.49 3549
-2088.61 1159.49 3549
-2080.13 1159.49 3549
-2076.31 1162.1 3557
-2067.8 1162.1 3557
-2063.93 1164.72 3565
-2055.4 1164.72 3565
-2046.88 1164.72 3565
-2029.2 1159.49 3549
-2016.73 1157.2 3542
-2008.26 1157.2 3542
-2003.74 1159.49 3549
-1995.26 1159.49 3549
-1995.73 1164.72 3565
-1987.2 1164.72 3565
-1978.68 1164.72 3565
-1970.15 1164.72 3565
-1961.63 1164.72 3565
-1956.94 1167.01 3572
-1965.31 1177.13 3603
-1956.69 1177.13 3603
-1948.07 1177.13 3603
-1939.46 1177.13 3603
-1930.84 1177.13 3603
-1922.23 1177.13 3603
-1916.7 1200.66 3675
-1929.2 1214.05 3716
-1924.44 1216.67 3724
-1915.54 1216.67 3724
-1910.73 1219.28 3732
-1945.63 1247.38 3818
-1936.5 1247.38 3818
-1927.37 1247.38 3818
-1896.13 1233 3774
-1887.11 1233 3774
-1878.08 1233 3774
-1869.06 1233 3774
-1860.04 1233 3774
-1851.01 1233 3774
-1841.99 1233 3774
-1800.42 1211.11 3707
-1776.09 1200.66 3675
-1732.68 1177.13 3603
-1724.06 1177.13 3603
-1708.3 1172.23 3588
-1699.72 1172.23 3588
-1687.37 1169.62 3580
-1678.81 1169.62 3580
-1670.25 1169.62 3580
-1651.02 1162.1 3557
-1628.66 1152.3 3527
-1610.12 1145.12 3505
-1601.73 1145.12 3505
-1583.35 1137.93 3483
-1565.07 1130.74 3461
-1537.91 1117.02 3419
-1529.73 1117.02 3419
-1518.44 1114.73 3412
-1507.18 1112.44 3405
-1489.79 1105.58 3384
-1481.7 1105.58 3384
-1473.61 1105.58 3384
-1471.58 1110.16 3398
-1463.45 1110.16 3398
-1461.33 1114.73 3412
-1453.17 1114.73 3412
-1445.01 1114.73 3412
-1439.8 1117.02 3419
-1431.62 1117.02 3419
-1423.44 1117.02 3419
-1412.37 1114.73 3412
-1401.33 1112.44 3405
-1396.05 1114.73 3412
-1387.89 1114.73 3412
-1379.73 1114.73 3412
-1374.39 1117.02 3419
-1366.21 1117.02 3419
-1358.04 1117.02 3419
-1347.1 1114.73 3412
-1338.94 1114.73 3412
-1333.51 1117.02 3419
-1325.33 1117.02 3419
-1330.64 1128.45 3454
-1322.38 1128.45 3454
-1314.12 1128.45 3454
-1305.86 1128.45 3454
-1297.6 1128.45 3454
-1289.34 1128.45 3454
-1270.7 1119.31 3426
-1262.51 1119.31 3426
-1238.94 1105.58 3384
-1235.94 1110.16 3398
-1237.93 1119.31 3426
-1234.76 1123.88 3440
-1226.53 1123.88 3440
-1218.31 1123.88 3440
-1210.08 1123.88 3440
-1201.86 1123.88 3440
-1188.77 1119.31 3426
-1187.82 1126.17 3447
-1181.97 1128.45 3454
-1173.71 1128.45 3454
-1165.45 1128.45 3454
-1157.19 1128.45 3454
-1141.95 1121.59 3433
-1133.74 1121.59 3433
-567.845 565.86 1732
-563.703 565.86 1732
-559.562 565.86 1732
-556.061 566.514 1734
-552.551 567.167 1736
-549.032 567.821 1738
-544.876 567.821 1738
-540.72 567.821 1738
-537.181 568.474 1740
-533.02 568.474 1740
-528.859 568.474 1740
-525 568.801 1741
-520.837 568.801 1741
-516.674 568.801 1741
-512.216 568.474 1740
-507.471 567.821 1738
-503.315 567.821 1738
-499.159 567.821 1738
-494.433 567.167 1736
-490.282 567.167 1736
-485.57 566.514 1734
-481.424 566.514 1734
-477.277 566.514 1734
-473.677 567.167 1736
-470.066 567.821 1738
-465.91 567.821 1738
-461.754 567.821 1738
-458.125 568.474 1740
-454.225 568.801 1741
-450.578 569.454 1743
-446.41 569.454 1743
-443.765 571.414 1749
-440.085 572.068 1751
-437.64 574.355 1758
-433.436 574.355 1758
-430.209 575.662 1762
-427.688 577.949 1769
-424.415 579.255 1773
-420.176 579.255 1773
-416.405 579.909 1775
-412.16 579.909 1775
-407.916 579.909 1775
-403.671 579.909 1775
-399.427 579.909 1775
-394.292 578.602 1771
-389.176 577.295 1767
-384.95 577.295 1767
-380.294 576.642 1765
-375.008 575.008 1760
-369.956 573.701 1756
-365.757 573.701 1756
-360.735 572.395 1752
-354.713 569.454 1743
-350.143 568.801 1741
-345.98 568.801 1741
-340.442 566.514 1734
-335.714 565.534 1731
-330.042 562.92 1723
-325.922 562.92 1723
-321.241 561.94 1720
-316.76 561.286 1718
-312.105 560.306 1715
-308.004 560.306 1715
-303.549 559.653 1713
-299.453 559.653 1713
-295.356 559.653 1713
-291.77 560.633 1716
-288.002 561.286 1718
-283.894 561.286 1718
-280.111 561.94 1720
-276.319 562.593 1722
-272.675 563.573 1725
-268.55 563.573 1725
-265.039 564.88 1729
-261.357 565.86 1732
-258.403 568.474 1740
-254.242 568.474 1740
-251.087 570.761 1747
-248.182 573.701 1756
-244.955 575.988 1763
-240.739 575.988 1763
-237.865 579.255 1773
-235.075 582.849 1784
-231.585 584.81 1790
-227.304 584.81 1790
-224.27 588.077 1800
-220.21 588.73 1802
-216.26 589.71 1805
-211.944 589.71 1805
-207.858 590.364 1807
-204.438 592.977 1815
-200.098 592.977 1815
-195.757 592.977 1815
-191.839 594.284 1819
-188.108 596.244 1825
-184.348 598.205 1831
-179.969 598.205 1831
-175.782 598.858 1833
-171.586 599.511 1835
-167.38 600.165 1837
-162.988 600.165 1837
-159.89 605.065 1852
-155.461 605.065 1852
-151.032 605.065 1852
-146.604 605.065 1852
50.1578 1162.1 3557
58.6637 1162.1 3557
67.1695 1162.1 3557
75.9945 1167.01 3572
84.5363 1167.01 3572
93.078 1167.01 3572
245.793 1162.1 3557
254.299 1162.1 3557
262.804 1162.1 3557
271.31 1162.1 3557
279.187 1159.49 3549
287.674 1159.49 3549
296.16 1159.49 3549
304.647 1159.49 3549
311.81 1154.59 3534
320.261 1154.59 3534
330.851 1162.1 3557
339.357 1162.1 3557
350.895 1172.23 3588
359.475 1172.23 3588
368.055 1172.23 3588
374.955 1167.01 3572
381.028 1159.49 3549
380.624 1133.03 3468
383.422 1117.02 3419
391.598 1117.02 3419
398.137 1112.44 3405
404.609 1107.87 3391
411.866 1105.58 3384
419.958 1105.58 3384
428.05 1105.58 3384
435.24 1103.3 3377
441.478 1098.72 3363
449.52 1098.72 3363
456.745 1096.76 3357
464.773 1096.76 3357
472.801 1096.76 3357
480.828 1096.76 3357
487.836 1094.48 3350
493.923 1090.23 3337
500.85 1087.94 3330
508.813 1087.94 3330
515.69 1085.65 3323
522.691 1083.69 3317
530.623 1083.69 3317
539.529 1085.65 3323
547.475 1085.65 3323
555.421 1085.65 3323
563.368 1085.65 3323
571.314 1085.65 3323
580.48 1087.94 3330
588.444 1087.94 3330
596.407 1087.94 3330
604.37 1087.94 3330
612.333 1087.94 3330
620.296 1087.94 3330
628.259 1087.94 3330
636.222 1087.94 3330
644.185 1087.94 3330
652.148 1087.94 3330
658.723 1085.65 3323
668.074 1087.94 3330
676.037 1087.94 3330
684 1087.94 3330
693.418 1090.23 3337
704.13 1094.48 3350
712.141 1094.48 3350
720.152 1094.48 3350
728.162 1094.48 3350
737.712 1096.76 3357
745.739 1096.76 3357
753.767 1096.76 3357
760.206 1094.48 3350
768.217 1094.48 3350
776.228 1094.48 3350
785.877 1096.76 3357
793.905 1096.76 3357
801.932 1096.76 3357
811.408 1098.72 3363
819.45 1098.72 3363
827.492 1098.72 3363
834.043 1096.76 3357
842.07 1096.76 3357
850.098 1096.76 3357
856.336 1094.48 3350
860.993 1090.23 3337
868.973 1090.23 3337
878.529 1092.19 3343
886.523 1092.19 3343
894.518 1092.19 3343
907.911 1098.72 3363
915.953 1098.72 3363
925.918 1101.01 3370
933.977 1101.01 3370
945.949 1105.58 3384
957.988 1110.16 3398
974.075 1119.31 3426
982.267 1119.31 3426
990.46 1119.31 3426
1000.69 1121.59 3433
1025.65 1140.22 3490
1034 1140.22 3490
1057.88 1157.2 3542
1077.79 1169.62 3580
1100.61 1184.97 3627
1109.28 1184.97 3627
1117.96 1184.97 3627
1124.14 1182.36 3619
1132.8 1182.36 3619
1141.45 1182.36 3619
1147.56 1179.75 3611
1153.64 1177.13 3603
1162.25 1177.13 3603
1168.27 1174.52 3595
1171.96 1169.62 3580
1177.88 1167.01 3572
1186.42 1167.01 3572
1189.94 1162.1 3557
1201.15 1164.72 3565
1209.67 1164.72 3565
1218.2 1164.72 3565
1226.72 1164.72 3565
1232.47 1162.1 3557
1238.19 1159.49 3549
1241.41 1154.59 3534
1249.86 1154.59 3534
1250.47 1147.4 3512
1256.36 1145.12 3505
1261.86 1142.5 3497
1270.22 1142.5 3497
1278.58 1142.5 3497
1279.22 1135.64 3476
1290.12 1137.93 3483
1312.24 1150.02 3520
1320.66 1150.02 3520
1329.08 1150.02 3520
1337.12 1142.5 3497
1345.48 1142.5 3497
1353.84 1142.5 3497
1354.03 1135.64 3476
1353.72 1128.45 3454
1364.74 1130.74 3461
1373.01 1130.74 3461
1381.29 1130.74 3461
1389.56 1130.74 3461
1400.67 1133.03 3468
1408.96 1133.03 3468
1417.25 1133.03 3468
1408.28 1119.31 3426
1416.48 1119.31 3426
1421.76 1117.02 3419
1415.3 1105.58 3384
1423.39 1105.58 3384
1437.4 1110.16 3398
1445.53 1110.16 3398
1453.65 1110.16 3398
1455.76 1105.58 3384
1463.85 1105.58 3384
1462.81 1098.72 3363
1465.16 1094.48 3350
1470.09 1092.19 3343
1478.09 1092.19 3343
1529.2 1123.88 3440
1537.43 1123.88 3440
1564.98 1137.93 3483
1573.3 1137.93 3483
1581.63 1137.93 3483
1576.72 1128.45 3454
1534.05 1092.19 3343
1523.59 1079.12 3303
1531.49 1079.12 3303
1533.33 1074.87 3290
1541.2 1074.87 3290
1552.36 1077.16 3297
1560.24 1077.16 3297
1570.98 1079.12 3303
1578.88 1079.12 3303
1596.39 1085.65 3323
1607.71 1087.94 3330
1615.68 1087.94 3330
1623.64 1087.94 3330
1631.6 1087.94 3330
1639.56 1087.94 3330
1647.53 1087.94 3330
1649.03 1083.69 3317
1609 1052.33 3221
1616.71 1052.33 3221
1624.41 1052.33 3221
1628.56 1050.04 3214
1627.09 1044.16 3196
1637.8 1046.12 3202
1645.45 1046.12 3202
1653.11 1046.12 3202
1660.77 1046.12 3202
1659.05 1040.24 3184
1663.52 1038.28 3178
1671.12 1038.28 3178
1672.38 1034.36 3166
1676.77 1032.4 3160
1671.53 1024.56 3136
1679.03 1024.56 3136
1683.3 1022.6 3130
1690.79 1022.6 3130
1691.76 1018.68 3118
1699.22 1018.68 3118
1703.39 1016.72 3112
1701.49 1011.17 3095
-2343.51 1030.1 3130
-2336.02 1030.1 3130
-2328.54 1030.1 3130
-2312.15 1026.15 3118
-2300.26 1024.17 3112
-2314.93 1034.05 3142
-2307.41 1034.05 3142
-2299.9 1034.05 3142
-2296.76 1036.02 3148
-2293.6 1038 3154
-2286.06 1038 3154
-2278.51 1038 3154
-2275.29 1039.97 3160
-2272.04 1041.95 3166
-2264.47 1041.95 3166
-2265.45 1045.89 3178
-2270.64 1051.82 3196
-2280.7 1060.05 3221
-2273 1060.05 3221
-2287.1 1070.25 3252
-2301.75 1080.78 3284
-2302.98 1085.06 3297
-2295.09 1085.06 3297
-2287.21 1085.06 3297
-2353.99 1120.6 3405
-2345.85 1120.6 3405
-2337.71 1120.6 3405
-2329.56 1120.6 3405
-2302.33 1111.39 3377
-2294.26 1111.39 3377
-2286.18 1111.39 3377
-2255.17 1100.2 3343
-2238.44 1095.92 3330
-2230.47 1095.92 3330
-2222.51 1095.92 3330
-2223.19 1100.2 3343
-2215.2 1100.2 3343
-2207.2 1100.2 3343
-2190.66 1095.92 3330
-2174.17 1091.64 3317
-2153.18 1085.06 3297
-2145.3 1085.06 3297
-2125.09 1078.81 3278
-2121.13 1080.78 3284
-2134.51 1091.64 3317
-2126.58 1091.64 3317
-2118.65 1091.64 3317
-2110.72 1091.64 3317
-2098.35 1089.34 3310
-2132.75 1111.39 3377
-2124.67 1111.39 3377
-2151.69 1129.82 3433
-2170.33 1143.97 3476
