ply
format ascii 1.0
comment File generated
element vertex 2258
property float x
property float y
property float z
end_header
-427.486 1011.61 1841
-423.083 1011.61 1841
-418.681 1011.61 1841
-413.829 1010.51 1839
-409.431 1010.51 1839
-405.033 1010.51 1839
-400.636 1010.51 1839
-396.238 1010.51 1839
-391.841 1010.51 1839
-387.443 1010.51 1839
-383.045 1010.51 1839
-378.236 1009.42 1837
-372.215 1005.02 1829
-367.841 1005.02 1829
-363.468 1005.02 1829
-357.523 1000.62 1821
-353.169 1000.62 1821
-348.814 1000.62 1821
-344.46 1000.62 1821
-339.358 998.426 1817
-334.644 997.327 1815
-328.848 992.931 1807
-324.527 992.931 1807
-320.206 992.931 1807
-315.011 990.184 1802
-309.322 985.788 1794
-305.032 985.788 1794
-300.407 984.689 1792
-294.8 980.293 1784
-289.882 978.095 1780
-285.626 978.095 1780
-281.369 978.095 1780
-277.113 978.095 1780
-273.469 980.293 1784
-269.505 981.392 1786
-265.234 981.392 1786
-261.548 983.59 1790
-257.555 984.689 1792
-254.118 987.986 1798
-249.818 987.986 1798
-246.065 990.184 1802
-242.024 991.283 1804
-237.71 991.283 1804
-233.396 991.283 1804
-229.463 992.931 1807
-225.391 994.03 1809
-221.31 995.129 1811
-216.979 995.129 1811
-212.649 995.129 1811
-208.778 997.327 1815
-205.114 1000.62 1821
-200.98 1001.72 1823
-196.62 1001.72 1823
-192.472 1002.82 1825
-188.108 1002.82 1825
-183.744 1002.82 1825
-179.379 1002.82 1825
-187.159 1261.08 2295
-181.671 1261.08 2295
-176.183 1261.08 2295
-170.695 1261.08 2295
-164.487 1255.59 2285
-159.023 1255.59 2285
-153.559 1255.59 2285
-148.095 1255.59 2285
-142.818 1257.24 2288
-137.347 1257.24 2288
-132.279 1261.08 2295
-126.791 1261.08 2295
-121.62 1264.38 2301
-116.269 1266.03 2304
-110.76 1266.03 2304
-105.25 1266.03 2304
-100.043 1269.88 2311
-94.5172 1269.88 2311
-88.9909 1269.88 2311
-83.4646 1269.88 2311
-77.8034 1267.68 2307
-72.1926 1266.03 2304
-66.6831 1266.03 2304
-61.0142 1262.73 2298
-55.4465 1261.08 2295
-49.8061 1257.24 2288
-44.3348 1257.24 2288
-38.8635 1257.24 2288
-33.3922 1257.24 2288
-28.0429 1262.73 2298
-22.5477 1262.73 2298
-17.0525 1262.73 2298
-11.5573 1262.73 2298
-6.05413 1261.08 2295
-0.564362 1257.24 2288
4.90694 1257.24 2288
10.3374 1252.29 2279
15.7249 1247.35 2270
21.1531 1247.35 2270
26.6165 1248.99 2273
32.0519 1248.99 2273
37.4874 1248.99 2273
42.9228 1248.99 2273
48.3582 1248.99 2273
53.7937 1248.99 2273
59.0727 1245.7 2267
64.4938 1245.7 2267
69.9149 1245.7 2267
75.336 1245.7 2267
80.7571 1245.7 2267
86.1782 1245.7 2267
91.5993 1245.7 2267
97.0203 1245.7 2267
101.854 1238.55 2254
107.244 1238.55 2254
112.634 1238.55 2254
118.024 1238.55 2254
122.921 1233.61 2245
128.118 1231.96 2242
133.301 1230.31 2239
138.655 1230.31 2239
143.43 1225.37 2230
148.763 1225.37 2230
154.096 1225.37 2230
159.428 1225.37 2230
164.761 1225.37 2230
171.009 1231.96 2242
176.842 1235.26 2248
182.947 1240.2 2257
188.344 1240.2 2257
193.741 1240.2 2257
199.139 1240.2 2257
204.536 1240.2 2257
209.933 1240.2 2257
214.758 1236.91 2251
219.847 1235.26 2248
225.223 1235.26 2248
230.598 1235.26 2248
235.974 1235.26 2248
241.994 1238.55 2254
247.713 1240.2 2257
253.895 1244.05 2264
259.309 1244.05 2264
265.074 1245.7 2267
270.495 1245.7 2267
275.916 1245.7 2267
281.337 1245.7 2267
286.758 1245.7 2267
292.179 1245.7 2267
297.6 1245.7 2267
303.022 1245.7 2267
308.851 1247.35 2270
314.279 1247.35 2270
319.707 1247.35 2270
325.136 1247.35 2270
331.874 1252.29 2279
338.212 1255.59 2285
344.729 1259.43 2292
350.21 1259.43 2292
355.691 1259.43 2292
361.172 1259.43 2292
366.653 1259.43 2292
372.134 1259.43 2292
377.614 1259.43 2292
383.095 1259.43 2292
389.085 1261.08 2295
395.089 1262.73 2298
400.584 1262.73 2298
407.139 1266.03 2304
413.903 1269.88 2311
419.973 1271.52 2314
425.507 1271.52 2314
432.717 1276.47 2323
438.272 1276.47 2323
443.827 1276.47 2323
449.382 1276.47 2323
453.762 1273.17 2317
458.113 1269.88 2311
463.639 1269.88 2311
469.166 1269.88 2311
474.692 1269.88 2311
480.218 1269.88 2311
485.745 1269.88 2311
489.145 1264.38 2301
494.647 1264.38 2301
499.498 1262.73 2298
504.993 1262.73 2298
510.488 1262.73 2298
515.983 1262.73 2298
520.798 1261.08 2295
526.286 1261.08 2295
531.774 1261.08 2295
536.56 1259.43 2292
541.094 1257.24 2288
544.416 1252.29 2279
549.866 1252.29 2279
553.853 1248.99 2273
559.289 1248.99 2273
565.47 1250.64 2276
571.665 1252.29 2279
577.115 1252.29 2279
582.564 1252.29 2279
588.014 1252.29 2279
593.464 1252.29 2279
597.337 1248.99 2273
602.772 1248.99 2273
610.616 1253.94 2282
616.883 1255.59 2285
622.347 1255.59 2285
627.811 1255.59 2285
633.275 1255.59 2285
638.739 1255.59 2285
643.358 1253.94 2282
647.962 1252.29 2279
651.691 1248.99 2273
656.259 1247.35 2270
661.688 1247.35 2270
666.234 1245.7 2267
668.693 1240.2 2257
674.09 1240.2 2257
681.594 1244.05 2264
687.008 1244.05 2264
692.422 1244.05 2264
699.685 1247.35 2270
706.977 1250.64 2276
712.42 1250.64 2276
717.863 1250.64 2276
722.352 1248.99 2273
727.787 1248.99 2273
733.223 1248.99 2273
738.658 1248.99 2273
744.094 1248.99 2273
749.529 1248.99 2273
754.964 1248.99 2273
760.4 1248.99 2273
765.835 1248.99 2273
773.307 1252.29 2279
783.199 1259.43 2292
788.679 1259.43 2292
795.2 1261.08 2295
800.688 1261.08 2295
806.176 1261.08 2295
811.664 1261.08 2295
812.523 1253.94 2282
815.829 1250.64 2276
821.272 1250.64 2276
821.266 1242.4 2261
817.532 1228.66 2236
821.775 1227.01 2233
830.449 1231.96 2242
835.81 1231.96 2242
841.171 1231.96 2242
846.533 1231.96 2242
853.034 1233.61 2245
858.402 1233.61 2245
863.771 1233.61 2245
869.139 1233.61 2245
874.508 1233.61 2245
879.876 1233.61 2245
884.062 1231.96 2242
889.423 1231.96 2242
893.587 1230.31 2239
898.941 1230.31 2239
903.084 1228.66 2236
908.431 1228.66 2236
916.23 1231.96 2242
922.824 1233.61 2245
928.193 1233.61 2245
934.808 1235.26 2248
942.694 1238.55 2254
948.084 1238.55 2254
953.474 1238.55 2254
961.841 1242.4 2261
967.248 1242.4 2261
972.655 1242.4 2261
978.062 1242.4 2261
981.728 1240.2 2257
987.126 1240.2 2257
995.601 1244.05 2264
1001.01 1244.05 2264
1006.43 1244.05 2264
1011.84 1244.05 2264
1017.26 1244.05 2264
1022.67 1244.05 2264
1028.08 1244.05 2264
1034.87 1245.7 2267
1040.29 1245.7 2267
1047.09 1247.35 2270
1052.52 1247.35 2270
1057.95 1247.35 2270
1060.57 1244.05 2264
1065.98 1244.05 2264
1069.98 1242.4 2261
1069.2 1235.26 2248
1067.41 1227.01 2233
1066.98 1220.42 2221
1072.29 1220.42 2221
1076.15 1218.77 2218
1079.01 1216.02 2213
1084.3 1216.02 2213
1089.6 1216.02 2213
1091.92 1212.73 2207
1095.71 1211.08 2204
1097.98 1207.78 2198
1103.24 1207.78 2198
1108.49 1207.78 2198
1113.75 1207.78 2198
1119 1207.78 2198
1124.26 1207.78 2198
1129.52 1207.78 2198
1134.77 1207.78 2198
1143.14 1211.08 2204
1148.41 1211.08 2204
1155.25 1212.73 2207
1160.53 1212.73 2207
1173.2 1220.42 2221
1184.88 1227.01 2233
1191.82 1228.66 2236
1197.17 1228.66 2236
1202.51 1228.66 2236
1207.86 1228.66 2236
1213.21 1228.66 2236
1218.55 1228.66 2236
1227.19 1231.96 2242
1242.99 1242.4 2261
1248.4 1242.4 2261
1253.81 1242.4 2261
1259.21 1242.4 2261
1255.67 1233.61 2245
1266.09 1238.55 2254
1271.48 1238.55 2254
1284.24 1245.7 2267
1294.78 1250.64 2276
1301.94 1252.29 2279
1307.39 1252.29 2279
1312.83 1252.29 2279
1309.61 1244.05 2264
1310.96 1240.2 2257
1316.35 1240.2 2257
1319.99 1238.55 2254
1325.38 1238.55 2254
1336.68 1244.05 2264
1347.43 1248.99 2273
1352.86 1248.99 2273
1360.09 1250.64 2276
1370.93 1255.59 2285
1376.4 1255.59 2285
1381.86 1255.59 2285
1378.22 1247.35 2270
1383.65 1247.35 2270
1389.07 1247.35 2270
1394.5 1247.35 2270
1399.93 1247.35 2270
1401.64 1244.05 2264
1397.11 1235.26 2248
1402.49 1235.26 2248
1407.87 1235.26 2248
1413.24 1235.26 2248
1418.62 1235.26 2248
1434.13 1244.05 2264
1439.54 1244.05 2264
1444.96 1244.05 2264
1450.37 1244.05 2264
1455.78 1244.05 2264
1461.2 1244.05 2264
1454.3 1233.61 2245
1459.67 1233.61 2245
1465.04 1233.61 2245
1468.44 1231.96 2242
1458.03 1218.77 2218
1460.03 1216.02 2213
1463.34 1214.38 2210
1468.62 1214.38 2210
1473.91 1214.38 2210
1492.58 1225.37 2230
1505.97 1231.96 2242
1511.33 1231.96 2242
1516.7 1231.96 2242
1502.37 1216.02 2213
1495.4 1206.13 2195
1500.65 1206.13 2195
1499.72 1201.19 2186
1503.57 1200.09 2184
1504.65 1196.79 2178
1509.86 1196.79 2178
1519.24 1200.09 2184
1524.46 1200.09 2184
1529.68 1200.09 2184
1540.53 1204.49 2192
1545.77 1204.49 2192
1551.01 1204.49 2192
1564.77 1211.08 2204
1582.16 1220.42 2221
1600.33 1230.31 2239
1605.69 1230.31 2239
1613.2 1231.96 2242
1618.56 1231.96 2242
1623.92 1231.96 2242
1629.28 1231.96 2242
1625.89 1225.37 2230
1626.84 1222.07 2224
1632.16 1222.07 2224
1650.73 1231.96 2242
1656.09 1231.96 2242
1663.67 1233.61 2245
1683.17 1244.05 2264
1688.58 1244.05 2264
1694 1244.05 2264
1717.42 1257.24 2288
1722.9 1257.24 2288
1728.37 1257.24 2288
-1720.57 1268.24 2298
-1715.07 1268.24 2298
-1702.14 1262.72 2288
-1696.67 1262.72 2288
-1686.76 1259.41 2282
-1672.46 1252.78 2270
-1664.83 1251.13 2267
-1659.41 1251.13 2267
-1640.13 1240.64 2248
-1621.66 1230.71 2230
-1601.83 1219.67 2210
-1596.55 1219.67 2210
-1563.9 1198.7 2172
-1542.92 1186.56 2150
-1537.78 1186.56 2150
-1532.64 1186.56 2150
-1541 1197.04 2169
-1535.81 1197.04 2169
-1530.62 1197.04 2169
-1504.34 1180.49 2139
-1512.54 1190.97 2158
-1507.38 1190.97 2158
-1502.22 1190.97 2158
-1493.59 1188.21 2153
-1488.44 1188.21 2153
-1483.29 1188.21 2153
-1470.59 1182.14 2142
-1485.99 1198.7 2172
-1500.57 1214.7 2201
-1495.31 1214.7 2201
-1505.62 1227.4 2224
-1514.46 1238.99 2245
-1517.16 1245.61 2257
-1511.76 1245.61 2257
-1521.05 1257.75 2279
-1532.23 1271.55 2304
-1526.72 1271.55 2304
-1525.83 1275.41 2311
-1520.3 1275.41 2311
-1514.78 1275.41 2311
-1502.72 1269.89 2301
-1497.22 1269.89 2301
-1495.6 1273.2 2307
-1490.09 1273.2 2307
-1484.57 1273.2 2307
-1479.05 1273.2 2307
-1473.54 1273.2 2307
-1468.02 1273.2 2307
-1462.5 1273.2 2307
-1461.41 1277.07 2314
-1455.87 1277.07 2314
-1450.34 1277.07 2314
-1444.81 1277.07 2314
-1439.27 1277.07 2314
-1433.74 1277.07 2314
-1428.21 1277.07 2314
-1422.67 1277.07 2314
-1411.02 1271.55 2304
-1393.92 1261.06 2285
-1386.63 1259.41 2282
-1381.17 1259.41 2282
-1364.86 1249.47 2264
-1355.25 1245.61 2257
-1340.88 1237.33 2242
-1335.52 1237.33 2242
-1324.82 1232.36 2233
-1310.61 1224.09 2218
-1290.01 1209.74 2192
-1284.77 1209.74 2192
-1257.93 1189.32 2155
-1246.38 1183.25 2144
-1238.36 1180.49 2139
-1233.24 1180.49 2139
-1228.13 1180.49 2139
-1223.01 1180.49 2139
-1216.19 1178.83 2136
-1211.08 1178.83 2136
-1205.97 1178.83 2136
-1200.87 1178.83 2136
-1197.44 1180.49 2139
-1198.45 1186.56 2150
-1199.42 1192.63 2161
-1194.25 1192.63 2161
-1190.73 1194.28 2164
-1189.94 1198.7 2172
-1189.66 1203.67 2181
-1184.44 1203.67 2181
-1180.85 1205.32 2184
-1179.93 1209.74 2192
-1179.51 1214.7 2201
-1174.25 1214.7 2201
-1181.2 1227.4 2224
-1175.88 1227.4 2224
-1170.57 1227.4 2224
-1169.96 1232.36 2233
-1164.62 1232.36 2233
-1159.28 1232.36 2233
-1153.94 1232.36 2233
-1148.6 1232.36 2233
-1143.26 1232.36 2233
-1137.92 1232.36 2233
-1132.58 1232.36 2233
-1122.7 1227.4 2224
-1112.86 1222.43 2215
-1100.56 1214.7 2201
-1095.3 1214.7 2201
-1085.58 1209.74 2192
-1080.34 1209.74 2192
-1075.1 1209.74 2192
-1072.78 1213.05 2198
-1067.53 1213.05 2198
-1062.27 1213.05 2198
-1057.02 1213.05 2198
-1051.76 1213.05 2198
-1046.5 1213.05 2198
-1046.93 1219.67 2210
-1049.66 1229.05 2227
-1048.55 1234.02 2236
-1043.21 1234.02 2236
-1039.25 1235.68 2239
-1036.67 1238.99 2245
-1031.3 1238.99 2245
-1025.93 1238.99 2245
-1019.2 1237.33 2242
-1013.84 1237.33 2242
-1008.48 1237.33 2242
-1003.12 1237.33 2242
-1004.43 1245.61 2257
-1002.13 1249.47 2264
-1002 1256.09 2276
-996.558 1256.09 2276
-991.116 1256.09 2276
-985.673 1256.09 2276
-982.815 1259.41 2282
-977.358 1259.41 2282
-971.901 1259.41 2282
-966.444 1259.41 2282
-960.987 1259.41 2282
-954.274 1257.75 2279
-945.077 1252.78 2270
-934.267 1245.61 2257
-928.87 1245.61 2257
-921.018 1242.3 2251
-911.974 1237.33 2242
-905.4 1235.68 2239
-900.046 1235.68 2239
-894.692 1235.68 2239
-894.104 1242.3 2251
-891.09 1245.61 2257
-888.44 1249.47 2264
-883.026 1249.47 2264
-877.612 1249.47 2264
-868.346 1243.95 2254
-862.956 1243.95 2254
-858.707 1245.61 2257
-853.31 1245.61 2257
-847.913 1245.61 2257
-842.515 1245.61 2257
-839.715 1249.47 2264
-834.301 1249.47 2264
-833.28 1256.09 2276
-827.837 1256.09 2276
-825.647 1261.06 2285
-820.183 1261.06 2285
-817.214 1264.93 2292
-815.984 1271.55 2304
-810.474 1271.55 2304
-804.964 1271.55 2304
-800.496 1273.2 2307
-794.979 1273.2 2307
-789.462 1273.2 2307
-783.946 1273.2 2307
-778.429 1273.2 2307
-772.912 1273.2 2307
-767.395 1273.2 2307
-761.879 1273.2 2307
-755.378 1271.55 2304
-748.892 1269.89 2301
-743.39 1269.89 2301
-737.888 1269.89 2301
-732.385 1269.89 2301
-727.831 1271.55 2304
-727.337 1280.38 2320
-721.789 1280.38 2320
-729.517 1304.11 2363
-724.785 1305.76 2366
-719.127 1305.76 2366
-713.469 1305.76 2366
-536.378 1013.82 1837
-532.564 1014.92 1839
-528.166 1014.92 1839
-523.769 1014.92 1839
-519.936 1016.02 1841
-515.534 1016.02 1841
-511.131 1016.02 1841
-506.729 1016.02 1841
-502.326 1016.02 1841
-497.924 1016.02 1841
-493.522 1016.02 1841
-488.588 1014.92 1839
-484.19 1014.92 1839
-480.315 1016.02 1841
-476.429 1017.13 1843
-472.022 1017.13 1843
-467.615 1017.13 1843
-463.208 1017.13 1843
-458.8 1017.13 1843
-454.393 1017.13 1843
-449.986 1017.13 1843
-445.579 1017.13 1843
-441.172 1017.13 1843
-436.765 1017.13 1843
-432.357 1017.13 1843
-427.486 1016.02 1841
-423.083 1016.02 1841
-418.681 1016.02 1841
-413.829 1014.92 1839
-409.431 1014.92 1839
-405.033 1014.92 1839
-400.636 1014.92 1839
-396.238 1014.92 1839
-391.841 1014.92 1839
-387.443 1014.92 1839
-383.045 1014.92 1839
-378.236 1013.82 1837
-372.215 1009.4 1829
-367.841 1009.4 1829
-363.468 1009.4 1829
-357.916 1006.09 1823
-353.169 1004.99 1821
-348.814 1004.99 1821
-344.46 1004.99 1821
-339.358 1002.78 1817
-334.644 1001.67 1815
-329.212 998.364 1809
-324.886 998.364 1809
-320.206 997.26 1807
-315.011 994.5 1802
-309.322 990.085 1794
-305.032 990.085 1794
-300.407 988.982 1792
-295.13 985.67 1786
-289.882 982.359 1780
-285.626 982.359 1780
-281.369 982.359 1780
-277.113 982.359 1780
-273.469 984.567 1784
-269.807 986.774 1788
-265.531 986.774 1788
-261.84 988.982 1792
-257.842 990.085 1794
-254.4 993.397 1800
-250.096 993.397 1800
-246.065 994.5 1802
-242.024 995.604 1804
-237.71 995.604 1804
-233.396 995.604 1804
-229.463 997.26 1807
-225.391 998.364 1809
-221.31 999.467 1811
-216.979 999.467 1811
-212.649 999.467 1811
-208.778 1001.67 1815
-205.114 1004.99 1821
-200.98 1006.09 1823
-196.62 1006.09 1823
-192.472 1007.19 1825
-188.108 1007.19 1825
-183.744 1007.19 1825
-179.379 1007.19 1825
-187.159 1266.58 2295
-181.671 1266.58 2295
-176.183 1266.58 2295
-170.695 1266.58 2295
-164.487 1261.06 2285
-159.023 1261.06 2285
-153.559 1261.06 2285
-148.095 1261.06 2285
-142.818 1262.72 2288
-137.347 1262.72 2288
-132.279 1266.58 2295
-126.791 1266.58 2295
-121.62 1269.89 2301
-116.269 1271.55 2304
-110.76 1271.55 2304
-105.25 1271.55 2304
-100.043 1275.41 2311
-94.5172 1275.41 2311
-88.9909 1275.41 2311
-82.6339 1262.72 2288
-77.0614 1261.06 2285
-71.5973 1261.06 2285
-66.1332 1261.06 2285
-60.5097 1257.75 2279
-55.0599 1257.75 2279
-49.4795 1254.44 2273
-44.0441 1254.44 2273
-38.7106 1257.75 2279
-33.2608 1257.75 2279
-27.8843 1261.06 2285
-22.4888 1264.93 2292
-17.0079 1264.93 2292
-11.5271 1264.93 2292
-6.03566 1262.72 2288
-0.562142 1257.75 2279
4.88764 1257.75 2279
10.2966 1252.78 2270
15.6833 1249.47 2264
21.0692 1247.82 2261
26.476 1247.82 2261
31.8263 1245.61 2257
37.1245 1242.3 2251
42.5074 1242.3 2251
47.8902 1242.3 2251
53.273 1242.3 2251
58.5776 1240.64 2248
63.7826 1237.33 2242
69.1439 1237.33 2242
74.4055 1235.68 2239
79.7596 1235.68 2239
85.1138 1235.68 2239
90.4679 1235.68 2239
95.822 1235.68 2239
100.905 1232.36 2233
105.959 1229.05 2227
111.285 1229.05 2227
116.61 1229.05 2227
121.607 1225.74 2221
126.918 1225.74 2221
132.229 1225.74 2221
137.54 1225.74 2221
142.337 1221.33 2213
147.962 1224.09 2218
153.266 1224.09 2218
159.214 1229.05 2227
164.539 1229.05 2227
169.865 1229.05 2227
175.662 1232.36 2233
182.218 1240.64 2248
187.593 1240.64 2248
192.969 1240.64 2248
198.345 1240.64 2248
203.72 1240.64 2248
209.096 1240.64 2248
214.471 1240.64 2248
218.674 1234.02 2236
224.021 1234.02 2236
230.291 1238.99 2245
235.659 1238.99 2245
241.35 1240.64 2248
247.384 1243.95 2254
253.11 1245.61 2257
258.508 1245.61 2257
265.074 1251.13 2267
270.495 1251.13 2267
275.916 1251.13 2267
281.337 1251.13 2267
286.758 1251.13 2267
291.793 1249.47 2264
297.207 1249.47 2264
302.621 1249.47 2264
308.443 1251.13 2267
313.864 1251.13 2267
319.285 1251.13 2267
324.706 1251.13 2267
330.564 1252.78 2270
336.436 1254.44 2273
342.323 1256.09 2276
347.765 1256.09 2276
353.208 1256.09 2276
358.651 1256.09 2276
364.093 1256.09 2276
369.049 1254.44 2273
374.484 1254.44 2273
379.92 1254.44 2273
385.355 1254.44 2273
391.822 1257.75 2279
397.272 1257.75 2279
403.252 1259.41 2282
410.5 1264.93 2292
417.069 1268.24 2298
422.565 1268.24 2298
428.06 1268.24 2298
433.555 1268.24 2298
439.05 1268.24 2298
443.965 1266.58 2295
449.453 1266.58 2295
454.941 1266.58 2295
461.031 1268.24 2298
466.526 1268.24 2298
472.638 1269.89 2301
478.14 1269.89 2301
483.643 1269.89 2301
489.145 1269.89 2301
494.002 1268.24 2298
498.846 1266.58 2295
504.334 1266.58 2295
509.155 1264.93 2292
514.636 1264.93 2292
520.117 1264.93 2292
525.598 1264.93 2292
531.079 1264.93 2292
536.56 1264.93 2292
541.094 1262.72 2288
544.416 1257.75 2279
549.866 1257.75 2279
553.853 1254.44 2273
558.551 1252.78 2270
563.979 1252.78 2270
570.16 1254.44 2273
575.595 1254.44 2273
581.031 1254.44 2273
586.466 1254.44 2273
591.901 1254.44 2273
596.548 1252.78 2270
601.977 1252.78 2270
608.208 1254.44 2273
613.643 1254.44 2273
619.079 1254.44 2273
624.514 1254.44 2273
627.455 1249.47 2264
632.869 1249.47 2264
638.283 1249.47 2264
642.844 1247.82 2261
644.523 1240.64 2248
649.899 1240.64 2248
655.275 1240.64 2248
659.769 1238.99 2245
664.248 1237.33 2242
669.61 1237.33 2242
674.971 1237.33 2242
680.332 1237.33 2242
685.694 1237.33 2242
692.904 1240.64 2248
699.212 1242.3 2251
704.595 1242.3 2251
710.924 1243.95 2254
716.314 1243.95 2254
721.704 1243.95 2254
727.094 1243.95 2254
733.459 1245.61 2257
740.165 1247.82 2261
746.561 1249.47 2264
751.975 1249.47 2264
757.389 1249.47 2264
761.792 1247.82 2261
767.199 1247.82 2261
777.731 1256.09 2276
783.174 1256.09 2276
788.616 1256.09 2276
794.059 1256.09 2276
799.502 1256.09 2276
803.883 1254.44 2273
808.251 1252.78 2270
806.868 1242.3 2251
812.251 1242.3 2251
811.096 1232.36 2233
810.951 1224.09 2218
818.463 1227.4 2224
826.004 1230.71 2230
831.336 1230.71 2230
837.795 1232.36 2233
843.134 1232.36 2233
848.474 1232.36 2233
853.814 1232.36 2233
859.154 1232.36 2233
865.655 1234.02 2236
871.002 1234.02 2236
876.349 1234.02 2236
881.696 1234.02 2236
887.043 1234.02 2236
886.403 1225.74 2221
891.714 1225.74 2221
897.025 1225.74 2221
905.993 1230.71 2230
911.326 1230.71 2230
916.658 1230.71 2230
921.991 1230.71 2230
932.313 1237.33 2242
937.675 1237.33 2242
943.036 1237.33 2242
948.397 1237.33 2242
953.759 1237.33 2242
959.12 1237.33 2242
967.062 1240.64 2248
972.438 1240.64 2248
977.814 1240.64 2248
983.189 1240.64 2248
989.884 1242.3 2251
995.267 1242.3 2251
1000.65 1242.3 2251
1007.37 1243.95 2254
1014.11 1245.61 2257
1019.51 1245.61 2257
1024.91 1245.61 2257
1032.13 1247.82 2261
1037.54 1247.82 2261
1042.94 1247.82 2261
1048.35 1247.82 2261
1053.76 1247.82 2261
1057.29 1245.61 2257
1062.69 1245.61 2257
1063.82 1240.64 2248
1062.07 1232.36 2233
1063.1 1227.4 2224
1064.1 1222.43 2215
1069.39 1222.43 2215
1073.72 1221.33 2213
1077.55 1219.67 2210
1078.43 1214.7 2201
1083.69 1214.7 2201
1085.98 1211.39 2195
1089.74 1209.74 2192
1091.98 1206.43 2186
1097.21 1206.43 2186
1102.44 1206.43 2186
1107.67 1206.43 2186
1112.89 1206.43 2186
1118.12 1206.43 2186
1123.35 1206.43 2186
1128.58 1206.43 2186
1132.77 1205.32 2184
1137.99 1205.32 2184
1144.26 1206.43 2186
1149.49 1206.43 2186
1154.71 1206.43 2186
1159.94 1206.43 2186
1165.17 1206.43 2186
1170.4 1206.43 2186
1175.62 1206.43 2186
1180.85 1206.43 2186
1206.7 1227.4 2224
1212.01 1227.4 2224
1218.97 1229.05 2227
1227.6 1232.36 2233
1232.94 1232.36 2233
1238.28 1232.36 2233
1240.28 1229.05 2227
1245.6 1229.05 2227
1250.93 1229.05 2227
1254.56 1227.4 2224
1273.47 1240.64 2248
1282.26 1243.95 2254
1287.65 1243.95 2254
1293.04 1243.95 2254
1296.71 1242.3 2251
1302.09 1242.3 2251
1307.47 1242.3 2251
1312.85 1242.3 2251
1298.91 1224.09 2218
1313.04 1232.36 2233
1330.77 1243.95 2254
1340.31 1247.82 2261
1345.72 1247.82 2261
1352.92 1249.47 2264
1358.33 1249.47 2264
1363.75 1249.47 2264
1369.16 1249.47 2264
1372.75 1247.82 2261
1378.16 1247.82 2261
1383.57 1247.82 2261
1388.97 1247.82 2261
1384.51 1238.99 2245
1380.59 1230.71 2230
1385.93 1230.71 2230
1391.26 1230.71 2230
1396.59 1230.71 2230
1413.24 1240.64 2248
1418.62 1240.64 2248
1432.23 1247.82 2261
1437.63 1247.82 2261
1444.96 1249.47 2264
1450.37 1249.47 2264
1455.78 1249.47 2264
1461.2 1249.47 2264
1454.3 1238.99 2245
1459.67 1238.99 2245
1465.04 1238.99 2245
1468.44 1237.33 2242
1458.03 1224.09 2218
1460.03 1221.33 2213
1463.34 1219.67 2210
1468.62 1219.67 2210
1473.91 1219.67 2210
1492.58 1230.71 2230
1505.97 1237.33 2242
1511.33 1237.33 2242
1516.7 1237.33 2242
1502.37 1221.33 2213
1495.4 1211.39 2195
1500.65 1211.39 2195
1499.72 1206.43 2186
1503.57 1205.32 2184
1504.65 1202.01 2178
1509.86 1202.01 2178
1519.24 1205.32 2184
1524.46 1205.32 2184
1529.68 1205.32 2184
1540.53 1209.74 2192
1545.77 1209.74 2192
1551.01 1209.74 2192
1564.77 1216.36 2204
1582.16 1225.74 2221
1600.33 1235.68 2239
1605.69 1235.68 2239
1613.2 1237.33 2242
1618.56 1237.33 2242
1623.92 1237.33 2242
1629.28 1237.33 2242
1625.89 1230.71 2230
1626.84 1227.4 2224
1632.16 1227.4 2224
1650.73 1237.33 2242
1656.09 1237.33 2242
1663.67 1238.99 2245
1683.17 1249.47 2264
1688.58 1249.47 2264
1694 1249.47 2264
1717.42 1262.72 2288
1722.9 1262.72 2288
1728.37 1262.72 2288
1674.73 1219.67 2210
1680.01 1219.67 2210
1685.3 1219.67 2210
1690.58 1219.67 2210
-1720.57 1273.74 2298
-1715.07 1273.74 2298
-1702.14 1268.2 2288
-1696.67 1268.2 2288
-1686.76 1264.87 2282
-1672.46 1258.22 2270
-1664.83 1256.56 2267
-1659.41 1256.56 2267
-1640.13 1246.03 2248
-1621.66 1236.05 2230
-1601.83 1224.96 2210
-1596.55 1224.96 2210
-1563.9 1203.9 2172
-1545.07 1193.37 2153
-1537.78 1191.71 2150
-1532.64 1191.71 2150
-1531.05 1194.48 2155
-1525.9 1194.48 2155
-1520.74 1194.48 2155
-1504.34 1185.61 2139
-1512.54 1196.14 2158
-1507.38 1196.14 2158
-1502.22 1196.14 2158
-1493.59 1193.37 2153
-1488.44 1193.37 2153
-1483.29 1193.37 2153
-1470.59 1187.27 2142
-1476.42 1196.14 2158
-1477.39 1201.13 2167
-1472.21 1201.13 2167
-1476.51 1208.89 2181
-1476.69 1213.32 2189
-1485.57 1224.96 2210
-1480.28 1224.96 2210
-1480.34 1229.4 2218
-1485.01 1237.71 2233
-1487.62 1244.36 2245
-1482.25 1244.36 2245
-1476.88 1244.36 2245
-1471.52 1244.36 2245
-1466.15 1244.36 2245
-1460.78 1244.36 2245
-1479.4 1264.87 2282
-1482.34 1272.08 2295
-1476.85 1272.08 2295
-1475.21 1275.4 2301
-1469.71 1275.4 2301
-1464.2 1275.4 2301
-1454.9 1272.08 2295
-1449.41 1272.08 2295
-1449.58 1277.07 2304
-1445.95 1278.73 2307
-1440.44 1278.73 2307
-1434.92 1278.73 2307
-1427.54 1277.07 2304
-1422.04 1277.07 2304
-1416.53 1277.07 2304
-1405.5 1272.08 2295
-1393.92 1266.54 2285
-1375.69 1254.9 2264
-1370.28 1254.9 2264
-1360.64 1251.02 2257
-1346.24 1242.7 2242
-1335.5 1237.71 2233
-1330.16 1237.71 2233
-1315.92 1229.4 2218
-1295.25 1214.99 2192
-1278.24 1203.9 2172
-1273.04 1203.9 2172
-1253.26 1190.04 2147
-1238.82 1181.18 2131
-1231.99 1179.51 2128
-1228.63 1181.18 2131
-1223.53 1181.18 2131
-1218.44 1181.18 2131
-1213.34 1181.18 2131
-1208.25 1181.18 2131
-1203.15 1181.18 2131
-1198.05 1181.18 2131
-1195.76 1183.95 2136
-1196.78 1190.04 2147
-1193.31 1191.71 2150
-1188.17 1191.71 2150
-1189.08 1197.8 2161
-1188.3 1202.24 2169
-1184.75 1203.9 2172
-1179.55 1203.9 2172
-1179.23 1208.89 2181
-1175.62 1210.55 2184
-1176.3 1216.65 2195
-1171.05 1216.65 2195
-1173.77 1224.96 2210
-1174.3 1231.06 2221
-1168.99 1231.06 2221
-1166.82 1234.39 2227
-1161.49 1234.39 2227
-1160.84 1239.38 2236
-1155.49 1239.38 2236
-1150.15 1239.38 2236
-1144.8 1239.38 2236
-1137.92 1237.71 2233
-1132.58 1237.71 2233
-1124.22 1234.39 2227
-1111.86 1226.63 2213
-1097.56 1216.65 2195
-1092.31 1216.65 2195
-1085.58 1214.99 2192
-1080.34 1214.99 2192
-1075.1 1214.99 2192
-1069.85 1214.99 2192
-1064.61 1214.99 2192
-1060.82 1216.65 2195
-1055.57 1216.65 2195
-1050.32 1216.65 2195
-1045.07 1216.65 2195
-1038.4 1214.99 2192
-1041.65 1224.96 2210
-1036.36 1224.96 2210
-1031.08 1224.96 2210
-1030.9 1231.06 2221
-1025.59 1231.06 2221
-1020.28 1231.06 2221
-1014.96 1231.06 2221
-1009.65 1231.06 2221
-1002.99 1229.4 2218
-1004.43 1237.71 2233
-999.09 1237.71 2233
-996.42 1241.04 2239
-999.033 1251.02 2257
-993.636 1251.02 2257
-988.239 1251.02 2257
-991.116 1261.55 2276
-985.673 1261.55 2276
-980.23 1261.55 2276
-973.503 1259.88 2273
-968.068 1259.88 2273
-962.632 1259.88 2273
-957.197 1259.88 2273
-950.505 1258.22 2270
-939.664 1251.02 2257
-928.058 1242.7 2242
-922.697 1242.7 2242
-917.336 1242.7 2242
-908.313 1237.71 2233
-902.974 1237.71 2233
-897.634 1237.71 2233
-892.294 1237.71 2233
-888.146 1239.38 2236
-885.168 1242.7 2242
-884.516 1249.35 2254
-879.125 1249.35 2254
-873.736 1249.35 2254
-864.878 1244.36 2245
-859.51 1244.36 2245
-854.141 1244.36 2245
-847.639 1242.7 2242
-843.404 1244.36 2245
-839.156 1246.03 2248
-836.006 1249.35 2254
-830.616 1249.35 2254
-828.887 1254.9 2264
-823.473 1254.9 2264
-822.395 1261.55 2276
-816.952 1261.55 2276
-813.649 1264.87 2282
-810.317 1268.2 2288
-806.253 1270.42 2292
-800.772 1270.42 2292
-796.332 1272.08 2295
-790.844 1272.08 2295
-786.383 1273.74 2298
-780.887 1273.74 2298
-775.392 1273.74 2298
-769.897 1273.74 2298
-764.402 1273.74 2298
-757.916 1272.08 2295
-752.428 1272.08 2295
-746.94 1272.08 2295
-741.452 1272.08 2295
-735.964 1272.08 2295
-730.475 1272.08 2295
-722.776 1268.2 2288
-721.38 1275.4 2301
-715.878 1275.4 2301
-719.329 1291.48 2330
-717.739 1298.68 2343
-712.136 1298.68 2343
-706.534 1298.68 2343
-523.199 1018.22 1837
-519.936 1020.43 1841
-515.534 1020.43 1841
-511.131 1020.43 1841
-506.729 1020.43 1841
-502.326 1020.43 1841
-497.924 1020.43 1841
-493.522 1020.43 1841
-488.057 1018.22 1837
-484.19 1019.33 1839
-479.793 1019.33 1839
-476.429 1021.54 1843
-472.022 1021.54 1843
-467.615 1021.54 1843
-462.705 1020.43 1841
-458.303 1020.43 1841
-453.9 1020.43 1841
-449.498 1020.43 1841
-445.095 1020.43 1841
-440.693 1020.43 1841
-436.291 1020.43 1841
-431.888 1020.43 1841
-427.486 1020.43 1841
-423.083 1020.43 1841
-418.226 1019.33 1839
-413.829 1019.33 1839
-409.431 1019.33 1839
-405.033 1019.33 1839
-400.636 1019.33 1839
-396.238 1019.33 1839
-391.841 1019.33 1839
-387.443 1019.33 1839
-382.629 1018.22 1837
-378.236 1018.22 1837
-372.215 1013.78 1829
-367.841 1013.78 1829
-363.468 1013.78 1829
-357.916 1010.46 1823
-353.169 1009.35 1821
-348.814 1009.35 1821
-344.46 1009.35 1821
-339.358 1007.13 1817
-334.644 1006.02 1815
-329.212 1002.7 1809
-324.886 1002.7 1809
-320.206 1001.59 1807
-315.011 998.817 1802
-309.322 994.383 1794
-305.032 994.383 1794
-300.072 992.166 1790
-295.13 989.949 1786
-289.882 986.623 1780
-285.626 986.623 1780
-281.369 986.623 1780
-277.113 986.623 1780
-273.469 988.84 1784
-269.807 991.057 1788
-265.531 991.057 1788
-261.84 993.274 1792
-257.842 994.383 1794
-254.4 997.709 1800
-250.096 997.709 1800
-246.065 998.817 1802
-242.024 999.926 1804
-237.71 999.926 1804
-233.396 999.926 1804
-229.463 1001.59 1807
-225.391 1002.7 1809
-221.31 1003.81 1811
-216.979 1003.81 1811
-212.649 1003.81 1811
-208.778 1006.02 1815
-205.114 1009.35 1821
-200.98 1010.46 1823
-196.62 1010.46 1823
-192.472 1011.57 1825
-188.108 1011.57 1825
-183.744 1011.57 1825
-179.379 1011.57 1825
-186.589 1268.2 2288
-181.117 1268.2 2288
-175.646 1268.2 2288
-169.505 1263.21 2279
-164.056 1263.21 2279
-158.606 1263.21 2279
-153.156 1263.21 2279
-147.706 1263.21 2279
-142.069 1261.55 2276
-136.627 1261.55 2276
-131.53 1264.87 2282
-126.073 1264.87 2282
-121.144 1270.42 2292
-115.815 1272.08 2295
-110.327 1272.08 2295
-104.839 1272.08 2295
-99.2209 1270.42 2292
-93.7401 1270.42 2292
-88.2592 1270.42 2292
-82.6339 1268.2 2288
-77.0614 1266.54 2285
-71.5973 1266.54 2285
-66.1332 1266.54 2285
-60.5097 1263.21 2279
-55.0599 1263.21 2279
-49.4795 1259.88 2273
-44.0441 1259.88 2273
-38.7106 1263.21 2279
-33.2608 1263.21 2279
-27.8843 1266.54 2285
-22.4888 1270.42 2292
-17.0079 1270.42 2292
-11.5271 1270.42 2292
-6.03566 1268.2 2288
-0.562142 1263.21 2279
4.88764 1263.21 2279
10.2966 1258.22 2270
15.6833 1254.9 2264
21.0692 1253.23 2261
26.476 1253.23 2261
31.8263 1251.02 2257
37.1245 1247.69 2251
42.5074 1247.69 2251
47.8902 1247.69 2251
53.273 1247.69 2251
58.5776 1246.03 2248
63.7826 1242.7 2242
69.1439 1242.7 2242
74.4055 1241.04 2239
79.7596 1241.04 2239
85.1138 1241.04 2239
90.4679 1241.04 2239
95.822 1241.04 2239
100.905 1237.71 2233
105.959 1234.39 2227
111.285 1234.39 2227
116.61 1234.39 2227
121.607 1231.06 2221
126.918 1231.06 2221
132.229 1231.06 2221
137.54 1231.06 2221
142.337 1226.63 2213
147.962 1229.4 2218
153.266 1229.4 2218
159.214 1234.39 2227
164.539 1234.39 2227
169.865 1234.39 2227
175.662 1237.71 2233
182.218 1246.03 2248
187.593 1246.03 2248
192.969 1246.03 2248
198.345 1246.03 2248
203.72 1246.03 2248
209.096 1246.03 2248
214.471 1246.03 2248
218.674 1239.38 2236
224.021 1239.38 2236
230.291 1244.36 2245
235.659 1244.36 2245
241.35 1246.03 2248
247.384 1249.35 2254
253.11 1251.02 2257
258.508 1251.02 2257
265.074 1256.56 2267
270.495 1256.56 2267
275.916 1256.56 2267
281.337 1256.56 2267
286.758 1256.56 2267
291.793 1254.9 2264
297.207 1254.9 2264
302.621 1254.9 2264
308.443 1256.56 2267
313.864 1256.56 2267
319.285 1256.56 2267
324.706 1256.56 2267
330.564 1258.22 2270
336.436 1259.88 2273
342.323 1261.55 2276
347.765 1261.55 2276
353.208 1261.55 2276
358.651 1261.55 2276
364.093 1261.55 2276
369.049 1259.88 2273
374.484 1259.88 2273
379.92 1259.88 2273
385.355 1259.88 2273
390.79 1259.88 2273
396.226 1259.88 2273
402.191 1261.55 2276
408.709 1264.87 2282
414.71 1266.54 2285
420.174 1266.54 2285
426.942 1270.42 2292
432.423 1270.42 2292
437.904 1270.42 2292
442.611 1268.2 2288
448.082 1268.2 2288
453.554 1268.2 2288
459.827 1270.42 2292
465.308 1270.42 2292
472.022 1273.74 2298
477.517 1273.74 2298
483.012 1273.74 2298
487.87 1272.08 2295
491.853 1268.2 2288
497.324 1268.2 2288
502.795 1268.2 2288
507.6 1266.54 2285
513.064 1266.54 2285
519.209 1268.2 2288
525.598 1270.42 2292
531.079 1270.42 2292
536.56 1270.42 2292
538.966 1263.21 2279
543.699 1261.55 2276
549.142 1261.55 2276
553.122 1258.22 2270
557.812 1256.56 2267
563.234 1256.56 2267
568.655 1256.56 2267
573.316 1254.9 2264
577.963 1253.23 2261
583.37 1253.23 2261
588.777 1253.23 2261
592.344 1249.35 2254
598.529 1251.02 2257
603.926 1251.02 2257
609.324 1251.02 2257
614.721 1251.02 2257
619.294 1249.35 2254
620.527 1241.04 2239
623.365 1236.05 2230
628.697 1236.05 2230
634.03 1236.05 2230
635.922 1229.4 2218
640.359 1227.74 2215
645.655 1227.74 2215
650.952 1227.74 2215
655.656 1226.63 2213
660.948 1226.63 2213
666.24 1226.63 2213
669.712 1223.3 2207
673.154 1219.98 2201
677.493 1218.31 2198
682.749 1218.31 2198
688.005 1218.31 2198
694.207 1219.98 2201
701.377 1223.3 2207
706.655 1223.3 2207
711.932 1223.3 2207
724.684 1236.05 2230
730.017 1236.05 2230
735.35 1236.05 2230
740.682 1236.05 2230
746.015 1236.05 2230
748.315 1231.06 2221
755.662 1234.39 2227
763.038 1237.71 2233
768.378 1237.71 2233
773.717 1237.71 2233
779.057 1237.71 2233
784.397 1237.71 2233
788.676 1236.05 2230
794.008 1236.05 2230
798.266 1234.39 2227
803.591 1234.39 2227
805.647 1229.4 2218
809.123 1226.63 2213
814.415 1226.63 2213
822.67 1231.06 2221
827.981 1231.06 2221
834.418 1232.72 2224
839.736 1232.72 2224
845.054 1232.72 2224
848.079 1229.4 2218
853.382 1229.4 2218
861.009 1232.72 2224
866.328 1232.72 2224
871.646 1232.72 2224
876.964 1232.72 2224
881.092 1231.06 2221
884.009 1227.74 2215
889.305 1227.74 2215
894.602 1227.74 2215
899.086 1226.63 2213
904.378 1226.63 2213
912.959 1231.06 2221
918.27 1231.06 2221
924.828 1232.72 2224
930.147 1232.72 2224
935.465 1232.72 2224
940.783 1232.72 2224
941.422 1226.63 2213
947.569 1227.74 2215
958.028 1234.39 2227
963.354 1234.39 2227
968.679 1234.39 2227
975.317 1236.05 2230
980.649 1236.05 2230
985.982 1236.05 2230
987.314 1231.06 2221
992.625 1231.06 2221
994.341 1226.63 2213
1001.89 1229.4 2218
1007.2 1229.4 2218
1013.87 1231.06 2221
1024.69 1237.71 2233
1031.41 1239.38 2236
1036.76 1239.38 2236
1042.1 1239.38 2236
1047.45 1239.38 2236
1052.8 1239.38 2236
1055.31 1236.05 2230
1053.5 1227.74 2215
1053.54 1221.64 2204
1057.37 1219.98 2201
1062.64 1219.98 2201
1064.99 1216.65 2195
1070.24 1216.65 2195
1072.55 1213.32 2189
1077.78 1213.32 2189
1080.54 1210.55 2184
1084.27 1208.89 2181
1087.99 1207.23 2178
1094.7 1208.89 2181
1099.92 1208.89 2181
1105.13 1208.89 2181
1110.35 1208.89 2181
1115.56 1208.89 2181
1120.78 1208.89 2181
1122.9 1205.56 2175
1128.1 1205.56 2175
1133.3 1205.56 2175
1138.5 1205.56 2175
1142.12 1203.9 2172
1147.32 1203.9 2172
1152.51 1203.9 2172
1157.71 1203.9 2172
1162.9 1203.9 2172
1165.41 1201.13 2167
1170.59 1201.13 2167
1181.74 1207.23 2178
1186.95 1207.23 2178
1206.39 1221.64 2204
1214.95 1224.96 2210
1220.24 1224.96 2210
1225.52 1224.96 2210
1238.61 1232.72 2224
1243.92 1232.72 2224
1249.24 1232.72 2224
1254.56 1232.72 2224
1266.68 1239.38 2236
1278.85 1246.03 2248
1284.23 1246.03 2248
1289.6 1246.03 2248
1288.06 1239.38 2236
1288.21 1234.39 2227
1286.56 1227.74 2215
1291.86 1227.74 2215
1295.98 1226.63 2213
1301.27 1226.63 2213
1318.37 1237.71 2233
1327.27 1241.04 2239
1332.63 1241.04 2239
1337.98 1241.04 2239
1345.13 1242.7 2242
1350.49 1242.7 2242
1355.86 1242.7 2242
1361.22 1242.7 2242
1366.58 1242.7 2242
1371.94 1242.7 2242
1377.3 1242.7 2242
1377.11 1237.71 2233
1368.21 1224.96 2210
1378.47 1229.4 2218
1391.26 1236.05 2230
1396.59 1236.05 2230
1405.7 1239.38 2236
1414.83 1242.7 2242
1432.23 1253.23 2261
1437.63 1253.23 2261
1444.96 1254.9 2264
1450.37 1254.9 2264
1455.78 1254.9 2264
1461.2 1254.9 2264
1454.3 1244.36 2245
1459.67 1244.36 2245
1465.04 1244.36 2245
1468.44 1242.7 2242
1454.74 1226.63 2213
1458.05 1224.96 2210
1459.37 1221.64 2204
1464.64 1221.64 2204
1465.91 1218.31 2198
1482.54 1227.74 2215
1487.84 1227.74 2215
1493.13 1227.74 2215
1498.43 1227.74 2215
1502.37 1226.63 2213
1487.9 1210.55 2184
1493.13 1210.55 2184
1488.06 1202.24 2169
1493.25 1202.24 2169
1500.5 1203.9 2172
1509.86 1207.23 2178
1515.07 1207.23 2178
1520.27 1207.23 2178
1525.48 1207.23 2178
1538.42 1213.32 2189
1545.77 1214.99 2192
1551.01 1214.99 2192
1562.64 1219.98 2201
1582.16 1231.06 2221
1600.33 1241.04 2239
1605.69 1241.04 2239
1613.2 1242.7 2242
1618.56 1242.7 2242
1623.92 1242.7 2242
1629.28 1242.7 2242
1621.52 1232.72 2224
1620.26 1227.74 2215
1625.55 1227.74 2215
1637.47 1232.72 2224
1642.79 1232.72 2224
1657 1239.38 2236
1666.81 1242.7 2242
1688.58 1254.9 2264
1694 1254.9 2264
1699.41 1254.9 2264
1704.82 1254.9 2264
1710.24 1254.9 2264
1674.73 1224.96 2210
1680.01 1224.96 2210
1685.3 1224.96 2210
1690.58 1224.96 2210
-1720.57 1279.25 2298
-1715.07 1279.25 2298
-1697.68 1270.34 2282
-1692.22 1270.34 2282
-1684.54 1268.67 2279
-1670.25 1261.99 2267
-1650.88 1251.41 2248
-1645.5 1251.41 2248
-1626.99 1241.39 2230
-1607.12 1230.26 2210
-1582.99 1215.78 2184
-1569.1 1209.1 2172
-1563.9 1209.1 2172
-1545.07 1198.53 2153
-1537.78 1196.86 2150
-1532.64 1196.86 2150
-1531.05 1199.64 2155
-1525.9 1199.64 2155
-1520.74 1199.64 2155
-1504.34 1190.73 2139
-1512.54 1201.31 2158
-1507.38 1201.31 2158
-1502.22 1201.31 2158
-1493.59 1198.53 2153
-1488.44 1198.53 2153
-1483.29 1198.53 2153
-1470.59 1192.4 2142
-1476.42 1201.31 2158
-1477.39 1206.32 2167
-1472.21 1206.32 2167
-1476.51 1214.11 2181
-1476.69 1218.57 2189
-1485.57 1230.26 2210
-1480.28 1230.26 2210
-1480.34 1234.71 2218
-1485.01 1243.06 2233
-1487.62 1249.74 2245
-1482.25 1249.74 2245
-1476.88 1249.74 2245
-1471.52 1249.74 2245
-1466.15 1249.74 2245
-1460.78 1249.74 2245
-1479.4 1270.34 2282
-1482.34 1277.58 2295
-1476.85 1277.58 2295
-1475.21 1280.92 2301
-1469.71 1280.92 2301
-1464.2 1280.92 2301
-1454.9 1277.58 2295
-1449.41 1277.58 2295
-1449.58 1282.59 2304
-1445.95 1284.26 2307
-1440.44 1284.26 2307
-1434.92 1284.26 2307
-1427.54 1282.59 2304
-1422.04 1282.59 2304
-1416.53 1282.59 2304
-1405.5 1277.58 2295
-1393.92 1272.01 2285
-1375.69 1260.32 2264
-1370.28 1260.32 2264
-1360.64 1256.42 2257
-1346.24 1248.07 2242
-1335.5 1243.06 2233
-1330.16 1243.06 2233
-1315.92 1234.71 2218
-1295.25 1220.24 2192
-1278.24 1209.1 2172
-1273.04 1209.1 2172
-1253.26 1195.19 2147
-1238.82 1186.28 2131
-1231.99 1184.61 2128
-1228.63 1186.28 2131
-1223.53 1186.28 2131
-1218.44 1186.28 2131
-1213.34 1186.28 2131
-1208.25 1186.28 2131
-1203.15 1186.28 2131
-1198.05 1186.28 2131
-1195.76 1189.06 2136
-1196.78 1195.19 2147
-1193.31 1196.86 2150
-1188.17 1196.86 2150
-1189.08 1202.98 2161
-1188.3 1207.43 2169
-1184.75 1209.1 2172
-1179.55 1209.1 2172
-1179.23 1214.11 2181
-1175.62 1215.78 2184
-1176.3 1221.91 2195
-1171.05 1221.91 2195
-1173.77 1230.26 2210
-1174.3 1236.38 2221
-1168.99 1236.38 2221
-1166.82 1239.72 2227
-1161.49 1239.72 2227
-1160.84 1244.73 2236
-1155.49 1244.73 2236
-1154.78 1249.74 2245
-1149.41 1249.74 2245
-1144.04 1249.74 2245
-1135.63 1246.4 2239
-1124.22 1239.72 2227
-1112.86 1233.04 2215
-1099.06 1223.58 2198
-1093.81 1223.58 2198
-1087.07 1221.91 2195
-1080.34 1220.24 2192
-1075.1 1220.24 2192
-1069.85 1220.24 2192
-1064.61 1220.24 2192
-1060.82 1221.91 2195
-1055.57 1221.91 2195
-1050.32 1221.91 2195
-1045.07 1221.91 2195
-1038.4 1220.24 2192
-1034.58 1221.91 2195
-1036.36 1230.26 2210
-1031.08 1230.26 2210
-1025.79 1230.26 2210
-1013.58 1221.91 2195
-1008.33 1221.91 2195
-1000.34 1218.57 2189
-995.107 1218.57 2189
-989.872 1218.57 2189
-990.035 1225.25 2201
-984.772 1225.25 2201
-982.179 1228.59 2207
-985.754 1239.72 2227
-980.429 1239.72 2227
-975.103 1239.72 2227
-968.472 1238.05 2224
-963.153 1238.05 2224
-957.835 1238.05 2224
-952.517 1238.05 2224
-944.643 1234.71 2218
-939.339 1234.71 2218
-934.035 1234.71 2218
-928.731 1234.71 2218
-920.097 1230.26 2210
-914.812 1230.26 2210
-909.527 1230.26 2210
-904.242 1230.26 2210
-903.432 1236.38 2221
-899.334 1238.05 2224
-896.428 1241.39 2230
-891.095 1241.39 2230
-886.954 1243.06 2233
-881.614 1243.06 2233
-878.629 1246.4 2239
-873.275 1246.4 2239
-867.921 1246.4 2239
-860.255 1243.06 2233
-849.173 1234.71 2218
-849.576 1243.06 2233
-844.236 1243.06 2233
-838.896 1243.06 2233
-833.556 1243.06 2233
-828.217 1243.06 2233
-822.877 1243.06 2233
-817.537 1243.06 2233
-816.562 1249.74 2245
-815.53 1256.42 2257
-810.132 1256.42 2257
-807.231 1260.32 2264
-801.817 1260.32 2264
-797.459 1261.99 2267
-792.037 1261.99 2267
-789.739 1267 2276
-784.297 1267 2276
-778.854 1267 2276
-773.411 1267 2276
-767.969 1267 2276
-762.526 1267 2276
-757.084 1267 2276
-751.641 1267 2276
-749.149 1272.01 2285
-743.685 1272.01 2285
-738.221 1272.01 2285
-732.757 1272.01 2285
-725.383 1268.67 2279
-718.985 1267 2276
-717.305 1273.68 2288
-711.834 1273.68 2288
-710.376 1280.92 2301
-709.775 1289.82 2317
-704.234 1289.82 2317
-698.693 1289.82 2317
-522.63 1021.5 1835
-519.371 1023.73 1839
-514.974 1023.73 1839
-511.131 1024.84 1841
-506.729 1024.84 1841
-502.326 1024.84 1841
-496.842 1022.62 1837
-492.449 1022.62 1837
-488.057 1022.62 1837
-483.664 1022.62 1837
-479.793 1023.73 1839
-475.395 1023.73 1839
-470.997 1023.73 1839
-466.6 1023.73 1839
-462.705 1024.84 1841
-458.303 1024.84 1841
-453.9 1024.84 1841
-449.498 1024.84 1841
-445.095 1024.84 1841
-440.693 1024.84 1841
-436.291 1024.84 1841
-431.888 1024.84 1841
-427.021 1023.73 1839
-422.624 1023.73 1839
-418.226 1023.73 1839
-413.829 1023.73 1839
-409.431 1023.73 1839
-405.033 1023.73 1839
-400.636 1023.73 1839
-396.238 1023.73 1839
-391.841 1023.73 1839
-387.443 1023.73 1839
-382.629 1022.62 1837
-378.236 1022.62 1837
-372.215 1018.16 1829
-367.841 1018.16 1829
-363.468 1018.16 1829
-357.916 1014.82 1823
-353.557 1014.82 1823
-348.814 1013.71 1821
-344.46 1013.71 1821
-338.984 1010.37 1815
-334.644 1010.37 1815
-329.212 1007.03 1809
-324.886 1007.03 1809
-320.206 1005.92 1807
-315.36 1004.25 1804
-310.012 1000.91 1798
-305.712 1000.91 1798
-300.742 998.68 1794
-295.461 995.34 1788
-290.208 992 1782
-285.947 992 1782
-281.685 992 1782
-277.424 992 1782
-273.776 994.227 1786
-269.807 995.34 1788
-265.531 995.34 1788
-261.84 997.567 1792
-257.842 998.68 1794
-254.4 1002.02 1800
-250.096 1002.02 1800
-246.338 1004.25 1804
-242.024 1004.25 1804
-237.71 1004.25 1804
-233.396 1004.25 1804
-229.463 1005.92 1807
-225.391 1007.03 1809
-221.065 1007.03 1809
-216.979 1008.14 1811
-212.649 1008.14 1811
-208.778 1010.37 1815
-205.114 1013.71 1821
-200.98 1014.82 1823
-196.62 1014.82 1823
-192.261 1014.82 1823
-187.902 1014.82 1823
-183.542 1014.82 1823
-185.121 1263.66 2270
-179.692 1263.66 2270
-174.264 1263.66 2270
-168.836 1263.66 2270
-162.76 1258.65 2261
-157.353 1258.65 2261
-151.946 1258.65 2261
-146.54 1258.65 2261
-140.883 1256.42 2257
-134.946 1251.41 2248
-130.838 1263.66 2270
-125.41 1263.66 2270
-120.14 1265.33 2273
-114.856 1267 2276
-109.414 1267 2276
-103.971 1267 2276
-98.3984 1265.33 2273
-92.4722 1258.65 2261
-87.0655 1258.65 2261
-81.6587 1258.65 2261
-76.4544 1261.99 2267
-71.0333 1261.99 2267
-65.6122 1261.99 2267
-60.1911 1261.99 2267
-54.6975 1260.32 2264
-49.2836 1260.32 2264
-43.986 1263.66 2270
-38.5577 1263.66 2270
-33.1295 1263.66 2270
-27.7744 1267 2276
-22.4201 1272.01 2285
-16.956 1272.01 2285
-11.4919 1272.01 2285
-6.01192 1268.67 2279
-0.560662 1265.33 2273
4.87477 1265.33 2273
10.2558 1258.65 2261
15.5932 1253.08 2251
20.9481 1251.41 2248
26.3238 1251.41 2248
31.6571 1249.74 2245
36.8771 1244.73 2236
42.1674 1243.06 2233
47.5072 1243.06 2233
52.776 1241.39 2230
58.0304 1239.72 2227
63.0145 1233.04 2215
68.3112 1233.04 2215
73.608 1233.04 2215
78.7266 1230.26 2210
84.0114 1230.26 2210
89.2961 1230.26 2210
94.5809 1230.26 2210
99.7301 1228.59 2207
104.437 1221.91 2195
110.135 1226.92 2204
115.406 1226.92 2204
120.676 1226.92 2204
125.947 1226.92 2204
131.217 1226.92 2204
136.488 1226.92 2204
141.758 1226.92 2204
147.028 1226.92 2204
152.506 1228.59 2207
157.784 1228.59 2207
163.061 1228.59 2207
168.339 1228.59 2207
174.718 1236.38 2221
180.515 1239.72 2227
185.841 1239.72 2227
191.681 1243.06 2233
197.021 1243.06 2233
202.361 1243.06 2233
207.701 1243.06 2233
212.468 1239.72 2227
217.793 1239.72 2227
223.419 1241.39 2230
228.752 1241.39 2230
234.085 1241.39 2230
239.739 1243.06 2233
245.079 1243.06 2233
251.428 1248.07 2242
256.789 1248.07 2242
262.151 1248.07 2242
267.512 1248.07 2242
272.873 1248.07 2242
277.49 1244.73 2236
283.596 1248.07 2242
289.344 1249.74 2245
295.5 1253.08 2251
300.883 1253.08 2251
306.674 1254.75 2254
312.064 1254.75 2254
317.454 1254.75 2254
322.844 1254.75 2254
328.671 1256.42 2257
334.66 1258.65 2261
340.969 1261.99 2267
346.39 1261.99 2267
351.811 1261.99 2267
357.232 1261.99 2267
362.653 1261.99 2267
367.1 1258.65 2261
373.001 1260.32 2264
378.917 1261.99 2267
384.846 1263.66 2270
390.275 1263.66 2270
395.703 1263.66 2270
402.191 1267 2276
408.709 1270.34 2282
414.71 1272.01 2285
420.174 1272.01 2285
426.942 1275.91 2292
432.423 1275.91 2292
437.904 1275.91 2292
442.611 1273.68 2288
448.082 1273.68 2288
453.554 1273.68 2288
459.827 1275.91 2292
465.308 1275.91 2292
472.022 1279.25 2298
477.517 1279.25 2298
483.012 1279.25 2298
487.87 1277.58 2295
491.853 1273.68 2288
497.324 1273.68 2288
502.795 1273.68 2288
507.6 1272.01 2285
513.064 1272.01 2285
519.209 1273.68 2288
525.598 1275.91 2292
531.079 1275.91 2292
536.56 1275.91 2292
538.966 1268.67 2279
543.699 1267 2276
549.142 1267 2276
553.122 1263.66 2270
557.812 1261.99 2267
563.234 1261.99 2267
568.655 1261.99 2267
573.316 1260.32 2264
577.963 1258.65 2261
583.37 1258.65 2261
588.777 1258.65 2261
592.344 1254.75 2254
598.529 1256.42 2257
603.926 1256.42 2257
609.324 1256.42 2257
614.721 1256.42 2257
619.294 1254.75 2254
620.527 1246.4 2239
623.365 1241.39 2230
628.697 1241.39 2230
634.03 1241.39 2230
635.922 1234.71 2218
640.359 1233.04 2215
645.655 1233.04 2215
650.952 1233.04 2215
655.656 1231.93 2213
660.948 1231.93 2213
666.24 1231.93 2213
669.712 1228.59 2207
673.154 1225.25 2201
677.493 1223.58 2198
682.749 1223.58 2198
688.005 1223.58 2198
694.207 1225.25 2201
701.377 1228.59 2207
706.655 1228.59 2207
711.932 1228.59 2207
724.684 1241.39 2230
730.017 1241.39 2230
735.35 1241.39 2230
740.682 1241.39 2230
746.015 1241.39 2230
748.315 1236.38 2221
755.662 1239.72 2227
763.038 1243.06 2233
768.378 1243.06 2233
773.717 1243.06 2233
779.057 1243.06 2233
784.397 1243.06 2233
788.676 1241.39 2230
794.008 1241.39 2230
798.266 1239.72 2227
803.591 1239.72 2227
805.647 1234.71 2218
809.123 1231.93 2213
814.415 1231.93 2213
822.67 1236.38 2221
827.981 1236.38 2221
834.418 1238.05 2224
839.736 1238.05 2224
845.054 1238.05 2224
848.079 1234.71 2218
853.382 1234.71 2218
861.009 1238.05 2224
866.328 1238.05 2224
871.646 1238.05 2224
872.627 1231.93 2213
877.918 1231.93 2213
878.421 1225.25 2201
883.684 1225.25 2201
886.524 1221.91 2195
891.773 1221.91 2195
897.022 1221.91 2195
902.271 1221.91 2195
907.52 1221.91 2195
914.016 1223.58 2198
919.273 1223.58 2198
924.529 1223.58 2198
929.785 1223.58 2198
931.212 1218.57 2189
939.014 1221.91 2195
945.553 1223.58 2198
950.809 1223.58 2198
956.065 1223.58 2198
962.633 1225.25 2201
967.897 1225.25 2201
973.16 1225.25 2201
977.089 1223.58 2198
982.346 1223.58 2198
983.558 1218.57 2189
988.792 1218.57 2189
991.756 1215.78 2184
997.892 1216.9 2186
1005.87 1220.24 2192
1013.88 1223.58 2198
1019.14 1223.58 2198
1024.39 1223.58 2198
1029.65 1223.58 2198
1034.91 1223.58 2198
1040.16 1223.58 2198
1043.99 1221.91 2195
1047.81 1220.24 2192
1050.17 1216.9 2186
1055.39 1216.9 2186
1060.62 1216.9 2186
1063.41 1214.11 2181
1068.63 1214.11 2181
1073.84 1214.11 2181
1079.06 1214.11 2181
1081.29 1210.77 2175
1084.99 1209.1 2172
1093.2 1212.44 2178
1098.41 1212.44 2178
1105.13 1214.11 2181
1110.35 1214.11 2181
1115.56 1214.11 2181
1119.24 1212.44 2178
1122.9 1210.77 2175
1126.54 1209.1 2172
1131.74 1209.1 2172
1136.93 1209.1 2172
1142.12 1209.1 2172
1147.32 1209.1 2172
1150.92 1207.43 2169
1156.11 1207.43 2169
1161.29 1207.43 2169
1165.41 1206.32 2167
1168.97 1204.65 2164
1174.14 1204.65 2164
1177.68 1202.98 2161
1201.46 1221.91 2195
1208.36 1223.58 2198
1213.61 1223.58 2198
1218.87 1223.58 2198
1227.47 1226.92 2204
1232.74 1226.92 2204
1249.24 1238.05 2224
1254.56 1238.05 2224
1259.88 1238.05 2224
1265.2 1238.05 2224
1270.52 1238.05 2224
1275.83 1238.05 2224
1273.09 1230.26 2210
1273.17 1225.25 2201
1269.72 1216.9 2186
1274.94 1216.9 2186
1271.97 1209.1 2172
1275.4 1207.43 2169
1287.67 1214.11 2181
1301.19 1221.91 2195
1306.44 1221.91 2195
1311.69 1221.91 2195
1316.94 1221.91 2195
1322.18 1221.91 2195
1320.78 1215.78 2184
1326 1215.78 2184
1334.27 1218.57 2189
1339.51 1218.57 2189
1344.74 1218.57 2189
1349.98 1218.57 2189
1344.69 1209.1 2172
1367.9 1225.25 2201
1373.17 1225.25 2201
1378.43 1225.25 2201
1401.93 1241.39 2230
1414.83 1248.07 2242
1420.19 1248.07 2242
1425.55 1248.07 2242
1430.91 1248.07 2242
1443.96 1254.75 2254
1449.35 1254.75 2254
1454.74 1254.75 2254
1454.3 1249.74 2245
1459.67 1249.74 2245
1465.04 1249.74 2245
1468.44 1248.07 2242
1454.74 1231.93 2213
1458.05 1230.26 2210
1455.39 1223.58 2198
1460.65 1223.58 2198
1465.91 1223.58 2198
1475.18 1226.92 2204
1486.49 1231.93 2213
1491.79 1231.93 2213
1497.08 1231.93 2213
1494.22 1225.25 2201
1477.68 1207.43 2169
1482.87 1207.43 2169
1488.06 1207.43 2169
1489.8 1204.65 2164
1492.91 1202.98 2161
1505.7 1209.1 2172
1515.07 1212.44 2178
1520.27 1212.44 2178
1525.48 1212.44 2178
1538.42 1218.57 2189
1545.77 1220.24 2192
1551.01 1220.24 2192
1562.64 1225.25 2201
1574.32 1230.26 2210
1600.33 1246.4 2239
1605.69 1246.4 2239
1613.2 1248.07 2242
1618.56 1248.07 2242
