ply
format ascii 1.0
comment File generated
element vertex 2251
property float x
property float y
property float z
end_header
-1511.01 489.146 3898
-1501.69 489.146 3898
-1492.37 489.146 3898
-1483.05 489.146 3898
-1470.32 488.017 3889
-1464.41 489.146 3898
-1455.08 489.146 3898
-1445.76 489.146 3898
-1429.81 486.888 3880
-1417.24 485.758 3871
-1401.43 483.499 3853
-1392.22 483.499 3853
-1383 483.499 3853
-1370.58 482.37 3844
-1358.2 481.241 3835
-1349.03 481.241 3835
-1336.72 480.111 3826
-1324.79 479.107 3818
-1315.66 479.107 3818
-1315.43 482.37 3844
-1306.24 482.37 3844
-1300.08 483.499 3853
-1290.87 483.499 3853
-1281.65 483.499 3853
-1272.44 483.499 3853
-1257.32 481.241 3835
-1248.15 481.241 3835
-1268.06 492.534 3925
-1258.67 492.534 3925
-1273.48 502.071 4001
-1263.91 502.071 4001
-1254.34 502.071 4001
-1235.75 498.432 3972
-1226.25 498.432 3972
-521.38 213.578 1702
-517.006 213.453 1701
-512.335 213.202 1699
-507.075 212.7 1695
-503.022 212.7 1695
-498.675 212.574 1694
-493.456 212.072 1690
-488.546 211.696 1687
-482.501 210.817 1680
-478.484 210.817 1680
-473.901 210.566 1678
-469.609 210.441 1677
-465.043 210.19 1675
-461.038 210.19 1675
-455.122 209.311 1668
-449.511 208.559 1662
-442.32 207.053 1650
-438.374 207.053 1650
-431.006 205.421 1637
-425.526 204.668 1631
-420.85 204.292 1628
-416.957 204.292 1628
-411.034 203.288 1620
-406.406 202.912 1617
-402.042 202.661 1615
-397.44 202.284 1612
-393.585 202.284 1612
-389.005 201.908 1609
-384.439 201.531 1606
-379.414 200.904 1601
-375.586 200.904 1601
-371.06 200.527 1598
-366.78 200.276 1596
-362.281 199.9 1593
-358.471 199.9 1593
-354.439 199.774 1592
-350.633 199.774 1592
-347.043 199.9 1593
-343.665 200.151 1595
-339.851 200.151 1595
-336.247 200.276 1596
-332.847 200.527 1598
-330.056 201.155 1603
-326.222 201.155 1603
-322.992 201.531 1606
-319.351 201.657 1607
-316.097 202.033 1610
-312.247 202.033 1610
-308.972 202.41 1613
-306.06 203.037 1618
-302.751 203.414 1621
-298.875 203.414 1621
-295.363 203.665 1623
-292.02 204.041 1626
-288.132 204.041 1626
-284.244 204.041 1626
-280.873 204.417 1629
-277.828 205.045 1634
-274.423 205.421 1637
-270.509 205.421 1637
-267.408 206.049 1642
-263.803 206.3 1644
-260.03 206.425 1645
-256.096 206.425 1645
-252.622 206.802 1648
-248.983 207.053 1650
-245.483 207.429 1653
-241.53 207.429 1653
-238.152 207.931 1657
-234.19 207.931 1657
-230.922 208.559 1662
-227.084 208.684 1663
-223.107 208.684 1663
-220.053 209.562 1670
-216.448 209.939 1673
-213.082 210.566 1678
-209.069 210.566 1678
-205.301 210.817 1680
-201.883 211.445 1685
-198.088 211.696 1687
-194.054 211.696 1687
-190.809 212.574 1694
-187.529 213.453 1701
-184.001 214.08 1706
-179.922 214.08 1706
-175.842 214.08 1706
-171.964 214.331 1708
-168.371 214.958 1713
-164.275 214.958 1713
-160.365 215.209 1715
-156.355 215.335 1716
-152.252 215.335 1716
-148.148 215.335 1716
-144.213 215.586 1718
-140.105 215.586 1718
-136.155 215.837 1720
-132.042 215.837 1720
-127.929 215.837 1720
-123.815 215.837 1720
-119.702 215.837 1720
-249.745 502.071 4001
-241.918 505.711 4030
-232.281 505.711 4030
-222.644 505.711 4030
-212.478 504.456 4020
-201.907 502.071 4001
-192.339 502.071 4001
-181.903 499.687 3982
-172.381 499.687 3982
-162.859 499.687 3982
-152.952 498.432 3972
-143.454 498.432 3972
-133.955 498.432 3972
-125.648 503.201 4010
-116.059 503.201 4010
-106.735 504.456 4020
-97.122 504.456 4020
-87.9225 506.84 4039
-79.0391 511.859 4079
-69.285 511.859 4079
-59.5309 511.859 4079
272.776 513.114 4089
282.555 513.114 4089
292.333 513.114 4089
302.111 513.114 4089
308.838 508.095 4049
314.744 502.071 4001
324.312 502.071 4001
333.879 502.071 4001
340.957 498.432 3972
348.779 496.048 3953
359.954 498.432 3972
369.452 498.432 3972
378.951 498.432 3972
388.449 498.432 3972
394.24 493.789 3935
403.65 493.789 3935
409.176 489.146 3898
413.666 483.499 3853
412.343 471.453 3757
421.327 471.453 3757
425.615 466.308 3716
430.643 462.167 3683
433.723 456.143 3635
442.415 456.143 3635
447.136 452.128 3603
450.945 447.359 3565
455.475 443.469 3534
463.007 442.591 3527
471.441 442.591 3527
477.834 440.709 3512
485.263 439.83 3505
494.631 440.709 3512
506.18 443.469 3534
514.631 443.469 3534
523.082 443.469 3534
528.224 440.709 3512
538.914 442.591 3527
547.348 442.591 3527
556.885 443.469 3534
585.173 459.03 3658
603.337 466.308 3716
612.223 466.308 3716
629.466 472.582 3766
662.377 490.276 3907
679.628 496.048 3953
689.081 496.048 3953
700.301 497.303 3963
709.778 497.303 3963
719.254 497.303 3963
726.892 496.048 3953
736.345 496.048 3953
744.1 494.919 3944
753.531 494.919 3944
762.962 494.919 3944
772.394 494.919 3944
781.825 494.919 3944
791.256 494.919 3944
798.86 493.789 3935
806.216 492.534 3925
827.446 499.687 3982
838.86 500.817 3991
856.695 505.711 4030
866.332 505.711 4030
877.925 506.84 4039
896.373 511.859 4079
906.128 511.859 4079
915.882 511.859 4079
927.905 513.114 4089
937.683 513.114 4089
947.461 513.114 4089
954.898 511.859 4079
962.287 510.605 4069
967.24 508.095 4049
976.922 508.095 4049
986.605 508.095 4049
998.748 509.35 4059
1008.45 509.35 4059
1018.16 509.35 4059
1025.33 508.095 4049
1032.46 506.84 4039
1042.12 506.84 4039
1051.78 506.84 4039
1061.44 506.84 4039
1066.06 504.456 4020
1070.58 502.071 4001
1080.15 502.071 4001
1081.82 498.432 3972
1086.1 496.048 3953
1090.56 493.789 3935
1094.66 491.405 3916
1104.03 491.405 3916
1108.27 489.146 3898
1117.59 489.146 3898
1134.72 492.534 3925
1147.02 493.789 3935
1156.43 493.789 3935
1165.84 493.789 3935
1175.25 493.789 3935
1187.37 494.919 3944
1196.8 494.919 3944
1206.23 494.919 3944
1215.66 494.919 3944
1225.1 494.919 3944
1234.53 494.919 3944
1249.95 497.303 3963
1274.36 503.201 4010
1287.16 504.456 4020
1306.12 508.095 4049
1315.81 508.095 4049
1335.31 511.859 4079
1348.36 513.114 4089
1358.14 513.114 4089
1367.92 513.114 4089
1631.92 513.114 4089
1641.7 513.114 4089
1651.48 513.114 4089
1661.26 513.114 4089
1658.78 509.35 4059
1668.48 509.35 4059
1678.19 509.35 4059
1675.84 505.711 4030
1677.11 503.201 4010
1686.7 503.201 4010
1688.25 500.817 3991
1697.79 500.817 3991
1711.61 502.071 4001
1721.18 502.071 4001
1730.75 502.071 4001
1740.32 502.071 4001
1758.19 504.456 4020
1767.81 504.456 4020
1777.42 504.456 4020
1782.59 503.201 4010
1792.18 503.201 4010
1793.23 500.817 3991
1811.36 503.201 4010
1820.94 503.201 4010
1835.1 504.456 4020
1849.3 505.711 4030
1858.94 505.711 4030
1868.57 505.711 4030
1882.41 506.84 4039
1892.06 506.84 4039
1901.72 506.84 4039
1911.38 506.84 4039
1921.04 506.84 4039
1907.75 500.817 3991
1851 483.499 3853
1860.22 483.499 3853
1869.43 483.499 3853
1844.51 474.715 3783
1845.23 472.582 3766
1854.23 472.582 3766
1854.83 470.449 3749
1842.91 465.178 3707
1811.82 455.139 3627
1808.44 452.128 3603
1817.06 452.128 3603
1821.62 451.124 3595
1818.51 448.238 3572
1819.38 446.355 3557
1827.88 446.355 3557
1820.9 442.591 3527
1813.78 438.826 3497
1834.12 441.712 3520
1842.54 441.712 3520
1850.96 441.712 3520
1863.07 442.591 3527
1871.51 442.591 3527
1895.93 446.355 3557
1916.75 449.242 3580
1925.31 449.242 3580
1941.98 451.124 3595
1950.57 451.124 3595
1963.53 452.128 3603
1972.14 452.128 3603
1980.76 452.128 3603
2274.36 508.095 4049
2300.97 511.859 4079
2310.72 511.859 4079
2320.48 511.859 4079
2324.52 510.605 4069
2334.25 510.605 4069
2343.98 510.605 4069
2347.92 509.35 4059
2363.44 510.605 4069
2384.83 513.114 4089
2394.61 513.114 4089
2404.39 513.114 4089
2414.17 513.114 4089
2423.94 513.114 4089
2398.61 505.711 4030
2413.62 506.84 4039
2423.28 506.84 4039
2438.96 508.095 4049
2448.65 508.095 4049
2470.47 510.605 4069
2480.2 510.605 4069
2489.93 510.605 4069
2499.66 510.605 4069
2503.22 509.35 4059
2525.31 511.859 4079
2535.07 511.859 4079
2551.06 513.114 4089
2560.84 513.114 4089
2570.62 513.114 4089
2567.77 510.605 4069
2577.5 510.605 4069
2580.87 509.35 4059
2590.58 509.35 4059
2581.71 505.711 4030
2591.35 505.711 4030
2557.74 497.303 3963
2530.94 490.276 3907
522.502 93.6129 746
524.286 93.6129 746
526.07 93.6129 746
526.439 93.3619 744
528.218 93.3619 744
529.997 93.3619 744
531.061 93.2365 743
532.838 93.2365 743
534.615 93.2365 743
535.67 93.111 742
536.72 92.9855 741
538.492 92.9855 741
540.993 93.111 742
542.767 93.111 742
544.542 93.111 742
546.316 93.111 742
548.09 93.111 742
549.865 93.111 742
550.895 92.9855 741
552.667 92.9855 741
554.439 92.9855 741
556.211 92.9855 741
557.983 92.9855 741
560.511 93.111 742
562.285 93.111 742
564.819 93.2365 743
566.596 93.2365 743
568.373 93.2365 743
-2321.79 396.562 3101
-2322.59 397.969 3112
-2315.15 397.969 3112
-2312.15 398.736 3118
-2318 401.038 3136
-2310.5 401.038 3136
-2303.01 401.038 3136
-2291.11 400.271 3130
-2292.38 401.805 3142
-2284.87 401.805 3142
-2277.36 401.805 3142
-2278.51 403.34 3154
-2288.25 406.409 3178
-2302.18 410.245 3208
-2294.51 410.245 3208
-2286.84 410.245 3208
-2505.81 451.04 3527
-2497.37 451.04 3527
-2515.75 455.899 3565
-2539.58 461.782 3611
-2558.28 466.769 3650
-2549.55 466.769 3650
-2580.5 474.059 3707
-2606.32 480.453 3757
-2597.34 480.453 3757
-2588.35 480.453 3757
-2567.7 478.279 3740
-2536.18 474.059 3707
-2527.31 474.059 3707
-2496.71 469.966 3675
-2471 466.769 3650
-2452.15 464.851 3635
-2443.46 464.851 3635
-2434.76 464.851 3635
-2410.05 461.782 3611
-2401.42 461.782 3611
-2392.78 461.782 3611
-2384.15 461.782 3611
-2380.78 462.805 3619
-2377.37 463.828 3627
-2373.92 464.851 3635
-2365.23 464.851 3635
-2356.53 464.851 3635
-2347.84 464.851 3635
-2339.15 464.851 3635
-2330.46 464.851 3635
-2326.23 465.746 3642
-2333.43 468.943 3667
-2339.88 472.012 3691
-2331.05 472.012 3691
-2342.99 476.233 3724
-2344.11 478.279 3740
-2340.79 479.43 3749
-2331.82 479.43 3749
-2327.82 480.453 3757
-2329.32 482.627 3774
-2320.3 482.627 3774
-2311.27 482.627 3774
-2281.51 478.279 3740
-2019.01 499.635 3907
-2009.67 499.635 3907
-2000.33 499.635 3907
-1986.4 498.484 3898
-1977.08 498.484 3898
-1967.76 498.484 3898
-1949.39 496.182 3880
-1940.11 496.182 3880
-1930.83 496.182 3880
-1921.56 496.182 3880
-1912.28 496.182 3880
-1885.34 491.578 3844
-1876.15 491.578 3844
-1854.33 488.253 3818
-1845.2 488.253 3818
-1844.25 490.427 3835
-1835.08 490.427 3835
-1825.9 490.427 3835
-1821 491.578 3844
-1811.81 491.578 3844
-1811.05 493.88 3862
-1801.82 493.88 3862
-1792.58 493.88 3862
-1783.35 493.88 3862
-1786.52 497.333 3889
-1777.22 497.333 3889
-1767.92 497.333 3889
-1742.34 492.729 3853
-1733.12 492.729 3853
-1723.91 492.729 3853
-1710.69 491.578 3844
-1709.47 493.88 3862
-1716.08 498.484 3898
-1706.76 498.484 3898
-1713.55 503.216 3935
-1704.14 503.216 3935
-1694.73 503.216 3935
-1685.32 503.216 3935
-1660.15 498.484 3898
-1650.83 498.484 3898
-1645.3 499.635 3907
-1643.49 501.937 3925
-1634.11 501.937 3925
-1648.32 509.226 3982
-1642.5 510.377 3991
-1637.05 511.656 4001
-1627.48 511.656 4001
-1617.91 511.656 4001
-1520.33 498.484 3898
-1511.01 498.484 3898
-1501.69 498.484 3898
-1492.37 498.484 3898
-1483.05 498.484 3898
-1470.32 497.333 3889
-1464.41 498.484 3898
-1455.08 498.484 3898
-1445.76 498.484 3898
-1429.81 496.182 3880
-1417.24 495.031 3871
-1401.43 492.729 3853
-1392.22 492.729 3853
-1383 492.729 3853
-1370.58 491.578 3844
-1358.2 490.427 3835
-1349.03 490.427 3835
-1336.72 489.277 3826
-1324.79 488.253 3818
-1315.66 488.253 3818
-1315.43 491.578 3844
-1306.24 491.578 3844
-1300.08 492.729 3853
-1290.87 492.729 3853
-1281.65 492.729 3853
-1272.44 492.729 3853
-1257.32 490.427 3835
-1248.15 490.427 3835
-1268.06 501.937 3925
-1258.67 501.937 3925
-1273.48 511.656 4001
-1263.91 511.656 4001
-1254.34 511.656 4001
-1235.75 507.947 3972
-1226.25 507.947 3972
-521.073 217.527 1701
-517.006 217.527 1701
-511.732 217.016 1697
-507.075 216.76 1695
-503.022 216.76 1695
-498.086 216.376 1692
-493.164 215.993 1689
-488.546 215.737 1687
-482.501 214.842 1680
-478.484 214.842 1680
-473.619 214.458 1677
-469.609 214.458 1677
-463.655 213.563 1670
-459.662 213.563 1670
-454.304 212.924 1665
-448.159 211.9 1657
-440.711 210.238 1644
-436.78 210.238 1644
-430.216 208.959 1634
-424.743 208.192 1628
-419.816 207.68 1624
-415.933 207.68 1624
-411.034 207.169 1620
-405.904 206.529 1615
-401.544 206.274 1613
-396.947 205.89 1610
-393.097 205.89 1610
-388.522 205.506 1607
-383.721 204.995 1603
-378.94 204.483 1599
-375.116 204.483 1599
-370.596 204.1 1596
-366.09 203.716 1593
-362.281 203.716 1593
-358.471 203.716 1593
-354.662 203.716 1593
-350.853 203.716 1593
-347.479 203.972 1595
-343.88 204.1 1596
-340.064 204.1 1596
-336.669 204.355 1598
-333.056 204.483 1599
-330.262 205.123 1604
-326.426 205.123 1604
-322.992 205.378 1606
-319.748 205.762 1609
-316.49 206.146 1612
-312.635 206.146 1612
-309.355 206.529 1615
-306.439 207.169 1620
-302.751 207.297 1621
-298.875 207.297 1621
-295.545 207.68 1624
-292.02 207.936 1626
-288.132 207.936 1626
-284.244 207.936 1626
-281.218 208.576 1631
-277.828 208.959 1634
-274.423 209.343 1637
-270.509 209.343 1637
-267.408 209.982 1642
-263.963 210.366 1645
-260.03 210.366 1645
-256.096 210.366 1645
-252.469 210.622 1647
-248.983 211.005 1650
-245.483 211.389 1653
-241.53 211.389 1653
-237.865 211.645 1655
-234.19 211.9 1657
-230.922 212.54 1662
-227.084 212.668 1663
-223.107 212.668 1663
-220.053 213.563 1670
-216.448 213.947 1673
-213.082 214.586 1678
-209.069 214.586 1678
-205.546 215.098 1682
-202.123 215.737 1687
-198.441 216.121 1690
-194.399 216.121 1690
-190.921 216.76 1695
-187.529 217.527 1701
-184.217 218.422 1708
-180.133 218.422 1708
-176.048 218.422 1708
-172.064 218.55 1709
-168.568 219.318 1715
-164.466 219.318 1715
-160.459 219.446 1716
-156.538 219.701 1718
-152.429 219.701 1718
-148.321 219.701 1718
-144.213 219.701 1718
-140.105 219.701 1718
-136.155 219.957 1720
-132.042 219.957 1720
-128.152 220.341 1723
-124.031 220.341 1723
-119.911 220.341 1723
-249.745 511.656 4001
-241.918 515.364 4030
-232.281 515.364 4030
-222.644 515.364 4030
-213.007 515.364 4030
-202.865 514.086 4020
-193.252 514.086 4020
-182.771 511.656 4001
-172.771 510.377 3991
-163.227 510.377 3991
-153.337 509.226 3982
-144.826 512.807 4010
-135.237 512.807 4010
-125.961 514.086 4020
-116.637 515.364 4030
-107.239 516.515 4039
-97.581 516.515 4039
-88.7933 521.631 4079
-79.0391 521.631 4079
-69.285 521.631 4079
-59.5309 521.631 4079
272.776 522.909 4089
282.555 522.909 4089
292.333 522.909 4089
302.111 522.909 4089
308.838 517.794 4049
314.744 511.656 4001
324.312 511.656 4001
333.879 511.656 4001
340.957 507.947 3972
348.779 505.518 3953
359.954 507.947 3972
369.452 507.947 3972
378.951 507.947 3972
388.449 507.947 3972
394.24 503.216 3935
403.65 503.216 3935
409.176 498.484 3898
413.666 492.729 3853
412.343 480.453 3757
421.327 480.453 3757
425.615 475.21 3716
430.643 470.989 3683
433.723 464.851 3635
442.415 464.851 3635
447.136 460.759 3603
450.945 455.899 3565
455.475 451.935 3534
463.007 451.04 3527
471.441 451.04 3527
477.834 449.122 3512
485.263 448.226 3505
494.631 449.122 3512
506.18 451.935 3534
514.631 451.935 3534
523.082 451.935 3534
528.224 449.122 3512
538.914 451.04 3527
547.348 451.04 3527
556.885 451.935 3534
585.173 467.792 3658
603.337 475.21 3716
612.223 475.21 3716
629.466 481.604 3766
662.377 499.635 3907
679.628 505.518 3953
689.081 505.518 3953
700.301 506.796 3963
709.778 506.796 3963
719.254 506.796 3963
726.892 505.518 3953
736.345 505.518 3953
744.1 504.367 3944
753.531 504.367 3944
762.962 504.367 3944
772.394 504.367 3944
781.825 504.367 3944
791.256 504.367 3944
798.86 503.216 3935
806.216 501.937 3925
827.446 509.226 3982
838.86 510.377 3991
856.695 515.364 4030
866.332 515.364 4030
877.925 516.515 4039
896.373 521.631 4079
906.128 521.631 4079
915.882 521.631 4079
927.905 522.909 4089
937.683 522.909 4089
947.461 522.909 4089
954.898 521.631 4079
962.287 520.352 4069
967.24 517.794 4049
976.922 517.794 4049
986.605 517.794 4049
998.748 519.073 4059
1008.45 519.073 4059
1018.16 519.073 4059
1025.33 517.794 4049
1032.46 516.515 4039
1042.12 516.515 4039
1051.78 516.515 4039
1061.44 516.515 4039
1066.06 514.086 4020
1070.58 511.656 4001
1080.15 511.656 4001
1081.82 507.947 3972
1086.1 505.518 3953
1090.56 503.216 3935
1094.66 500.786 3916
1104.03 500.786 3916
1108.27 498.484 3898
1117.59 498.484 3898
1134.72 501.937 3925
1147.02 503.216 3935
1156.43 503.216 3935
1165.84 503.216 3935
1175.25 503.216 3935
1187.37 504.367 3944
1196.8 504.367 3944
1206.23 504.367 3944
1215.66 504.367 3944
1225.1 504.367 3944
1234.53 504.367 3944
1249.95 506.796 3963
1274.36 512.807 4010
1287.16 514.086 4020
1306.12 517.794 4049
1315.81 517.794 4049
1338.58 522.909 4089
1348.36 522.909 4089
1358.14 522.909 4089
1367.92 522.909 4089
1631.92 522.909 4089
1641.7 522.909 4089
1651.48 522.909 4089
1661.26 522.909 4089
1662.86 520.352 4069
1672.59 520.352 4069
1682.32 520.352 4069
1687.89 519.073 4059
1677.11 512.807 4010
1686.7 512.807 4010
1692.48 511.656 4001
1702.05 511.656 4001
1715.46 512.807 4010
1725.05 512.807 4010
1738.97 514.086 4020
1748.58 514.086 4020
1762.57 515.364 4030
1772.21 515.364 4030
1781.84 515.364 4030
1791.48 515.364 4030
1792.18 512.807 4010
1801.77 512.807 4010
1811.36 512.807 4010
1820.94 512.807 4010
1835.1 514.086 4020
1849.3 515.364 4030
1858.94 515.364 4030
1868.57 515.364 4030
1882.41 516.515 4039
1892.06 516.515 4039
1901.72 516.515 4039
1911.38 516.515 4039
1921.04 516.515 4039
1907.75 510.377 3991
1851 492.729 3853
1860.22 492.729 3853
1869.43 492.729 3853
1844.51 483.778 3783
1845.23 481.604 3766
1854.23 481.604 3766
1854.83 479.43 3749
1842.91 474.059 3707
1811.82 463.828 3627
1804.43 459.736 3595
1813.02 459.736 3595
1821.62 459.736 3595
1818.51 456.794 3572
1811.71 452.958 3542
1820.18 452.958 3542
1817.29 450.145 3520
1813.78 447.203 3497
1837.77 451.04 3527
1846.2 451.04 3527
1854.64 451.04 3527
1863.07 451.04 3527
1875.22 451.935 3534
1900.19 455.899 3565
1924.78 459.736 3595
1933.38 459.736 3595
1946.3 460.759 3603
1959.25 461.782 3611
1972.25 462.805 3619
1980.9 462.805 3619
1989.56 462.805 3619
2216.58 506.796 3963
2274.36 517.794 4049
2300.97 521.631 4079
2310.72 521.631 4079
2320.48 521.631 4079
2324.52 520.352 4069
2334.25 520.352 4069
2343.98 520.352 4069
2347.92 519.073 4059
2375.05 522.909 4089
2384.83 522.909 4089
2394.61 522.909 4089
2404.39 522.909 4089
2414.17 522.909 4089
2423.94 522.909 4089
2398.61 515.364 4030
2413.62 516.515 4039
2429.28 517.794 4049
2438.96 517.794 4049
2448.65 517.794 4049
2470.47 520.352 4069
2480.2 520.352 4069
2489.93 520.352 4069
2499.66 520.352 4069
2503.22 519.073 4059
2525.31 521.631 4079
2535.07 521.631 4079
2551.06 522.909 4089
2560.84 522.909 4089
2570.62 522.909 4089
2567.77 520.352 4069
2577.5 520.352 4069
2580.87 519.073 4059
2559.31 512.807 4010
2550.96 509.226 3982
2560.48 509.226 3982
2539.67 503.216 3935
2542.6 501.937 3925
524.66 95.1442 744
526.439 95.1442 744
528.218 95.1442 744
529.285 95.0163 743
530.347 94.8884 742
532.121 94.8884 742
533.895 94.8884 742
535.67 94.8884 742
536.72 94.7606 741
538.492 94.7606 741
540.264 94.7606 741
542.767 94.8884 742
544.542 94.8884 742
546.316 94.8884 742
547.352 94.7606 741
549.123 94.7606 741
550.895 94.7606 741
552.667 94.7606 741
554.439 94.7606 741
556.211 94.7606 741
557.983 94.7606 741
559.755 94.7606 741
561.527 94.7606 741
564.059 94.8884 742
565.834 94.8884 742
567.608 94.8884 742
-2330.03 405.424 3112
-2327.07 406.205 3118
-2319.61 406.205 3118
-2325.5 408.55 3136
-2322.44 409.332 3142
-2314.93 409.332 3142
-2307.41 409.332 3142
-2299.9 409.332 3142
-2296.76 410.114 3148
-2289.23 410.114 3148
-2281.71 410.114 3148
-2278.51 410.895 3154
-2288.25 414.022 3178
-2280.65 414.022 3178
-2273.05 414.022 3178
-2505.81 459.489 3527
-2497.37 459.489 3527
-2515.75 464.439 3565
-2539.58 470.432 3611
-2558.28 475.513 3650
-2549.55 475.513 3650
-2580.5 482.939 3707
-2606.32 489.453 3757
-2597.34 489.453 3757
-2588.35 489.453 3757
-2567.7 487.238 3740
-2536.18 482.939 3707
-2527.31 482.939 3707
-2496.71 478.77 3675
-2471 475.513 3650
-2452.15 473.559 3635
-2443.46 473.559 3635
-2434.76 473.559 3635
-2410.05 470.432 3611
-2401.42 470.432 3611
-2392.78 470.432 3611
-2384.15 470.432 3611
-2380.78 471.474 3619
-2372.12 471.474 3619
-2373.92 473.559 3635
-2365.23 473.559 3635
-2356.53 473.559 3635
-2347.84 473.559 3635
-2339.15 473.559 3635
-2330.46 473.559 3635
-2326.23 474.471 3642
-2327.71 476.555 3658
-2324.67 477.728 3667
-2315.9 477.728 3667
-2342.99 485.153 3724
-2344.11 487.238 3740
-2340.79 488.41 3749
-2331.82 488.41 3749
-2327.82 489.453 3757
-2329.32 491.667 3774
-2320.3 491.667 3774
-2311.27 491.667 3774
-1986.5 505.477 3880
-1986.4 507.822 3898
-1977.08 507.822 3898
-1967.76 507.822 3898
-1953.91 506.649 3889
-1944.61 506.649 3889
-1935.31 506.649 3889
-1921.56 505.477 3880
-1912.28 505.477 3880
-1885.34 500.787 3844
-1876.15 500.787 3844
-1854.33 497.4 3818
-1845.2 497.4 3818
-1844.25 499.614 3835
-1835.08 499.614 3835
-1825.9 499.614 3835
-1821 500.787 3844
-1811.81 500.787 3844
-1811.05 503.132 3862
-1801.82 503.132 3862
-1792.58 503.132 3862
-1783.35 503.132 3862
-1786.52 506.649 3889
-1777.22 506.649 3889
-1767.92 506.649 3889
-1738.27 500.787 3844
-1729.08 500.787 3844
-1719.88 500.787 3844
-1706.69 499.614 3835
-1697.52 499.614 3835
-1712.12 506.649 3889
-1702.82 506.649 3889
-1709.2 511.339 3925
-1699.81 511.339 3925
-1690.42 511.339 3925
-1681.04 511.339 3925
-1648.65 504.304 3871
-1647.02 506.649 3889
-1645.3 508.994 3907
-1643.49 511.339 3925
-1634.11 511.339 3925
-1648.32 518.765 3982
-1642.5 519.938 3991
-1637.05 521.24 4001
-1627.48 521.24 4001
-1617.91 521.24 4001
-1589.05 514.987 3953
-1579.6 514.987 3953
-1570.14 514.987 3953
-1542.53 508.994 3907
-1533.19 508.994 3907
-1523.84 508.994 3907
-1514.5 508.994 3907
-1505.16 508.994 3907
-1499.26 510.167 3916
-1489.9 510.167 3916
-1480.53 510.167 3916
-1474.55 511.339 3925
-1465.16 511.339 3925
-1455.78 511.339 3925
-1436.44 507.822 3898
-1417.24 504.304 3871
-1401.43 501.959 3853
-1392.22 501.959 3853
-1383 501.959 3853
-1373.79 501.959 3853
-1361.39 500.787 3844
-1352.2 500.787 3844
-1339.86 499.614 3835
-1327.57 498.442 3826
-1324.62 500.787 3844
-1336.99 508.994 3907
-1327.64 508.994 3907
-1324.38 511.339 3925
-1314.99 511.339 3925
-1305.6 511.339 3925
-1287.3 507.822 3898
-1275.03 506.649 3889
-1268.66 507.822 3898
-1268.06 511.339 3925
-1258.67 511.339 3925
-1273.48 521.24 4001
-1263.91 521.24 4001
-1254.34 521.24 4001
-1244.78 521.24 4001
-1226.25 517.462 3972
-519.848 221.081 1697
-515.79 221.081 1697
-511.129 220.82 1695
-506.776 220.69 1694
-502.725 220.69 1694
-498.086 220.43 1692
-493.164 220.039 1689
-487.387 219.257 1683
-481.927 218.606 1678
-477.914 218.606 1678
-472.489 217.954 1673
-468.489 217.954 1673
-463.655 217.563 1670
-459.662 217.563 1670
-453.485 216.521 1662
-447.618 215.609 1655
-440.175 213.916 1642
-436.249 213.916 1642
-429.689 212.613 1632
-424.743 212.092 1628
-419.816 211.571 1624
-415.933 211.571 1624
-411.034 211.05 1620
-406.406 210.659 1617
-401.544 210.138 1613
-397.44 210.007 1612
-393.585 210.007 1612
-389.005 209.617 1609
-383.961 208.965 1604
-378.94 208.314 1599
-375.116 208.314 1599
-371.06 208.183 1598
-366.55 207.793 1595
-362.281 207.532 1593
-358.471 207.532 1593
-354.662 207.532 1593
-350.853 207.532 1593
-347.479 207.793 1595
-343.88 207.923 1596
-340.064 207.923 1596
-336.669 208.183 1598
-333.056 208.314 1599
-330.262 208.965 1604
-326.426 208.965 1604
-322.992 209.226 1606
-319.748 209.617 1609
-316.49 210.007 1612
-312.635 210.007 1612
-309.355 210.398 1615
-306.439 211.05 1620
-302.751 211.18 1621
-298.875 211.18 1621
-295.545 211.571 1624
-292.02 211.831 1626
-288.132 211.831 1626
-284.244 211.831 1626
-281.218 212.483 1631
-277.828 212.873 1634
-274.423 213.264 1637
-270.509 213.264 1637
-267.408 213.916 1642
-263.963 214.306 1645
-260.03 214.306 1645
-256.096 214.306 1645
-252.469 214.567 1647
-248.983 214.958 1650
-245.483 215.349 1653
-241.53 215.349 1653
-237.865 215.609 1655
-234.19 215.87 1657
-230.922 216.521 1662
-227.084 216.651 1663
-223.107 216.651 1663
-219.79 217.303 1668
-216.448 217.954 1673
-213.082 218.606 1678
-209.069 218.606 1678
-205.546 219.127 1682
-202.123 219.778 1687
-198.441 220.169 1690
-194.399 220.169 1690
-190.921 220.82 1695
-187.529 221.602 1701
-184.217 222.514 1708
-180.133 222.514 1708
-176.048 222.514 1708
-172.064 222.644 1709
-168.568 223.426 1715
-164.466 223.426 1715
-160.459 223.556 1716
-156.538 223.817 1718
-152.429 223.817 1718
-148.321 223.817 1718
-144.213 223.817 1718
-140.105 223.817 1718
-136.155 224.077 1720
-132.042 224.077 1720
-128.152 224.468 1723
-124.031 224.468 1723
-119.911 224.468 1723
-241.918 525.018 4030
-232.281 525.018 4030
-222.644 525.018 4030
-213.007 525.018 4030
-202.865 523.716 4020
-193.252 523.716 4020
-182.771 521.24 4001
-172.771 519.938 3991
-163.227 519.938 3991
-153.337 518.765 3982
-144.826 522.413 4010
-135.237 522.413 4010
-125.961 523.716 4020
-116.637 525.018 4030
-107.239 526.191 4039
-97.581 526.191 4039
-88.7933 531.402 4079
-79.0391 531.402 4079
-69.285 531.402 4079
-59.5309 531.402 4079
272.776 532.705 4089
282.555 532.705 4089
292.333 532.705 4089
299.155 527.494 4049
305.176 521.24 4001
311.755 516.29 3963
321.231 516.29 3963
330.708 516.29 3963
339.327 514.987 3953
346.309 511.339 3925
354.879 510.167 3916
364.243 510.167 3916
373.608 510.167 3916
382.972 510.167 3916
391.435 508.994 3907
400.778 508.994 3907
405.397 503.132 3862
408.942 496.227 3809
411.465 488.41 3749
420.43 488.41 3749
425.615 484.111 3716
429.707 478.77 3675
432.768 472.517 3627
441.441 472.517 3627
447.136 469.39 3603
450.945 464.439 3565
455.475 460.401 3534
463.007 459.489 3527
471.441 459.489 3527
477.834 457.535 3512
485.263 456.623 3505
494.631 457.535 3512
503.029 457.535 3512
511.427 457.535 3512
519.826 457.535 3512
527.171 456.623 3505
535.553 456.623 3505
543.934 456.623 3505
556.885 460.401 3534
582.613 474.471 3642
597.979 479.812 3683
606.786 479.812 3683
625.121 487.238 3740
656.273 504.304 3871
674.814 511.339 3925
684.2 511.339 3925
698.534 514.987 3953
707.987 514.987 3953
717.439 514.987 3953
725.237 513.814 3944
734.669 513.814 3944
744.1 513.814 3944
753.531 513.814 3944
762.962 513.814 3944
772.394 513.814 3944
781.825 513.814 3944
791.256 513.814 3944
798.86 512.642 3935
806.216 511.339 3925
827.446 518.765 3982
836.969 518.765 3982
854.569 523.716 4020
864.182 523.716 4020
877.925 526.191 4039
896.373 531.402 4079
906.128 531.402 4079
915.882 531.402 4079
925.636 531.402 4079
935.39 531.402 4079
945.144 531.402 4079
954.898 531.402 4079
962.287 530.099 4069
967.24 527.494 4049
976.922 527.494 4049
986.605 527.494 4049
996.287 527.494 4049
1005.97 527.494 4049
1015.65 527.494 4049
1020.52 525.018 4030
1030.16 525.018 4030
1039.8 525.018 4030
1049.43 525.018 4030
1056.44 523.716 4020
1061.02 521.24 4001
1065.5 518.765 3982
1067.19 514.987 3953
1076.65 514.987 3953
1081.15 512.642 3935
1085.3 510.167 3916
1084.6 505.477 3880
1093.88 505.477 3880
1098.04 503.132 3862
1104.69 501.959 3853
1116.51 503.132 3862
1125.74 503.132 3862
1134.98 503.132 3862
1146.88 504.304 3871
1156.14 504.304 3871
1168.1 505.477 3880
1177.38 505.477 3880
1189.41 506.649 3889
1209.81 511.339 3925
1225.1 513.814 3944
1234.53 513.814 3944
1246.8 514.987 3953
1274.36 522.413 4010
1287.16 523.716 4020
1306.12 527.494 4049
1315.81 527.494 4049
1338.58 532.705 4089
1348.36 532.705 4089
1358.14 532.705 4089
1631.92 532.705 4089
1641.7 532.705 4089
1651.48 532.705 4089
1661.26 532.705 4089
1666.95 531.402 4079
1676.7 531.402 4079
1682.32 530.099 4069
1687.89 528.796 4059
1677.11 522.413 4010
1686.7 522.413 4010
1696.29 522.413 4010
1705.88 522.413 4010
1715.46 522.413 4010
1725.05 522.413 4010
1738.97 523.716 4020
1748.58 523.716 4020
1762.57 525.018 4030
1772.21 525.018 4030
1781.84 525.018 4030
1791.48 525.018 4030
1792.18 522.413 4010
1801.77 522.413 4010
1811.36 522.413 4010
1820.94 522.413 4010
1835.1 523.716 4020
1849.3 525.018 4030
1858.94 525.018 4030
1868.57 525.018 4030
1878.21 525.018 4030
1887.85 525.018 4030
1897.49 525.018 4030
1907.12 525.018 4030
1916.76 525.018 4030
1907.75 519.938 3991
1851 501.959 3853
1860.22 501.959 3853
1869.43 501.959 3853
1844.51 492.84 3783
1845.23 490.625 3766
1854.23 490.625 3766
1846.42 486.196 3732
1838.94 481.896 3699
1811.82 472.517 3627
1816.47 471.474 3619
1825.13 471.474 3619
1821.62 468.348 3595
1818.51 465.351 3572
1811.71 461.443 3542
1820.18 461.443 3542
1820.9 459.489 3527
1825.7 458.577 3520
1841.42 460.401 3534
1849.87 460.401 3534
1858.32 460.401 3534
1866.77 460.401 3534
1887.42 463.397 3557
1900.19 464.439 3565
1929.07 469.39 3603
1937.68 469.39 3603
1954.94 471.474 3619
1963.59 471.474 3619
1980.97 473.559 3635
1989.66 473.559 3635
1998.35 473.559 3635
2142.32 505.477 3880
2151.6 505.477 3880
2191.51 512.642 3935
2227.21 518.765 3982
2279.98 528.796 4059
2300.97 531.402 4079
2310.72 531.402 4079
2320.48 531.402 4079
2330.23 531.402 4079
2339.98 531.402 4079
2349.74 531.402 4079
2353.71 530.099 4069
2375.05 532.705 4089
2384.83 532.705 4089
2394.61 532.705 4089
2404.39 532.705 4089
2414.17 532.705 4089
2423.94 532.705 4089
2398.61 525.018 4030
2419.6 527.494 4049
2429.28 527.494 4049
2438.96 527.494 4049
2448.65 527.494 4049
2470.47 530.099 4069
2480.2 530.099 4069
2489.93 530.099 4069
2499.66 530.099 4069
2503.22 528.796 4059
2525.31 531.402 4079
2535.07 531.402 4079
2551.06 532.705 4089
2560.84 532.705 4089
2570.62 532.705 4089
2567.77 530.099 4069
2577.5 530.099 4069
2580.87 528.796 4059
2559.31 522.413 4010
2550.96 518.765 3982
2560.48 518.765 3982
2539.67 512.642 3935
2542.6 511.339 3925
524.66 96.9265 744
526.439 96.9265 744
528.218 96.9265 744
529.285 96.7962 743
530.347 96.6659 742
532.121 96.6659 742
533.895 96.6659 742
535.67 96.6659 742
536.72 96.5356 741
538.492 96.5356 741
540.264 96.5356 741
542.767 96.6659 742
544.542 96.6659 742
546.316 96.6659 742
547.352 96.5356 741
549.123 96.5356 741
550.895 96.5356 741
552.667 96.5356 741
554.439 96.5356 741
556.211 96.5356 741
557.983 96.5356 741
559.755 96.5356 741
561.527 96.5356 741
564.059 96.6659 742
565.834 96.6659 742
567.608 96.6659 742
-2330.03 412.878 3112
-2327.07 413.674 3118
-2319.61 413.674 3118
-2325.5 416.063 3136
-2322.44 416.859 3142
-2314.93 416.859 3142
-2307.41 416.859 3142
-2299.9 416.859 3142
-2296.76 417.655 3148
-2289.23 417.655 3148
-2281.71 417.655 3148
-2278.51 418.451 3154
-2288.25 421.635 3178
-2280.65 421.635 3178
-2273.05 421.635 3178
-2500.83 467.009 3520
-2492.41 467.009 3520
-2515.75 472.979 3565
-2539.58 479.082 3611
-2558.28 484.257 3650
-2549.55 484.257 3650
-2569.36 489.696 3691
-2594.53 496.197 3740
-2585.59 496.197 3740
-2576.64 496.197 3740
-2562.21 495.136 3732
-2525.23 489.696 3691
-2516.41 489.696 3691
-2496.71 487.573 3675
-2465.58 483.195 3642
-2452.15 482.266 3635
-2443.46 482.266 3635
-2429.41 481.205 3627
-2410.05 479.082 3611
-2396.1 478.021 3603
-2387.48 478.021 3603
-2378.87 478.021 3603
-2375.51 479.082 3611
-2372.12 480.144 3619
-2363.47 480.144 3619
-2354.81 480.144 3619
-2351.35 481.205 3627
-2342.67 481.205 3627
-2334 481.205 3627
-2325.33 481.205 3627
-2321.76 482.266 3635
-2322.62 484.257 3650
-2324.67 486.512 3667
-2315.9 486.512 3667
-2342.99 494.074 3724
-2349.75 497.391 3749
-2345.78 498.453 3757
-2336.8 498.453 3757
-2333.39 499.647 3766
-2334.88 501.902 3783
-2325.83 501.902 3783
-2316.79 501.902 3783
-1986.5 514.771 3880
-1986.4 517.159 3898
-1977.08 517.159 3898
-1967.76 517.159 3898
-1953.91 515.965 3889
-1944.61 515.965 3889
-1935.31 515.965 3889
-1921.56 514.771 3880
-1877.29 505.352 3809
-1868.18 505.352 3809
-1859.07 505.352 3809
-1849.96 505.352 3809
-1840.85 505.352 3809
-1844.25 508.801 3835
-1839.38 509.995 3844
-1830.19 509.995 3844
-1838.05 514.771 3880
-1828.77 514.771 3880
-1819.5 514.771 3880
-1806.02 513.577 3871
-1792.58 512.383 3862
-1783.35 512.383 3862
-1782.38 514.771 3880
-1773.1 514.771 3880
-1763.83 514.771 3880
-1746.41 512.383 3862
-1737.17 512.383 3862
-1727.94 512.383 3862
-1706.69 508.801 3835
-1697.52 508.801 3835
-1708.16 514.771 3880
-1698.88 514.771 3880
-1705.28 519.548 3916
-1695.91 519.548 3916
-1686.55 519.548 3916
-1677.18 519.548 3916
-1648.65 513.577 3871
-1647.02 515.965 3889
-1641.51 517.159 3898
-1635.96 518.353 3907
-1626.61 518.353 3907
-1632.59 523.262 3944
-1626.86 524.456 3953
-1621.5 525.783 3963
-1612.02 525.783 3963
-1602.55 525.783 3963
-1589.05 524.456 3953
-1579.6 524.456 3953
-1570.14 524.456 3953
-1542.53 518.353 3907
-1533.19 518.353 3907
-1527.35 519.548 3916
-1517.99 519.548 3916
-1508.63 519.548 3916
-1502.71 520.742 3925
-1493.32 520.742 3925
-1483.93 520.742 3925
-1474.55 520.742 3925
-1465.16 520.742 3925
-1455.78 520.742 3925
-1436.44 517.159 3898
-1413.94 512.383 3862
-1401.43 511.189 3853
-1392.22 511.189 3853
-1383 511.189 3853
-1373.79 511.189 3853
-1364.58 511.189 3853
-1355.36 511.189 3853
-1346.15 511.189 3853
-1340.06 512.383 3862
-1343.23 517.159 3898
-1340.07 519.548 3916
-1330.7 519.548 3916
-1324.38 520.742 3925
-1314.99 520.742 3925
-1305.6 520.742 3925
-1290.27 518.353 3907
-1277.98 517.159 3898
-1271.59 518.353 3907
-1262.24 518.353 3907
-1252.9 518.353 3907
-1273.48 530.825 4001
-1263.91 530.825 4001
-1254.34 530.825 4001
-1244.78 530.825 4001
-523.288 224.881 1695
-519.235 224.881 1695
-515.182 224.881 1695
-511.129 224.881 1695
-506.178 224.483 1692
-502.132 224.483 1692
-497.497 224.217 1690
-493.164 224.085 1689
-487.098 223.156 1682
-481.639 222.493 1677
-477.629 222.493 1677
-472.489 221.962 1673
-468.489 221.962 1673
-464.21 221.829 1672
-460.212 221.829 1672
-454.304 220.901 1665
-448.159 219.839 1657
-440.979 218.247 1645
-437.046 218.247 1645
-429.689 216.522 1632
-425.526 216.39 1631
-419.816 215.461 1624
-415.933 215.461 1624
-411.034 214.93 1620
-406.658 214.665 1618
-401.544 214.002 1613
-397.44 213.869 1612
-393.585 213.869 1612
-389.005 213.471 1609
-383.961 212.808 1604
-378.94 212.144 1599
-375.116 212.144 1599
-371.06 212.011 1598
-366.78 211.746 1596
-362.736 211.613 1595
-358.922 211.613 1595
-355.107 211.613 1595
-351.293 211.613 1595
-347.479 211.613 1595
-344.311 212.011 1598
-340.49 212.011 1598
-336.879 212.144 1599
-333.889 212.675 1603
-330.673 213.073 1606
-326.833 213.073 1606
-323.194 213.206 1607
-319.748 213.471 1609
-316.49 213.869 1612
-312.635 213.869 1612
-309.355 214.267 1615
-306.439 214.93 1620
-303.125 215.328 1623
-299.244 215.328 1623
-295.545 215.461 1624
-292.02 215.726 1626
-288.487 215.992 1628
-284.594 215.992 1628
-281.218 216.39 1631
-277.828 216.788 1634
-274.758 217.451 1639
-270.839 217.451 1639
-267.408 217.849 1642
-263.963 218.247 1645
-260.03 218.247 1645
-256.096 218.247 1645
-252.622 218.645 1648
-248.983 218.91 1650
-245.483 219.308 1653
-241.53 219.308 1653
-237.865 219.574 1655
-234.331 219.972 1658
-230.922 220.503 1662
-227.084 220.635 1663
-223.376 220.901 1665
-220.053 221.564 1670
-216.707 222.227 1675
-213.082 222.625 1678
-209.069 222.625 1678
-205.912 223.554 1685
-202.362 224.085 1689
-198.676 224.483 1692
-194.629 224.483 1692
-191.147 225.146 1697
-187.529 225.677 1701
-184.217 226.606 1708
-180.133 226.606 1708
-176.151 226.738 1709
-172.266 227.004 1711
-168.666 227.667 1716
-164.562 227.667 1716
-160.646 227.932 1718
-156.72 228.198 1720
-152.607 228.198 1720
-148.494 228.198 1720
-144.381 228.198 1720
-140.268 228.198 1720
-136.392 228.596 1723
-132.272 228.596 1723
-128.152 228.596 1723
-124.031 228.596 1723
-119.911 228.596 1723
-241.918 534.672 4030
-232.281 534.672 4030
-222.644 534.672 4030
-213.007 534.672 4030
-202.865 533.346 4020
-193.252 533.346 4020
-182.771 530.825 4001
-173.204 530.825 4001
-163.636 530.825 4001
-154.069 530.825 4001
-145.187 533.346 4020
-135.574 533.346 4020
-126.274 534.672 4030
-116.898 535.866 4039
-107.505 537.193 4049
-97.8226 537.193 4049
-89.0109 542.5 4089
-79.2329 542.5 4089
-69.4549 542.5 4089
272.109 541.173 4079
281.863 541.173 4079
291.618 541.173 4079
297.751 534.672 4030
302.278 525.783 3963
310.968 524.456 3953
320.421 524.456 3953
329.874 524.456 3953
338.554 523.262 3944
343.133 515.965 3889
353.248 517.159 3898
362.569 517.159 3898
371.891 517.159 3898
381.212 517.159 3898
389.631 515.965 3889
398.931 515.965 3889
405.397 512.383 3862
407.976 504.157 3800
411.465 497.391 3749
420.43 497.391 3749
425.615 493.013 3716
429.707 487.573 3675
432.768 481.205 3627
441.441 481.205 3627
447.136 478.021 3603
450.945 472.979 3565
455.475 468.866 3534
463.007 467.938 3527
471.441 467.938 3527
477.834 465.948 3512
484.156 463.958 3497
494.631 465.948 3512
503.029 465.948 3512
511.427 465.948 3512
518.79 465.019 3505
525.968 463.958 3497
534.33 463.958 3497
542.693 463.958 3497
554.679 467.009 3520
575.094 476.959 3595
591.322 483.195 3642
600.031 483.195 3642
619.605 491.819 3707
648.644 507.607 3826
665.53 513.577 3871
674.787 513.577 3871
693.586 520.742 3925
702.972 520.742 3925
712.358 520.742 3925
721.743 520.742 3925
731.129 520.742 3925
738.817 519.548 3916
748.182 519.548 3916
757.546 519.548 3916
766.91 519.548 3916
774.49 518.353 3907
783.833 518.353 3907
793.176 518.353 3907
800.67 517.159 3898
815.602 520.742 3925
836.969 528.304 3982
846.491 528.304 3982
856.013 528.304 3982
875.969 534.672 4030
887.583 535.866 4039
903.906 539.846 4069
913.636 539.846 4069
925.636 541.173 4079
935.39 541.173 4079
945.144 541.173 4079
952.557 539.846 4069
959.922 538.52 4059
967.24 537.193 4049
976.922 537.193 4049
986.605 537.193 4049
996.287 537.193 4049
1001.25 534.672 4030
1010.89 534.672 4030
1020.52 534.672 4030
1027.6 533.346 4020
1037.22 533.346 4020
1046.83 533.346 4020
1051.45 530.825 4001
1055.98 528.304 3982
1060.42 525.783 3963
1062.33 522.068 3935
1071.74 522.068 3935
1075.93 519.548 3916
1075.32 514.771 3880
1077.05 511.189 3853
1086.27 511.189 3853
1090.36 508.801 3835
1099.53 508.801 3835
1111.3 509.995 3844
1123.12 511.189 3853
1132.33 511.189 3853
1144.21 512.383 3862
1153.45 512.383 3862
1162.68 512.383 3862
1171.92 512.383 3862
1183.91 513.577 3871
1198.71 515.965 3889
1210.81 517.159 3898
1220.13 517.159 3898
1243.96 523.262 3944
1265.47 528.304 3982
1287.16 533.346 4020
1302.9 535.866 4039
1312.56 535.866 4039
1338.58 542.5 4089
1348.36 542.5 4089
1358.14 542.5 4089
1367.92 542.5 4089
1631.92 542.5 4089
1641.7 542.5 4089
1651.48 542.5 4089
1661.26 542.5 4089
1666.95 541.173 4079
1676.7 541.173 4079
1682.32 539.846 4069
1687.89 538.52 4059
1677.11 532.019 4010
1686.7 532.019 4010
1696.29 532.019 4010
1705.88 532.019 4010
1715.46 532.019 4010
1725.05 532.019 4010
1738.97 533.346 4020
1748.58 533.346 4020
1762.57 534.672 4030
1772.21 534.672 4030
1781.84 534.672 4030
1791.48 534.672 4030
1792.18 532.019 4010
1801.77 532.019 4010
1811.36 532.019 4010
1820.94 532.019 4010
1835.1 533.346 4020
1849.3 534.672 4030
1858.94 534.672 4030
1868.57 534.672 4030
1868.89 532.019 4010
1878.48 532.019 4010
1888.07 532.019 4010
1893.4 530.825 4001
1902.97 530.825 4001
1889.59 524.456 3953
1834.19 506.546 3818
1843.32 506.546 3818
1852.45 506.546 3818
1844.51 501.902 3783
1836.9 497.391 3749
1845.86 497.391 3749
1846.42 495.136 3732
1830.98 488.635 3683
1811.82 481.205 3627
1816.47 480.144 3619
1825.13 480.144 3619
1821.62 476.959 3595
1814.94 472.979 3565
1811.71 469.928 3542
1820.18 469.928 3542
1820.9 467.938 3527
1825.7 467.009 3520
1841.42 468.866 3534
1849.87 468.866 3534
1858.32 468.866 3534
1866.77 468.866 3534
1887.42 471.918 3557
1900.19 472.979 3565
1929.07 478.021 3603
1937.68 478.021 3603
1954.94 480.144 3619
1963.59 480.144 3619
1980.97 482.266 3635
1989.66 482.266 3635
1998.35 482.266 3635
2142.32 514.771 3880
2151.6 514.771 3880
2191.51 522.068 3935
2227.21 528.304 3982
2279.98 538.52 4059
2295.33 539.846 4069
2305.06 539.846 4069
2320.48 541.173 4079
2330.23 541.173 4079
2339.98 541.173 4079
2349.74 541.173 4079
2353.71 539.846 4069
2375.05 542.5 4089
2384.83 542.5 4089
2394.61 542.5 4089
2404.39 542.5 4089
2402.36 539.846 4069
2412.09 539.846 4069
2392.66 533.346 4020
2419.6 537.193 4049
2429.28 537.193 4049
2438.96 537.193 4049
2448.65 537.193 4049
2470.47 539.846 4069
2480.2 539.846 4069
2489.93 539.846 4069
2499.66 539.846 4069
2503.22 538.52 4059
2525.31 541.173 4079
2535.07 541.173 4079
2544.82 541.173 4079
2554.57 541.173 4079
2558.04 539.846 4069
2555.15 537.193 4049
2564.83 537.193 4049
2568.16 535.866 4039
2553.56 530.825 4001
2550.96 528.304 3982
2560.48 528.304 3982
2539.67 522.068 3935
2542.6 520.742 3925
523.955 98.576 743
525.731 98.576 743
527.508 98.576 743
528.572 98.4434 742
530.347 98.4434 742
531.404 98.3107 741
533.176 98.3107 741
534.948 98.3107 741
536.72 98.3107 741
538.492 98.3107 741
540.264 98.3107 741
542.036 98.3107 741
543.808 98.3107 741
545.58 98.3107 741
547.352 98.3107 741
549.123 98.3107 741
550.895 98.3107 741
551.922 98.178 740
553.691 98.178 740
555.461 98.178 740
557.23 98.178 740
559 98.178 740
561.527 98.3107 741
563.299 98.3107 741
565.071 98.3107 741
566.843 98.3107 741
-2334.52 421.144 3118
-2327.07 421.144 3118
-2319.61 421.144 3118
-2325.5 423.575 3136
-2322.44 424.385 3142
-2314.93 424.385 3142
-2307.41 424.385 3142
-2299.9 424.385 3142
-2296.76 425.196 3148
-2289.23 425.196 3148
-2281.71 425.196 3148
-2282.85 426.817 3160
-2292.57 430.058 3184
-2284.96 430.058 3184
-2277.34 430.058 3184
-2500.83 475.441 3520
-2492.41 475.441 3520
-2515.75 481.519 3565
-2539.58 487.732 3611
-2558.28 493 3650
-2549.55 493 3650
-2569.36 498.538 3691
-2594.53 505.156 3740
-2585.59 505.156 3740
-2576.64 505.156 3740
-2562.21 504.076 3732
-2525.23 498.538 3691
-2516.41 498.538 3691
-2496.71 496.377 3675
-2465.58 491.92 3642
-2452.15 490.974 3635
-2443.46 490.974 3635
-2429.41 489.894 3627
-2410.05 487.732 3611
-2396.1 486.652 3603
-2387.48 486.652 3603
-2378.87 486.652 3603
-2375.51 487.732 3611
-2372.12 488.813 3619
-2363.47 488.813 3619
-2354.81 488.813 3619
-2351.35 489.894 3627
-2342.67 489.894 3627
-2334 489.894 3627
-2325.33 489.894 3627
-2321.76 490.974 3635
-2322.62 493 3650
-2329.74 496.377 3675
-2320.95 496.377 3675
-2342.99 502.995 3724
-2349.75 506.372 3749
-2345.78 507.452 3757
-2336.8 507.452 3757
-2338.35 509.749 3774
-2340.43 512.18 3792
-2331.37 512.18 3792
-2322.3 512.18 3792
-1986.5 524.066 3880
-1986.4 526.497 3898
-1977.08 526.497 3898
-1967.76 526.497 3898
-1953.91 525.281 3889
-1944.61 525.281 3889
-1935.31 525.281 3889
-1921.56 524.066 3880
-1877.29 514.476 3809
-1868.18 514.476 3809
-1859.07 514.476 3809
-1849.96 514.476 3809
-1840.85 514.476 3809
-1844.25 517.988 3835
-1839.38 519.203 3844
-1830.19 519.203 3844
-1846.58 526.497 3898
-1837.26 526.497 3898
-1827.94 526.497 3898
-1818.61 526.497 3898
-1796.76 522.85 3871
-1787.5 522.85 3871
-1786.52 525.281 3889
-1777.22 525.281 3889
-1767.92 525.281 3889
-1746.41 521.635 3862
-1737.17 521.635 3862
-1727.94 521.635 3862
-1710.69 519.203 3844
-1697.52 517.988 3835
-1708.16 524.066 3880
-1698.88 524.066 3880
-1705.28 528.928 3916
-1695.91 528.928 3916
-1686.55 528.928 3916
-1677.18 528.928 3916
-1648.65 522.85 3871
-1647.02 525.281 3889
-1641.51 526.497 3898
-1635.96 527.713 3907
-1626.61 527.713 3907
-1632.59 532.71 3944
-1626.86 533.926 3953
-1621.5 535.277 3963
-1612.02 535.277 3963
-1602.55 535.277 3963
-1589.05 533.926 3953
-1579.6 533.926 3953
-1570.14 533.926 3953
-1546.08 528.928 3916
-1536.72 528.928 3916
-1527.35 528.928 3916
-1517.99 528.928 3916
-1508.63 528.928 3916
-1502.71 530.144 3925
-1493.32 530.144 3925
-1483.93 530.144 3925
-1474.55 530.144 3925
-1465.16 530.144 3925
-1455.78 530.144 3925
-1436.44 526.497 3898
-1413.94 521.635 3862
-1401.43 520.419 3853
-1392.22 520.419 3853
-1383 520.419 3853
-1373.79 520.419 3853
-1364.58 520.419 3853
-1355.36 520.419 3853
-1346.15 520.419 3853
-1340.06 521.635 3862
-1343.23 526.497 3898
-1340.07 528.928 3916
-1330.7 528.928 3916
-1324.38 530.144 3925
-1314.99 530.144 3925
-1305.6 530.144 3925
-1290.27 527.713 3907
-1277.98 526.497 3898
-1271.59 527.713 3907
-1262.24 527.713 3907
-1252.9 527.713 3907
-1273.48 540.409 4001
-1263.91 540.409 4001
-1254.34 540.409 4001
-1244.78 540.409 4001
-523.288 228.941 1695
-519.235 228.941 1695
-515.182 228.941 1695
-511.129 228.941 1695
-507.075 228.941 1695
-503.022 228.941 1695
-498.086 228.536 1692
-494.04 228.536 1692
-488.546 227.861 1687
-483.076 227.185 1682
-479.053 227.185 1682
-473.619 226.51 1677
-469.609 226.51 1677
-465.043 226.24 1675
-461.038 226.24 1675
-454.85 225.159 1667
-448.159 223.809 1657
-440.979 222.188 1645
-437.046 222.188 1645
-430.216 220.702 1634
-425.526 220.297 1631
-419.816 219.351 1624
-415.933 219.351 1624
-411.034 218.811 1620
-406.658 218.541 1618
-401.544 217.866 1613
-397.44 217.73 1612
-393.585 217.73 1612
-389.005 217.325 1609
-383.961 216.65 1604
-378.94 215.975 1599
-375.116 215.975 1599
-371.06 215.839 1598
-366.78 215.569 1596
-362.963 215.569 1596
-359.147 215.569 1596
-355.107 215.434 1595
-351.293 215.434 1595
-347.697 215.569 1596
-344.527 215.975 1599
-340.703 215.975 1599
-336.879 215.975 1599
-333.889 216.515 1603
-330.673 216.92 1606
-326.833 216.92 1606
-323.194 217.055 1607
-319.748 217.325 1609
-316.49 217.73 1612
-312.635 217.73 1612
-309.355 218.136 1615
-306.439 218.811 1620
-303.125 219.216 1623
-299.244 219.216 1623
-295.545 219.351 1624
-292.02 219.621 1626
-288.487 219.892 1628
-284.594 219.892 1628
-281.218 220.297 1631
-277.828 220.702 1634
-274.758 221.377 1639
-270.839 221.377 1639
-267.897 222.188 1645
-263.963 222.188 1645
-260.346 222.458 1647
-256.407 222.458 1647
-252.929 222.863 1650
-249.285 223.133 1652
-245.78 223.538 1655
-241.822 223.538 1655
-238.152 223.809 1657
-234.614 224.214 1660
-231.061 224.619 1663
-227.084 224.619 1663
-223.644 225.159 1667
-220.053 225.564 1670
-216.965 226.51 1677
-213.082 226.645 1678
-209.319 226.915 1680
-206.157 227.861 1687
-202.362 228.131 1689
-198.676 228.536 1692
-194.629 228.536 1692
-191.372 229.481 1699
-187.64 229.887 1702
-184.325 230.832 1709
-180.238 230.832 1709
-176.357 231.102 1711
-172.467 231.372 1713
-168.862 232.048 1718
-164.754 232.048 1718
-160.646 232.048 1718
-156.72 232.318 1720
-152.607 232.318 1720
-148.494 232.318 1720
-144.381 232.318 1720
-140.268 232.318 1720
-136.392 232.723 1723
-132.272 232.723 1723
-128.152 232.723 1723
-124.031 232.723 1723
-119.911 232.723 1723
-241.918 544.326 4030
-232.281 544.326 4030
-222.644 544.326 4030
-212.478 542.975 4020
-201.907 540.409 4001
-192.339 540.409 4001
-182.771 540.409 4001
-173.204 540.409 4001
-163.636 540.409 4001
-154.069 540.409 4001
-145.548 544.326 4030
-135.911 544.326 4030
-126.556 545.542 4039
-117.187 546.892 4049
-107.77 548.243 4059
-98.0642 548.243 4059
-89.0109 552.295 4089
-79.2329 552.295 4089
-69.4549 552.295 4089
253.22 552.295 4089
262.998 552.295 4089
272.776 552.295 4089
280.481 548.243 4059
290.188 548.243 4059
296.274 541.625 4010
301.515 533.926 3953
310.26 532.71 3944
319.691 532.71 3944
329.123 532.71 3944
337.781 531.495 3935
342.338 524.066 3880
352.432 525.281 3889
361.732 525.281 3889
371.032 525.281 3889
380.332 525.281 3889
386.926 521.635 3862
396.162 521.635 3862
402.563 517.988 3835
406.15 510.964 3783
408.721 502.995 3724
417.626 502.995 3724
422.752 498.538 3691
427.72 494.081 3658
430.859 487.732 3611
435.721 483.545 3580
444.282 483.545 3580
448.036 478.413 3542
453.671 475.441 3520
459.069 472.335 3497
467.431 472.335 3497
474.841 471.389 3490
479.172 467.472 3461
488.434 468.418 3468
496.727 468.418 3468
505.02 468.418 3468
513.313 468.418 3468
521.606 468.418 3468
529.899 468.418 3468
538.192 468.418 3468
552.316 473.415 3505
570.295 481.519 3565
587.588 488.813 3619
596.242 488.813 3619
608.74 491.92 3642
634.064 505.156 3740
657.793 516.772 3826
666.942 516.772 3826
682.453 521.635 3862
691.688 521.635 3862
702.557 522.85 3871
711.814 522.85 3871
721.07 522.85 3871
728.629 521.635 3862
739.584 522.85 3871
748.841 522.85 3871
758.097 522.85 3871
767.354 522.85 3871
776.611 522.85 3871
787.695 524.066 3880
796.973 524.066 3880
809.992 526.497 3898
824.988 530.144 3925
838.413 532.71 3944
847.844 532.71 3944
871.621 541.625 4010
883.408 542.975 4020
895.242 544.326 4030
904.879 544.326 4030
916.559 545.542 4039
928.51 546.892 4049
938.193 546.892 4049
947.875 546.892 4049
957.557 546.892 4049
964.851 545.542 4039
974.51 545.542 4039
