ply
format ascii 1.0
comment File generated
element vertex 2136
property float x
property float y
property float z
end_header
2125.72 -53.0172 2906
2136.33 -53.1084 2911
2166.12 -53.674 2942
2176.85 -53.7652 2947
2188.34 -53.8747 2953
2195.4 -53.8747 2953
2213.65 -54.1483 2968
2225.24 -54.2578 2974
2232.35 -54.2578 2974
2239.46 -54.2578 2974
2859.92 -68.853 3774
2868.95 -68.853 3774
2884.84 -69.0172 3783
2893.88 -69.0172 3783
-2565.13 -54.2971 3426
-2556.94 -54.2971 3426
-2533.12 -53.9643 3405
-2514.6 -53.7424 3391
-2506.49 -53.7424 3391
-2488.07 -53.5205 3377
-2479.99 -53.5205 3377
-2466.79 -53.4096 3370
-2468.95 -53.6314 3384
-2491.4 -54.2971 3426
-2483.2 -54.2971 3426
-2495.24 -54.7408 3454
-2486.98 -54.7408 3454
-2478.72 -54.7408 3454
-2470.46 -54.7408 3454
-2477.88 -55.0895 3476
-2484.49 -55.4223 3497
-2476.13 -55.4223 3497
-2484 -55.7868 3520
-2485.43 -56.0087 3534
-2482.58 -56.1355 3542
-2474.11 -56.1355 3542
-2470.52 -56.2464 3549
-2477.98 -56.611 3572
-2474.97 -56.7378 3580
-2466.41 -56.7378 3580
-2463.34 -56.8645 3588
-2454.76 -56.8645 3588
-2446.18 -56.8645 3588
-2437.6 -56.8645 3588
-2429.02 -56.8645 3588
-2415.05 -56.7378 3580
-2411.86 -56.8645 3588
-2403.28 -56.8645 3588
-2394.7 -56.8645 3588
-2386.12 -56.8645 3588
-2377.54 -56.8645 3588
-2368.96 -56.8645 3588
-2360.38 -56.8645 3588
-2351.8 -56.8645 3588
-2338 -56.7378 3580
-2334.64 -56.8645 3588
-2326.06 -56.8645 3588
-2317.48 -56.8645 3588
-2308.9 -56.8645 3588
-2300.32 -56.8645 3588
-2286.63 -56.7378 3580
-2272.98 -56.611 3572
-2279.02 -56.9755 3595
-2270.42 -56.9755 3595
-2261.83 -56.9755 3595
-2263.26 -57.2291 3611
-2264.61 -57.4826 3627
-2255.94 -57.4826 3627
-2247.27 -57.4826 3627
-2238.59 -57.4826 3627
-2229.92 -57.4826 3627
-2221.25 -57.4826 3627
-2212.57 -57.4826 3627
-2203.9 -57.4826 3627
-2195.23 -57.4826 3627
-2200.42 -57.8471 3650
-2191.69 -57.8471 3650
-2182.96 -57.8471 3650
-2179 -57.9739 3658
-2170.25 -57.9739 3658
-2161.51 -57.9739 3658
-2167.47 -58.3702 3683
-2158.67 -58.3702 3683
-2149.86 -58.3702 3683
-2141.05 -58.3702 3683
-2122.98 -58.1166 3667
-2095.76 -57.6094 3635
-2087.07 -57.6094 3635
-2060.08 -57.1023 3603
-2046.91 -56.9755 3595
-2012.23 -56.2464 3549
-2003.74 -56.2464 3549
-1978.95 -55.7868 3520
-1949.82 -55.2004 3483
-1929.23 -54.8518 3461
-1920.96 -54.8518 3461
-1893.34 -54.2971 3426
-1850.48 -53.2986 3363
-1835.31 -53.0926 3350
-1823.49 -52.9816 3343
-1815.49 -52.9816 3343
-1804.25 -52.8866 3337
-1792.51 -52.7756 3330
-1773.82 -52.4586 3310
-1765.91 -52.4586 3310
-1751.09 -52.2526 3297
-1736.33 -52.0466 3284
-1718.48 -51.7455 3265
-1710.67 -51.7455 3265
-1696.08 -51.5394 3252
-1691.42 -51.6345 3258
-1687.25 -51.7455 3265
-1682.53 -51.8406 3271
-1674.7 -51.8406 3271
-1666.88 -51.8406 3271
-1659.06 -51.8406 3271
-1651.24 -51.8406 3271
-1640.4 -51.7455 3265
-1632.59 -51.7455 3265
-1624.79 -51.7455 3265
-1616.98 -51.7455 3265
-1609.17 -51.7455 3265
-1597.93 -51.6345 3258
-1584.28 -51.4443 3246
-1576.52 -51.4443 3246
-1562.48 -51.2383 3233
-1561 -51.4443 3246
-1553.23 -51.4443 3246
-1545.47 -51.4443 3246
-1537.71 -51.4443 3246
-1532.78 -51.5394 3252
-1527.81 -51.6345 3258
-1523.29 -51.7455 3265
-1515.48 -51.7455 3265
-1507.67 -51.7455 3265
-1502.62 -51.8406 3271
-1498 -51.9515 3278
-1490.16 -51.9515 3278
-1490.91 -52.2526 3297
-1483.03 -52.2526 3297
-1484.09 -52.5696 3317
-1476.16 -52.5696 3317
-1468.23 -52.5696 3317
-1466.02 -52.7756 3330
-1461.12 -52.8866 3337
-1453.14 -52.8866 3337
-1450.79 -53.0926 3350
-1445.8 -53.2035 3357
-1437.77 -53.2035 3357
-1429.74 -53.2035 3357
-1421.71 -53.2035 3357
-1416.21 -53.2986 3363
-1408.17 -53.2986 3363
-1400.13 -53.2986 3363
-1386.71 -53.0926 3350
-1378.7 -53.0926 3350
-1367.82 -52.9816 3343
-1359.83 -52.9816 3343
-1351.83 -52.9816 3343
-1343.84 -52.9816 3343
-1335.84 -52.9816 3343
-1327.85 -52.9816 3343
-1319.86 -52.9816 3343
-1311.86 -52.9816 3343
-1298.8 -52.7756 3330
-1290.83 -52.7756 3330
-1277.86 -52.5696 3317
-1267.25 -52.4586 3310
-1254.39 -52.2526 3297
-1246.51 -52.2526 3297
-1233.74 -52.0466 3284
-1223.64 -51.9515 3278
-1210.98 -51.7455 3265
-1203.18 -51.7455 3265
-1192.81 -51.6345 3258
-1180.65 -51.4443 3246
-1172.89 -51.4443 3246
-1165.13 -51.4443 3246
-1154.87 -51.3334 3239
-1147.12 -51.3334 3239
-1137.27 -51.2383 3233
-1129.54 -51.2383 3233
-1121.8 -51.2383 3233
-1099.26 -50.5568 3190
-1087.52 -50.3666 3178
-1081.96 -50.4617 3184
-1074.35 -50.4617 3184
-1066.73 -50.4617 3184
-601.742 -28.67 1809
-597.416 -28.67 1809
-593.09 -28.67 1809
-587.462 -28.6066 1805
-578.3 -28.3689 1790
-568.568 -28.0995 1773
-562.418 -28.0044 1767
-558.193 -28.0044 1767
-551.773 -27.8934 1760
-546.32 -27.83 1756
-540.886 -27.7666 1752
-536.696 -27.7666 1752
-530.379 -27.6557 1745
-525.603 -27.624 1743
-519.939 -27.5448 1738
-515.783 -27.5448 1738
-508.978 -27.4021 1729
-504.259 -27.3704 1727
-498.971 -27.307 1723
-494.851 -27.307 1723
-488.737 -27.1961 1716
-483.786 -27.1485 1713
-478.29 -27.0693 1708
-473.095 -27.0059 1704
-469.02 -27.0059 1704
-464.127 -26.9584 1701
-458.436 -26.8633 1695
-453.579 -26.8157 1692
-449.533 -26.8157 1692
-444.17 -26.7365 1687
-439.092 -26.6731 1683
-434.292 -26.6255 1680
-430.275 -26.6255 1680
-424.482 -26.5146 1673
-420.23 -26.4987 1672
-415.733 -26.4671 1670
-411.74 -26.4671 1670
-407.014 -26.4195 1667
-402.544 -26.3878 1665
-398.084 -26.3561 1663
-394.107 -26.3561 1663
-389.427 -26.3086 1660
-385.457 -26.3086 1660
-381.488 -26.3086 1660
-377.518 -26.3086 1660
-373.098 -26.2769 1658
-368.911 -26.261 1657
-364.949 -26.261 1657
-360.55 -26.2293 1655
-356.593 -26.2293 1655
-352.209 -26.1976 1653
-348.256 -26.1976 1653
-344.095 -26.1818 1652
-340.145 -26.1818 1652
-335.787 -26.1501 1650
-331.842 -26.1501 1650
-326.902 -26.0708 1645
-322.969 -26.0708 1645
-319.035 -26.0708 1645
-314.527 -26.0233 1642
-310.222 -25.9916 1640
-306.3 -25.9916 1640
-302.194 -25.9757 1639
-298.275 -25.9757 1639
-293.996 -25.944 1637
-290.081 -25.944 1637
-286.167 -25.944 1637
-282.597 -25.9757 1639
-278.848 -25.9916 1640
-275.261 -26.0233 1642
-271.335 -26.0233 1642
-267.897 -26.0708 1645
-264.445 -26.1184 1648
-260.82 -26.1501 1650
-256.874 -26.1501 1650
-252.929 -26.1501 1650
-249.737 -26.2293 1655
-245.78 -26.2293 1655
-241.822 -26.2293 1655
-238.152 -26.261 1657
-234.331 -26.2769 1658
-230.366 -26.2769 1658
-226.401 -26.2769 1658
-222.437 -26.2769 1658
-218.472 -26.2769 1658
-214.766 -26.3086 1660
-210.796 -26.3086 1660
-206.827 -26.3086 1660
-202.857 -26.3086 1660
-198.888 -26.3086 1660
-194.918 -26.3086 1660
-190.718 -26.2769 1658
-186.078 -26.1818 1652
-181.907 -26.1501 1650
-177.961 -26.1501 1650
-173.805 -26.1184 1648
-169.761 -26.1025 1647
-165.822 -26.1025 1647
-161.884 -26.1025 1647
-157.945 -26.1025 1647
-154.007 -26.1025 1647
-150.068 -26.1025 1647
-146.219 -26.1184 1648
-142.278 -26.1184 1648
-138.505 -26.1501 1650
-134.722 -26.1818 1652
-130.851 -26.1976 1653
-126.898 -26.1976 1653
-123.094 -26.2293 1655
-119.28 -26.261 1657
-115.388 -26.2769 1658
-111.423 -26.2769 1658
-107.588 -26.3086 1660
-103.93 -26.3878 1665
-99.9487 -26.3878 1665
-95.9672 -26.3878 1665
-91.9856 -26.3878 1665
-88.0041 -26.3878 1665
-84.1235 -26.4195 1667
-80.1853 -26.4354 1668
-76.1966 -26.4354 1668
-72.2079 -26.4354 1668
-68.301 -26.4671 1670
-64.4231 -26.5146 1673
-60.4224 -26.5146 1673
-56.4218 -26.5146 1673
-52.3271 -26.4671 1670
-48.3336 -26.4671 1670
-44.3402 -26.4671 1670
-40.2984 -26.4354 1668
-53.7515 -58.3702 3683
-45.1396 -58.6237 3699
-36.2941 -58.6237 3699
-27.4487 -58.6237 3699
-18.8547 -59.4162 3749
-9.88973 -59.4162 3749
-0.924734 -59.4162 3749
8.04026 -59.4162 3749
17.0053 -59.4162 3749
25.8525 -59.1467 3732
34.7023 -59.0199 3724
43.6075 -59.0199 3724
52.5127 -59.0199 3724
61.1376 -58.7505 3707
70.1721 -58.8932 3716
79.0581 -58.8932 3716
87.9442 -58.8932 3716
96.8303 -58.8932 3716
105.716 -58.8932 3716
114.325 -58.7505 3707
123.189 -58.7505 3707
131.769 -58.6237 3699
140.006 -58.3702 3683
148.813 -58.3702 3683
157.963 -58.4969 3691
166.789 -58.4969 3691
175.616 -58.4969 3691
184.042 -58.3702 3683
192.849 -58.3702 3683
201.218 -58.2434 3675
210.006 -58.2434 3675
219.271 -58.3702 3683
228.573 -58.4969 3691
237.4 -58.4969 3691
246.226 -58.4969 3691
255.052 -58.4969 3691
264.451 -58.6237 3699
273.887 -58.7505 3707
282.752 -58.7505 3707
292.324 -58.8932 3716
301.859 -59.0199 3724
312.099 -59.2735 3740
321.043 -59.2735 3740
330.78 -59.4162 3749
339.745 -59.4162 3749
348.71 -59.4162 3749
357.675 -59.4162 3749
365.76 -59.2735 3740
374.703 -59.2735 3740
383.647 -59.2735 3740
392.59 -59.2735 3740
401.534 -59.2735 3740
409.599 -59.1467 3732
418.524 -59.1467 3732
424.585 -58.7505 3707
429.707 -58.2434 3675
437.541 -58.1166 3667
446.31 -58.1166 3667
453.962 -57.9739 3658
462.709 -57.9739 3658
470.426 -57.8471 3650
478.104 -57.7204 3642
486.813 -57.7204 3642
493.481 -57.4826 3627
498.831 -57.1023 3603
504.208 -56.7378 3580
512.769 -56.7378 3580
517.98 -56.3732 3557
524.266 -56.1355 3542
531.533 -56.0087 3534
539.984 -56.0087 3534
547.348 -55.8978 3527
552.316 -55.5491 3505
559.417 -55.4223 3497
567.78 -55.4223 3497
579.931 -55.7868 3520
588.349 -55.7868 3520
597.953 -55.8978 3527
606.387 -55.8978 3527
614.821 -55.8978 3527
622.018 -55.7868 3520
630.436 -55.7868 3520
641.394 -56.0087 3534
649.845 -56.0087 3534
658.296 -56.0087 3534
666.747 -56.0087 3534
1169.49 -64.6462 4079
1179.24 -64.6462 4079
1189 -64.6462 4079
1184.35 -63.8696 4030
1185.4 -63.41 4001
1194.96 -63.41 4001
1204.53 -63.41 4001
1211.06 -63.2515 3991
1214.8 -62.9504 3972
1221.52 -62.8077 3963
1248.7 -63.7111 4020
1258.32 -63.7111 4020
1280.23 -64.3292 4059
1289.94 -64.3292 4059
1299.64 -64.3292 4059
1309.35 -64.3292 4059
1319.06 -64.3292 4059
1532.9 -60.5097 3818
1542.03 -60.5097 3818
1551.16 -60.5097 3818
1514.93 -58.7505 3707
1507.35 -58.1166 3667
1516.12 -58.1166 3667
1504.93 -57.3558 3619
1497.27 -56.7378 3580
1505.83 -56.7378 3580
1514.39 -56.7378 3580
1519.55 -56.611 3572
1515.26 -56.1355 3542
1517.27 -55.8978 3527
1525.71 -55.8978 3527
1518.05 -55.3114 3490
1523.33 -55.2004 3483
1525.06 -54.9627 3468
1527.17 -54.7408 3454
1535.43 -54.7408 3454
1543.69 -54.7408 3454
1551.95 -54.7408 3454
1560.21 -54.7408 3454
1568.46 -54.7408 3454
1570.33 -54.519 3440
1578.56 -54.519 3440
1586.79 -54.519 3440
1601.5 -54.7408 3454
1609.76 -54.7408 3454
1618.02 -54.7408 3454
1626.28 -54.7408 3454
1634.54 -54.7408 3454
1642.8 -54.7408 3454
1644.37 -54.519 3440
1652.59 -54.519 3440
2477.69 -64.1707 4049
2487.37 -64.1707 4049
2497.06 -64.1707 4049
2506.74 -64.1707 4049
2462.97 -62.8077 3963
2472.45 -62.8077 3963
2470.03 -62.5066 3944
2416.59 -60.9218 3844
2409.38 -60.5097 3818
2434.98 -60.9218 3844
2444.17 -60.9218 3844
2453.36 -60.9218 3844
1839.96 -44.36 2799
1849.95 -44.4393 2804
1856.65 -44.4393 2804
1863.36 -44.4393 2804
1866.73 -44.36 2799
1873.42 -44.36 2799
1880.11 -44.36 2799
1877.37 -44.1382 2785
1871.85 -43.8529 2767
1881.19 -43.9163 2771
1893.94 -44.0589 2780
1900.59 -44.0589 2780
1914.1 -44.2174 2790
1923.53 -44.2808 2794
1933.66 -44.36 2799
1940.35 -44.36 2799
1950.53 -44.4393 2804
1960.72 -44.5185 2809
1973.74 -44.6612 2818
1980.48 -44.6612 2818
1990.74 -44.7404 2823
2010.94 -45.0415 2842
2021.29 -45.1208 2847
2028.09 -45.1208 2847
2038.48 -45.2 2852
2045.3 -45.2 2852
2062.19 -45.4219 2866
2069.04 -45.4219 2866
2086.76 -45.6596 2881
2100.92 -45.8181 2891
2115.12 -45.9766 2901
2122.06 -45.9766 2901
2132.67 -46.0558 2906
2155.08 -46.3887 2927
2173.16 -46.6264 2942
2183.9 -46.7056 2947
2190.94 -46.7056 2947
2197.99 -46.7056 2947
2228.98 -47.2128 2979
2276.64 -48.0686 3033
2283.89 -48.0686 3033
2291.14 -48.0686 3033
2884.84 -59.955 3783
2893.88 -59.955 3783
-2565.13 -46.0901 3426
-2556.94 -46.0901 3426
-2538.33 -45.9017 3412
-2524.98 -45.8075 3405
-2516.84 -45.8075 3405
-2498.38 -45.6192 3391
-2490.27 -45.6192 3391
-2487.29 -45.7134 3398
-2494.48 -45.9959 3419
-2491.4 -46.0901 3426
-2498.43 -46.3726 3447
-2505.35 -46.6551 3468
-2502.82 -46.7627 3476
-2494.51 -46.7627 3476
-2486.2 -46.7627 3476
-2487.86 -46.9511 3490
-2495.15 -47.247 3512
-2486.75 -47.247 3512
-2488.94 -47.4488 3527
-2485.43 -47.543 3534
-2482.58 -47.6506 3542
-2474.11 -47.6506 3542
-2470.52 -47.7448 3549
-2477.98 -48.0542 3572
-2474.97 -48.1618 3580
-2466.41 -48.1618 3580
-2463.34 -48.2695 3588
-2454.76 -48.2695 3588
-2446.18 -48.2695 3588
-2437.6 -48.2695 3588
-2429.02 -48.2695 3588
-2415.05 -48.1618 3580
-2406.49 -48.1618 3580
-2397.93 -48.1618 3580
-2394.7 -48.2695 3588
-2386.12 -48.2695 3588
-2377.54 -48.2695 3588
-2368.96 -48.2695 3588
-2360.38 -48.2695 3588
-2346.56 -48.1618 3580
-2338 -48.1618 3580
-2329.44 -48.1618 3580
-2315.69 -48.0542 3572
-2312.32 -48.1618 3580
-2303.76 -48.1618 3580
-2295.19 -48.1618 3580
-2281.52 -48.0542 3572
-2272.98 -48.0542 3572
-2274.58 -48.2695 3588
-2270.42 -48.3636 3595
-2261.83 -48.3636 3595
-2263.26 -48.5789 3611
-2254.62 -48.5789 3611
-2255.94 -48.7941 3627
-2247.27 -48.7941 3627
-2238.59 -48.7941 3627
-2229.92 -48.7941 3627
-2221.25 -48.7941 3627
-2207.69 -48.6865 3619
-2199.04 -48.6865 3619
-2195.23 -48.7941 3627
-2200.42 -49.1035 3650
-2191.69 -49.1035 3650
-2182.96 -49.1035 3650
-2179 -49.2112 3658
-2170.25 -49.2112 3658
-2161.51 -49.2112 3658
-2167.47 -49.5475 3683
-2163.35 -49.6551 3691
-2154.53 -49.6551 3691
-2145.7 -49.6551 3691
-2127.61 -49.4399 3675
-2099.8 -48.9959 3642
-2091.09 -48.9959 3642
-2069.23 -48.6865 3619
-2051.46 -48.4712 3603
-2016.77 -47.8524 3557
-2008.26 -47.8524 3557
-1978.95 -47.3546 3520
-1949.82 -46.8569 3483
-1933.13 -46.6551 3468
-1924.84 -46.6551 3468
-1901.07 -46.2784 3440
-1850.48 -45.2425 3363
-1835.31 -45.0676 3350
-1823.49 -44.9735 3343
-1815.49 -44.9735 3343
-1804.25 -44.8927 3337
-1792.51 -44.7986 3330
-1773.82 -44.5295 3310
-1765.91 -44.5295 3310
-1751.09 -44.3546 3297
-1739.5 -44.2605 3290
-1721.64 -44.0048 3271
-1713.81 -44.0048 3271
-1699.21 -43.83 3258
-1691.42 -43.83 3258
-1690.35 -44.0048 3271
-1682.53 -44.0048 3271
-1674.7 -44.0048 3271
-1666.88 -44.0048 3271
-1659.06 -44.0048 3271
-1651.24 -44.0048 3271
-1643.42 -44.0048 3271
-1632.59 -43.9241 3265
-1624.79 -43.9241 3265
-1616.98 -43.9241 3265
-1609.17 -43.9241 3265
-1601.36 -43.9241 3265
-1590.14 -43.83 3258
-1582.35 -43.83 3258
-1568.76 -43.6685 3246
-1561 -43.6685 3246
-1556.11 -43.7492 3252
-1548.33 -43.7492 3252
-1540.55 -43.7492 3252
-1532.78 -43.7492 3252
-1525 -43.7492 3252
-1517.22 -43.7492 3252
-1506.66 -43.6685 3246
-1495.67 -43.5743 3239
-1496.65 -43.83 3258
-1492.06 -43.9241 3265
-1484.25 -43.9241 3265
-1482.32 -44.099 3278
-1479.88 -44.2605 3290
-1475.14 -44.3546 3297
-1467.26 -44.3546 3297
-1465.13 -44.5295 3310
-1457.22 -44.5295 3310
-1452.37 -44.6237 3317
-1444.43 -44.6237 3317
-1442.13 -44.7986 3330
-1437.18 -44.8927 3337
-1429.2 -44.8927 3337
-1421.22 -44.8927 3337
-1413.24 -44.8927 3337
-1405.26 -44.8927 3337
-1397.28 -44.8927 3337
-1389.3 -44.8927 3337
-1381.32 -44.8927 3337
-1373.34 -44.8927 3337
-1365.37 -44.8927 3337
-1357.39 -44.8927 3337
-1343.74 -44.7044 3323
-1338.61 -44.7986 3330
-1330.65 -44.7986 3330
-1322.69 -44.7986 3330
-1314.72 -44.7986 3330
-1306.76 -44.7986 3330
-1293.73 -44.6237 3317
-1285.79 -44.6237 3317
-1272.47 -44.4353 3303
-1262.27 -44.3546 3297
-1249.44 -44.1797 3284
-1241.59 -44.1797 3284
-1231.48 -44.099 3278
-1218.79 -43.9241 3265
-1208.39 -43.83 3258
-1200.6 -43.83 3258
-1190.61 -43.7492 3252
-1175.92 -43.4936 3233
-1168.19 -43.4936 3233
-1162.61 -43.5743 3239
-1154.87 -43.5743 3239
-1147.12 -43.5743 3239
-1137.27 -43.4936 3233
-1129.54 -43.4936 3233
-1121.8 -43.4936 3233
-1099.26 -42.9151 3190
-1087.52 -42.7537 3178
-1079.92 -42.7537 3178
-1070.3 -42.673 3172
-609.418 -24.4711 1819
-605.068 -24.4711 1819
-598.737 -24.3903 1813
-594.401 -24.3903 1813
-588.764 -24.3365 1809
-578.946 -24.1078 1792
-569.851 -23.906 1777
-563.692 -23.8253 1771
-559.457 -23.8253 1771
-552.714 -23.7177 1763
-547.564 -23.6773 1760
-541.503 -23.5966 1754
-537.309 -23.5966 1754
-530.987 -23.5024 1747
-525.603 -23.4486 1743
-519.939 -23.3814 1738
-515.783 -23.3814 1738
-508.978 -23.2603 1729
-504.259 -23.2334 1727
-498.681 -23.1661 1722
-494.564 -23.1661 1722
-488.452 -23.0719 1715
-482.656 -22.9912 1709
-477.73 -22.9509 1706
-472.262 -22.8836 1701
-468.194 -22.8836 1701
-463.035 -22.8298 1697
-458.166 -22.7894 1694
-452.775 -22.7222 1689
-448.736 -22.7222 1689
-443.644 -22.6683 1685
-438.832 -22.628 1682
-433.775 -22.5742 1678
-429.763 -22.5742 1678
-424.482 -22.5069 1673
-419.727 -22.4666 1670
-414.987 -22.4262 1667
-411 -22.4262 1667
-406.526 -22.3993 1665
-402.061 -22.3724 1663
-398.084 -22.3724 1663
-394.107 -22.3724 1663
-389.896 -22.3589 1662
-385.457 -22.332 1660
-381.488 -22.332 1660
-377.518 -22.332 1660
-373.548 -22.332 1660
-368.911 -22.2917 1657
-364.949 -22.2917 1657
-360.55 -22.2648 1655
-356.593 -22.2648 1655
-352.209 -22.2379 1653
-348.046 -22.2244 1652
-343.679 -22.1975 1650
-339.733 -22.1975 1650
-335.787 -22.1975 1650
-331.439 -22.1706 1648
-326.902 -22.1302 1645
-322.969 -22.1302 1645
-319.035 -22.1302 1645
-314.143 -22.063 1640
-310.222 -22.063 1640
-306.3 -22.063 1640
-302.194 -22.0495 1639
-298.275 -22.0495 1639
-293.996 -22.0226 1637
-290.081 -22.0226 1637
-286.167 -22.0226 1637
-282.597 -22.0495 1639
-278.848 -22.063 1640
-275.261 -22.0899 1642
-271.335 -22.0899 1642
-267.897 -22.1302 1645
-264.445 -22.1706 1648
-260.504 -22.1706 1648
-256.563 -22.1706 1648
-252.929 -22.1975 1650
-249.436 -22.2379 1653
-245.78 -22.2648 1655
-241.822 -22.2648 1655
-237.865 -22.2648 1655
-234.19 -22.2917 1657
-230.227 -22.2917 1657
-226.265 -22.2917 1657
-222.303 -22.2917 1657
-218.34 -22.2917 1657
-214.766 -22.332 1660
-210.796 -22.332 1660
-206.827 -22.332 1660
-202.857 -22.332 1660
-198.888 -22.332 1660
-194.918 -22.332 1660
-190.718 -22.3051 1658
-186.19 -22.2379 1653
-182.127 -22.2244 1652
-178.177 -22.2244 1652
-173.805 -22.1706 1648
-169.864 -22.1706 1648
-165.822 -22.1571 1647
-161.884 -22.1571 1647
-157.945 -22.1571 1647
-154.007 -22.1571 1647
-150.068 -22.1571 1647
-146.219 -22.1706 1648
-142.278 -22.1706 1648
-138.505 -22.1975 1650
-134.722 -22.2244 1652
-130.851 -22.2379 1653
-126.898 -22.2379 1653
-123.094 -22.2648 1655
-119.28 -22.2917 1657
-115.388 -22.3051 1658
-111.423 -22.3051 1658
-107.458 -22.3051 1658
-103.93 -22.3993 1665
-99.9487 -22.3993 1665
-95.9672 -22.3993 1665
-91.9856 -22.3993 1665
-88.0041 -22.3993 1665
-84.1235 -22.4262 1667
-80.1853 -22.4396 1668
-76.1966 -22.4396 1668
-72.2945 -22.4666 1670
-68.3828 -22.4935 1672
-64.4231 -22.5069 1673
-60.4224 -22.5069 1673
-56.4218 -22.5069 1673
-52.4211 -22.5069 1673
-48.4205 -22.5069 1673
-44.4198 -22.5069 1673
-40.395 -22.4935 1672
-53.7515 -49.5475 3683
-44.9443 -49.5475 3683
-36.1371 -49.5475 3683
-27.4487 -49.7627 3699
-18.7692 -50.2067 3732
-9.84488 -50.2067 3732
-0.924734 -50.4354 3749
8.04026 -50.4354 3749
17.0053 -50.4354 3749
25.8525 -50.2067 3732
34.7023 -50.0991 3724
43.6075 -50.0991 3724
52.5127 -50.0991 3724
61.1376 -49.8704 3707
70.0021 -49.8704 3707
78.8667 -49.8704 3707
87.7312 -49.8704 3707
96.5958 -49.8704 3707
105.233 -49.7627 3699
113.831 -49.6551 3691
122.658 -49.6551 3691
131.199 -49.5475 3683
139.702 -49.4399 3675
148.49 -49.4399 3675
157.621 -49.5475 3683
166.428 -49.5475 3683
175.235 -49.5475 3683
183.642 -49.4399 3675
192.43 -49.4399 3675
201.218 -49.4399 3675
210.006 -49.4399 3675
218.794 -49.4399 3675
228.573 -49.6551 3691
237.4 -49.6551 3691
246.226 -49.6551 3691
255.605 -49.7627 3699
264.451 -49.7627 3699
274.552 -49.9914 3716
283.438 -49.9914 3716
292.953 -50.0991 3724
303.156 -50.3143 3740
313.518 -50.543 3757
322.502 -50.543 3757
332.28 -50.6641 3766
341.286 -50.6641 3766
350.291 -50.6641 3766
359.297 -50.6641 3766
366.64 -50.4354 3749
375.605 -50.4354 3749
384.57 -50.4354 3749
393.535 -50.4354 3749
402.5 -50.4354 3749
410.477 -50.3143 3740
419.421 -50.3143 3740
424.585 -49.8704 3707
428.772 -49.3322 3667
436.467 -49.2112 3658
445.214 -49.2112 3658
453.962 -49.2112 3658
462.709 -49.2112 3658
469.394 -48.9959 3642
476.134 -48.7941 3627
484.808 -48.7941 3627
490.216 -48.4712 3603
497.724 -48.3636 3595
504.208 -48.1618 3580
512.769 -48.1618 3580
515.796 -47.6506 3542
523.082 -47.543 3534
530.48 -47.4488 3527
538.914 -47.4488 3527
545.02 -47.247 3512
551.055 -47.0452 3497
559.417 -47.0452 3497
567.78 -47.0452 3497
578.613 -47.247 3512
587.012 -47.247 3512
595.41 -47.247 3512
603.808 -47.247 3512
612.206 -47.247 3512
620.605 -47.247 3512
630.436 -47.3546 3520
638.853 -47.3546 3520
649.845 -47.543 3534
658.296 -47.543 3534
666.747 -47.543 3534
1166.62 -54.7404 4069
1176.35 -54.7404 4069
1186.08 -54.7404 4069
1192.87 -54.6058 4059
1185.4 -53.8256 4001
1194.96 -53.8256 4001
1204.53 -53.8256 4001
1214.1 -53.8256 4001
1223.67 -53.8256 4001
1230.15 -53.691 3991
1245.6 -53.9466 4010
1255.19 -53.9466 4010
1280.23 -54.6058 4059
1289.94 -54.6058 4059
1299.64 -54.6058 4059
1309.35 -54.6058 4059
1319.06 -54.6058 4059
1485.12 -49.7627 3699
1493.97 -49.7627 3699
1502.81 -49.7627 3699
1498.58 -49.3322 3667
1497.07 -48.9959 3642
1505.78 -48.9959 3642
1501.6 -48.5789 3611
1497.27 -48.1618 3580
1505.83 -48.1618 3580
1514.39 -48.1618 3580
1516.57 -47.96 3565
1515.26 -47.6506 3542
1504.37 -47.0452 3497
1512.73 -47.0452 3497
1515 -46.8569 3483
1516.77 -46.6551 3468
1515.83 -46.3726 3447
1524.07 -46.3726 3447
1532.31 -46.3726 3447
1540.56 -46.3726 3447
1548.8 -46.3726 3447
1557.04 -46.3726 3447
1565.29 -46.3726 3447
1563.94 -46.0901 3426
1568.92 -45.9959 3419
1580.33 -46.0901 3426
1591.77 -46.1842 3433
1599.98 -46.1842 3433
1608.18 -46.1842 3433
1622.99 -46.3726 3447
1631.23 -46.3726 3447
1642.8 -46.4667 3454
1651.06 -46.4667 3454
1659.32 -46.4667 3454
2487.37 -54.4713 4049
2497.06 -54.4713 4049
2506.74 -54.4713 4049
2462.97 -53.3143 3963
2472.45 -53.3143 3963
2470.03 -53.0587 3944
2400.25 -51.3636 3818
2381.61 -50.7717 3774
2390.64 -50.7717 3774
2399.66 -50.7717 3774
1849.16 -37.8434 2813
1855.89 -37.8434 2813
1862.61 -37.8434 2813
1866.68 -37.7895 2809
1870.06 -37.7223 2804
1876.77 -37.7223 2804
1870.71 -37.4667 2785
1871.3 -37.3456 2776
1868.47 -37.1573 2762
1875.08 -37.1573 2762
1891.22 -37.3456 2776
1897.86 -37.3456 2776
1907.24 -37.3994 2780
1920.77 -37.5339 2790
1933.66 -37.655 2799
1940.35 -37.655 2799
1950.53 -37.7223 2804
1957.23 -37.7223 2804
1970.24 -37.8434 2813
1976.97 -37.8434 2813
1990.74 -37.9779 2823
2010.94 -38.2335 2842
2021.29 -38.3008 2847
2028.09 -38.3008 2847
2034.9 -38.3008 2847
2045.3 -38.368 2852
2062.19 -38.5564 2866
2069.04 -38.5564 2866
2083.14 -38.6909 2876
2097.28 -38.8254 2886
2111.48 -38.96 2896
2122.06 -39.0272 2901
2129 -39.0272 2901
2147.71 -39.2425 2917
2162.08 -39.377 2927
2169.07 -39.377 2927
2176.07 -39.377 2927
2197.99 -39.6461 2947
2228.98 -40.0766 2979
2276.64 -40.803 3033
2283.89 -40.803 3033
2291.14 -40.803 3033
-2565.13 -37.883 3426
-2556.94 -37.883 3426
-2543.54 -37.8056 3419
-2530.17 -37.7282 3412
-2522.01 -37.7282 3412
-2508.7 -37.6508 3405
-2500.55 -37.6508 3405
-2512.91 -37.9605 3433
-2509.8 -38.0379 3440
-2501.58 -38.0379 3440
-2508.57 -38.2701 3461
-2511.13 -38.4359 3476
-2507.86 -38.5133 3483
-2499.53 -38.5133 3483
-2496.21 -38.5907 3490
-2492.85 -38.6681 3497
-2495.15 -38.834 3512
-2486.75 -38.834 3512
-2488.94 -38.9999 3527
-2485.43 -39.0773 3534
-2482.58 -39.1657 3542
-2474.11 -39.1657 3542
-2470.52 -39.2431 3549
-2477.98 -39.4974 3572
-2474.97 -39.5859 3580
-2466.41 -39.5859 3580
-2463.34 -39.6744 3588
-2454.76 -39.6744 3588
-2446.18 -39.6744 3588
-2437.6 -39.6744 3588
-2429.02 -39.6744 3588
-2415.05 -39.5859 3580
-2406.49 -39.5859 3580
-2397.93 -39.5859 3580
-2394.7 -39.6744 3588
-2386.12 -39.6744 3588
-2377.54 -39.6744 3588
-2368.96 -39.6744 3588
-2360.38 -39.6744 3588
-2346.56 -39.5859 3580
-2338 -39.5859 3580
-2329.44 -39.5859 3580
-2315.69 -39.4974 3572
-2312.32 -39.5859 3580
-2303.76 -39.5859 3580
-2295.19 -39.5859 3580
-2281.52 -39.4974 3572
-2272.98 -39.4974 3572
-2274.58 -39.6744 3588
-2270.42 -39.7518 3595
-2261.83 -39.7518 3595
-2263.26 -39.9287 3611
-2254.62 -39.9287 3611
-2255.94 -40.1056 3627
-2247.27 -40.1056 3627
-2238.59 -40.1056 3627
-2229.92 -40.1056 3627
-2221.25 -40.1056 3627
-2207.69 -40.0172 3619
-2199.04 -40.0172 3619
-2195.23 -40.1056 3627
-2200.42 -40.3599 3650
-2191.69 -40.3599 3650
-2182.96 -40.3599 3650
-2179 -40.4484 3658
-2170.25 -40.4484 3658
-2161.51 -40.4484 3658
-2167.47 -40.7248 3683
-2163.35 -40.8133 3691
-2154.53 -40.8133 3691
-2145.7 -40.8133 3691
-2132.24 -40.7248 3683
-2104.41 -40.3599 3650
-2095.68 -40.3599 3650
-2073.8 -40.1056 3627
-2056.02 -39.9287 3611
-2016.77 -39.3316 3557
-2008.26 -39.3316 3557
-1982.89 -38.9999 3527
-1962.14 -38.7566 3505
-1937.59 -38.4359 3476
-1929.28 -38.4359 3476
-1904.94 -38.1153 3447
-1850.48 -37.1864 3363
-1835.31 -37.0427 3350
-1823.49 -36.9653 3343
-1815.49 -36.9653 3343
-1804.25 -36.8989 3337
-1792.51 -36.8215 3330
-1773.82 -36.6004 3310
-1765.91 -36.6004 3310
-1751.09 -36.4566 3297
-1739.5 -36.3792 3290
-1721.64 -36.1691 3271
-1713.81 -36.1691 3271
-1699.21 -36.0254 3258
-1691.42 -36.0254 3258
-1690.35 -36.1691 3271
-1686.13 -36.2465 3278
-1678.29 -36.2465 3278
-1670.45 -36.2465 3278
-1659.06 -36.1691 3271
-1651.24 -36.1691 3271
-1643.42 -36.1691 3271
-1635.59 -36.1691 3271
-1634.24 -36.3129 3284
-1626.39 -36.3129 3284
-1618.54 -36.3129 3284
-1607.74 -36.2465 3278
-1590.14 -36.0254 3258
-1582.35 -36.0254 3258
-1574.56 -36.0254 3258
-1570.13 -36.1028 3265
-1565.2 -36.1691 3271
-1557.38 -36.1691 3271
-1549.55 -36.1691 3271
-1538.9 -36.1028 3265
-1527.81 -36.0254 3258
-1520.02 -36.0254 3258
-1506.66 -35.8927 3246
-1498.9 -35.8927 3246
-1496.65 -36.0254 3258
-1492.06 -36.1028 3265
-1484.25 -36.1028 3265
-1482.32 -36.2465 3278
-1479.88 -36.3792 3290
-1475.14 -36.4566 3297
-1467.26 -36.4566 3297
-1465.13 -36.6004 3310
-1457.22 -36.6004 3310
-1452.37 -36.6778 3317
-1444.43 -36.6778 3317
-1442.13 -36.8215 3330
-1437.18 -36.8989 3337
-1429.2 -36.8989 3337
-1421.22 -36.8989 3337
-1413.24 -36.8989 3337
-1405.26 -36.8989 3337
-1397.28 -36.8989 3337
-1389.3 -36.8989 3337
-1381.32 -36.8989 3337
-1373.34 -36.8989 3337
-1365.37 -36.8989 3337
-1357.39 -36.8989 3337
-1343.74 -36.7441 3323
-1338.61 -36.8215 3330
-1330.65 -36.8215 3330
-1322.69 -36.8215 3330
-1314.72 -36.8215 3330
-1306.76 -36.8215 3330
-1293.73 -36.6778 3317
-1285.79 -36.6778 3317
-1272.47 -36.523 3303
-1262.27 -36.4566 3297
-1249.44 -36.3129 3284
-1241.59 -36.3129 3284
-1231.48 -36.2465 3278
-1218.79 -36.1028 3265
-1208.39 -36.0254 3258
-1200.6 -36.0254 3258
-1190.61 -35.959 3252
-1175.92 -35.749 3233
-1168.19 -35.749 3233
-1162.61 -35.8153 3239
-1154.87 -35.8153 3239
-1147.12 -35.8153 3239
-1137.27 -35.749 3233
-1129.54 -35.749 3233
-1121.8 -35.749 3233
-1099.26 -35.2735 3190
-1087.52 -35.1408 3178
-1079.92 -35.1408 3178
-1070.3 -35.0744 3172
-616.789 -20.3569 1841
-611.056 -20.3127 1837
-599.397 -20.0694 1815
-595.057 -20.0694 1815
-590.066 -20.0473 1813
-579.592 -19.8372 1794
-570.813 -19.6824 1780
-565.601 -19.6492 1777
-561.352 -19.6492 1777
-555.222 -19.5829 1771
-548.187 -19.4833 1762
-542.121 -19.417 1756
-537.922 -19.417 1756
-530.987 -19.3175 1747
-526.206 -19.2954 1745
-519.939 -19.218 1738
-515.783 -19.218 1738
-508.978 -19.1184 1729
-504.259 -19.0963 1727
-498.681 -19.041 1722
-494.564 -19.041 1722
-488.452 -18.9636 1715
-482.656 -18.8973 1709
-477.73 -18.8641 1706
-472.262 -18.8088 1701
-468.194 -18.8088 1701
-463.035 -18.7646 1697
-458.166 -18.7314 1694
-452.775 -18.6761 1689
-448.736 -18.6761 1689
-443.644 -18.6319 1685
-438.832 -18.5987 1682
-433.775 -18.5545 1678
-429.763 -18.5545 1678
-424.482 -18.4992 1673
-419.727 -18.4661 1670
-414.987 -18.4329 1667
-411 -18.4329 1667
-406.526 -18.4108 1665
-402.061 -18.3886 1663
-398.084 -18.3886 1663
-394.107 -18.3886 1663
-389.896 -18.3776 1662
-385.457 -18.3555 1660
-381.488 -18.3555 1660
-377.518 -18.3555 1660
-373.548 -18.3555 1660
-368.911 -18.3223 1657
-364.949 -18.3223 1657
-360.986 -18.3223 1657
-357.024 -18.3223 1657
-352.635 -18.3002 1655
-348.046 -18.267 1652
-344.095 -18.267 1652
-340.145 -18.267 1652
-336.194 -18.267 1652
-331.842 -18.2449 1650
-327.3 -18.2117 1647
-323.361 -18.2117 1647
-319.035 -18.1896 1645
-314.527 -18.1564 1642
-310.222 -18.1343 1640
-306.3 -18.1343 1640
-302.378 -18.1343 1640
-298.275 -18.1233 1639
-294.355 -18.1233 1639
-290.436 -18.1233 1639
-286.517 -18.1233 1639
-282.77 -18.1343 1640
-278.848 -18.1343 1640
-275.261 -18.1564 1642
-271.335 -18.1564 1642
-267.897 -18.1896 1645
-264.445 -18.2228 1648
-260.504 -18.2228 1648
-256.563 -18.2228 1648
-252.929 -18.2449 1650
-249.436 -18.2781 1653
-245.78 -18.3002 1655
-241.822 -18.3002 1655
-237.865 -18.3002 1655
-234.19 -18.3223 1657
-230.227 -18.3223 1657
-226.265 -18.3223 1657
-222.303 -18.3223 1657
-218.34 -18.3223 1657
-214.766 -18.3555 1660
-210.796 -18.3555 1660
-206.827 -18.3555 1660
-202.857 -18.3555 1660
-198.888 -18.3555 1660
-194.918 -18.3555 1660
-190.718 -18.3334 1658
-186.19 -18.2781 1653
-182.127 -18.267 1652
-178.177 -18.267 1652
-173.805 -18.2228 1648
-169.864 -18.2228 1648
-165.822 -18.2117 1647
-161.884 -18.2117 1647
-157.945 -18.2117 1647
-154.007 -18.2117 1647
-150.068 -18.2117 1647
-146.219 -18.2228 1648
-142.278 -18.2228 1648
-138.505 -18.2449 1650
-134.722 -18.267 1652
-130.851 -18.2781 1653
-126.898 -18.2781 1653
-123.094 -18.3002 1655
-119.28 -18.3223 1657
-115.388 -18.3334 1658
-111.423 -18.3334 1658
-107.458 -18.3334 1658
-103.93 -18.4108 1665
-99.9487 -18.4108 1665
-95.9672 -18.4108 1665
-91.9856 -18.4108 1665
-88.0041 -18.4108 1665
-84.174 -18.4439 1668
-80.1853 -18.4439 1668
-76.1966 -18.4439 1668
-72.2945 -18.4661 1670
-68.3828 -18.4882 1672
-64.4231 -18.4992 1673
-60.4224 -18.4992 1673
-56.4218 -18.4992 1673
-52.4211 -18.4992 1673
-48.4205 -18.4992 1673
-44.4198 -18.4992 1673
-40.395 -18.4882 1672
-53.7515 -40.7248 3683
-44.9443 -40.7248 3683
-36.1371 -40.7248 3683
-27.5748 -41.0897 3716
-18.7692 -41.2667 3732
-9.84488 -41.2667 3732
-0.924734 -41.4546 3749
8.04026 -41.4546 3749
17.0053 -41.4546 3749
25.8525 -41.2667 3732
34.7023 -41.1782 3724
43.6075 -41.1782 3724
52.5127 -41.1782 3724
61.1376 -40.9902 3707
70.0021 -40.9902 3707
78.8667 -40.9902 3707
87.7312 -40.9902 3707
96.5958 -40.9902 3707
105.233 -40.9018 3699
113.831 -40.8133 3691
122.658 -40.8133 3691
131.199 -40.7248 3683
140.006 -40.7248 3683
148.49 -40.6364 3675
157.621 -40.7248 3683
166.428 -40.7248 3683
175.235 -40.7248 3683
183.642 -40.6364 3675
192.43 -40.6364 3675
201.218 -40.6364 3675
210.006 -40.6364 3675
218.794 -40.6364 3675
228.573 -40.8133 3691
237.4 -40.8133 3691
246.226 -40.8133 3691
255.605 -40.9018 3699
265.666 -41.0897 3716
275.143 -41.1782 3724
284.048 -41.1782 3724
294.212 -41.3551 3740
303.885 -41.4546 3749
314.269 -41.6426 3766
323.274 -41.6426 3766
332.986 -41.7311 3774
342.011 -41.7311 3774
351.035 -41.7311 3774
360.06 -41.7311 3774
368.303 -41.6426 3766
377.308 -41.6426 3766
386.314 -41.6426 3766
394.375 -41.5431 3757
403.359 -41.5431 3757
411.465 -41.4546 3749
420.43 -41.4546 3749
424.585 -40.9902 3707
429.707 -40.6364 3675
436.467 -40.4484 3658
445.214 -40.4484 3658
453.962 -40.4484 3658
462.709 -40.4484 3658
469.394 -40.2715 3642
476.134 -40.1056 3627
484.808 -40.1056 3627
490.216 -39.8402 3603
497.724 -39.7518 3595
504.208 -39.5859 3580
512.769 -39.5859 3580
515.796 -39.1657 3542
523.082 -39.0773 3534
530.48 -38.9999 3527
538.914 -38.9999 3527
545.02 -38.834 3512
551.055 -38.6681 3497
559.417 -38.6681 3497
567.78 -38.6681 3497
578.613 -38.834 3512
587.012 -38.834 3512
595.41 -38.834 3512
603.808 -38.834 3512
612.206 -38.834 3512
620.605 -38.834 3512
630.436 -38.9225 3520
641.394 -39.0773 3534
651.316 -39.1657 3542
659.786 -39.1657 3542
668.256 -39.1657 3542
676.726 -39.1657 3542
685.196 -39.1657 3542
1166.62 -44.993 4069
1176.35 -44.993 4069
1186.08 -44.993 4069
1195.81 -44.993 4069
1205.54 -44.993 4069
1215.27 -44.993 4069
1225 -44.993 4069
1228.66 -44.7719 4049
1235.29 -44.6613 4039
1244.95 -44.6613 4039
1254.61 -44.6613 4039
1264.26 -44.6613 4039
1280.23 -44.8825 4059
1289.94 -44.8825 4059
1299.64 -44.8825 4059
1309.35 -44.8825 4059
1319.06 -44.8825 4059
1486.25 -41.1782 3724
1495.16 -41.1782 3724
1504.06 -41.1782 3724
1506.06 -40.9902 3707
1505.12 -40.7248 3683
1500.36 -40.3599 3650
1509.09 -40.3599 3650
1508.25 -40.1056 3627
1500.61 -39.6744 3588
1505.83 -39.5859 3580
1514.39 -39.5859 3580
1519.55 -39.4974 3572
1518.25 -39.2431 3549
1504.37 -38.6681 3497
1512.73 -38.6681 3497
1515 -38.5133 3483
1516.77 -38.3475 3468
1515.83 -38.1153 3447
1524.07 -38.1153 3447
1532.31 -38.1153 3447
1540.56 -38.1153 3447
1548.8 -38.1153 3447
1557.04 -38.1153 3447
1565.29 -38.1153 3447
1563.94 -37.883 3426
1568.92 -37.8056 3419
1580.33 -37.883 3426
1595.01 -38.0379 3440
1603.24 -38.0379 3440
1614.74 -38.1153 3447
1622.99 -38.1153 3447
1631.23 -38.1153 3447
1642.8 -38.1927 3454
1651.06 -38.1927 3454
1659.32 -38.1927 3454
2487.37 -44.7719 4049
2497.06 -44.7719 4049
2506.74 -44.7719 4049
2462.97 -43.8209 3963
2472.45 -43.8209 3963
2470.03 -43.6108 3944
2400.25 -42.2176 3818
2381.61 -41.7311 3774
2390.64 -41.7311 3774
2399.66 -41.7311 3774
1852.45 -31.1601 2818
1859.18 -31.1601 2818
1865.92 -31.1601 2818
1866.68 -31.0606 2809
1870.06 -31.0053 2804
1876.77 -31.0053 2804
1870.71 -30.7952 2785
1871.3 -30.6957 2776
1868.47 -30.5409 2762
1875.08 -30.5409 2762
1891.22 -30.6957 2776
1897.86 -30.6957 2776
1907.24 -30.7399 2780
1920.77 -30.8505 2790
1933.66 -30.95 2799
1940.35 -30.95 2799
1950.53 -31.0053 2804
1957.23 -31.0053 2804
1970.24 -31.1048 2813
1976.97 -31.1048 2813
1990.74 -31.2154 2823
2010.94 -31.4255 2842
2021.29 -31.4807 2847
2028.09 -31.4807 2847
2034.9 -31.4807 2847
2045.3 -31.536 2852
2062.19 -31.6908 2866
2069.04 -31.6908 2866
2083.14 -31.8014 2876
2097.28 -31.912 2886
2111.48 -32.0226 2896
2122.06 -32.0779 2901
2129 -32.0779 2901
2147.71 -32.2548 2917
2162.08 -32.3653 2927
2169.07 -32.3653 2927
2176.07 -32.3653 2927
2197.99 -32.5865 2947
2228.98 -32.9403 2979
2276.64 -33.5374 3033
2283.89 -33.5374 3033
2307.76 -33.7807 3055
2315.07 -33.7807 3055
2322.37 -33.7807 3055
-2565.13 -29.676 3426
-2556.94 -29.676 3426
-2543.54 -29.6154 3419
-2530.17 -29.5548 3412
-2522.01 -29.5548 3412
-2508.7 -29.4941 3405
-2500.55 -29.4941 3405
-2512.91 -29.7367 3433
-2509.8 -29.7973 3440
-2501.58 -29.7973 3440
-2508.57 -29.9792 3461
-2511.13 -30.1091 3476
-2507.86 -30.1698 3483
-2499.53 -30.1698 3483
-2496.21 -30.2304 3490
-2492.85 -30.291 3497
-2495.15 -30.421 3512
-2486.75 -30.421 3512
-2488.94 -30.5509 3527
-2485.43 -30.6115 3534
-2482.58 -30.6808 3542
-2474.11 -30.6808 3542
-2470.52 -30.7415 3549
-2473.13 -30.8801 3565
-2469.44 -30.9407 3572
-2460.9 -30.9407 3572
-2457.85 -31.01 3580
-2449.29 -31.01 3580
-2440.73 -31.01 3580
-2432.17 -31.01 3580
-2423.61 -31.01 3580
-2415.05 -31.01 3580
-2406.49 -31.01 3580
-2397.93 -31.01 3580
-2389.36 -31.01 3580
-2380.8 -31.01 3580
-2372.24 -31.01 3580
-2363.68 -31.01 3580
-2355.12 -31.01 3580
-2346.56 -31.01 3580
-2328.2 -30.8801 3565
-2324.23 -30.9407 3572
-2315.69 -30.9407 3572
-2307.15 -30.9407 3572
-2298.61 -30.9407 3572
-2290.07 -30.9407 3572
-2281.52 -30.9407 3572
-2272.98 -30.9407 3572
-2269.51 -31.01 3580
-2270.42 -31.1399 3595
-2261.83 -31.1399 3595
-2258.25 -31.2092 3603
-2254.62 -31.2785 3611
-2245.99 -31.2785 3611
-2237.35 -31.2785 3611
-2233.66 -31.3478 3619
-2225 -31.3478 3619
-2216.35 -31.3478 3619
-2207.69 -31.3478 3619
-2199.04 -31.3478 3619
-2190.39 -31.3478 3619
-2186.56 -31.4171 3627
-2177.88 -31.4171 3627
-2182.96 -31.6163 3650
-2174.24 -31.6163 3650
-2165.51 -31.6163 3650
-2156.78 -31.6163 3650
-2167.47 -31.9022 3683
-2163.35 -31.9715 3691
-2154.53 -31.9715 3691
-2145.7 -31.9715 3691
-2132.24 -31.9022 3683
-2104.41 -31.6163 3650
-2095.68 -31.6163 3650
-2073.8 -31.4171 3627
-2056.02 -31.2785 3611
-2016.77 -30.8108 3557
-2008.26 -30.8108 3557
-1982.89 -30.5509 3527
-1962.14 -30.3603 3505
-1937.59 -30.1091 3476
-1929.28 -30.1091 3476
-1904.94 -29.8579 3447
-1847.18 -29.0784 3357
-1835.31 -29.0177 3350
-1823.49 -28.9571 3343
-1815.49 -28.9571 3343
-1804.25 -28.9051 3337
-1792.51 -28.8445 3330
-1773.82 -28.6712 3310
-1765.91 -28.6712 3310
-1751.09 -28.5586 3297
-1739.5 -28.498 3290
-1721.64 -28.3334 3271
-1713.81 -28.3334 3271
-1699.21 -28.2208 3258
-1691.42 -28.2208 3258
-1690.35 -28.3334 3271
-1686.13 -28.3941 3278
-1678.29 -28.3941 3278
-1670.45 -28.3941 3278
-1659.06 -28.3334 3271
-1651.24 -28.3334 3271
-1643.42 -28.3334 3271
-1635.59 -28.3334 3271
-1634.24 -28.446 3284
-1626.39 -28.446 3284
-1618.54 -28.446 3284
-1607.74 -28.3941 3278
-1590.14 -28.2208 3258
-1582.35 -28.2208 3258
-1574.56 -28.2208 3258
-1570.13 -28.2815 3265
-1565.2 -28.3334 3271
-1557.38 -28.3334 3271
-1549.55 -28.3334 3271
-1538.9 -28.2815 3265
-1527.81 -28.2208 3258
-1520.02 -28.2208 3258
-1506.66 -28.1169 3246
-1498.9 -28.1169 3246
-1496.65 -28.2208 3258
-1488.86 -28.2208 3258
-1481.07 -28.2208 3258
-1479.16 -28.3334 3271
-1474.48 -28.3941 3278
-1469.33 -28.446 3284
-1461.48 -28.446 3284
-1459.38 -28.5586 3297
-1451.49 -28.5586 3297
-1446.24 -28.6106 3303
-1438.34 -28.6106 3303
-1433.47 -28.6712 3310
-1428.57 -28.7319 3317
-1420.64 -28.7319 3317
-1412.71 -28.7319 3317
-1404.77 -28.7319 3317
-1393.89 -28.6712 3310
-1388.91 -28.7319 3317
-1380.98 -28.7319 3317
-1373.05 -28.7319 3317
-1365.11 -28.7319 3317
-1357.18 -28.7319 3317
-1349.25 -28.7319 3317
-1341.32 -28.7319 3317
-1335.8 -28.7838 3323
-1327.85 -28.7838 3323
-1319.91 -28.7838 3323
-1311.96 -28.7838 3323
-1301.66 -28.7319 3317
-1291 -28.6712 3310
-1283.08 -28.6712 3310
-1270.16 -28.5586 3297
-1259.59 -28.498 3290
-1247.16 -28.3941 3278
-1239.32 -28.3941 3278
-1226.6 -28.2815 3265
-1216.18 -28.2208 3258
-1206.16 -28.1688 3252
-1198.39 -28.1688 3252
-1190.61 -28.1688 3252
-1175.92 -28.0043 3233
-1168.19 -28.0043 3233
-1160.46 -28.0043 3233
-1152.73 -28.0043 3233
-1145 -28.0043 3233
-1135.16 -27.9523 3227
-1127.44 -27.9523 3227
-1119.72 -27.9523 3227
-1097.19 -27.5798 3184
-1083.41 -27.4239 3166
-625.593 -15.9468 1841
-621.191 -15.9468 1841
-616.789 -15.9468 1841
-611.056 -15.9121 1837
-599.397 -15.7215 1815
-595.057 -15.7215 1815
-590.066 -15.7042 1813
-579.592 -15.5396 1794
-570.813 -15.4184 1780
-565.601 -15.3924 1777
-561.352 -15.3924 1777
-555.222 -15.3404 1771
-548.187 -15.2625 1762
-542.121 -15.2105 1756
-537.922 -15.2105 1756
-530.987 -15.1325 1747
-526.206 -15.1152 1745
-519.939 -15.0546 1738
-515.783 -15.0546 1738
-508.978 -14.9766 1729
-503.675 -14.942 1725
-498.681 -14.916 1722
-494.564 -14.916 1722
-488.452 -14.8553 1715
-482.656 -14.8034 1709
-477.17 -14.7601 1704
-472.262 -14.7341 1701
-468.194 -14.7341 1701
-463.035 -14.6994 1697
-457.625 -14.6561 1692
-452.238 -14.6128 1687
-448.204 -14.6128 1687
-443.644 -14.5955 1685
-438.31 -14.5522 1680
-433.775 -14.5348 1678
-429.763 -14.5348 1678
-423.72 -14.4656 1670
-419.224 -14.4482 1668
-414.987 -14.4396 1667
-411 -14.4396 1667
-406.526 -14.4222 1665
-402.061 -14.4049 1663
-398.084 -14.4049 1663
-394.107 -14.4049 1663
-389.896 -14.3963 1662
-385.457 -14.3789 1660
-381.488 -14.3789 1660
-377.518 -14.3789 1660
-373.548 -14.3789 1660
-368.911 -14.3529 1657
-364.949 -14.3529 1657
-360.986 -14.3529 1657
-357.024 -14.3529 1657
-352.635 -14.3356 1655
-348.046 -14.3096 1652
-344.095 -14.3096 1652
-340.145 -14.3096 1652
-336.194 -14.3096 1652
-331.842 -14.2923 1650
-327.3 -14.2663 1647
-323.361 -14.2663 1647
-319.035 -14.249 1645
-314.527 -14.223 1642
-310.222 -14.2057 1640
-306.3 -14.2057 1640
-302.378 -14.2057 1640
-298.275 -14.197 1639
-294.355 -14.197 1639
-290.436 -14.197 1639
-286.517 -14.197 1639
-282.77 -14.2057 1640
-278.848 -14.2057 1640
-275.261 -14.223 1642
-271.335 -14.223 1642
-267.897 -14.249 1645
-264.445 -14.275 1648
-260.504 -14.275 1648
-256.563 -14.275 1648
-252.622 -14.275 1648
-249.436 -14.3183 1653
-245.78 -14.3356 1655
-241.822 -14.3356 1655
-237.865 -14.3356 1655
-233.907 -14.3356 1655
-230.227 -14.3529 1657
-226.265 -14.3529 1657
-222.303 -14.3529 1657
-218.34 -14.3529 1657
-214.507 -14.3616 1658
-210.542 -14.3616 1658
-206.578 -14.3616 1658
-202.857 -14.3789 1660
-198.888 -14.3789 1660
-194.918 -14.3789 1660
-190.718 -14.3616 1658
-186.19 -14.3183 1653
-182.127 -14.3096 1652
-178.177 -14.3096 1652
-173.805 -14.275 1648
-169.864 -14.275 1648
-165.822 -14.2663 1647
-161.884 -14.2663 1647
-157.945 -14.2663 1647
-154.007 -14.2663 1647
-150.068 -14.2663 1647
-146.219 -14.275 1648
-142.278 -14.275 1648
-138.505 -14.2923 1650
-134.722 -14.3096 1652
-130.851 -14.3183 1653
-126.898 -14.3183 1653
-123.094 -14.3356 1655
-119.136 -14.3356 1655
-115.388 -14.3616 1658
-111.423 -14.3616 1658
-107.458 -14.3616 1658
-103.805 -14.4049 1663
-99.9487 -14.4222 1665
-95.9672 -14.4222 1665
-91.9856 -14.4222 1665
-88.0041 -14.4222 1665
-84.174 -14.4482 1668
-80.1853 -14.4482 1668
-76.1966 -14.4482 1668
-72.2945 -14.4656 1670
-68.3828 -14.4829 1672
-64.4231 -14.4915 1673
-60.4224 -14.4915 1673
-56.4218 -14.4915 1673
-52.4211 -14.4915 1673
-48.4205 -14.4915 1673
-44.4198 -14.4915 1673
-40.395 -14.4829 1672
-35.8918 -31.6856 3658
-27.5748 -32.188 3716
-18.7692 -32.3266 3732
-9.84488 -32.3266 3732
-0.922514 -32.3959 3740
8.02096 -32.3959 3740
16.9644 -32.3959 3740
25.8525 -32.3266 3732
34.7023 -32.2573 3724
43.6075 -32.2573 3724
52.5127 -32.2573 3724
61.0056 -32.0408 3699
69.851 -32.0408 3699
78.6965 -32.0408 3699
87.5419 -32.0408 3699
96.3873 -32.0408 3699
105.233 -32.0408 3699
113.831 -31.9715 3691
122.658 -31.9715 3691
131.199 -31.9022 3683
140.006 -31.9022 3683
148.49 -31.8329 3675
157.278 -31.8329 3675
166.066 -31.8329 3675
174.854 -31.8329 3675
183.642 -31.8329 3675
192.43 -31.8329 3675
200.288 -31.6856 3658
209.035 -31.6856 3658
218.794 -31.8329 3675
228.078 -31.9022 3683
237.4 -31.9715 3691
246.226 -31.9715 3691
255.605 -32.0408 3699
265.666 -32.188 3716
275.143 -32.2573 3724
284.048 -32.2573 3724
294.212 -32.3959 3740
303.885 -32.4739 3749
314.269 -32.6211 3766
323.274 -32.6211 3766
332.986 -32.6904 3774
342.011 -32.6904 3774
351.035 -32.6904 3774
360.06 -32.6904 3774
368.303 -32.6211 3766
377.308 -32.6211 3766
386.314 -32.6211 3766
394.375 -32.5432 3757
403.359 -32.5432 3757
411.465 -32.4739 3749
420.43 -32.4739 3749
424.585 -32.1101 3707
429.707 -31.8329 3675
436.467 -31.6856 3658
445.214 -31.6856 3658
451.976 -31.547 3642
460.685 -31.547 3642
468.492 -31.4864 3635
475.084 -31.3478 3619
483.738 -31.3478 3619
489.127 -31.1399 3595
495.647 -31.01 3580
500.969 -30.8108 3557
509.475 -30.8108 3557
515.796 -30.6808 3542
522.046 -30.5509 3527
529.427 -30.4903 3520
537.844 -30.4903 3520
542.693 -30.291 3497
548.849 -30.1698 3483
557.178 -30.1698 3483
565.507 -30.1698 3483
576.142 -30.291 3497
584.505 -30.291 3497
594.223 -30.3603 3505
602.605 -30.3603 3505
610.986 -30.3603 3505
619.368 -30.3603 3505
630.436 -30.4903 3520
641.394 -30.6115 3534
651.316 -30.6808 3542
659.786 -30.6808 3542
668.256 -30.6808 3542
676.726 -30.6808 3542
685.196 -30.6808 3542
1166.62 -35.2457 4069
1176.35 -35.2457 4069
1186.08 -35.2457 4069
1195.81 -35.2457 4069
1205.54 -35.2457 4069
1215.27 -35.2457 4069
1225 -35.2457 4069
1228.66 -35.0725 4049
1235.29 -34.9858 4039
1244.95 -34.9858 4039
1254.61 -34.9858 4039
1264.26 -34.9858 4039
1271.08 -34.9079 4030
1280.72 -34.9079 4030
1290.36 -34.9079 4030
1296.77 -34.8213 4020
1306.38 -34.8213 4020
1486.25 -32.2573 3724
1495.16 -32.2573 3724
1504.06 -32.2573 3724
1506.06 -32.1101 3707
1505.12 -31.9022 3683
1500.36 -31.6163 3650
1509.09 -31.6163 3650
1508.25 -31.4171 3627
1500.61 -31.0793 3588
1505.83 -31.01 3580
1514.39 -31.01 3580
1519.55 -30.9407 3572
1518.25 -30.7415 3549
1501.36 -30.2304 3490
1509.7 -30.2304 3490
1515 -30.1698 3483
1513.71 -29.9792 3461
1515.83 -29.8579 3447
1520.98 -29.7973 3440
1532.31 -29.8579 3447
1540.56 -29.8579 3447
1548.8 -29.8579 3447
1557.04 -29.8579 3447
1565.29 -29.8579 3447
1563.94 -29.676 3426
1568.92 -29.6154 3419
1580.33 -29.676 3426
1595.01 -29.7973 3440
1603.24 -29.7973 3440
1614.74 -29.8579 3447
1622.99 -29.8579 3447
1631.23 -29.8579 3447
1642.8 -29.9186 3454
1651.06 -29.9186 3454
1659.32 -29.9186 3454
1852.45 -24.4095 2818
1859.18 -24.4095 2818
1865.92 -24.4095 2818
1866.68 -24.3316 2809
1870.06 -24.2883 2804
1876.77 -24.2883 2804
1870.71 -24.1237 2785
1871.3 -24.0457 2776
1862.38 -23.8465 2753
1871.68 -23.8812 2757
1885.09 -23.9678 2767
1891.7 -23.9678 2767
1904.5 -24.0457 2776
1920.77 -24.167 2790
1933.66 -24.245 2799
1940.35 -24.245 2799
1947.05 -24.245 2799
1957.23 -24.2883 2804
1970.24 -24.3662 2813
1976.97 -24.3662 2813
1990.74 -24.4528 2823
2010.94 -24.6174 2842
2017.74 -24.6174 2842
2024.53 -24.6174 2842
2034.9 -24.6607 2847
2045.3 -24.704 2852
2062.19 -24.8253 2866
2069.04 -24.8253 2866
2079.52 -24.8686 2871
2093.65 -24.9552 2881
2104.18 -24.9986 2886
2118.4 -25.0852 2896
2125.33 -25.0852 2896
2143.3 -25.2151 2911
2154.69 -25.2671 2917
2161.66 -25.2671 2917
2168.64 -25.2671 2917
2183.07 -25.3537 2927
2209.53 -25.5789 2953
2276.64 -26.2719 3033
2283.89 -26.2719 3033
2307.76 -26.4624 3055
2315.07 -26.4624 3055
2322.37 -26.4624 3055
-2565.13 -21.469 3426
-2556.94 -21.469 3426
-2543.54 -21.4252 3419
-2535.36 -21.4252 3419
-2537.53 -21.5129 3433
-2529.32 -21.5129 3433
-2526.26 -21.5568 3440
-2518.03 -21.5568 3440
-2525.13 -21.6884 3461
-2516.85 -21.6884 3461
-2519.44 -21.7823 3476
-2521.25 -21.8701 3490
-2512.9 -21.8701 3490
-2504.56 -21.8701 3490
-2501.22 -21.9139 3497
-2498.56 -21.9641 3505
-2500.83 -22.0581 3520
-2492.41 -22.0581 3520
-2488.94 -22.1019 3527
-2491.05 -22.1959 3542
-2487.49 -22.2398 3549
-2479 -22.2398 3549
-2470.52 -22.2398 3549
-2467.58 -22.2899 3557
-2464.6 -22.3401 3565
-2456.08 -22.3401 3565
-2452.36 -22.3839 3572
-2443.82 -22.3839 3572
-2435.28 -22.3839 3572
-2426.73 -22.3839 3572
-2418.19 -22.3839 3572
-2409.65 -22.3839 3572
-2401.11 -22.3839 3572
-2392.57 -22.3839 3572
-2384.03 -22.3839 3572
-2375.48 -22.3839 3572
-2372.24 -22.4341 3580
-2363.68 -22.4341 3580
-2355.12 -22.4341 3580
-2341.32 -22.3839 3572
-2328.2 -22.3401 3565
-2319.68 -22.3401 3565
-2311.15 -22.3401 3565
-2302.63 -22.3401 3565
-2294.1 -22.3401 3565
-2285.58 -22.3401 3565
-2277.05 -22.3401 3565
-2272.98 -22.3839 3572
-2269.51 -22.4341 3580
-2266 -22.4842 3588
-2257.42 -22.4842 3588
-2253.23 -22.5281 3595
-2249.63 -22.5782 3603
-2245.99 -22.6283 3611
-2237.35 -22.6283 3611
-2228.72 -22.6283 3611
-2220.08 -22.6283 3611
-2211.45 -22.6283 3611
-2202.81 -22.6283 3611
-2194.18 -22.6283 3611
-2185.54 -22.6283 3611
-2181.73 -22.6785 3619
-2173.08 -22.6785 3619
-2164.42 -22.6785 3619
-2165.3 -22.7787 3635
-2165.51 -22.8727 3650
-2156.78 -22.8727 3650
-2162.76 -23.0294 3675
-2158.67 -23.0795 3683
-2149.86 -23.0795 3683
-2141.05 -23.0795 3683
-2132.24 -23.0795 3683
-2104.41 -22.8727 3650
-2095.68 -22.8727 3650
-2073.8 -22.7286 3627
-2056.02 -22.6283 3611
-2016.77 -22.2899 3557
-2008.26 -22.2899 3557
-1982.89 -22.1019 3527
-1962.14 -21.9641 3505
-1941.49 -21.8262 3483
-1933.17 -21.8262 3483
-1904.94 -21.6006 3447
-1847.18 -21.0366 3357
-1835.31 -20.9928 3350
-1823.49 -20.9489 3343
-1815.49 -20.9489 3343
-1804.25 -20.9113 3337
-1788.74 -20.8236 3323
-1766.86 -20.6606 3297
-1758.97 -20.6606 3297
-1751.09 -20.6606 3297
-1739.5 -20.6168 3290
-1721.64 -20.4977 3271
-1713.81 -20.4977 3271
-1699.21 -20.4163 3258
-1691.42 -20.4163 3258
-1690.35 -20.4977 3271
-1686.13 -20.5416 3278
-1678.29 -20.5416 3278
-1670.45 -20.5416 3278
-1659.06 -20.4977 3271
-1651.24 -20.4977 3271
-1643.42 -20.4977 3271
-1639.1 -20.5416 3278
-1634.24 -20.5792 3284
-1626.39 -20.5792 3284
-1618.54 -20.5792 3284
-1610.68 -20.5792 3284
-1596.49 -20.4977 3271
-1588.66 -20.4977 3271
-1574.56 -20.4163 3258
-1570.13 -20.4601 3265
-1568.55 -20.5416 3278
-1560.71 -20.5416 3278
-1552.87 -20.5416 3278
-1541.73 -20.4977 3271
-1533.91 -20.4977 3271
-1526.09 -20.4977 3271
-1512.23 -20.4163 3258
-1504.44 -20.4163 3258
-1499.87 -20.4601 3265
-1494.8 -20.4977 3271
-1486.98 -20.4977 3271
-1482.32 -20.5416 3278
-1477.18 -20.5792 3284
-1475.14 -20.6606 3297
-1467.26 -20.6606 3297
-1459.38 -20.6606 3297
-1451.49 -20.6606 3297
-1446.24 -20.6982 3303
-1438.34 -20.6982 3303
-1436.5 -20.786 3317
-1428.57 -20.786 3317
-1420.64 -20.786 3317
-1412.71 -20.786 3317
-1401.81 -20.7421 3310
-1393.89 -20.7421 3310
-1385.98 -20.7421 3310
-1378.06 -20.7421 3310
-1370.15 -20.7421 3310
-1362.23 -20.7421 3310
-1354.32 -20.7421 3310
-1346.4 -20.7421 3310
-1335.66 -20.6982 3303
-1330.57 -20.7421 3310
-1322.66 -20.7421 3310
-1314.74 -20.7421 3310
