ply
format ascii 1.0
comment File generated
element vertex 2257
property float x
property float y
property float z
end_header
-2221.73 797.275 3642
-2213.02 797.275 3642
-2209.15 799.026 3650
-2200.42 799.026 3650
-2191.69 799.026 3650
-2193.13 802.748 3667
-2184.36 802.748 3667
-2175.59 802.748 3667
-2166.82 802.748 3667
-2158.06 802.748 3667
-2149.29 802.748 3667
-2140.52 802.748 3667
-2131.75 802.748 3667
-2132.24 806.25 3683
-2123.44 806.25 3683
-2119.22 808.002 3691
-2110.4 808.002 3691
-2101.57 808.002 3691
-2092.74 808.002 3691
-2083.92 808.002 3691
-2075.09 808.002 3691
-2066.26 808.002 3691
-2066.36 811.504 3707
-2057.49 811.504 3707
-2048.63 811.504 3707
-2039.76 811.504 3707
-2022.13 808.002 3691
-2013.31 808.002 3691
-2000.14 806.25 3683
-2004.31 811.504 3707
-2008.9 816.977 3732
-2004.26 818.728 3740
-1995.32 818.728 3740
-1995.4 822.45 3757
-1986.42 822.45 3757
-1977.43 822.45 3757
-1955.35 816.977 3732
-1929.22 809.753 3699
-1916.22 808.002 3691
-1907.39 808.002 3691
-1898.56 808.002 3691
-1889.74 808.002 3691
-1884.99 809.753 3699
-1876.14 809.753 3699
-1867.3 809.753 3699
-1850.41 806.25 3683
-1837.61 804.499 3675
-1828.82 804.499 3675
-1811.61 800.778 3658
-1791.53 795.743 3635
-1778.91 793.991 3627
-1770.24 793.991 3627
-1761.57 793.991 3627
-1749.03 792.24 3619
-1732.68 788.738 3603
-1724.06 788.738 3603
-1715.45 788.738 3603
-1703.04 786.986 3595
-1698.21 788.738 3603
-1697.1 792.24 3619
-1692.18 793.991 3627
-1683.51 793.991 3627
-1674.83 793.991 3627
-1658.81 790.489 3611
-1650.17 790.489 3611
-1637.9 788.738 3603
-1625.67 786.986 3595
-1617.07 786.986 3595
-1608.48 786.986 3595
-1599.88 786.986 3595
-1594.82 788.738 3603
-1593.25 792.24 3619
-1584.6 792.24 3619
-1575.94 792.24 3619
-1567.29 792.24 3619
-1555.19 790.489 3611
-1546.55 790.489 3611
-1534.51 788.738 3603
-1525.9 788.738 3603
-1524.02 792.24 3619
-1518.71 793.991 3627
-1510.04 793.991 3627
-1501.37 793.991 3627
-1492.69 793.991 3627
-1493.43 799.026 3650
-1484.7 799.026 3650
-1479.21 800.778 3658
-1477.3 804.499 3675
-1474.9 808.002 3691
-1466.08 808.002 3691
-1470.28 815.226 3724
-1474.32 822.45 3757
-1468.85 824.42 3766
-1459.84 824.42 3766
-1470.87 835.803 3818
-1471.7 841.495 3844
-1489.9 857.257 3916
-1480.53 857.257 3916
-1495.96 871.705 3982
-1486.44 871.705 3982
-1476.92 871.705 3982
-1467.4 871.705 3982
-1454.21 869.516 3972
-1421.07 855.287 3907
-1411.73 855.287 3907
-1392.7 849.376 3880
-1377 845.436 3862
-1364.58 843.465 3853
-1355.36 843.465 3853
-1343 841.495 3844
-1315.77 830.112 3792
-1297.74 824.42 3766
-1288.74 824.42 3766
-1273.95 820.699 3749
-1264.99 820.699 3749
-1256.02 820.699 3749
-1247.06 820.699 3749
-1246.35 826.171 3774
-1237.33 826.171 3774
-1228.3 826.171 3774
-519.341 380.03 1736
-515.19 380.03 1736
-511.038 380.03 1736
-506.887 380.03 1736
-500.129 378.06 1727
-496 378.06 1727
-490.731 377.184 1723
-486.328 376.965 1722
-481.65 376.527 1720
-477.537 376.527 1720
-472.323 375.652 1716
-467.947 375.433 1715
-462.764 374.557 1711
-457.332 373.463 1706
-453.252 373.463 1706
-447.856 372.368 1701
-442.745 371.493 1697
-437.395 370.398 1692
-433.348 370.398 1692
-428.034 369.303 1687
-421.738 367.333 1678
-416.48 366.239 1673
-412.48 366.239 1673
-406.037 364.05 1663
-402.061 364.05 1663
-396.169 362.298 1655
-392.211 362.298 1655
-388.254 362.298 1655
-383.599 361.642 1652
-379.189 361.204 1650
-375.244 361.204 1650
-370.623 360.547 1647
-366.685 360.547 1647
-362.746 360.547 1647
-359.025 360.766 1648
-355.085 360.766 1648
-351.144 360.766 1648
-346.992 360.547 1647
-343.054 360.547 1647
-339.115 360.547 1647
-335.177 360.547 1647
-331.439 360.766 1648
-327.499 360.766 1648
-323.558 360.766 1648
-319.617 360.766 1648
-315.676 360.766 1648
-312.492 361.642 1652
-308.541 361.642 1652
-304.591 361.642 1652
-300.64 361.642 1652
-296.87 361.86 1653
-292.917 361.86 1653
-288.964 361.86 1653
-285.356 362.298 1655
-281.398 362.298 1655
-277.441 362.298 1655
-273.483 362.298 1655
-270.014 362.955 1658
-266.37 363.393 1660
-263.507 364.925 1667
-259.521 364.925 1667
-255.688 365.144 1668
-252.454 366.239 1673
-248.453 366.239 1673
-244.452 366.239 1673
-240.739 366.676 1675
-237.44 367.771 1680
-233.84 368.428 1683
-229.815 368.428 1683
-226.059 368.866 1685
-222.293 369.303 1687
-218.518 369.741 1689
-214.479 369.741 1689
-210.44 369.741 1689
-206.523 369.96 1690
-203.56 371.93 1699
-199.497 371.93 1699
-195.435 371.93 1699
-191.372 371.93 1699
-187.309 371.93 1699
-384.904 857.257 3916
-375.54 857.257 3916
-366.175 857.257 3916
-359.362 863.386 3944
-351.617 867.546 3963
-342.917 869.516 3972
-333.419 869.516 3972
-323.92 869.516 3972
-315.214 871.705 3982
-306.383 873.675 3991
-296.839 873.675 3991
-287.295 873.675 3991
-277.125 871.705 3982
-267.603 871.705 3982
-258.081 871.705 3982
-249.745 875.864 4001
-240.717 877.834 4010
-231.128 877.834 4010
-221.539 877.834 4010
-211.95 877.834 4010
-202.865 880.024 4020
-193.733 882.213 4030
-184.096 882.213 4030
-175.715 888.561 4059
-166.008 888.561 4059
-156.302 888.561 4059
-146.596 888.561 4059
-136.889 888.561 4059
-125.961 880.024 4020
-114.959 869.516 3972
-105.461 869.516 3972
-94.1745 853.316 3898
-84.2654 847.406 3871
-73.9817 835.803 3818
-64.8517 835.803 3818
-55.0796 826.171 3774
-45.347 813.474 3716
-36.1371 806.25 3683
-27.33 806.25 3683
-18.3568 799.026 3650
-9.54679 792.24 3619
-0.886748 786.986 3595
7.67782 783.703 3580
16.2387 783.703 3580
24.7441 781.951 3572
33.2859 781.951 3572
41.5583 776.916 3549
50.045 776.916 3549
58.5317 776.916 3549
67.0185 776.916 3549
75.5052 776.916 3549
83.9919 776.916 3549
92.4787 776.916 3549
100.766 775.384 3542
108.99 773.633 3534
117.44 773.633 3534
125.891 773.633 3534
134.342 773.633 3534
142.793 773.633 3534
151.586 775.384 3542
160.056 775.384 3542
168.526 775.384 3542
175.897 770.568 3520
184.314 770.568 3520
192.732 770.568 3520
200.692 768.817 3512
209.09 768.817 3512
217.984 770.568 3520
226.401 770.568 3520
234.819 770.568 3520
244.203 773.633 3534
253.226 775.384 3542
261.696 775.384 3542
270.166 775.384 3542
279.187 776.916 3549
289.538 781.951 3572
299.415 785.454 3588
307.995 785.454 3588
316.575 785.454 3588
325.155 785.454 3588
333.735 785.454 3588
342.315 785.454 3588
350.895 785.454 3588
359.475 785.454 3588
368.055 785.454 3588
375.795 783.703 3580
383.497 781.951 3572
388.746 775.384 3542
397.216 775.384 3542
403.968 772.1 3527
410.648 768.817 3512
418.211 767.284 3505
423.915 762.468 3483
432.244 762.468 3483
435.134 753.055 3440
440.653 748.458 3419
447.91 746.925 3412
456.069 746.925 3412
460.419 740.796 3384
462.835 731.821 3343
468.012 727.442 3323
475.958 727.442 3323
480.992 723.064 3303
488.003 721.751 3297
495.887 721.751 3297
503.771 721.751 3297
511.655 721.751 3297
519.539 721.751 3297
527.423 721.751 3297
536.281 723.064 3303
545.333 724.596 3310
553.248 724.596 3310
562.35 726.129 3317
571.314 727.442 3323
580.48 728.975 3330
588.444 728.975 3330
596.407 728.975 3330
604.37 728.975 3330
612.333 728.975 3330
620.296 728.975 3330
633.353 734.885 3357
641.38 734.885 3357
649.408 734.885 3357
657.436 734.885 3357
665.463 734.885 3357
673.491 734.885 3357
681.518 734.885 3357
689.546 734.885 3357
697.574 734.885 3357
704.13 733.353 3350
712.141 733.353 3350
720.152 733.353 3350
728.162 733.353 3350
736.173 733.353 3350
742.629 731.821 3343
750.623 731.821 3343
758.617 731.821 3343
765.236 730.507 3337
773.215 730.507 3337
781.195 730.507 3337
789.175 730.507 3337
797.155 730.507 3337
805.135 730.507 3337
813.114 730.507 3337
821.094 730.507 3337
829.074 730.507 3337
840.315 733.353 3350
850.098 734.885 3357
858.126 734.885 3357
873.12 740.796 3384
888.503 746.925 3412
902.181 751.523 3433
910.39 751.523 3433
922.346 754.587 3447
938.418 760.936 3476
950.543 764.001 3490
958.889 764.001 3490
973.331 768.817 3512
987.88 773.633 3534
998.586 775.384 3542
1007.06 775.384 3542
1019.83 778.668 3557
1034.98 783.703 3580
1050.25 788.738 3603
1063.56 792.24 3619
1072.22 792.24 3619
1087.74 797.275 3642
1098.86 799.026 3650
1110.02 800.778 3658
1118.76 800.778 3658
1130.28 802.748 3667
1141.54 804.499 3675
1150.33 804.499 3675
1159.11 804.499 3675
1167.9 804.499 3675
1176.69 804.499 3675
1185.48 804.499 3675
1194.27 804.499 3675
1203.05 804.499 3675
1209.2 802.748 3667
1217.97 802.748 3667
1226.74 802.748 3667
1235.51 802.748 3667
1244.28 802.748 3667
1253.05 802.748 3667
1261.82 802.748 3667
1270.59 802.748 3667
1279.36 802.748 3667
1288.12 802.748 3667
1293.71 800.778 3658
1302.46 800.778 3658
1311.21 800.778 3658
1317.07 799.026 3650
1325.79 799.026 3650
1334.52 799.026 3650
1340.31 797.275 3642
1349.02 797.275 3642
1357.73 797.275 3642
1366.43 797.275 3642
1375.14 797.275 3642
1383.85 797.275 3642
1392.56 797.275 3642
1401.27 797.275 3642
1407.27 795.743 3635
1412.85 793.991 3627
1421.52 793.991 3627
1427.04 792.24 3619
1435.69 792.24 3619
1437.96 788.738 3603
1443.36 786.986 3595
1451.96 786.986 3595
1454.46 783.703 3580
1456.89 780.419 3565
1465.42 780.419 3565
1473.94 780.419 3565
1475.82 776.916 3549
1484.3 776.916 3549
1492.79 776.916 3549
1501.28 776.916 3549
1503.38 773.633 3534
1515.26 775.384 3542
1526.74 776.916 3549
1542.14 780.419 3565
1550.67 780.419 3565
1569.25 785.454 3588
1580.91 786.986 3595
1596.58 790.489 3611
1615.89 795.743 3635
1624.58 795.743 3635
1651.24 804.499 3675
1693.46 820.699 3749
1710.14 824.42 3766
1731.02 830.112 3792
1763.95 841.495 3844
1777.29 843.465 3853
1807.37 853.316 3898
1816.69 853.316 3898
1838.66 859.227 3925
1848.05 859.227 3925
1857.43 859.227 3925
1866.82 859.227 3925
1876.2 859.227 3925
1881.27 857.257 3916
1890.63 857.257 3916
1869.43 843.465 3853
1852.8 831.863 3800
1853.56 828.142 3783
1862.6 828.142 3783
1858.79 822.45 3757
1842.91 811.504 3707
1843.79 808.002 3691
1852.61 808.002 3691
1844.8 800.778 3658
1845.44 797.275 3642
1846.51 793.991 3627
1842.91 788.738 3603
1851.52 788.738 3603
1860.14 788.738 3603
1877.05 792.24 3619
1885.71 792.24 3619
1894.36 792.24 3619
1903.02 792.24 3619
1915.9 793.991 3627
1936.77 799.026 3650
1967.35 808.002 3691
1976.18 808.002 3691
1998.45 813.474 3716
2011.66 815.226 3724
2038.47 822.45 3757
2047.45 822.45 3757
2070.67 828.142 3783
2098.96 835.803 3818
2137.35 847.406 3871
2161.58 853.316 3898
2170.9 853.316 3898
2195.32 859.227 3925
2220.44 865.357 3953
2240.61 869.516 3972
2250.11 869.516 3972
2259.61 869.516 3972
2269.1 869.516 3972
2278.6 869.516 3972
2288.1 869.516 3972
2297.6 869.516 3972
2301.87 867.546 3963
2316.59 869.516 3972
2326.09 869.516 3972
2341.47 871.705 3982
2350.99 871.705 3982
2360.52 871.705 3982
2370.04 871.705 3982
2379.56 871.705 3982
2394.48 873.675 3991
2410.05 875.864 4001
2419.62 875.864 4001
2429.18 875.864 4001
2438.75 875.864 4001
2453.83 877.834 4010
2463.42 877.834 4010
2473.01 877.834 4010
2482.59 877.834 4010
2492.18 877.834 4010
2501.77 877.834 4010
2511.36 877.834 4010
2539.18 884.183 4039
2555.15 886.372 4049
2564.83 886.372 4049
2574.52 886.372 4049
2584.2 886.372 4049
2581.71 882.213 4030
2591.35 882.213 4030
2600.98 882.213 4030
2604.14 880.024 4020
2613.75 880.024 4020
2623.37 880.024 4020
2632.98 880.024 4020
2636.02 877.834 4010
2639.67 875.864 4001
2630.04 869.516 3972
2639.54 869.516 3972
2630.36 863.386 3944
2621.05 857.257 3916
2618.32 853.316 3898
2627.65 853.316 3898
2630.88 851.346 3889
2621.85 845.436 3862
2618.82 841.495 3844
2628.01 841.495 3844
2613.19 833.833 3809
2586.5 822.45 3757
533.561 157.616 720
535.283 157.616 720
537.005 157.616 720
538.726 157.616 720
540.448 157.616 720
542.17 157.616 720
543.892 157.616 720
545.613 157.616 720
547.335 157.616 720
549.819 157.835 721
551.544 157.835 721
-2361.48 698.002 3154
-2353.94 698.002 3154
-2337.47 695.346 3142
-2338.85 698.002 3154
-2335.74 699.33 3160
-2328.19 699.33 3160
-2320.63 699.33 3160
-2308.68 698.002 3154
-2301.14 698.002 3154
-2306.69 701.985 3172
-2299.1 701.985 3172
-2313.19 708.625 3202
-2327.85 715.485 3233
-2333.76 719.69 3252
-2325.98 719.69 3252
-2350.28 729.649 3297
-2365.84 736.952 3330
-2391.16 747.353 3377
-2383.08 747.353 3377
-2424.24 762.845 3447
-2446.14 772.361 3490
-2437.79 772.361 3490
-2439.89 775.68 3505
-2441.91 779 3520
-2448.7 783.869 3542
-2440.23 783.869 3542
-2442.06 787.188 3557
-2433.55 787.188 3557
-2430.5 788.959 3565
-2421.98 788.959 3565
-2413.45 788.959 3565
-2404.93 788.959 3565
-2396.4 788.959 3565
-2377.16 785.418 3549
-2374.01 787.188 3557
-2370.83 788.959 3565
-2366.94 790.508 3572
-2358.4 790.508 3572
-2360.38 794.049 3588
-2351.8 794.049 3588
-2347.8 795.598 3595
-2339.2 795.598 3595
-2330.6 795.598 3595
-2327.17 797.369 3603
-2323.7 799.139 3611
-2315.07 799.139 3611
-2306.43 799.139 3611
-2297.8 799.139 3611
-2289.16 799.139 3611
-2285.58 800.909 3619
-2276.93 800.909 3619
-2268.27 800.909 3619
-2259.62 800.909 3619
-2250.97 800.909 3619
-2242.31 800.909 3619
-2238.59 802.68 3627
-2229.92 802.68 3627
-2221.25 802.68 3627
-2212.57 802.68 3627
-2203.9 802.68 3627
-2200.07 804.45 3635
-2195.6 806 3642
-2186.89 806 3642
-2182.96 807.77 3650
-2174.24 807.77 3650
-2170.25 809.54 3658
-2161.51 809.54 3658
-2152.76 809.54 3658
-2144.01 809.54 3658
-2135.26 809.54 3658
-2121.87 807.77 3650
-2122.98 811.532 3667
-2114.21 811.532 3667
-2110.04 813.303 3675
-2101.25 813.303 3675
-2097.01 815.073 3683
-2088.21 815.073 3683
-2079.4 815.073 3683
-2070.59 815.073 3683
-2061.79 815.073 3683
-2052.98 815.073 3683
-2048.61 816.844 3691
-2039.79 816.844 3691
-2030.96 816.844 3691
-2013.37 813.303 3675
-2004.58 813.303 3675
-1995.79 813.303 3675
-1991.33 815.073 3683
-1995.44 820.384 3707
-1991.4 822.376 3716
-1982.51 822.376 3716
-1977.88 824.147 3724
-1968.97 824.147 3724
-1960.07 824.147 3724
-1946.97 822.376 3716
-1920.87 815.073 3683
-1912.06 815.073 3683
-1903.26 815.073 3683
-1886.22 811.532 3667
-1881.55 813.303 3675
-1872.76 813.303 3675
-1863.97 813.303 3675
-1855.18 813.303 3675
-1846.39 813.303 3675
-1833.61 811.532 3667
-1824.84 811.532 3667
-1807.65 807.77 3650
-1787.59 802.68 3627
-1778.91 802.68 3627
-1770.24 802.68 3627
-1753.79 799.139 3611
-1745.16 799.139 3611
-1732.68 797.369 3603
-1724.06 797.369 3603
-1708.3 794.049 3588
-1699.72 794.049 3588
-1691.14 794.049 3588
-1689.6 797.369 3603
-1684.71 799.139 3611
-1676.08 799.139 3611
-1667.44 799.139 3611
-1655.13 797.369 3603
-1646.52 797.369 3603
-1634.27 795.598 3595
-1622.5 794.049 3588
-1610.33 792.279 3580
-1601.76 792.279 3580
-1589.64 790.508 3572
-1584.64 792.279 3580
-1579.6 794.049 3588
-1571.02 794.049 3588
-1562.44 794.049 3588
-1550.4 792.279 3580
-1541.84 792.279 3580
-1533.28 792.279 3580
-1524.72 792.279 3580
-1522.51 795.598 3595
-1517.28 797.369 3603
-1508.67 797.369 3603
-1500.05 797.369 3603
-1491.43 797.369 3603
-1486.11 799.139 3611
-1477.47 799.139 3611
-1468.84 799.139 3611
-1469.91 804.45 3635
-1467.25 807.77 3650
-1465.31 811.532 3667
-1456.54 811.532 3667
-1457.25 816.844 3691
-1461.37 824.147 3724
-1465.34 831.45 3757
-1456.36 831.45 3757
-1470.87 844.95 3818
-1471.7 850.703 3844
-1489.9 866.638 3916
-1480.53 866.638 3916
-1495.96 881.244 3982
-1486.44 881.244 3982
-1476.92 881.244 3982
-1467.4 881.244 3982
-1454.21 879.031 3972
-1421.07 864.646 3907
-1411.73 864.646 3907
-1392.7 858.671 3880
-1377 854.687 3862
-1361.39 850.703 3844
-1352.2 850.703 3844
-1343 850.703 3844
-1312.65 837.204 3783
-1294.64 831.45 3757
-1285.66 831.45 3757
-1273.95 829.679 3749
-1261.95 827.688 3740
-1250.33 825.917 3732
-1241.4 825.917 3732
-1232.48 825.917 3732
-1223.56 825.917 3732
-1214.63 825.917 3732
-519.939 384.631 1738
-515.783 384.631 1738
-511.627 384.631 1738
-506.887 384.189 1736
-500.709 382.64 1729
-496.574 382.64 1729
-491.3 381.754 1725
-486.328 381.09 1722
-481.65 380.648 1720
-477.537 380.648 1720
-472.874 380.205 1718
-468.22 379.763 1716
-462.764 378.656 1711
-458.136 378.213 1709
-454.049 378.213 1709
-448.12 376.664 1702
-442.745 375.558 1697
-437.912 374.894 1694
-433.861 374.894 1694
-428.034 373.345 1687
-421.738 371.353 1678
-416.48 370.246 1673
-412.48 370.246 1673
-406.526 368.476 1665
-402.061 368.033 1663
-396.169 366.263 1655
-392.211 366.263 1655
-388.254 366.263 1655
-383.599 365.599 1652
-379.189 365.156 1650
-375.244 365.156 1650
-370.623 364.492 1647
-366.685 364.492 1647
-362.746 364.492 1647
-358.808 364.492 1647
-354.869 364.492 1647
-350.931 364.492 1647
-346.992 364.492 1647
-343.054 364.492 1647
-339.115 364.492 1647
-335.177 364.492 1647
-331.439 364.714 1648
-327.499 364.714 1648
-323.95 365.156 1650
-320.005 365.156 1650
-316.059 365.156 1650
-312.492 365.599 1652
-308.728 365.82 1653
-304.775 365.82 1653
-300.822 365.82 1653
-297.229 366.263 1655
-293.271 366.263 1655
-289.314 366.263 1655
-285.356 366.263 1655
-281.398 366.263 1655
-277.776 366.705 1657
-273.814 366.705 1657
-270.34 367.369 1660
-266.852 368.033 1663
-263.665 369.14 1668
-259.677 369.14 1668
-255.994 369.582 1670
-252.454 370.246 1673
-248.75 370.689 1675
-244.745 370.689 1675
-241.027 371.132 1677
-237.864 372.459 1683
-234.118 372.902 1685
-230.088 372.902 1685
-226.327 373.345 1687
-222.293 373.345 1687
-218.518 373.787 1689
-214.479 373.787 1689
-210.44 373.787 1689
-206.523 374.009 1690
-203.321 375.558 1697
-199.263 375.558 1697
-195.435 376 1699
-191.372 376 1699
-187.309 376 1699
-392.456 862.654 3898
-384.904 866.638 3916
-375.54 866.638 3916
-366.175 866.638 3916
-359.362 872.834 3944
-349.931 872.834 3944
-341.277 874.826 3953
-331.824 874.826 3953
-323.186 877.039 3963
-314.422 879.031 3972
-305.692 881.244 3982
-296.169 881.244 3982
-286.647 881.244 3982
-277.125 881.244 3982
-267.603 881.244 3982
-258.081 881.244 3982
-249.745 885.449 4001
-240.717 887.44 4010
-231.128 887.44 4010
-221.539 887.44 4010
-211.95 887.44 4010
-202.865 889.654 4020
-193.733 891.867 4030
-184.096 891.867 4030
-174.849 893.858 4039
-165.599 896.071 4049
-155.917 896.071 4049
-146.235 896.071 4049
-135.574 889.654 4020
-124.457 879.031 3972
-112.817 862.654 3898
-103.496 862.654 3898
-93.5222 856.679 3871
-83.1117 844.95 3818
-73.1291 835.212 3774
-64.1043 835.212 3774
-54.2331 822.376 3716
-44.9443 815.073 3683
-35.8133 807.77 3650
-27.0851 807.77 3650
-18.2412 802.68 3627
-9.52569 799.139 3611
-0.885022 794.049 3588
7.66066 790.508 3572
16.2024 790.508 3572
24.7441 790.508 3572
33.2859 790.508 3572
41.5583 785.418 3549
50.045 785.418 3549
58.5317 785.418 3549
67.0185 785.418 3549
75.5052 785.418 3549
83.9919 785.418 3549
92.2963 783.869 3542
100.766 783.869 3542
108.99 782.098 3534
117.44 782.098 3534
125.642 780.549 3527
134.076 780.549 3527
142.51 780.549 3527
150.944 780.549 3527
159.378 780.549 3527
167.813 780.549 3527
175.897 779 3520
183.895 777.23 3512
192.294 777.23 3512
200.292 775.68 3505
208.673 775.68 3505
217.488 777.23 3512
225.887 777.23 3512
234.285 777.23 3512
243.236 779 3520
252.154 780.549 3527
260.588 780.549 3527
269.022 780.549 3527
278.636 783.869 3542
288.322 787.188 3557
298.08 790.508 3572
306.621 790.508 3572
315.869 792.279 3580
324.43 792.279 3580
332.991 792.279 3580
341.552 792.279 3580
350.112 792.279 3580
358.673 792.279 3580
367.234 792.279 3580
375.795 792.279 3580
383.497 790.508 3572
388.746 783.869 3542
397.216 783.869 3542
403.968 780.549 3527
410.648 777.23 3512
418.211 775.68 3505
423.915 770.812 3483
432.244 770.812 3483
434.248 759.746 3433
440.653 756.648 3419
447.91 755.099 3412
456.069 755.099 3412
460.419 748.902 3384
462.835 739.829 3343
467.167 734.075 3317
475.099 734.075 3317
480.992 730.977 3303
488.891 730.977 3303
496.789 730.977 3303
504.688 730.977 3303
511.655 729.649 3297
519.539 729.649 3297
528.383 730.977 3303
536.281 730.977 3303
545.333 732.526 3310
553.248 732.526 3310
562.35 734.075 3317
571.314 735.403 3323
580.48 736.952 3330
588.444 736.952 3330
596.407 736.952 3330
604.37 736.952 3330
612.333 736.952 3330
620.296 736.952 3330
632.032 741.378 3350
640.043 741.378 3350
649.408 742.927 3357
657.436 742.927 3357
665.463 742.927 3357
673.491 742.927 3357
681.518 742.927 3357
689.546 742.927 3357
696.119 741.378 3350
702.659 739.829 3343
710.653 739.829 3343
718.647 739.829 3343
726.641 739.829 3343
734.635 739.829 3343
742.629 739.829 3343
750.623 739.829 3343
757.256 738.501 3337
765.236 738.501 3337
773.215 738.501 3337
781.195 738.501 3337
787.52 736.952 3330
795.483 736.952 3330
803.446 736.952 3330
811.409 736.952 3330
819.372 736.952 3330
829.074 738.501 3337
838.559 739.829 3343
848.325 741.378 3350
856.336 741.378 3350
867.701 744.255 3363
884.857 752.001 3398
896.662 755.099 3412
904.821 755.099 3412
918.6 759.746 3433
934.368 765.943 3461
948.636 770.812 3483
956.965 770.812 3483
969.174 773.91 3497
985.923 780.549 3527
998.586 783.869 3542
1007.06 783.869 3542
1017.53 785.418 3549
1034.98 792.279 3580
1047.91 795.598 3595
1061.21 799.139 3611
1069.85 799.139 3611
1085.65 804.45 3635
1098.86 807.77 3650
1110.02 809.54 3658
1118.76 809.54 3658
1130.28 811.532 3667
1141.54 813.303 3675
1150.33 813.303 3675
1159.11 813.303 3675
1167.9 813.303 3675
1176.69 813.303 3675
1185.48 813.303 3675
1194.27 813.303 3675
1203.05 813.303 3675
1209.2 811.532 3667
1217.97 811.532 3667
1226.74 811.532 3667
1235.51 811.532 3667
1244.28 811.532 3667
1253.05 811.532 3667
1261.82 811.532 3667
1270.59 811.532 3667
1279.36 811.532 3667
1288.12 811.532 3667
1293.71 809.54 3658
1302.46 809.54 3658
1311.21 809.54 3658
1317.07 807.77 3650
1325.79 807.77 3650
1334.52 807.77 3650
1340.31 806 3642
1349.02 806 3642
1357.73 806 3642
1366.43 806 3642
1375.14 806 3642
1383.85 806 3642
1392.56 806 3642
1401.27 806 3642
1404.17 802.68 3627
1412.85 802.68 3627
1421.52 802.68 3627
1427.04 800.909 3619
1429.34 797.369 3603
1434.77 795.598 3595
1440.55 794.049 3588
1449.13 794.049 3588
1448.37 788.959 3565
1456.89 788.959 3565
1458.84 785.418 3549
1467.33 785.418 3549
1475.82 785.418 3549
1478.03 782.098 3534
1486.48 782.098 3534
1494.93 782.098 3534
1500.4 780.549 3527
1508.84 780.549 3527
1523.73 783.869 3542
1538.68 787.188 3557
1547.19 787.188 3557
1565.76 792.279 3580
1580.91 795.598 3595
1593.05 797.369 3603
1615.89 804.45 3635
1624.58 804.45 3635
1647.65 811.532 3667
1693.46 829.679 3749
1710.14 833.442 3766
1731.02 839.196 3792
1763.95 850.703 3844
1777.29 852.695 3853
1807.37 862.654 3898
1816.69 862.654 3898
1838.66 868.629 3925
1848.05 868.629 3925
1857.43 868.629 3925
1866.82 868.629 3925
1876.2 868.629 3925
1881.27 866.638 3916
1890.63 866.638 3916
1869.43 852.695 3853
1852.8 840.966 3800
1853.56 837.204 3783
1862.6 837.204 3783
1858.79 831.45 3757
1842.91 820.384 3707
1843.79 816.844 3691
1852.61 816.844 3691
1844.8 809.54 3658
1845.44 806 3642
1846.51 802.68 3627
1842.91 797.369 3603
1851.52 797.369 3603
1860.14 797.369 3603
1877.05 800.909 3619
1885.71 800.909 3619
1894.36 800.909 3619
1903.02 800.909 3619
1915.9 802.68 3627
1936.77 807.77 3650
1967.35 816.844 3691
1976.18 816.844 3691
1998.45 822.376 3716
2011.66 824.147 3724
2038.47 831.45 3757
2047.45 831.45 3757
2070.67 837.204 3783
2098.96 844.95 3818
2137.35 856.679 3871
2161.58 862.654 3898
2170.9 862.654 3898
2195.32 868.629 3925
2220.44 874.826 3953
2240.61 879.031 3972
2250.11 879.031 3972
2259.61 879.031 3972
2269.1 879.031 3972
2278.6 879.031 3972
2288.1 879.031 3972
2297.6 879.031 3972
2301.87 877.039 3963
2316.59 879.031 3972
2326.09 879.031 3972
2341.47 881.244 3982
2350.99 881.244 3982
2360.52 881.244 3982
2370.04 881.244 3982
2379.56 881.244 3982
2394.48 883.236 3991
2410.05 885.449 4001
2419.62 885.449 4001
2440.72 889.654 4020
2450.33 889.654 4020
2459.95 889.654 4020
2469.56 889.654 4020
2479.17 889.654 4020
2488.79 889.654 4020
2498.4 889.654 4020
2508.01 889.654 4020
2517.62 889.654 4020
2533.52 891.867 4030
2548.84 893.858 4039
2558.5 893.858 4039
2568.16 893.858 4039
2577.82 893.858 4039
2581.71 891.867 4030
2591.35 891.867 4030
2594.53 889.654 4020
2597.66 887.44 4010
2607.25 887.44 4010
2616.84 887.44 4010
2626.43 887.44 4010
2630.1 885.449 4001
2627.14 881.244 3982
2617.46 874.826 3953
2626.91 874.826 3953
2624.36 870.842 3935
2609 862.654 3898
2594.14 854.687 3862
2603.38 854.687 3862
2600.44 850.703 3844
2591.98 844.95 3818
2594.98 842.958 3809
2604.08 842.958 3809
2601.53 839.196 3792
2604.4 837.204 3783
2613.45 837.204 3783
2616.25 835.212 3774
2625.28 835.212 3774
533.561 159.341 720
535.283 159.341 720
537.005 159.341 720
537.978 159.12 719
539.698 159.12 719
542.17 159.341 720
543.892 159.341 720
545.613 159.341 720
547.335 159.341 720
549.057 159.341 720
550.779 159.341 720
-2361.48 705.557 3154
-2353.94 705.557 3154
-2346.39 705.557 3154
-2347.75 708.242 3166
-2340.18 708.242 3166
-2332.61 708.242 3166
-2325.04 708.242 3166
-2317.47 708.242 3166
-2305.52 706.899 3160
-2311.05 710.926 3178
-2303.45 710.926 3178
-2321.86 718.979 3214
-2337.21 726.138 3246
-2338.06 728.822 3258
-2330.27 728.822 3258
-2354.56 738.889 3303
-2365.84 744.929 3330
-2391.16 755.443 3377
-2383.08 755.443 3377
-2424.24 771.102 3447
-2446.14 780.721 3490
-2437.79 780.721 3490
-2439.89 784.077 3505
-2441.91 787.432 3520
-2448.7 792.354 3542
-2440.23 792.354 3542
-2442.06 795.709 3557
-2433.55 795.709 3557
-2430.5 797.499 3565
-2421.98 797.499 3565
-2413.45 797.499 3565
-2404.93 797.499 3565
-2396.4 797.499 3565
-2377.16 793.92 3549
-2374.01 795.709 3557
-2370.83 797.499 3565
-2366.94 799.065 3572
-2358.4 799.065 3572
-2360.38 802.644 3588
-2351.8 802.644 3588
-2347.8 804.21 3595
-2339.2 804.21 3595
-2330.6 804.21 3595
-2327.17 806 3603
-2323.7 807.789 3611
-2315.07 807.789 3611
-2306.43 807.789 3611
-2297.8 807.789 3611
-2289.16 807.789 3611
-2285.58 809.579 3619
-2276.93 809.579 3619
-2268.27 809.579 3619
-2259.62 809.579 3619
-2250.97 809.579 3619
-2242.31 809.579 3619
-2238.59 811.368 3627
-2229.92 811.368 3627
-2221.25 811.368 3627
-2212.57 811.368 3627
-2203.9 811.368 3627
-2200.07 813.158 3635
-2195.6 814.724 3642
-2186.89 814.724 3642
-2182.96 816.514 3650
-2174.24 816.514 3650
-2170.25 818.303 3658
-2161.51 818.303 3658
-2152.76 818.303 3658
-2144.01 818.303 3658
-2135.26 818.303 3658
-2121.87 816.514 3650
-2122.98 820.317 3667
-2114.21 820.317 3667
-2110.04 822.106 3675
-2101.25 822.106 3675
-2097.01 823.896 3683
-2088.21 823.896 3683
-2079.4 823.896 3683
-2070.59 823.896 3683
-2061.79 823.896 3683
-2052.98 823.896 3683
-2048.61 825.685 3691
-2039.79 825.685 3691
-2030.96 825.685 3691
-2013.37 822.106 3675
-2004.58 822.106 3675
-1995.79 822.106 3675
-1991.33 823.896 3683
-1995.44 829.265 3707
-1991.4 831.278 3716
-1982.51 831.278 3716
-1977.88 833.068 3724
-1968.97 833.068 3724
-1960.07 833.068 3724
-1946.97 831.278 3716
-1920.87 823.896 3683
-1912.06 823.896 3683
-1903.26 823.896 3683
-1890.33 822.106 3675
-1881.55 822.106 3675
-1872.76 822.106 3675
-1863.97 822.106 3675
-1855.18 822.106 3675
-1846.39 822.106 3675
-1833.61 820.317 3667
-1824.84 820.317 3667
-1807.65 816.514 3650
-1787.59 811.368 3627
-1778.91 811.368 3627
-1770.24 811.368 3627
-1753.79 807.789 3611
-1745.16 807.789 3611
-1732.68 806 3603
-1724.06 806 3603
-1708.3 802.644 3588
-1699.72 802.644 3588
-1691.14 802.644 3588
-1689.6 806 3603
-1684.71 807.789 3611
-1676.08 807.789 3611
-1667.44 807.789 3611
-1655.13 806 3603
-1646.52 806 3603
-1634.27 804.21 3595
-1622.5 802.644 3588
-1610.33 800.854 3580
-1601.76 800.854 3580
-1589.64 799.065 3572
-1584.64 800.854 3580
-1579.6 802.644 3588
-1571.02 802.644 3588
-1562.44 802.644 3588
-1550.4 800.854 3580
-1541.84 800.854 3580
-1533.28 800.854 3580
-1524.72 800.854 3580
-1522.51 804.21 3595
-1517.28 806 3603
-1508.67 806 3603
-1500.05 806 3603
-1491.43 806 3603
-1486.11 807.789 3611
-1477.47 807.789 3611
-1468.84 807.789 3611
-1469.91 813.158 3635
-1467.25 816.514 3650
-1465.31 820.317 3667
-1456.54 820.317 3667
-1457.25 825.685 3691
-1461.37 833.068 3724
-1465.34 840.45 3757
-1456.36 840.45 3757
-1470.87 854.096 3818
-1471.7 859.912 3844
-1489.9 876.018 3916
-1480.53 876.018 3916
-1495.96 890.783 3982
-1486.44 890.783 3982
-1476.92 890.783 3982
-1467.4 890.783 3982
-1454.21 888.546 3972
-1421.07 874.005 3907
-1411.73 874.005 3907
-1392.7 867.965 3880
-1377 863.938 3862
-1361.39 859.912 3844
-1352.2 859.912 3844
-1343 859.912 3844
-1312.65 846.266 3783
-1294.64 840.45 3757
-1285.66 840.45 3757
-1273.95 838.66 3749
-1261.95 836.647 3740
-1250.33 834.857 3732
-1241.4 834.857 3732
-1232.48 834.857 3732
-1223.56 834.857 3732
-1214.63 834.857 3732
-519.939 388.795 1738
-515.783 388.795 1738
-511.627 388.795 1738
-506.887 388.347 1736
-500.709 386.781 1729
-496.574 386.781 1729
-491.3 385.887 1725
-486.328 385.215 1722
-481.65 384.768 1720
-477.537 384.768 1720
-472.874 384.321 1718
-468.22 383.873 1716
-462.764 382.755 1711
-458.136 382.307 1709
-454.049 382.307 1709
-448.646 381.189 1704
-443.267 380.07 1699
-437.912 378.952 1694
-433.861 378.952 1694
-428.541 377.833 1689
-422.24 375.82 1680
-416.48 374.254 1673
-412.48 374.254 1673
-406.526 372.464 1665
-402.061 372.017 1663
-396.169 370.227 1655
-392.211 370.227 1655
-388.254 370.227 1655
-383.599 369.556 1652
-379.649 369.556 1652
-375.699 369.556 1652
-370.623 368.438 1647
-366.685 368.438 1647
-362.746 368.438 1647
-358.808 368.438 1647
-354.869 368.438 1647
-350.931 368.438 1647
-346.992 368.438 1647
-343.054 368.438 1647
-339.115 368.438 1647
-335.177 368.438 1647
-331.439 368.661 1648
-327.896 369.109 1650
-323.95 369.109 1650
-320.005 369.109 1650
-316.442 369.556 1652
-312.492 369.556 1652
-309.475 370.675 1657
-305.513 370.675 1657
-301.55 370.675 1657
-297.588 370.675 1657
-294.157 371.346 1660
-290.188 371.346 1660
-286.218 371.346 1660
-282.248 371.346 1660
-278.279 371.346 1660
-274.309 371.346 1660
-270.665 371.793 1662
-267.493 372.912 1667
-263.981 373.583 1670
-259.988 373.583 1670
-256.454 374.254 1673
-253.057 375.149 1677
-249.047 375.149 1677
-245.037 375.149 1677
-241.458 375.82 1680
-238.43 377.386 1687
-234.396 377.386 1687
-230.361 377.386 1687
-226.327 377.386 1687
-222.293 377.386 1687
-218.518 377.833 1689
-214.479 377.833 1689
-210.44 377.833 1689
-206.523 378.057 1690
-203.321 379.623 1697
-199.263 379.623 1697
-195.205 379.623 1697
-191.147 379.623 1697
-187.088 379.623 1697
-392.456 871.992 3898
-385.789 878.032 3925
-376.403 878.032 3925
-367.017 878.032 3925
-359.362 882.282 3944
-349.931 882.282 3944
-340.5 882.282 3944
-331.068 882.282 3944
-322.371 884.295 3953
-313.71 886.532 3963
-304.924 888.546 3972
-295.426 888.546 3972
-285.927 888.546 3972
-277.125 890.783 3982
-267.603 890.783 3982
-258.081 890.783 3982
-249.12 892.796 3991
-240.717 897.046 4010
-231.704 899.283 4020
-222.091 899.283 4020
-212.478 899.283 4020
-202.865 899.283 4020
-194.166 903.534 4039
-184.507 903.534 4039
-174.849 903.534 4039
-165.19 903.534 4039
-155.532 903.534 4039
-145.548 901.52 4030
-134.293 890.783 3982
-124.457 888.546 3972
-112.296 867.965 3880
-103.018 867.965 3880
-92.2417 854.096 3818
-82.5457 848.279 3792
-72.6447 838.66 3749
-63.6797 838.66 3749
-53.985 827.475 3699
-44.8467 822.106 3675
-35.7348 814.724 3642
-27.0257 814.724 3642
-18.2009 809.579 3619
-9.50459 806 3603
-0.883048 800.854 3580
7.66066 799.065 3572
16.2024 799.065 3572
24.7441 799.065 3572
33.2206 797.499 3565
41.5583 793.92 3549
50.045 793.92 3549
58.5317 793.92 3549
66.8863 792.354 3542
75.3563 792.354 3542
83.8263 792.354 3542
92.2963 792.354 3542
100.766 792.354 3542
108.774 788.998 3527
117.208 788.998 3527
125.642 788.998 3527
134.076 788.998 3527
142.51 788.998 3527
150.944 788.998 3527
159.062 787.432 3520
167.479 787.432 3520
175.897 787.432 3520
183.529 784.077 3505
191.91 784.077 3505
200.292 784.077 3505
208.673 784.077 3505
217.055 784.077 3505
225.436 784.077 3505
233.818 784.077 3505
242.683 785.643 3512
251.653 787.432 3520
260.071 787.432 3520
268.488 787.432 3520
277.456 788.998 3527
287.674 793.92 3549
296.828 795.709 3557
305.334 795.709 3557
315.163 799.065 3572
323.705 799.065 3572
332.991 800.854 3580
341.552 800.854 3580
350.112 800.854 3580
357.872 799.065 3572
366.414 799.065 3572
374.955 799.065 3572
381.887 795.709 3557
388.746 792.354 3542
397.216 792.354 3542
403.166 787.432 3520
409.83 784.077 3505
417.257 782.287 3497
422.09 775.8 3468
430.383 775.8 3468
434.248 767.97 3433
439.751 763.272 3412
446.991 761.706 3405
455.134 761.706 3405
460.419 757.009 3384
462.004 746.495 3337
467.167 742.021 3317
475.099 742.021 3317
480.992 738.889 3303
488.891 738.889 3303
496.789 738.889 3303
504.688 738.889 3303
512.586 738.889 3303
520.485 738.889 3303
528.383 738.889 3303
536.281 738.889 3303
546.487 742.021 3317
554.419 742.021 3317
562.35 742.021 3317
571.314 743.363 3323
580.48 744.929 3330
588.444 744.929 3330
596.407 744.929 3330
604.37 744.929 3330
612.333 744.929 3330
620.296 744.929 3330
630.711 747.837 3343
638.706 747.837 3343
646.7 747.837 3343
654.694 747.837 3343
662.688 747.837 3343
672.086 749.403 3350
680.097 749.403 3350
688.108 749.403 3350
694.664 747.837 3343
702.659 747.837 3343
710.653 747.837 3343
718.647 747.837 3343
726.641 747.837 3343
733.317 746.495 3337
741.296 746.495 3337
749.276 746.495 3337
757.256 746.495 3337
763.63 744.929 3330
771.593 744.929 3330
779.556 744.929 3330
787.52 744.929 3330
795.483 744.929 3330
803.446 744.929 3330
811.409 744.929 3330
819.372 744.929 3330
829.074 746.495 3337
838.559 747.837 3343
848.325 749.403 3350
856.336 749.403 3350
867.701 752.311 3363
884.857 760.141 3398
896.662 763.272 3412
904.821 763.272 3412
918.6 767.97 3433
934.368 774.234 3461
948.636 779.155 3483
956.965 779.155 3483
971.391 784.077 3505
985.923 788.998 3527
998.586 792.354 3542
1007.06 792.354 3542
1017.53 793.92 3549
1034.98 800.854 3580
1050.25 806 3603
1063.56 809.579 3619
1072.22 809.579 3619
1087.74 814.724 3642
1098.86 816.514 3650
1110.02 818.303 3658
1118.76 818.303 3658
1130.28 820.317 3667
1141.54 822.106 3675
1150.33 822.106 3675
1159.11 822.106 3675
1167.9 822.106 3675
1176.69 822.106 3675
1185.48 822.106 3675
1194.27 822.106 3675
1203.05 822.106 3675
1211.84 822.106 3675
1220.63 822.106 3675
1229.42 822.106 3675
1235.51 820.317 3667
1244.28 820.317 3667
1253.05 820.317 3667
1261.82 820.317 3667
1270.59 820.317 3667
1279.36 820.317 3667
1288.12 820.317 3667
1296.89 820.317 3667
1302.46 818.303 3658
1311.21 818.303 3658
1319.95 818.303 3658
1328.7 818.303 3658
1337.45 818.303 3658
1343.25 816.514 3650
1351.98 816.514 3650
1360.71 816.514 3650
1366.43 814.724 3642
1375.14 814.724 3642
1383.85 814.724 3642
1392.56 814.724 3642
1401.27 814.724 3642
1404.17 811.368 3627
1409.73 809.579 3619
1418.38 809.579 3619
1427.04 809.579 3619
1429.34 806 3603
1434.77 804.21 3595
1440.55 802.644 3588
1449.13 802.644 3588
1448.37 797.499 3565
1450.36 793.92 3549
1455.97 792.354 3542
1464.44 792.354 3542
1466.67 788.998 3527
1475.1 788.998 3527
1480.59 787.432 3520
1489.01 787.432 3520
1494.02 785.643 3512
1505.84 787.432 3520
1517.27 788.998 3527
1535.22 793.92 3549
1543.71 793.92 3549
1565.76 800.854 3580
1580.91 804.21 3595
1593.05 806 3603
1615.89 813.158 3635
1624.58 813.158 3635
1647.65 820.317 3667
1704.75 844.253 3774
1713.78 844.253 3774
1734.67 850.069 3800
1763.95 859.912 3844
1781.44 863.938 3862
1811.54 874.005 3907
1820.89 874.005 3907
1838.66 878.032 3925
1848.05 878.032 3925
1857.43 878.032 3925
1866.82 878.032 3925
1876.2 878.032 3925
1876.94 874.005 3907
1886.29 874.005 3907
1869.43 861.925 3853
1857.19 852.082 3809
1857.97 848.279 3792
1867.04 848.279 3792
1863.24 842.463 3766
1842.91 829.265 3707
1843.79 825.685 3691
1852.61 825.685 3691
1849.34 820.317 3667
1849.49 816.514 3650
1850.58 813.158 3635
1842.91 806 3603
1859.74 809.579 3619
1868.4 809.579 3619
1881.2 811.368 3627
1889.88 811.368 3627
1898.55 811.368 3627
1907.22 811.368 3627
1920.12 813.158 3635
1950.04 822.106 3675
1971.62 827.475 3699
1980.46 827.475 3699
2002.75 833.068 3724
2015.98 834.857 3732
2047.69 844.253 3774
2056.72 844.253 3774
2084.9 852.082 3809
2128.09 865.952 3871
2152.26 871.992 3898
2161.58 871.992 3898
2185.94 878.032 3925
2210.99 884.295 3953
2231.11 888.546 3972
2246.25 890.783 3982
2255.77 890.783 3982
2265.29 890.783 3982
2274.82 890.783 3982
2284.34 890.783 3982
2293.86 890.783 3982
2297.6 888.546 3972
2307.1 888.546 3972
2322.43 890.783 3982
2331.95 890.783 3982
2346.76 892.796 3991
2356.31 892.796 3991
2365.85 892.796 3991
2370.04 890.783 3982
2384.94 892.796 3991
2400.48 895.033 4001
2421.49 899.283 4020
2431.11 899.283 4020
2440.72 899.283 4020
2450.33 899.283 4020
2459.95 899.283 4020
2469.56 899.283 4020
2479.17 899.283 4020
2488.79 899.283 4020
2498.4 899.283 4020
2508.01 899.283 4020
2517.62 899.283 4020
2533.52 901.52 4030
2543.16 901.52 4030
2552.8 901.52 4030
2562.44 901.52 4030
2572.07 901.52 4030
2575.3 899.283 4020
2584.92 899.283 4020
2582.27 895.033 4001
2591.83 895.033 4001
2594.9 892.796 3991
2604.44 892.796 3991
2613.99 892.796 3991
2623.53 892.796 3991
2620.54 888.546 3972
2605.54 880.269 3935
2614.95 880.269 3935
2617.69 878.032 3925
2596.95 867.965 3880
2576.01 857.898 3835
2585.18 857.898 3835
2594.35 857.898 3835
2585.87 852.082 3809
2594.98 852.082 3809
2604.08 852.082 3809
2601.53 848.279 3792
2604.4 846.266 3783
2613.45 846.266 3783
2616.25 844.253 3774
2625.28 844.253 3774
533.561 161.066 720
535.283 161.066 720
537.005 161.066 720
537.978 160.842 719
539.698 160.842 719
542.17 161.066 720
543.892 161.066 720
545.613 161.066 720
547.335 161.066 720
549.057 161.066 720
550.779 161.066 720
-2361.48 713.113 3154
-2353.94 713.113 3154
-2346.39 713.113 3154
-2347.75 715.826 3166
-2340.18 715.826 3166
-2332.61 715.826 3166
-2325.04 715.826 3166
-2317.47 715.826 3166
-2305.52 714.469 3160
-2311.05 718.539 3178
-2303.45 718.539 3178
-2321.86 726.679 3214
-2337.21 733.914 3246
-2338.06 736.627 3258
-2330.27 736.627 3258
-2354.56 746.801 3303
-2365.84 752.906 3330
-2391.16 763.532 3377
-2383.08 763.532 3377
-2424.24 779.359 3447
-2446.14 789.082 3490
-2437.79 789.082 3490
-2439.89 792.473 3505
-2441.91 795.864 3520
-2448.7 800.839 3542
-2440.23 800.839 3542
-2436.57 802.421 3549
-2433.55 804.23 3557
-2430.5 806.039 3565
-2421.98 806.039 3565
-2413.45 806.039 3565
-2404.93 806.039 3565
-2396.4 806.039 3565
-2372.47 800.839 3542
-2368.67 802.421 3549
-2365.51 804.23 3557
-2366.94 807.622 3572
-2358.4 807.622 3572
-2349.86 807.622 3572
-2351.8 811.239 3588
-2343.22 811.239 3588
-2334.64 811.239 3588
-2330.6 812.822 3595
-2322.01 812.822 3595
-2318.56 814.631 3603
-2309.94 814.631 3603
-2306.43 816.439 3611
-2297.8 816.439 3611
-2289.16 816.439 3611
-2280.53 816.439 3611
-2271.89 816.439 3611
-2263.26 816.439 3611
-2254.62 816.439 3611
-2245.99 816.439 3611
-2237.35 816.439 3611
-2233.66 818.248 3619
-2225 818.248 3619
-2221.25 820.057 3627
-2212.57 820.057 3627
-2203.9 820.057 3627
-2195.23 820.057 3627
-2186.56 820.057 3627
-2177.88 820.057 3627
-2169.21 820.057 3627
-2160.54 820.057 3627
-2156.61 821.866 3635
-2147.92 821.866 3635
-2139.22 821.866 3635
-2130.53 821.866 3635
-2121.84 821.866 3635
-2113.15 821.866 3635
-2113.14 825.257 3650
-2104.41 825.257 3650
-2100.28 827.066 3658
-2091.53 827.066 3658
-2087.9 829.101 3667
-2079.14 829.101 3667
-2070.37 829.101 3667
-2061.6 829.101 3667
-2057.31 830.91 3675
-2048.52 830.91 3675
-2039.73 830.91 3675
-2030.94 830.91 3675
-2022.16 830.91 3675
-2013.37 830.91 3675
-2004.58 830.91 3675
-1995.79 830.91 3675
-1991.33 832.718 3683
-1991.13 836.336 3699
-1986.58 838.145 3707
-1977.71 838.145 3707
-1973.63 840.18 3716
-1964.74 840.18 3716
-1955.85 840.18 3716
-1946.97 840.18 3716
-1920.87 832.718 3683
-1907.91 830.91 3675
-1899.12 830.91 3675
-1890.33 830.91 3675
-1877.45 829.101 3667
-1872.76 830.91 3675
-1863.97 830.91 3675
-1855.18 830.91 3675
-1842.38 829.101 3667
-1829.11 827.066 3658
-1820.36 827.066 3658
-1803.69 823.448 3642
-1787.59 820.057 3627
-1771.06 816.439 3611
-1762.43 816.439 3611
-1749.91 814.631 3603
-1741.29 814.631 3603
-1725.46 811.239 3588
-1716.88 811.239 3588
-1708.3 811.239 3588
-1695.93 809.43 3580
-1687.37 809.43 3580
-1682.56 811.239 3588
-1680.98 814.631 3603
-1672.37 814.631 3603
-1663.75 814.631 3603
-1648.24 811.239 3588
-1639.66 811.239 3588
-1627.45 809.43 3580
-1615.27 807.622 3572
-1606.73 807.622 3572
-1598.19 807.622 3572
-1582.97 804.23 3557
-1574.46 804.23 3557
-1569.48 806.039 3565
-1564.02 807.622 3572
-1555.48 807.622 3572
-1546.94 807.622 3572
-1535.38 806.039 3565
-1526.85 806.039 3565
-1518.33 806.039 3565
-1512.77 807.622 3572
-1510.96 811.239 3588
-1502.38 811.239 3588
-1493.8 811.239 3588
-1485.22 811.239 3588
-1476.64 811.239 3588
-1470.93 812.822 3595
-1462.33 812.822 3595
-1460.2 816.439 3611
-1461.22 821.866 3635
-1458.52 825.257 3650
-1449.79 825.257 3650
-1447.77 829.101 3667
-1451.56 836.336 3699
-1455.59 843.797 3732
-1446.66 843.797 3732
-1457.39 855.328 3783
-1464.8 865.05 3826
-1483.05 881.329 3898
-1473.73 881.329 3898
-1481.69 891.73 3944
-1482.71 898.061 3972
-1473.21 898.061 3972
-1463.71 898.061 3972
-1443.96 891.73 3944
-1421.07 883.364 3907
-1411.73 883.364 3907
-1386.23 873.19 3862
-1370.58 869.12 3844
-1361.39 869.12 3844
-1352.2 869.12 3844
-1327.63 859.172 3800
-1312.65 855.328 3783
-1291.88 847.641 3749
-1282.92 847.641 3749
-1265.46 841.988 3724
-1256.55 841.988 3724
-1244.97 840.18 3716
-1233.09 838.145 3707
-1224.22 838.145 3707
-1215.36 838.145 3707
-1193.48 829.101 3667
-519.939 392.958 1738
-515.783 392.958 1738
-511.627 392.958 1738
-506.887 392.506 1736
-500.709 390.923 1729
-496.574 390.923 1729
-491.3 390.019 1725
-486.328 389.341 1722
-481.65 388.888 1720
-477.537 388.888 1720
-472.874 388.436 1718
-468.22 387.984 1716
-462.764 386.853 1711
-458.136 386.401 1709
-454.049 386.401 1709
-448.646 385.271 1704
-443.267 384.14 1699
-437.912 383.01 1694
-433.861 383.01 1694
-428.541 381.879 1689
-422.24 379.844 1680
-416.978 378.714 1675
-412.973 378.714 1675
-407.258 377.131 1668
-402.061 376.001 1663
-396.648 374.644 1657
-392.685 374.644 1657
-388.254 374.192 1655
-383.832 373.74 1653
-379.649 373.514 1652
-375.699 373.514 1652
-370.623 372.383 1647
-366.685 372.383 1647
-362.746 372.383 1647
-358.808 372.383 1647
-354.869 372.383 1647
-350.931 372.383 1647
-346.992 372.383 1647
-343.054 372.383 1647
-339.115 372.383 1647
-335.177 372.383 1647
-331.842 373.061 1650
-328.293 373.514 1652
-324.343 373.514 1652
-320.393 373.514 1652
-316.442 373.514 1652
-313.437 374.644 1657
-309.662 374.87 1658
-305.697 374.87 1658
-302.096 375.322 1660
-298.127 375.322 1660
-294.157 375.322 1660
-290.188 375.322 1660
-286.735 376.001 1663
-282.759 376.001 1663
-279.117 376.453 1665
-275.136 376.453 1665
-271.154 376.453 1665
-267.654 377.131 1668
-264.297 378.036 1672
-260.299 378.036 1672
-256.761 378.714 1675
-253.208 379.392 1678
-249.196 379.392 1678
-245.183 379.392 1678
-241.458 379.844 1680
-238.43 381.427 1687
-234.396 381.427 1687
-230.361 381.427 1687
-226.327 381.427 1687
-222.293 381.427 1687
-218.518 381.879 1689
-214.479 381.879 1689
-210.44 381.879 1689
-206.523 382.105 1690
-203.321 383.688 1697
-199.263 383.688 1697
-195.205 383.688 1697
-191.147 383.688 1697
-187.088 383.688 1697
-392.456 881.329 3898
-386.771 889.695 3935
-379.088 893.765 3953
-369.635 893.765 3953
-360.182 893.765 3953
-350.729 893.765 3953
-341.277 893.765 3953
-331.824 893.765 3953
-323.186 896.026 3963
-314.422 898.061 3972
-305.692 900.322 3982
-296.169 900.322 3982
-286.647 900.322 3982
-277.751 902.357 3991
-268.208 902.357 3991
-258.664 902.357 3991
-251.555 911.174 4030
-241.918 911.174 4030
-232.281 911.174 4030
-222.644 911.174 4030
-213.007 911.174 4030
-203.37 911.174 4030
-194.166 913.209 4039
-184.507 913.209 4039
-174.849 913.209 4039
-165.19 913.209 4039
-155.532 913.209 4039
-145.873 913.209 4039
-134.596 902.357 3991
-124.457 898.061 3972
-112.557 879.295 3889
-103.257 879.295 3889
-92.2417 863.242 3818
-82.5457 857.363 3792
-72.6447 847.641 3749
-63.6797 847.641 3749
-53.985 836.336 3699
-44.8467 830.91 3675
-35.7348 823.448 3642
-27.0257 823.448 3642
-18.2009 818.248 3619
-9.50459 814.631 3603
-0.883048 809.43 3580
7.66066 807.622 3572
16.2024 807.622 3572
24.7441 807.622 3572
33.2206 806.039 3565
41.5583 802.421 3549
50.045 802.421 3549
58.5317 802.421 3549
66.8863 800.839 3542
75.3563 800.839 3542
83.8263 800.839 3542
92.2963 800.839 3542
100.766 800.839 3542
108.774 797.447 3527
117.208 797.447 3527
125.642 797.447 3527
134.076 797.447 3527
142.51 797.447 3527
150.944 797.447 3527
159.062 795.864 3520
167.479 795.864 3520
175.897 795.864 3520
183.529 792.473 3505
191.91 792.473 3505
200.292 792.473 3505
208.673 792.473 3505
217.055 792.473 3505
225.436 792.473 3505
233.818 792.473 3505
242.683 794.056 3512
251.653 795.864 3520
260.071 795.864 3520
268.488 795.864 3520
277.456 797.447 3527
287.674 802.421 3549
296.828 804.23 3557
305.334 804.23 3557
315.163 807.622 3572
323.705 807.622 3572
332.991 809.43 3580
341.552 809.43 3580
350.112 809.43 3580
357.872 807.622 3572
366.414 807.622 3572
374.955 807.622 3572
381.887 804.23 3557
388.746 800.839 3542
397.216 800.839 3542
403.166 795.864 3520
409.83 792.473 3505
417.257 790.664 3497
422.09 784.107 3468
430.383 784.107 3468
434.248 776.194 3433
439.751 771.446 3412
446.991 769.863 3405
455.134 769.863 3405
460.419 765.115 3384
462.004 754.489 3337
467.167 749.967 3317
475.099 749.967 3317
480.992 746.801 3303
488.891 746.801 3303
496.789 746.801 3303
504.688 746.801 3303
512.586 746.801 3303
520.485 746.801 3303
528.383 746.801 3303
536.281 746.801 3303
546.487 749.967 3317
554.419 749.967 3317
562.35 749.967 3317
571.314 751.323 3323
579.26 751.323 3323
587.207 751.323 3323
596.407 752.906 3330
604.37 752.906 3330
612.333 752.906 3330
618.992 751.323 3323
630.711 755.845 3343
638.706 755.845 3343
646.7 755.845 3343
654.694 755.845 3343
662.688 755.845 3343
670.682 755.845 3343
678.676 755.845 3343
686.67 755.845 3343
693.418 754.489 3337
701.397 754.489 3337
709.377 754.489 3337
715.852 752.906 3330
723.815 752.906 3330
731.778 752.906 3330
738.186 751.323 3323
746.133 751.323 3323
754.079 751.323 3323
762.025 751.323 3323
769.971 751.323 3323
777.918 751.323 3323
785.864 751.323 3323
793.81 751.323 3323
801.757 751.323 3323
811.409 752.906 3330
819.372 752.906 3330
827.335 752.906 3330
838.559 755.845 3343
848.325 757.428 3350
856.336 757.428 3350
867.701 760.367 3363
883.035 766.698 3391
896.662 771.446 3412
904.821 771.446 3412
918.6 776.194 3433
934.368 782.525 3461
948.636 787.499 3483
956.965 787.499 3483
971.391 792.473 3505
985.923 797.447 3527
998.586 800.839 3542
1007.06 800.839 3542
1017.53 802.421 3549
1034.98 809.43 3580
1050.25 814.631 3603
1063.56 818.248 3619
1072.22 818.248 3619
1087.74 823.448 3642
1098.86 825.257 3650
1112.75 829.101 3667
1121.52 829.101 3667
1130.28 829.101 3667
1141.54 830.91 3675
1150.33 830.91 3675
1159.11 830.91 3675
1170.45 832.718 3683
1179.25 832.718 3683
1188.06 832.718 3683
1196.87 832.718 3683
1205.67 832.718 3683
1211.84 830.91 3675
1220.63 830.91 3675
1229.42 830.91 3675
1238.21 830.91 3675
1246.99 830.91 3675
1255.78 830.91 3675
1261.82 829.101 3667
1270.59 829.101 3667
1279.36 829.101 3667
1288.12 829.101 3667
1296.89 829.101 3667
1302.46 827.066 3658
1311.21 827.066 3658
1319.95 827.066 3658
1328.7 827.066 3658
1337.45 827.066 3658
1343.25 825.257 3650
1351.98 825.257 3650
1360.71 825.257 3650
1366.43 823.448 3642
1375.14 823.448 3642
1383.85 823.448 3642
1392.56 823.448 3642
1398.58 821.866 3635
1404.17 820.057 3627
1409.73 818.248 3619
1418.38 818.248 3619
1423.88 816.439 3611
1429.34 814.631 3603
1434.77 812.822 3595
1437.34 809.43 3580
1445.9 809.43 3580
1445.12 804.23 3557
1447.5 800.839 3542
1452.68 799.03 3534
1461.13 799.03 3534
1466.67 797.447 3527
1465.9 792.473 3505
1474.28 792.473 3505
1482.66 792.473 3505
1484.66 789.082 3490
1496 790.664 3497
1514.26 795.864 3520
1528.73 799.03 3534
1537.19 799.03 3534
1555.7 804.23 3557
1574.32 809.43 3580
1593.05 814.631 3603
1608.77 818.248 3619
1617.43 818.248 3619
1643.61 827.066 3658
1704.75 853.293 3774
1713.78 853.293 3774
1734.67 859.172 3800
1763.95 869.12 3844
1781.44 873.19 3862
1811.54 883.364 3907
1829.28 887.434 3925
1843.35 889.695 3935
1852.76 889.695 3935
1862.17 889.695 3935
1871.58 889.695 3935
1876.2 887.434 3925
1876.94 883.364 3907
1886.29 883.364 3907
1869.43 871.155 3853
1861.58 863.242 3818
1857.97 857.363 3792
1867.04 857.363 3792
1867.2 853.293 3774
1847.39 840.18 3716
1847.78 836.336 3699
