ply
format ascii 1.0
comment File generated
element vertex 2247
property float x
property float y
property float z
end_header
1383.19 1157.3 3595
1391.78 1157.3 3595
1394.54 1152.47 3580
1403.1 1152.47 3580
1405.74 1147.64 3565
1411.1 1145.06 3557
1416.41 1142.49 3549
1424.9 1142.49 3549
1433.38 1142.49 3549
1439.03 1140.23 3542
1438.5 1133.15 3520
1440.76 1128.32 3505
1449.14 1128.32 3505
1445.46 1118.99 3476
1450.43 1116.41 3468
1462.08 1118.99 3476
1470.4 1118.99 3476
1478.71 1118.99 3476
1487.02 1118.99 3476
1495.33 1118.99 3476
1503.65 1118.99 3476
1511.96 1118.99 3476
1520.27 1118.99 3476
1528.58 1118.99 3476
1536.89 1118.99 3476
1545.21 1118.99 3476
1546.81 1114.16 3461
1542.51 1105.15 3433
1566.53 1116.41 3468
1584.81 1123.49 3490
1593.16 1123.49 3490
1601.5 1123.49 3490
1616.77 1128.32 3505
1625.15 1128.32 3505
1633.53 1128.32 3505
1662.52 1142.49 3549
1671.01 1142.49 3549
1679.5 1142.49 3549
1674.19 1133.15 3520
1682.61 1133.15 3520
1687.18 1130.58 3512
1695.58 1130.58 3512
1703.98 1130.58 3512
1708.96 1128.32 3505
1703.14 1118.99 3476
1693.72 1107.4 3440
1701.95 1107.4 3440
1675.38 1084.86 3370
1659.96 1069.73 3323
1657.86 1063.3 3303
1665.76 1063.3 3303
1670.62 1061.36 3297
1678.51 1061.36 3297
1676.67 1055.25 3278
1684.51 1055.25 3278
1688.73 1052.99 3271
1689.81 1048.81 3258
1694.48 1046.88 3252
1705.4 1048.81 3258
1713.19 1048.81 3258
1720.98 1048.81 3258
1728.77 1048.81 3258
1720.04 1038.83 3227
1727.75 1038.83 3227
1732.24 1036.9 3221
1736.16 1034.65 3214
1734.08 1028.85 3196
1741.73 1028.85 3196
1736.23 1021.12 3172
1740.52 1019.19 3166
2105.07 1034.65 3214
2154.83 1055.25 3278
2162.67 1055.25 3278
2187.06 1063.3 3303
2194.96 1063.3 3303
2202.86 1063.3 3303
2210.76 1063.3 3303
2218.66 1063.3 3303
2226.55 1063.3 3303
2234.45 1063.3 3303
-2379.45 1030.67 3178
-2371.85 1030.67 3178
-2364.25 1030.67 3178
-2356.65 1030.67 3178
-2349.05 1030.67 3178
-2345.87 1032.61 3184
-2338.26 1032.61 3184
-2335.03 1034.56 3190
-2331.78 1036.51 3196
-2324.14 1036.51 3196
-2316.5 1036.51 3196
-2308.85 1036.51 3196
-2305.53 1038.45 3202
-2302.18 1040.4 3208
-2294.51 1040.4 3208
-2296.11 1044.61 3221
-2314.69 1056.61 3258
-2325.31 1065.05 3284
-2317.46 1065.05 3284
-2318.75 1069.26 3297
-2329.09 1077.69 3323
-2344.89 1088.72 3357
-2336.86 1088.72 3357
-2371.84 1108.83 3419
-2378.19 1115.64 3440
-2369.96 1115.64 3440
-2361.73 1115.64 3440
-2353.51 1115.64 3440
-2345.28 1115.64 3440
-2332.3 1113.37 3433
-2305.14 1104.29 3405
-2282.83 1097.48 3384
-2288.85 1104.29 3405
-2290.09 1108.83 3419
-2281.91 1108.83 3419
-2292.35 1117.91 3447
-2284.11 1117.91 3447
-2285.11 1122.45 3461
-2276.84 1122.45 3461
-2268.56 1122.45 3461
-2279.22 1131.85 3490
-2290.4 1141.58 3520
-2281.98 1141.58 3520
-2282.61 1146.12 3534
-2274.15 1146.12 3534
-2265.7 1146.12 3534
-2257.25 1146.12 3534
-2244.35 1143.85 3527
-2226.4 1138.99 3512
-2218.01 1138.99 3512
-2209.61 1138.99 3512
-2220.01 1148.72 3542
-2215.91 1150.99 3549
-2207.43 1150.99 3549
-2198.94 1150.99 3549
-2190.45 1150.99 3549
-2177.66 1148.72 3542
-2169.19 1148.72 3542
-2160.72 1148.72 3542
-2156.51 1150.99 3549
-2148.02 1150.99 3549
-2139.53 1150.99 3549
-2131.05 1150.99 3549
-2122.56 1150.99 3549
-2114.07 1150.99 3549
-2105.59 1150.99 3549
-2092.96 1148.72 3542
-2084.49 1148.72 3542
-2067.23 1143.85 3527
-2058.8 1143.85 3527
-2046.29 1141.58 3520
-2041.93 1143.85 3527
-2033.49 1143.85 3527
-2025.06 1143.85 3527
-2016.63 1143.85 3527
-1991.11 1134.13 3497
-1974.81 1129.58 3483
-1966.48 1129.58 3483
-1958.15 1129.58 3483
-1949.82 1129.58 3483
-1941.49 1129.58 3483
-1933.17 1129.58 3483
-1920.97 1127.31 3476
-1912.66 1127.31 3476
-1908.18 1129.58 3483
-1899.85 1129.58 3483
-1891.52 1129.58 3483
-1883.19 1129.58 3483
-1866.79 1124.72 3468
-1858.5 1124.72 3468
-1850.2 1124.72 3468
-1853.59 1131.85 3490
-1848.95 1134.13 3497
-1848.48 1138.99 3512
-1840.08 1138.99 3512
-1831.69 1138.99 3512
-1827.44 1141.58 3520
-1834.01 1150.99 3549
-1825.52 1150.99 3549
-1821.13 1153.58 3557
-1820.27 1158.45 3572
-1811.73 1158.45 3572
-1803.19 1158.45 3572
-1787.11 1153.58 3557
-1778.6 1153.58 3557
-1770.1 1153.58 3557
-1761.59 1153.58 3557
-1760.48 1158.45 3572
-1751.94 1158.45 3572
-1743.39 1158.45 3572
-1723.68 1150.99 3549
-1715.2 1150.99 3549
-1714.4 1156.18 3565
-1705.88 1156.18 3565
-1697.35 1156.18 3565
-1688.83 1156.18 3565
-1680.3 1156.18 3565
-1671.78 1156.18 3565
-1663.25 1156.18 3565
-1647.3 1150.99 3549
-1628.66 1143.85 3527
-1617.01 1141.58 3520
-1608.59 1141.58 3520
-1589.72 1134.13 3497
-1571.86 1127.31 3476
-1559.95 1124.72 3468
-1551.65 1124.72 3468
-1537.13 1120.18 3454
-1519.58 1113.37 3433
-1495.96 1102.02 3398
-1490.9 1104.29 3405
-1482.75 1104.29 3405
-1474.61 1104.29 3405
-1466.47 1104.29 3405
-1458.33 1104.29 3405
-1450.18 1104.29 3405
-1442.04 1104.29 3405
-1433.9 1104.29 3405
-1425.76 1104.29 3405
-1417.62 1104.29 3405
-1406.58 1102.02 3398
-1386.93 1092.94 3370
-1381.73 1095.21 3377
-1373.66 1095.21 3377
-1365.58 1095.21 3377
-1368.76 1104.29 3405
-1360.62 1104.29 3405
-1352.48 1104.29 3405
-1355.39 1113.37 3433
-1352.67 1117.91 3447
-1349.89 1122.45 3461
-1341.61 1122.45 3461
-1339.12 1127.31 3476
-1338.84 1134.13 3497
-1330.48 1134.13 3497
-1322.12 1134.13 3497
-1319.39 1138.99 3512
-1310.99 1138.99 3512
-1302.6 1138.99 3512
-1288.67 1134.13 3497
-1264.56 1120.18 3454
-1264.31 1127.31 3476
-1258.52 1129.58 3483
-1252.71 1131.85 3490
-1244.36 1131.85 3490
-1241.33 1136.72 3505
-1232.95 1136.72 3505
-1227.01 1138.99 3512
-1218.61 1138.99 3512
-1225.72 1153.58 3557
-1225.09 1161.04 3580
-1219.24 1163.64 3588
-1210.66 1163.64 3588
-1202.08 1163.64 3588
-575.62 565.279 1743
-571.452 565.279 1743
-567.284 565.279 1743
-562.146 564.306 1740
-556.703 563.009 1736
-554.143 564.63 1741
-551.243 565.927 1745
-547.07 565.927 1745
-542.898 565.927 1745
-538.725 565.927 1745
-535.165 566.576 1747
-530.987 566.576 1747
-526.809 566.576 1747
-522.033 565.927 1745
-517.861 565.927 1745
-513.099 565.279 1743
-508.347 564.63 1741
-504.184 564.63 1741
-500.595 565.279 1743
-496.427 565.279 1743
-492.259 565.279 1743
-488.091 565.279 1743
-483.923 565.279 1743
-479.755 565.279 1743
-476.132 565.927 1745
-471.96 565.927 1745
-468.323 566.576 1747
-464.145 566.576 1747
-460.494 567.225 1749
-457.095 568.198 1752
-453.939 569.495 1756
-449.74 569.495 1756
-446.556 570.792 1760
-443.101 571.765 1763
-440.379 573.711 1769
-436.148 573.711 1769
-432.895 575.008 1773
-428.655 575.008 1773
-424.415 575.008 1773
-420.176 575.008 1773
-415.936 575.008 1773
-410.303 573.062 1767
-404.928 571.441 1762
-400.715 571.441 1762
-395.601 570.143 1758
-390.507 568.846 1754
-384.771 566.576 1747
-380.593 566.576 1747
-374.907 564.306 1740
-369.894 563.009 1736
-364.689 561.387 1731
-360.55 561.387 1731
-355.999 560.738 1729
-350.033 557.82 1720
-345.517 557.171 1718
-341.409 557.171 1718
-336.319 555.549 1713
-331.835 554.901 1711
-326.786 553.279 1706
-322.706 553.279 1706
-318.627 553.279 1706
-314.547 553.279 1706
-310.468 553.279 1706
-306.747 553.928 1708
-302.84 554.252 1709
-298.753 554.252 1709
-295.011 554.901 1711
-291.77 556.522 1716
-288.002 557.171 1718
-283.894 557.171 1718
-280.437 558.468 1722
-276.479 558.793 1723
-273.308 560.738 1729
-269.173 560.738 1729
-266.112 563.009 1736
-262.715 564.63 1741
-259.146 565.927 1745
-254.973 565.927 1745
-252.093 568.846 1754
-248.747 570.792 1760
-245.233 572.414 1765
-241.012 572.414 1765
-238.133 575.657 1775
-234.811 577.927 1782
-231.326 579.873 1788
-227.05 579.873 1788
-223.772 582.467 1796
-219.721 583.116 1798
-216.74 586.684 1809
-212.414 586.684 1809
-208.548 587.981 1813
-204.438 588.629 1815
-200.098 588.629 1815
-195.757 588.629 1815
-191.417 588.629 1815
-187.489 589.927 1819
-183.542 591.224 1823
-179.183 591.224 1823
-175.015 591.873 1825
-170.651 591.873 1825
-166.651 593.17 1829
-162.278 593.17 1829
-158.249 594.467 1833
-154.202 595.764 1837
-150.298 597.71 1843
-145.891 597.71 1843
-141.484 597.71 1843
-137.374 599.007 1847
-132.958 599.007 1847
-128.541 599.007 1847
-123.855 597.71 1843
-185.455 1191.85 3675
-177.052 1194.45 3683
-168.245 1194.45 3683
-159.438 1194.45 3683
-118.389 1063.1 3278
-110.55 1063.1 3278
-102.712 1063.1 3278
-94.8729 1063.1 3278
7.59632 1148.72 3542
16.0663 1148.72 3542
24.5363 1148.72 3542
33.0063 1148.72 3542
84.5363 1158.45 3572
93.078 1158.45 3572
101.847 1161.04 3580
110.408 1161.04 3580
118.969 1161.04 3580
127.245 1158.45 3572
135.521 1156.18 3565
143.722 1153.58 3557
152.228 1153.58 3557
160.056 1148.72 3542
168.146 1146.12 3534
176.596 1146.12 3534
185.047 1146.12 3534
193.498 1146.12 3534
201.949 1146.12 3534
210.876 1148.72 3542
219.346 1148.72 3542
227.816 1148.72 3542
236.286 1148.72 3542
244.756 1148.72 3542
252.154 1143.85 3527
260.588 1143.85 3527
269.022 1143.85 3527
276.276 1138.99 3512
284.107 1136.72 3505
292.489 1136.72 3505
300.183 1134.13 3497
308.546 1134.13 3497
316.908 1134.13 3497
325.271 1134.13 3497
333.633 1134.13 3497
341.311 1131.85 3490
349.656 1131.85 3490
358.002 1131.85 3490
366.348 1131.85 3490
373.942 1129.58 3483
376.783 1113.37 3433
377.927 1092.94 3370
385.986 1092.94 3370
392.525 1088.72 3357
398.166 1082.23 3337
402.007 1071.21 3303
410.775 1073.48 3310
418.69 1073.48 3310
427.507 1075.75 3317
437.146 1079.96 3330
445.109 1079.96 3330
453.072 1079.96 3330
461.035 1079.96 3330
468.012 1077.69 3323
476.961 1079.96 3330
484.924 1079.96 3330
492.887 1079.96 3330
500.85 1079.96 3330
508.813 1079.96 3330
516.776 1079.96 3330
523.636 1077.69 3323
531.582 1077.69 3323
539.529 1077.69 3323
547.475 1077.69 3323
555.421 1077.69 3323
565.741 1082.23 3337
573.721 1082.23 3337
581.701 1082.23 3337
589.68 1082.23 3337
598.735 1084.18 3343
606.729 1084.18 3343
614.723 1084.18 3343
622.717 1084.18 3343
630.711 1084.18 3343
640.043 1086.45 3350
648.054 1086.45 3350
656.065 1086.45 3350
664.076 1086.45 3350
673.491 1088.72 3357
681.518 1088.72 3357
689.546 1088.72 3357
696.119 1086.45 3350
704.13 1086.45 3350
712.141 1086.45 3350
720.152 1086.45 3350
728.162 1086.45 3350
736.173 1086.45 3350
744.184 1086.45 3350
752.195 1086.45 3350
760.206 1086.45 3350
768.217 1086.45 3350
776.228 1086.45 3350
784.238 1086.45 3350
792.249 1086.45 3350
800.26 1086.45 3350
809.96 1088.72 3357
817.988 1088.72 3357
826.015 1088.72 3357
834.043 1088.72 3357
840.315 1086.45 3350
848.325 1086.45 3350
853.013 1082.23 3337
859.187 1079.96 3330
868.973 1082.23 3337
876.953 1082.23 3337
884.932 1082.23 3337
892.912 1082.23 3337
902.512 1084.18 3343
910.506 1084.18 3343
918.5 1084.18 3343
924.831 1082.23 3337
932.811 1082.23 3337
944.456 1086.45 3350
954.457 1088.72 3357
962.484 1088.72 3357
980.342 1099.75 3391
990.491 1102.02 3398
1006.85 1111.1 3426
1015.04 1111.1 3426
1035.77 1124.72 3468
1080.19 1163.64 3588
1088.77 1163.64 3588
1097.35 1163.64 3588
1105.93 1163.64 3588
1119.17 1168.5 3603
1130.29 1171.1 3611
1138.93 1171.1 3611
1155.19 1178.88 3635
1174.13 1189.26 3667
1182.9 1189.26 3667
1191.67 1189.26 3667
1203.05 1191.85 3675
1211.84 1191.85 3675
1220.63 1191.85 3675
1229.42 1191.85 3675
1229.78 1183.75 3650
1238.51 1183.75 3650
1247.24 1183.75 3650
1255.97 1183.75 3650
1264.7 1183.75 3650
1273.43 1183.75 3650
1282.15 1183.75 3650
1285.58 1178.88 3635
1288.57 1173.69 3619
1300.09 1176.29 3627
1308.77 1176.29 3627
1317.44 1176.29 3627
1326.11 1176.29 3627
1334.79 1176.29 3627
1337.53 1171.1 3611
1346.17 1171.1 3611
1354.8 1171.1 3611
1354.75 1163.64 3588
1365.99 1165.91 3595
1374.59 1165.91 3595
1383.19 1165.91 3595
1391.78 1165.91 3595
1388.69 1156.18 3565
1397.22 1156.18 3565
1405.74 1156.18 3565
1411.1 1153.58 3557
1416.41 1150.99 3549
1422.09 1148.72 3542
1430.56 1148.72 3542
1435.78 1146.12 3534
1438.5 1141.58 3520
1440.76 1136.72 3505
1449.14 1136.72 3505
1445.46 1127.31 3476
1447.5 1122.45 3461
1462.08 1127.31 3476
1470.4 1127.31 3476
1478.71 1127.31 3476
1487.02 1127.31 3476
1495.33 1127.31 3476
1503.65 1127.31 3476
1511.96 1127.31 3476
1520.27 1127.31 3476
1528.58 1127.31 3476
1517.88 1113.37 3433
1526.09 1113.37 3433
1534.3 1113.37 3433
1545.66 1115.64 3440
1576.47 1131.85 3490
1591.62 1136.72 3505
1600.01 1136.72 3505
1608.39 1136.72 3505
1620 1138.99 3512
1628.4 1138.99 3512
1636.79 1138.99 3512
1648.94 1141.58 3520
1657.36 1141.58 3520
1672.4 1146.12 3534
1680.85 1146.12 3534
1689.3 1146.12 3534
1694.39 1143.85 3527
1702.82 1143.85 3527
1711.26 1143.85 3527
1712.38 1138.99 3512
1720.78 1138.99 3512
1711.45 1127.31 3476
1719.76 1127.31 3476
1710.18 1115.64 3440
1659.96 1077.69 3323
1664.89 1075.75 3317
1672.82 1075.75 3317
1677.21 1073.48 3310
1671.89 1065.05 3284
1670.02 1058.88 3265
1677.83 1058.88 3265
1682.02 1056.61 3258
1683.59 1052.72 3246
1691.35 1052.72 3246
1702.26 1054.67 3252
1710.03 1054.67 3252
1717.81 1054.67 3252
1715.5 1048.51 3233
1716.84 1044.61 3221
1724.54 1044.61 3221
1732.24 1044.61 3221
1732.92 1040.4 3208
1724.32 1030.67 3178
1731.92 1030.67 3178
1736.23 1028.72 3172
1740.52 1026.78 3166
2105.07 1042.34 3214
2154.83 1063.1 3278
2162.67 1063.1 3278
2187.06 1071.21 3303
2194.96 1071.21 3303
2202.86 1071.21 3303
2210.76 1071.21 3303
2218.66 1071.21 3303
2226.55 1071.21 3303
2234.45 1071.21 3303
-2374.95 1036.32 3172
-2367.37 1036.32 3172
-2359.78 1036.32 3172
-2343.3 1032.4 3160
-2335.74 1032.4 3160
-2345.87 1040.24 3184
-2338.26 1040.24 3184
-2330.64 1040.24 3184
-2327.41 1042.2 3190
-2324.14 1044.16 3196
-2316.5 1044.16 3196
-2308.85 1044.16 3196
-2305.53 1046.12 3202
-2297.88 1046.12 3202
-2290.22 1046.12 3202
-2291.12 1050.04 3214
-2306.17 1060.5 3246
-2306.9 1064.42 3258
-2299.11 1064.42 3258
-2309.6 1072.91 3284
-2315.07 1079.12 3303
-2340 1094.48 3350
-2331.99 1094.48 3350
-2371.84 1117.02 3419
-2373.35 1121.59 3433
-2365.14 1121.59 3433
-2361.73 1123.88 3440
-2353.51 1123.88 3440
-2345.28 1123.88 3440
-2332.3 1121.59 3433
-2305.14 1112.44 3405
-2296.99 1112.44 3405
-2298.26 1117.02 3419
-2299.46 1121.59 3433
-2291.25 1121.59 3433
-2301.67 1130.74 3461
-2312.61 1140.22 3490
-2304.26 1140.22 3490
-2295.91 1140.22 3490
-2297.4 1145.12 3505
-2298.81 1150.02 3520
-2290.4 1150.02 3520
-2286.52 1152.3 3527
-2282.61 1154.59 3534
-2274.15 1154.59 3534
-2265.7 1154.59 3534
-2257.25 1154.59 3534
-2244.35 1152.3 3527
-2226.4 1147.4 3512
-2218.01 1147.4 3512
-2209.61 1147.4 3512
-2220.01 1157.2 3542
-2215.91 1159.49 3549
-2207.43 1159.49 3549
-2198.94 1159.49 3549
-2190.45 1159.49 3549
-2172.74 1154.59 3534
-2164.29 1154.59 3534
-2155.84 1154.59 3534
-2147.39 1154.59 3534
-2134.7 1152.3 3527
-2126.27 1152.3 3527
-2117.84 1152.3 3527
-2109.4 1152.3 3527
-2105.14 1154.59 3534
-2101.43 1157.2 3542
-2092.96 1157.2 3542
-2084.49 1157.2 3542
-2063.13 1150.02 3520
-2054.71 1150.02 3520
-2041.64 1147.4 3512
-2033.24 1147.4 3512
-2024.85 1147.4 3512
-2016.45 1147.4 3512
-1999.47 1142.5 3497
-1974.6 1133.03 3468
-1950.43 1123.88 3440
-1942.2 1123.88 3440
-1926.11 1119.31 3426
-1933.59 1128.45 3454
-1925.33 1128.45 3454
-1917.07 1128.45 3454
-1908.81 1128.45 3454
-1892.85 1123.88 3440
-1884.62 1123.88 3440
-1876.4 1123.88 3440
-1868.17 1123.88 3440
-1856.16 1121.59 3433
-1847.95 1121.59 3433
-1847.24 1126.17 3447
-1839 1126.17 3447
-1830.76 1126.17 3447
-1845.25 1140.22 3490
-1836.9 1140.22 3490
-1828.56 1140.22 3490
-1808.55 1159.49 3549
-1800.06 1159.49 3549
-1791.58 1159.49 3549
-1783.09 1159.49 3549
-1774.6 1159.49 3549
-1766.12 1159.49 3549
-1757.63 1159.49 3549
-1749.14 1159.49 3549
-1740.66 1159.49 3549
-1732.17 1159.49 3549
-1723.68 1159.49 3549
-1711.81 1157.2 3542
-1714.4 1164.72 3565
-1713.06 1169.62 3580
-1704.5 1169.62 3580
-1695.93 1169.62 3580
-1687.37 1169.62 3580
-1678.81 1169.62 3580
-1670.25 1169.62 3580
-1654.73 1164.72 3565
-1638.82 1159.49 3549
-1620.22 1152.3 3527
-1611.79 1152.3 3527
-1600.17 1150.02 3520
-1581.35 1142.5 3497
-1566.69 1137.93 3483
-1558.36 1137.93 3483
-1546.92 1135.64 3476
-1528.87 1128.45 3454
-1499.04 1112.44 3405
-1490.9 1112.44 3405
-1482.75 1112.44 3405
-1477.64 1114.73 3412
-1469.48 1114.73 3412
-1461.33 1114.73 3412
-1450.18 1112.44 3405
-1442.04 1112.44 3405
-1433.9 1112.44 3405
-1425.76 1112.44 3405
-1417.62 1112.44 3405
-1394.98 1101.01 3370
-1384.05 1098.72 3363
-1376 1098.72 3363
-1367.96 1098.72 3363
-1362.75 1101.01 3370
-1360.32 1105.58 3384
-1360.62 1112.44 3405
-1352.48 1112.44 3405
-1347.1 1114.73 3412
-1349.93 1123.88 3440
-1347.16 1128.45 3454
-1338.9 1128.45 3454
-1339.12 1135.64 3476
-1330.8 1135.64 3476
-1325.16 1137.93 3483
-1316.83 1137.93 3483
-1313.76 1142.5 3497
-1305.39 1142.5 3497
-1297.03 1142.5 3497
-1286.09 1140.22 3490
-1254.31 1119.31 3426
-1264.31 1135.64 3476
-1258.52 1137.93 3483
-1252.71 1140.22 3490
-1244.36 1140.22 3490
-1241.33 1145.12 3505
-1232.95 1145.12 3505
-1227.01 1147.4 3512
-1218.61 1147.4 3512
-1225.72 1162.1 3557
-1225.09 1169.62 3580
-1219.24 1172.23 3588
-1210.66 1172.23 3588
-1202.08 1172.23 3588
-575.62 569.454 1743
-571.452 569.454 1743
-567.284 569.454 1743
-562.146 568.474 1740
-556.703 567.167 1736
-554.143 568.801 1741
-551.243 570.108 1745
-547.07 570.108 1745
-542.898 570.108 1745
-538.725 570.108 1745
-535.165 570.761 1747
-530.987 570.761 1747
-526.809 570.761 1747
-522.033 570.108 1745
-517.861 570.108 1745
-513.099 569.454 1743
-508.347 568.801 1741
-504.184 568.801 1741
-500.595 569.454 1743
-496.427 569.454 1743
-492.259 569.454 1743
-488.091 569.454 1743
-483.923 569.454 1743
-479.755 569.454 1743
-476.132 570.108 1745
-471.96 570.108 1745
-468.323 570.761 1747
-464.145 570.761 1747
-460.494 571.414 1749
-457.095 572.395 1752
-453.939 573.701 1756
-449.74 573.701 1756
-446.556 575.008 1760
-443.101 575.988 1763
-440.379 577.949 1769
-436.148 577.949 1769
-432.895 579.255 1773
-428.655 579.255 1773
-424.415 579.255 1773
-420.176 579.255 1773
-415.936 579.255 1773
-410.303 577.295 1767
-404.928 575.662 1762
-400.715 575.662 1762
-395.601 574.355 1758
-390.507 573.048 1754
-384.771 570.761 1747
-380.593 570.761 1747
-374.907 568.474 1740
-369.894 567.167 1736
-364.689 565.534 1731
-360.55 565.534 1731
-355.999 564.88 1729
-350.033 561.94 1720
-345.517 561.286 1718
-341.409 561.286 1718
-336.319 559.653 1713
-331.835 559 1711
-326.786 557.366 1706
-322.706 557.366 1706
-318.627 557.366 1706
-314.547 557.366 1706
-310.468 557.366 1706
-306.747 558.019 1708
-302.84 558.346 1709
-298.753 558.346 1709
-295.011 559 1711
-291.77 560.633 1716
-288.002 561.286 1718
-283.894 561.286 1718
-280.437 562.593 1722
-276.479 562.92 1723
-273.308 564.88 1729
-269.173 564.88 1729
-265.805 566.514 1734
-262.262 567.821 1738
-259.146 570.108 1745
-254.973 570.108 1745
-251.806 572.395 1752
-248.747 575.008 1760
-245.233 576.642 1765
-241.012 576.642 1765
-238.133 579.909 1775
-234.811 582.196 1782
-231.326 584.156 1788
-227.05 584.156 1788
-223.772 586.77 1796
-219.721 587.423 1798
-216.74 591.017 1809
-212.414 591.017 1809
-208.548 592.324 1813
-204.438 592.977 1815
-200.098 592.977 1815
-195.757 592.977 1815
-191.417 592.977 1815
-187.489 594.284 1819
-183.542 595.591 1823
-179.183 595.591 1823
-175.015 596.244 1825
-170.651 596.244 1825
-166.469 596.898 1827
-162.1 596.898 1827
-158.249 598.858 1833
-154.034 599.511 1835
-150.135 601.472 1841
-145.733 601.472 1841
-141.331 601.472 1841
-136.928 601.472 1841
-132.526 601.472 1841
-128.123 601.472 1841
-184.194 1192.49 3650
-175.465 1192.49 3650
-166.737 1192.49 3650
-157.013 1184.97 3627
-126.228 1070.95 3278
-118.389 1070.95 3278
-110.55 1070.95 3278
-102.712 1070.95 3278
-94.8729 1070.95 3278
7.59632 1157.2 3542
16.0663 1157.2 3542
24.5363 1157.2 3542
33.0063 1157.2 3542
84.5363 1167.01 3572
93.078 1167.01 3572
101.847 1169.62 3580
110.408 1169.62 3580
118.969 1169.62 3580
127.245 1167.01 3572
135.521 1164.72 3565
143.722 1162.1 3557
152.228 1162.1 3557
160.056 1157.2 3542
168.146 1154.59 3534
176.596 1154.59 3534
185.047 1154.59 3534
193.498 1154.59 3534
201.949 1154.59 3534
210.876 1157.2 3542
219.346 1157.2 3542
227.816 1157.2 3542
236.286 1157.2 3542
244.756 1157.2 3542
252.154 1152.3 3527
260.588 1152.3 3527
269.022 1152.3 3527
276.276 1147.4 3512
284.107 1145.12 3505
292.489 1145.12 3505
300.183 1142.5 3497
308.546 1142.5 3497
316.908 1142.5 3497
325.271 1142.5 3497
333.633 1142.5 3497
341.311 1140.22 3490
349.656 1140.22 3490
358.002 1140.22 3490
366.348 1140.22 3490
373.942 1137.93 3483
380.624 1133.03 3468
379.497 1105.58 3384
387.589 1105.58 3384
393.226 1098.72 3363
398.166 1090.23 3337
402.007 1079.12 3303
410.775 1081.41 3310
418.69 1081.41 3310
429.183 1087.94 3330
437.146 1087.94 3330
446.846 1092.19 3343
454.841 1092.19 3343
462.835 1092.19 3343
468.998 1087.94 3330
476.961 1087.94 3330
484.924 1087.94 3330
492.887 1087.94 3330
501.903 1090.23 3337
509.883 1090.23 3337
517.862 1090.23 3337
524.739 1087.94 3330
531.582 1085.65 3323
540.665 1087.94 3330
548.628 1087.94 3330
556.591 1087.94 3330
565.741 1090.23 3337
573.721 1090.23 3337
582.747 1092.19 3343
590.741 1092.19 3343
599.989 1094.48 3350
607.999 1094.48 3350
616.01 1094.48 3350
624.021 1094.48 3350
632.032 1094.48 3350
640.043 1094.48 3350
648.054 1094.48 3350
656.065 1094.48 3350
664.076 1094.48 3350
673.491 1096.76 3357
681.518 1096.76 3357
689.546 1096.76 3357
697.574 1096.76 3357
705.601 1096.76 3357
714.904 1098.72 3363
722.946 1098.72 3363
730.988 1098.72 3363
737.712 1096.76 3357
745.739 1096.76 3357
753.767 1096.76 3357
760.206 1094.48 3350
768.217 1094.48 3350
776.228 1094.48 3350
785.877 1096.76 3357
793.905 1096.76 3357
801.932 1096.76 3357
809.96 1096.76 3357
817.988 1096.76 3357
826.015 1096.76 3357
834.043 1096.76 3357
840.315 1094.48 3350
848.325 1094.48 3350
853.013 1090.23 3337
859.187 1087.94 3330
868.973 1090.23 3337
876.953 1090.23 3337
884.932 1090.23 3337
892.912 1090.23 3337
902.512 1092.19 3343
910.506 1092.19 3343
918.5 1092.19 3343
924.831 1090.23 3337
932.811 1090.23 3337
944.456 1094.48 3350
954.457 1096.76 3357
962.484 1096.76 3357
980.342 1107.87 3391
990.491 1110.16 3398
1006.85 1119.31 3426
1015.04 1119.31 3426
1035.77 1133.03 3468
1080.19 1172.23 3588
1088.77 1172.23 3588
1097.35 1172.23 3588
1105.93 1172.23 3588
1119.17 1177.13 3603
1130.29 1179.75 3611
1138.93 1179.75 3611
1155.19 1187.59 3635
1174.13 1198.04 3667
1182.9 1198.04 3667
1191.67 1198.04 3667
1203.05 1200.66 3675
1211.84 1200.66 3675
1220.63 1200.66 3675
1229.42 1200.66 3675
1232.48 1195.1 3658
1241.23 1195.1 3658
1249.97 1195.1 3658
1255.97 1192.49 3650
1264.7 1192.49 3650
1273.43 1192.49 3650
1282.15 1192.49 3650
1285.58 1187.59 3635
1288.57 1182.36 3619
1297.23 1182.36 3619
1308.77 1184.97 3627
1317.44 1184.97 3627
1326.11 1184.97 3627
1331.84 1182.36 3619
1337.53 1179.75 3611
1346.17 1179.75 3611
1348.8 1174.52 3595
1354.75 1172.23 3588
1363.33 1172.23 3588
1371.91 1172.23 3588
1380.49 1172.23 3588
1382.88 1167.01 3572
1388.69 1164.72 3565
1397.22 1164.72 3565
1402.59 1162.1 3557
1411.1 1162.1 3557
1410.42 1154.59 3534
1418.87 1154.59 3534
1427.32 1154.59 3534
1430.09 1150.02 3520
1438.5 1150.02 3520
1437.47 1142.5 3497
1445.83 1142.5 3497
1439.22 1130.74 3461
1444.57 1128.45 3454
1455.78 1130.74 3461
1470.4 1135.64 3476
1478.71 1135.64 3476
1487.02 1135.64 3476
1488.88 1130.74 3461
1497.16 1130.74 3461
1505.43 1130.74 3461
1510.65 1128.45 3454
1526.09 1121.59 3433
1534.3 1121.59 3433
1545.66 1123.88 3440
1576.47 1140.22 3490
1591.62 1145.12 3505
1600.01 1145.12 3505
1608.39 1145.12 3505
1620 1147.4 3512
1628.4 1147.4 3512
1636.79 1147.4 3512
1672.4 1154.59 3534
1680.85 1154.59 3534
1689.3 1154.59 3534
1694.39 1152.3 3527
1702.82 1152.3 3527
1711.26 1152.3 3527
1712.38 1147.4 3512
1720.78 1147.4 3512
1725.73 1145.12 3505
1734.11 1145.12 3505
1724.1 1133.03 3468
1690.43 1105.58 3384
1671.42 1087.94 3330
1679.38 1087.94 3330
1680.76 1083.69 3317
1688.69 1083.69 3317
1679.74 1072.91 3284
1687.59 1072.91 3284
1695.45 1072.91 3284
1686.7 1062.46 3252
1687.7 1058.21 3239
1705.4 1064.42 3258
1713.19 1064.42 3258
1720.98 1064.42 3258
1715.5 1056.25 3233
1716.84 1052.33 3221
1724.54 1052.33 3221
1718.8 1044.16 3196
1726.44 1044.16 3196
1721.06 1036.32 3172
1728.65 1036.32 3172
1719.81 1026.52 3142
2105.07 1050.04 3214
2154.83 1070.95 3278
2162.67 1070.95 3278
2187.06 1079.12 3303
2194.96 1079.12 3303
2202.86 1079.12 3303
2210.76 1079.12 3303
2218.66 1079.12 3303
2226.55 1079.12 3303
2234.45 1079.12 3303
-2374.95 1043.92 3172
-2367.37 1043.92 3172
-2359.78 1043.92 3172
-2343.3 1039.97 3160
-2335.74 1039.97 3160
-2345.87 1047.87 3184
-2338.26 1047.87 3184
-2330.64 1047.87 3184
-2323.03 1047.87 3184
-2315.41 1047.87 3184
-2307.8 1047.87 3184
-2300.19 1047.87 3184
-2292.57 1047.87 3184
-2284.96 1047.87 3184
-2277.34 1047.87 3184
-2282.56 1053.79 3202
-2296.93 1064 3233
-2293.45 1065.97 3239
-2285.7 1065.97 3239
-2296.24 1074.53 3265
-2297.55 1078.81 3278
-2335.11 1100.2 3343
-2327.12 1100.2 3343
-2362.13 1120.6 3405
-2373.35 1129.82 3433
-2365.14 1129.82 3433
-2356.93 1129.82 3433
-2348.72 1129.82 3433
-2340.51 1129.82 3433
-2318.03 1122.91 3412
-2300.4 1118.3 3398
-2306.44 1125.21 3419
-2312.38 1132.12 3440
-2318.22 1139.03 3461
-2309.94 1139.03 3461
-2320.95 1148.58 3490
-2327.18 1155.82 3512
-2318.79 1155.82 3512
-2315.65 1158.45 3520
-2311.82 1160.75 3527
-2303.39 1160.75 3527
-2294.95 1160.75 3527
-2300.78 1167.99 3549
-2292.29 1167.99 3549
-2283.81 1167.99 3549
-2270.83 1165.69 3542
-2257.25 1163.06 3534
-2244.35 1160.75 3527
-2226.4 1155.82 3512
-2227.48 1160.75 3527
-2219.05 1160.75 3527
-2220.01 1165.69 3542
-2225.9 1173.26 3565
-2217.38 1173.26 3565
-2208.85 1173.26 3565
-2200.33 1173.26 3565
-2181.97 1167.99 3549
-2173.48 1167.99 3549
-2155.84 1163.06 3534
-2143.14 1160.75 3527
-2125.63 1155.82 3512
-2117.23 1155.82 3512
-2104.63 1153.51 3505
-2100.43 1155.82 3512
-2092.03 1155.82 3512
-2083.63 1155.82 3512
-2075.24 1155.82 3512
-2066.84 1155.82 3512
-2054.34 1153.51 3505
-2045.95 1153.51 3505
-2037.57 1153.51 3505
-2029.19 1153.51 3505
-2020.81 1153.51 3505
-2012.43 1153.51 3505
-1987.47 1143.97 3476
-1958.66 1132.12 3440
-1922.65 1115.99 3391
-1914.54 1115.99 3391
-1906.43 1115.99 3391
-1910.08 1122.91 3412
-1905.82 1125.21 3419
-1897.64 1125.21 3419
-1889.47 1125.21 3419
-1881.29 1125.21 3419
-1869.28 1122.91 3412
-1861.12 1122.91 3412
-1852.96 1122.91 3412
-1848.59 1125.21 3419
-1840.41 1125.21 3419
-1832.24 1125.21 3419
-1824.06 1125.21 3419
-1815.89 1125.21 3419
-1800.31 1120.6 3405
-1792.17 1120.6 3405
-1714.4 1173.26 3565
-1713.06 1178.19 3580
-1704.5 1178.19 3580
-1699.72 1180.83 3588
-1694.44 1183.13 3595
-1685.85 1183.13 3595
-1677.25 1183.13 3595
-1665.4 1180.83 3588
-1646.2 1173.26 3565
-1630.33 1167.99 3549
-1621.84 1167.99 3549
-1613.35 1167.99 3549
-1591.75 1158.45 3520
-1576.59 1153.51 3505
-1568.21 1153.51 3505
-1556.27 1150.88 3497
-1541.71 1146.27 3483
-1499.04 1120.6 3405
-1490.9 1120.6 3405
-1482.75 1120.6 3405
-1477.64 1122.91 3412
-1469.48 1122.91 3412
-1461.33 1122.91 3412
-1453.17 1122.91 3412
-1442.04 1120.6 3405
-1433.9 1120.6 3405
-1425.76 1120.6 3405
-1417.62 1120.6 3405
-1392.09 1106.78 3363
-1381.58 1104.8 3357
-1373.55 1104.8 3357
-1365.52 1104.8 3357
-1357.49 1104.8 3357
-1357.51 1111.39 3377
-1349.43 1111.39 3377
-1341.35 1111.39 3377
-1347.1 1122.91 3412
-1341.69 1125.21 3419
-1341.7 1132.12 3440
-1333.47 1132.12 3440
-1333.34 1139.03 3461
-1330.8 1143.97 3476
-1322.49 1143.97 3476
-1314.18 1143.97 3476
-1308.5 1146.27 3483
-1300.17 1146.27 3483
-1291.84 1146.27 3483
-1283.51 1146.27 3483
-1251.75 1125.21 3419
-1266.85 1146.27 3483
-1261.05 1148.58 3490
-1263.48 1158.45 3520
-1255.06 1158.45 3520
-1246.64 1158.45 3520
-1238.22 1158.45 3520
-1242.73 1170.63 3557
-1234.23 1170.63 3557
-1230.89 1175.56 3572
-1227.82 1180.83 3588
-1219.24 1180.83 3588
-1210.66 1180.83 3588
-1202.08 1180.83 3588
-579.913 577.908 1756
-575.714 577.908 1756
-571.515 577.908 1756
-565.7 576.262 1751
-558.306 572.971 1741
-555.416 574.288 1745
-551.243 574.288 1745
-547.07 574.288 1745
-542.898 574.288 1745
-539.342 574.946 1747
-535.777 575.604 1749
-531.595 575.604 1749
-527.412 575.604 1749
-522.632 574.946 1747
-518.454 574.946 1747
-513.099 573.63 1743
-508.347 572.971 1741
-504.184 572.971 1741
-500.595 573.63 1743
-496.427 573.63 1743
-492.259 573.63 1743
-488.091 573.63 1743
-483.923 573.63 1743
-479.755 573.63 1743
-476.132 574.288 1745
-472.5 574.946 1747
-468.323 574.946 1747
-464.145 574.946 1747
-460.494 575.604 1749
-457.616 577.25 1754
-454.456 578.566 1758
-450.252 578.566 1758
-447.063 579.883 1762
-443.101 580.212 1763
-441.374 583.503 1773
-437.135 583.503 1773
-432.895 583.503 1773
-429.622 584.819 1777
-425.373 584.819 1777
-421.124 584.819 1777
-415.936 583.503 1773
-410.767 582.186 1769
-405.158 580.212 1763
-400.942 580.212 1763
-396.501 579.883 1762
-390.507 577.25 1754
-384.771 574.946 1747
-380.593 574.946 1747
-374.907 572.642 1740
-369.468 570.668 1734
-364.689 569.68 1731
-360.55 569.68 1731
-355.175 567.706 1725
-350.033 566.06 1720
-345.517 565.402 1718
-341.409 565.402 1718
-336.319 563.756 1713
-331.835 563.098 1711
-326.786 561.453 1706
-322.706 561.453 1706
-318.627 561.453 1706
-314.547 561.453 1706
-310.468 561.453 1706
-306.388 561.453 1706
-302.84 562.44 1709
-298.753 562.44 1709
-294.667 562.44 1709
-291.6 564.415 1715
-288.002 565.402 1718
-283.894 565.402 1718
-280.111 566.06 1720
-276.319 566.718 1722
-273.308 569.022 1729
-269.173 569.022 1729
-265.805 570.668 1734
-261.96 571.326 1736
-259.146 574.288 1745
-254.973 574.288 1745
-251.806 576.591 1752
-248.747 579.224 1760
-245.233 580.87 1765
-241.012 580.87 1765
-238.133 584.161 1775
-234.811 586.465 1782
-231.326 588.439 1788
-227.05 588.439 1788
-223.772 591.072 1796
-219.721 591.73 1798
-216.74 595.35 1809
-212.414 595.35 1809
-208.778 597.325 1815
-204.663 597.983 1817
-200.318 597.983 1817
-195.973 597.983 1817
-191.839 598.642 1819
-187.695 599.3 1821
-183.744 600.616 1825
-179.379 600.616 1825
-175.207 601.274 1827
-171.025 601.933 1829
-166.651 601.933 1829
-162.278 601.933 1829
-158.422 603.907 1835
-154.37 605.224 1839
-150.135 605.882 1841
-145.733 605.882 1841
-141.484 606.54 1843
-137.077 606.54 1843
-132.67 606.54 1843
-128.263 606.54 1843
-181.418 1183.13 3595
-173.206 1185.76 3603
-164.59 1185.76 3603
-155.974 1185.76 3603
-126.228 1078.81 3278
-118.389 1078.81 3278
-110.55 1078.81 3278
-102.712 1078.81 3278
-94.8729 1078.81 3278
101.847 1178.19 3580
110.408 1178.19 3580
118.969 1178.19 3580
126.996 1173.26 3565
135.521 1173.26 3565
143.722 1170.63 3557
152.228 1170.63 3557
160.056 1165.69 3542
167.813 1160.75 3527
175.897 1158.45 3520
184.314 1158.45 3520
192.732 1158.45 3520
201.149 1158.45 3520
209.566 1158.45 3520
217.984 1158.45 3520
226.851 1160.75 3527
235.286 1160.75 3527
243.72 1160.75 3527
252.154 1160.75 3527
260.588 1160.75 3527
267.344 1153.51 3505
275.096 1150.88 3497
281.756 1143.97 3476
291.821 1150.88 3497
300.183 1150.88 3497
308.546 1150.88 3497
315.639 1146.27 3483
323.968 1146.27 3483
331.629 1143.97 3476
341.311 1148.58 3490
349.656 1148.58 3490
358.002 1148.58 3490
366.348 1148.58 3490
373.942 1146.27 3483
380.624 1141.34 3468
379.497 1113.69 3384
387.589 1113.69 3384
393.226 1106.78 3363
398.166 1098.22 3337
402.007 1087.03 3303
410.775 1089.34 3310
418.69 1089.34 3310
429.183 1095.92 3330
437.146 1095.92 3330
446.846 1100.2 3343
454.841 1100.2 3343
462.835 1100.2 3343
468.998 1095.92 3330
476.961 1095.92 3330
484.924 1095.92 3330
492.887 1095.92 3330
501.903 1098.22 3337
509.883 1098.22 3337
517.862 1098.22 3337
524.739 1095.92 3330
531.582 1093.61 3323
540.665 1095.92 3330
548.628 1095.92 3330
556.591 1095.92 3330
565.741 1098.22 3337
573.721 1098.22 3337
582.747 1100.2 3343
590.741 1100.2 3343
599.989 1102.5 3350
607.999 1102.5 3350
616.01 1102.5 3350
624.021 1102.5 3350
632.032 1102.5 3350
640.043 1102.5 3350
648.054 1102.5 3350
656.065 1102.5 3350
664.076 1102.5 3350
673.491 1104.8 3357
681.518 1104.8 3357
689.546 1104.8 3357
697.574 1104.8 3357
705.601 1104.8 3357
714.904 1106.78 3363
722.946 1106.78 3363
730.988 1106.78 3363
737.712 1104.8 3357
745.739 1104.8 3357
753.767 1104.8 3357
760.206 1102.5 3350
768.217 1102.5 3350
776.228 1102.5 3350
785.877 1104.8 3357
793.905 1104.8 3357
801.932 1104.8 3357
809.96 1104.8 3357
817.988 1104.8 3357
826.015 1104.8 3357
834.043 1104.8 3357
840.315 1102.5 3350
848.325 1102.5 3350
853.013 1098.22 3337
859.187 1095.92 3330
867.15 1095.92 3330
876.953 1098.22 3337
884.932 1098.22 3337
892.912 1098.22 3337
900.892 1098.22 3337
908.872 1098.22 3337
916.851 1098.22 3337
924.831 1098.22 3337
930.854 1095.92 3330
938.817 1095.92 3330
950.476 1100.2 3343
958.471 1100.2 3343
966.465 1100.2 3343
976.499 1102.5 3350
998.617 1118.3 3398
1006.74 1118.3 3398
1023.23 1127.51 3426
1044.07 1141.34 3468
1052.36 1141.34 3468
1060.65 1141.34 3468
1105.93 1180.83 3588
1119.17 1185.76 3603
1127.79 1185.76 3603
1136.41 1185.76 3603
1152.65 1193.66 3627
1168.69 1201.23 3650
1177.41 1201.23 3650
1186.14 1201.23 3650
1203.05 1209.46 3675
1211.84 1209.46 3675
1220.63 1209.46 3675
1229.42 1209.46 3675
1232.48 1203.87 3658
1241.23 1203.87 3658
1249.97 1203.87 3658
1255.97 1201.23 3650
1264.7 1201.23 3650
1273.43 1201.23 3650
1282.15 1201.23 3650
1285.58 1196.3 3635
1288.57 1191.03 3619
1297.23 1191.03 3619
1308.77 1193.66 3627
1317.44 1193.66 3627
1326.11 1193.66 3627
1331.84 1191.03 3619
1337.53 1188.4 3611
1346.17 1188.4 3611
1348.8 1183.13 3595
1354.75 1180.83 3588
1363.33 1180.83 3588
1371.91 1180.83 3588
1380.49 1180.83 3588
1382.88 1175.56 3572
1388.69 1173.26 3565
1397.22 1173.26 3565
1402.59 1170.63 3557
1411.1 1170.63 3557
1410.42 1163.06 3534
1418.87 1163.06 3534
1427.32 1163.06 3534
1430.09 1158.45 3520
1438.5 1158.45 3520
1437.47 1150.88 3497
1445.83 1150.88 3497
1439.22 1139.03 3461
1444.57 1136.73 3454
1455.78 1139.03 3461
1470.4 1143.97 3476
1478.71 1143.97 3476
1487.02 1143.97 3476
1488.88 1139.03 3461
1497.16 1139.03 3461
1505.43 1139.03 3461
1510.65 1136.73 3454
1509.67 1129.82 3433
1514.79 1127.51 3426
1529.2 1132.12 3440
1537.43 1132.12 3440
1571.27 1150.88 3497
1579.63 1150.88 3497
1591.62 1153.51 3505
1600.01 1153.51 3505
1608.39 1153.51 3505
1620 1155.82 3512
1628.4 1155.82 3512
1636.79 1155.82 3512
1672.4 1163.06 3534
1680.85 1163.06 3534
1689.3 1163.06 3534
1694.39 1160.75 3527
1702.82 1160.75 3527
1711.26 1160.75 3527
1719.69 1160.75 3527
1728.13 1160.75 3527
1733.11 1158.45 3520
1741.53 1158.45 3520
1724.1 1141.34 3468
1714.91 1129.82 3433
1698.52 1113.69 3384
1706.61 1113.69 3384
1704.06 1106.78 3363
1712.11 1106.78 3363
1706.85 1098.22 3337
1714.83 1098.22 3337
1712.48 1091.64 3317
1706.41 1082.75 3290
1704.38 1076.5 3271
1719.01 1080.78 3284
1726.86 1080.78 3284
1734.71 1080.78 3284
1728.77 1072.22 3258
1736.56 1072.22 3258
1744.35 1072.22 3258
1745.69 1068.27 3246
1726.44 1051.82 3196
1721.06 1043.92 3172
1728.65 1043.92 3172
1719.81 1034.05 3142
2113.59 1062.02 3227
2154.83 1078.81 3278
2162.67 1078.81 3278
2187.06 1087.03 3303
2194.96 1087.03 3303
2202.86 1087.03 3303
2185.32 1074.53 3265
2193.13 1074.53 3265
-2365.97 1047.54 3160
-2358.41 1047.54 3160
-2350.86 1047.54 3160
-2338.85 1045.55 3154
-2331.31 1045.55 3154
-2341.45 1053.51 3178
-2333.85 1053.51 3178
-2330.64 1055.5 3184
-2323.03 1055.5 3184
-2315.41 1055.5 3184
-2307.8 1055.5 3184
-2300.19 1055.5 3184
-2292.57 1055.5 3184
-2284.96 1055.5 3184
-2277.34 1055.5 3184
-2282.56 1061.46 3202
-2296.93 1071.74 3233
-2293.45 1073.73 3239
-2285.7 1073.73 3239
-2296.24 1082.35 3265
-2297.55 1086.66 3278
-2335.11 1108.21 3343
-2327.12 1108.21 3343
-2362.13 1128.76 3405
-2373.35 1138.04 3433
-2365.14 1138.04 3433
-2356.93 1138.04 3433
-2348.72 1138.04 3433
-2340.51 1138.04 3433
-2318.03 1131.08 3412
-2300.4 1126.44 3398
-2311.16 1135.72 3426
-2312.38 1140.36 3440
-2318.22 1147.32 3461
-2329.3 1156.94 3490
-2335.58 1164.23 3512
-2332.48 1166.88 3520
-2324.07 1166.88 3520
-2339.99 1179.15 3557
-2341.32 1184.12 3572
-2338 1186.77 3580
-2329.44 1186.77 3580
-2320.88 1186.77 3580
-2307.15 1184.12 3572
-2298.61 1184.12 3572
-2285.58 1181.8 3565
-2257.25 1171.52 3534
-2244.35 1169.2 3527
-2226.4 1164.23 3512
-2227.48 1169.2 3527
-2219.05 1169.2 3527
-2220.01 1174.17 3542
-2225.9 1181.8 3565
-2221.73 1184.12 3572
-2213.19 1184.12 3572
-2204.65 1184.12 3572
-2186.88 1179.15 3557
-2178.38 1179.15 3557
-2169.87 1179.15 3557
-2147.39 1171.52 3534
-2125.63 1164.23 3512
-2117.23 1164.23 3512
-2104.63 1161.91 3505
-2100.43 1164.23 3512
-2092.03 1164.23 3512
-2083.63 1164.23 3512
-2075.24 1164.23 3512
-2066.84 1164.23 3512
-2054.34 1161.91 3505
-2045.95 1161.91 3505
-2037.57 1161.91 3505
-2029.19 1161.91 3505
-2020.81 1161.91 3505
-2012.43 1161.91 3505
-1987.47 1152.29 3476
-1958.66 1140.36 3440
-1922.65 1124.12 3391
-1914.54 1124.12 3391
-1906.43 1124.12 3391
-1910.08 1131.08 3412
-1905.82 1133.4 3419
-1897.64 1133.4 3419
-1889.47 1133.4 3419
-1881.29 1133.4 3419
-1869.28 1131.08 3412
-1861.12 1131.08 3412
-1852.96 1131.08 3412
-1848.59 1133.4 3419
-1840.41 1133.4 3419
-1832.24 1133.4 3419
-1824.06 1133.4 3419
-1815.89 1133.4 3419
-1800.31 1128.76 3405
-1792.17 1128.76 3405
-1714.4 1181.8 3565
-1713.06 1186.77 3580
-1704.5 1186.77 3580
-1699.72 1189.42 3588
-1694.44 1191.74 3595
-1685.85 1191.74 3595
-1677.25 1191.74 3595
-1668.65 1191.74 3595
-1649.44 1184.12 3572
-1630.33 1176.49 3549
-1621.84 1176.49 3549
-1613.35 1176.49 3549
-1604.87 1176.49 3549
-1576.59 1161.91 3505
-1568.21 1161.91 3505
-1556.27 1159.26 3497
-1547.9 1159.26 3497
-1499.04 1128.76 3405
-1490.9 1128.76 3405
-1482.75 1128.76 3405
-1477.64 1131.08 3412
-1469.48 1131.08 3412
-1461.33 1131.08 3412
-1453.17 1131.08 3412
-1442.04 1128.76 3405
-1433.9 1128.76 3405
-1425.76 1128.76 3405
-1417.62 1128.76 3405
-1392.09 1114.84 3363
-1381.58 1112.85 3357
-1373.55 1112.85 3357
-1365.52 1112.85 3357
-1357.49 1112.85 3357
-1357.51 1119.48 3377
-1349.43 1119.48 3377
-1341.35 1119.48 3377
-1347.1 1131.08 3412
-1338.94 1131.08 3412
-1341.7 1140.36 3440
-1333.47 1140.36 3440
-1330.64 1145 3454
-1330.8 1152.29 3476
-1322.49 1152.29 3476
-1314.18 1152.29 3476
-1308.5 1154.62 3483
-1300.17 1154.62 3483
-1291.84 1154.62 3483
-1283.51 1154.62 3483
-1251.75 1133.4 3419
-1266.85 1154.62 3483
-1261.05 1156.94 3490
-1263.48 1166.88 3520
-1255.06 1166.88 3520
-1249.12 1169.2 3527
-1245.96 1174.17 3542
-1245.53 1181.8 3565
-1237 1181.8 3565
-1241.57 1194.4 3603
-1246.3 1207.32 3642
-1237.59 1207.32 3642
-1228.89 1207.32 3642
-1209.79 1197.05 3611
-596.087 594.048 1792
-591.802 594.048 1792
-587.516 594.048 1792
-581.279 592.059 1786
-568.608 583.44 1760
-560.23 579.131 1747
-556.053 579.131 1747
-552.507 579.794 1749
-548.324 579.794 1749
-544.142 579.794 1749
-539.96 579.794 1749
-535.777 579.794 1749
-531.595 579.794 1749
-527.412 579.794 1749
-522.632 579.131 1747
-518.454 579.131 1747
-513.688 578.468 1745
-509.515 578.468 1745
-505.342 578.468 1745
-501.169 578.468 1745
-496.996 578.468 1745
-492.824 578.468 1745
-488.091 577.805 1743
-484.478 578.468 1745
-480.305 578.468 1745
-476.678 579.131 1747
-472.5 579.131 1747
-468.859 579.794 1749
-464.677 579.794 1749
-461.021 580.457 1751
-457.616 581.451 1754
-454.456 582.777 1758
-450.252 582.777 1758
-447.063 584.103 1762
-444.106 585.761 1767
-441.872 588.413 1775
-437.628 588.413 1775
-433.872 589.076 1777
-430.106 589.739 1779
-425.852 589.739 1779
-421.598 589.739 1779
-416.874 589.076 1777
-412.16 588.413 1775
-407.916 588.413 1775
-402.307 586.424 1769
-397.627 585.761 1767
-391.397 582.777 1758
-385.872 580.788 1752
-381.682 580.788 1752
-376.415 579.131 1747
-370.746 576.81 1740
-365.321 574.821 1734
-361.175 574.821 1734
-355.999 573.164 1729
-350.643 571.175 1723
-345.92 570.18 1720
-341.807 570.18 1720
-336.712 568.523 1715
-332.223 567.86 1713
-327.169 566.202 1708
-323.085 566.202 1708
-318.627 565.539 1706
-314.547 565.539 1706
-310.468 565.539 1706
-306.747 566.202 1708
-302.84 566.534 1709
-298.753 566.534 1709
-295.011 567.197 1711
-291.6 568.523 1715
-288.002 569.517 1718
-283.894 569.517 1718
-280.111 570.18 1720
-276.319 570.843 1722
-273.308 573.164 1729
-269.173 573.164 1729
-265.805 574.821 1734
-262.262 576.147 1738
-258.848 577.805 1743
-254.68 577.805 1743
-251.806 580.788 1752
-248.747 583.44 1760
-245.233 585.098 1765
-241.012 585.098 1765
-237.597 587.087 1771
-234.811 590.733 1782
-231.585 593.385 1790
-227.304 593.385 1790
-223.772 595.374 1796
-219.966 596.7 1800
-216.74 599.684 1809
-212.414 599.684 1809
-209.008 602.336 1817
-204.663 602.336 1817
-200.539 602.999 1819
-196.189 602.999 1819
-192.05 603.662 1821
-187.695 603.662 1821
-183.744 604.988 1825
-179.379 604.988 1825
-175.399 606.314 1829
-171.025 606.314 1829
-166.834 606.977 1831
-162.455 606.977 1831
-158.595 608.966 1837
-154.538 610.292 1841
-150.462 611.618 1845
-146.05 611.618 1845
-141.791 612.281 1847
-137.746 613.938 1852
-133.318 613.938 1852
-128.889 613.938 1852
-181.418 1191.74 3595
-173.206 1194.4 3603
-164.59 1194.4 3603
-155.974 1194.4 3603
-126.459 1088.65 3284
-119.292 1094.95 3303
-111.393 1094.95 3303
-103.495 1094.95 3303
-96.3779 1103.9 3330
-88.4148 1103.9 3330
-80.4518 1103.9 3330
109.946 1181.8 3565
118.471 1181.8 3565
126.996 1181.8 3565
135.216 1179.15 3557
143.399 1176.49 3549
151.886 1176.49 3549
159.378 1169.2 3527
167.099 1164.23 3512
175.147 1161.91 3505
183.529 1161.91 3505
191.91 1161.91 3505
200.292 1161.91 3505
208.673 1161.91 3505
217.055 1161.91 3505
225.887 1164.23 3512
234.285 1164.23 3512
242.683 1164.23 3512
250.581 1161.91 3505
258.962 1161.91 3505
266.734 1159.26 3497
273.444 1152.29 3476
281.756 1152.29 3476
290.069 1152.29 3476
298.381 1152.29 3476
306.693 1152.29 3476
315.005 1152.29 3476
323.317 1152.29 3476
331.629 1152.29 3476
341.311 1156.94 3490
349.656 1156.94 3490
358.002 1156.94 3490
366.348 1156.94 3490
373.942 1154.62 3483
380.624 1149.64 3468
379.497 1121.8 3384
387.589 1121.8 3384
394.045 1117.16 3370
398.166 1106.22 3337
402.007 1094.95 3303
410.775 1097.27 3310
418.69 1097.27 3310
429.183 1103.9 3330
438.852 1108.21 3343
446.846 1108.21 3343
454.841 1108.21 3343
462.835 1108.21 3343
469.984 1106.22 3337
477.964 1106.22 3337
485.943 1106.22 3337
494.811 1108.21 3343
502.805 1108.21 3343
510.799 1108.21 3343
518.794 1108.21 3343
525.842 1106.22 3337
531.582 1101.58 3323
540.665 1103.9 3330
548.628 1103.9 3330
556.591 1103.9 3330
565.741 1106.22 3337
573.721 1106.22 3337
582.747 1108.21 3343
590.741 1108.21 3343
599.989 1110.53 3350
607.999 1110.53 3350
616.01 1110.53 3350
624.021 1110.53 3350
632.032 1110.53 3350
640.043 1110.53 3350
648.054 1110.53 3350
656.065 1110.53 3350
664.076 1110.53 3350
673.491 1112.85 3357
681.518 1112.85 3357
689.546 1112.85 3357
697.574 1112.85 3357
705.601 1112.85 3357
714.904 1114.84 3363
722.946 1114.84 3363
730.988 1114.84 3363
737.712 1112.85 3357
745.739 1112.85 3357
753.767 1112.85 3357
760.206 1110.53 3350
768.217 1110.53 3350
776.228 1110.53 3350
785.877 1112.85 3357
793.905 1112.85 3357
801.932 1112.85 3357
809.96 1112.85 3357
817.988 1112.85 3357
826.015 1112.85 3357
834.043 1112.85 3357
840.315 1110.53 3350
848.325 1110.53 3350
853.013 1106.22 3337
859.187 1103.9 3330
867.15 1103.9 3330
875.113 1103.9 3330
883.076 1103.9 3330
891.039 1103.9 3330
899.002 1103.9 3330
906.965 1103.9 3330
914.928 1103.9 3330
922.891 1103.9 3330
927.22 1099.59 3317
935.152 1099.59 3317
944.79 1101.58 3323
952.736 1101.58 3323
962.706 1103.9 3330
970.669 1103.9 3330
984.51 1110.53 3350
992.521 1110.53 3350
1000.53 1110.53 3350
1018.78 1121.8 3384
1026.87 1121.8 3384
1034.96 1121.8 3384
1112.03 1186.77 3580
1127.79 1194.4 3603
1136.41 1194.4 3603
1145.02 1194.4 3603
1153.64 1194.4 3603
1162.25 1194.4 3603
1232.48 1212.63 3658
1241.23 1212.63 3658
1249.97 1212.63 3658
1255.97 1209.98 3650
1264.7 1209.98 3650
1270.63 1207.32 3642
1279.34 1207.32 3642
1282.75 1202.35 3627
1288.57 1199.7 3619
1297.23 1199.7 3619
1305.88 1199.7 3619
1314.53 1199.7 3619
1323.19 1199.7 3619
1328.9 1197.05 3611
1331.61 1191.74 3595
1340.2 1191.74 3595
1340.17 1184.12 3572
1337.39 1174.17 3542
1345.86 1174.17 3542
1354.33 1174.17 3542
1362.8 1174.17 3542
1371.27 1174.17 3542
1376.62 1171.52 3534
1385.07 1171.52 3534
1393.52 1171.52 3534
1399.19 1169.2 3527
1407.63 1169.2 3527
1407.23 1161.91 3505
1415.61 1161.91 3505
1420.74 1159.26 3497
1429.11 1159.26 3497
1425.55 1149.64 3468
1433.84 1149.64 3468
1427.58 1138.04 3433
1432.86 1135.72 3426
1444 1138.04 3433
1455.17 1140.36 3440
1463.39 1140.36 3440
1471.62 1140.36 3440
1479.85 1140.36 3440
1488.07 1140.36 3440
1496.3 1140.36 3440
1501.46 1138.04 3433
1509.67 1138.04 3433
1514.79 1135.72 3426
1529.2 1140.36 3440
1537.43 1140.36 3440
1571.27 1159.26 3497
1579.63 1159.26 3497
1587.99 1159.26 3497
1596.35 1159.26 3497
1604.72 1159.26 3497
1613.08 1159.26 3497
1621.44 1159.26 3497
1685.96 1169.2 3527
1694.39 1169.2 3527
1702.82 1169.2 3527
1711.26 1169.2 3527
1719.69 1169.2 3527
1728.13 1169.2 3527
1733.11 1166.88 3520
1741.53 1166.88 3520
1724.1 1149.64 3468
1714.91 1138.04 3433
1698.52 1121.8 3384
1706.61 1121.8 3384
1704.06 1114.84 3363
1712.11 1114.84 3363
1706.85 1106.22 3337
1714.83 1106.22 3337
1712.48 1099.59 3317
1706.41 1090.64 3290
1704.38 1084.34 3271
1719.01 1088.65 3284
1726.86 1088.65 3284
1734.71 1088.65 3284
1728.77 1080.03 3258
1736.56 1080.03 3258
1744.35 1080.03 3258
1745.69 1076.05 3246
1726.44 1059.47 3196
2126.03 1076.05 3246
2137.74 1078.04 3252
2145.52 1078.04 3252
2178.45 1090.64 3290
2186.32 1090.64 3290
2194.19 1090.64 3290
2185.32 1082.35 3265
2193.13 1082.35 3265
-2348 1047.1 3136
-2340.5 1047.1 3136
-2333 1047.1 3136
-2329.95 1049.1 3142
-2326.87 1051.1 3148
-2337.03 1059.12 3172
-2329.44 1059.12 3172
-2321.86 1059.12 3172
-2314.27 1059.12 3172
-2306.69 1059.12 3172
-2299.1 1059.12 3172
-2291.52 1059.12 3172
-2283.93 1059.12 3172
-2280.65 1061.12 3178
-2273.05 1061.12 3178
-2274.01 1065.13 3190
-2274.9 1069.13 3202
-2275.74 1073.14 3214
-2268.06 1073.14 3214
-2273.74 1079.48 3233
-2288.43 1090.17 3265
-2330.92 1114.21 3337
-2322.94 1114.21 3337
-2362.13 1136.92 3405
-2373.35 1146.26 3433
-2365.14 1146.26 3433
-2356.93 1146.26 3433
-2348.72 1146.26 3433
-2340.51 1146.26 3433
-2318.03 1139.25 3412
-2300.4 1134.58 3398
-2311.16 1143.93 3426
-2312.38 1148.6 3440
-2318.22 1155.61 3461
-2329.3 1165.3 3490
-2335.58 1172.64 3512
-2332.48 1175.31 3520
-2324.07 1175.31 3520
-2339.99 1187.67 3557
-2341.32 1192.68 3572
-2338 1195.35 3580
-2329.44 1195.35 3580
-2320.88 1195.35 3580
-2307.15 1192.68 3572
-2298.61 1192.68 3572
-2285.58 1190.34 3565
-2257.25 1179.99 3534
-2239.89 1175.31 3520
-2226.4 1172.64 3512
-2227.48 1177.65 3527
-2219.05 1177.65 3527
-2220.01 1182.66 3542
-2225.9 1190.34 3565
-2221.73 1192.68 3572
-2213.19 1192.68 3572
-2204.65 1192.68 3572
-2186.88 1187.67 3557
-2178.38 1187.67 3557
-2169.87 1187.67 3557
-2147.39 1179.99 3534
-2125.63 1172.64 3512
-2117.23 1172.64 3512
-2099.82 1167.63 3497
-2100.43 1172.64 3512
-2092.03 1172.64 3512
-2083.63 1172.64 3512
-2071.1 1170.3 3505
-2062.72 1170.3 3505
-2045.54 1165.3 3490
-2045.95 1170.3 3505
-2037.57 1170.3 3505
-2029.19 1170.3 3505
-2012.16 1165.3 3490
-2003.82 1165.3 3490
-1982.89 1157.95 3468
-1930.76 1132.24 3391
-1914.71 1127.57 3377
-1906.63 1127.57 3377
-1890.69 1122.89 3363
-1898.32 1132.24 3391
-1890.21 1132.24 3391
-1885.99 1134.58 3398
-1877.86 1134.58 3398
-1869.74 1134.58 3398
-1861.61 1134.58 3398
-1853.49 1134.58 3398
-1845.36 1134.58 3398
-1833.45 1132.24 3391
-1821.57 1129.9 3384
-1813.48 1129.9 3384
-1699.72 1198.02 3588
-1694.44 1200.36 3595
-1685.85 1200.36 3595
-1677.25 1200.36 3595
-1668.65 1200.36 3595
-1649.44 1192.68 3572
-1630.33 1185 3549
-1621.84 1185 3549
-1613.35 1185 3549
-1604.87 1185 3549
-1576.59 1170.3 3505
-1568.21 1170.3 3505
-1556.27 1167.63 3497
-1547.9 1167.63 3497
-1499.04 1136.92 3405
-1490.9 1136.92 3405
-1479.71 1134.58 3398
-1477.64 1139.25 3412
-1469.48 1139.25 3412
-1461.33 1139.25 3412
-1453.17 1139.25 3412
-1442.04 1136.92 3405
-1433.9 1136.92 3405
-1425.76 1136.92 3405
-1417.62 1136.92 3405
-1389.6 1120.89 3357
-1370.46 1111.87 3330
-1362.5 1111.87 3330
-1351.69 1109.54 3323
-1343.74 1109.54 3323
-1335.8 1109.54 3323
-1343.84 1122.89 3363
-1335.79 1122.89 3363
-1327.75 1122.89 3363
-1333.44 1134.58 3398
-1341.7 1148.6 3440
-1333.47 1148.6 3440
-1330.64 1153.28 3454
-1330.8 1160.62 3476
-1322.49 1160.62 3476
-1314.18 1160.62 3476
-1308.5 1162.96 3483
-1300.17 1162.96 3483
