ply
format ascii 1.0
comment File generated
element vertex 2255
property float x
property float y
property float z
end_header
-208.892 226.128 1645
-204.958 226.128 1645
-202.491 227.778 1657
-198.888 228.19 1660
-196.327 229.84 1672
-192.329 229.84 1672
-189.457 231.215 1682
-186.317 232.314 1690
-183.03 233.276 1697
-178.972 233.276 1697
-175.327 233.826 1701
-171.36 233.964 1702
-167.486 234.239 1704
-163.412 234.239 1704
-159.337 234.239 1704
-155.444 234.514 1706
-151.631 234.926 1709
-147.544 234.926 1709
-143.457 234.926 1709
-139.371 234.926 1709
-135.601 235.476 1713
-131.504 235.476 1713
-127.408 235.476 1713
-123.168 235.201 1711
-119.076 235.201 1711
-240.177 549.994 4001
-230.609 549.994 4001
-221.042 549.994 4001
-211.474 549.994 4001
-200.443 546.007 3972
-191.426 547.382 3982
-181.903 547.382 3982
-172.381 547.382 3982
-162.859 547.382 3982
-152.952 546.007 3972
-143.815 547.382 3982
-134.293 547.382 3982
-125.052 548.619 3991
-115.798 549.994 4001
-107.239 555.217 4039
-97.581 555.217 4039
-88.7933 560.716 4079
-79.2329 562.09 4089
-69.4549 562.09 4089
-59.6768 562.09 4089
242.847 560.716 4079
253.22 562.09 4089
262.998 562.09 4089
272.776 562.09 4089
280.481 557.966 4059
290.188 557.966 4059
297.013 552.605 4020
302.964 546.007 3972
312.463 546.007 3972
321.961 546.007 3972
329.874 543.395 3953
339.327 543.395 3953
343.927 535.835 3898
353.248 535.835 3898
364.243 538.309 3916
373.608 538.309 3916
382.972 538.309 3916
389.631 534.598 3889
398.931 534.598 3889
405.397 530.886 3862
407.117 521.264 3792
407.843 510.816 3716
416.729 510.816 3716
421.836 506.28 3683
426.784 501.744 3650
431.814 497.482 3619
440.468 497.482 3619
445.275 493.221 3588
448.036 486.898 3542
453.671 483.873 3520
459.069 480.712 3497
467.431 480.712 3497
474.841 479.749 3490
480.141 476.725 3468
487.448 475.763 3461
497.873 477.825 3476
506.185 477.825 3476
516.569 479.749 3490
527.171 481.811 3505
537.844 483.873 3520
546.262 483.873 3520
559.249 487.86 3549
587.892 505.18 3675
600.577 508.479 3699
609.422 508.479 3699
632.308 520.026 3783
642.88 521.264 3792
691.147 552.605 4020
700.76 552.605 4020
713.731 555.217 4039
723.389 555.217 4039
734.863 556.592 4049
744.545 556.592 4049
754.227 556.592 4049
763.91 556.592 4049
773.592 556.592 4049
781.34 555.217 4039
790.999 555.217 4039
800.657 555.217 4039
810.315 555.217 4039
819.974 555.217 4039
833.741 557.966 4059
843.447 557.966 4059
853.153 557.966 4059
862.859 557.966 4059
870.416 556.592 4049
880.098 556.592 4049
891.978 557.966 4059
903.906 559.341 4069
913.636 559.341 4069
923.367 559.341 4069
933.097 559.341 4069
942.827 559.341 4069
950.216 557.966 4059
955.193 555.217 4039
957.923 551.231 4010
967.513 551.231 4010
974.909 549.994 4001
982.016 548.619 3991
982.118 543.395 3953
991.571 543.395 3953
996.466 540.921 3935
998.718 537.072 3907
1003.42 534.598 3889
1012.72 534.598 3889
1019.65 533.36 3880
1024.16 530.886 3862
1033.39 530.886 3862
1037.77 528.412 3844
1046.96 528.412 3844
1056.15 528.412 3844
1058.14 524.838 3818
1064.75 523.601 3809
1073.86 523.601 3809
1082.97 523.601 3809
1092.08 523.601 3809
1101.19 523.601 3809
1110.29 523.601 3809
1119.4 523.601 3809
1128.51 523.601 3809
1137.62 523.601 3809
1146.73 523.601 3809
1155.84 523.601 3809
1164.95 523.601 3809
1174.05 523.601 3809
1185.96 524.838 3818
1200.41 527.175 3835
1209.58 527.175 3835
1230.19 532.123 3871
1250.97 537.072 3907
1266.12 539.546 3925
1275.51 539.546 3925
1294.06 543.395 3953
1309.78 546.007 3972
1325.59 548.619 3991
1335.13 548.619 3991
1354.45 552.605 4020
1364.06 552.605 4020
1373.67 552.605 4020
1383.29 552.605 4020
1389.43 551.231 4010
1399.02 551.231 4010
1408.61 551.231 4010
1415.02 549.994 4001
1424.59 549.994 4001
1430.57 548.619 3991
1457.43 555.217 4039
1467.09 555.217 4039
1476.75 555.217 4039
1486.41 555.217 4039
1496.07 555.217 4039
1505.73 555.217 4039
1515.38 555.217 4039
1517.87 552.605 4020
1523.68 551.231 4010
1533.27 551.231 4010
1535.55 548.619 3991
1545.09 548.619 3991
1565.93 552.605 4020
1575.55 552.605 4020
1585.16 552.605 4020
1598.74 553.98 4030
1631.92 562.09 4089
1641.7 562.09 4089
1651.48 562.09 4089
1661.26 562.09 4089
1671.04 562.09 4089
1680.81 562.09 4089
1690.59 562.09 4089
1692.05 559.341 4069
1681.29 552.605 4020
1690.9 552.605 4020
1700.52 552.605 4020
1710.13 552.605 4020
1727.87 555.217 4039
1737.53 555.217 4039
1747.19 555.217 4039
1752.93 553.98 4030
1762.57 553.98 4030
1763.41 551.231 4010
1773 551.231 4010
1782.59 551.231 4010
1783.69 548.619 3991
1797.72 549.994 4001
1815.87 552.605 4020
1825.49 552.605 4020
1835.1 552.605 4020
1840.12 551.231 4010
1849.71 551.231 4010
1850.49 548.619 3991
1855.84 547.382 3982
1860.68 546.007 3972
1879.12 548.619 3991
1888.67 548.619 3991
1898.21 548.619 3991
1907.75 548.619 3991
1894.72 542.158 3944
1904.15 542.158 3944
1909.21 540.921 3935
1904.97 537.072 3907
1892.27 530.886 3862
1901.5 530.886 3862
1892.93 525.937 3826
1859.32 514.115 3740
1835.79 505.18 3675
1824.5 499.682 3635
1833.2 499.682 3635
1833.78 497.482 3619
1830.22 494.183 3595
1827.05 491.022 3572
1835.59 491.022 3572
1840.52 490.059 3565
1849.04 490.059 3565
1857.57 490.059 3565
1878.13 493.221 3588
1886.71 493.221 3588
1895.29 493.221 3588
1899.63 492.121 3580
1908.19 492.121 3580
1921.03 493.221 3588
1929.61 493.221 3588
1954.94 497.482 3619
1972.28 499.682 3635
1998.41 504.081 3667
2007.18 504.081 3667
2123.15 530.886 3862
2142.32 533.36 3880
2166.57 537.072 3907
2185.94 539.546 3925
2205.95 542.158 3944
2241.78 548.619 3991
2262.04 551.231 4010
2271.63 551.231 4010
2281.22 551.231 4010
2290.81 551.231 4010
2300.4 551.231 4010
2299.04 548.619 3991
2303.38 547.382 3982
2329.17 551.231 4010
2338.76 551.231 4010
2348.35 551.231 4010
2363.82 552.605 4020
2373.43 552.605 4020
2383.04 552.605 4020
2392.66 552.605 4020
2408.24 553.98 4030
2417.88 553.98 4030
2427.52 553.98 4030
2425.06 551.231 4010
2434.65 551.231 4010
2456.43 553.98 4030
2466.07 553.98 4030
2475.7 553.98 4030
2485.34 553.98 4030
2494.98 553.98 4030
2504.61 553.98 4030
2514.25 553.98 4030
2517.62 552.605 4020
2515.29 549.994 4001
2512.87 547.382 3982
2522.39 547.382 3982
2531.91 547.382 3982
2535.05 546.007 3972
2538.79 544.77 3963
2548.26 544.77 3963
2545.48 542.158 3944
2549.08 540.921 3935
2516.88 532.123 3871
2502.64 527.175 3835
2511.81 527.175 3835
523.248 101.311 737
525.011 101.311 737
527.488 101.448 738
529.252 101.448 738
531.017 101.448 738
532.782 101.448 738
534.547 101.448 738
536.312 101.448 738
538.805 101.586 739
541.304 101.723 740
543.074 101.723 740
544.843 101.723 740
546.613 101.723 740
548.382 101.723 740
550.152 101.723 740
551.922 101.723 740
553.691 101.723 740
555.461 101.723 740
556.477 101.586 739
558.244 101.586 739
560.769 101.723 740
562.539 101.723 740
564.308 101.723 740
566.078 101.723 740
-2334.52 436.082 3118
-2327.07 436.082 3118
-2311.43 434.544 3107
-2307.71 435.243 3112
-2300.26 435.243 3112
-2292.82 435.243 3112
-2285.38 435.243 3112
-2277.94 435.243 3112
-2274.87 436.082 3118
-2276.14 437.76 3130
-2268.66 437.76 3130
-2265.51 438.6 3136
-2270.97 441.117 3154
-2293.57 446.991 3196
-2285.93 446.991 3196
-2322.48 455.662 3258
-2409.18 474.264 3391
-2401.07 474.264 3391
-2437.42 483.075 3454
-2454.48 488.11 3490
-2446.14 488.11 3490
-2437.79 488.11 3490
-2571.64 518.459 3707
-2591.81 524.333 3749
-2582.84 524.333 3749
-2573.88 524.333 3749
-2530.71 517.34 3699
-2521.86 517.34 3699
-2502.14 515.103 3683
-2455.43 507.271 3627
-2435.96 505.033 3611
-2427.32 505.033 3611
-2413.33 503.914 3603
-2384.03 499.578 3572
-2375.48 499.578 3572
-2372.24 500.697 3580
-2363.68 500.697 3580
-2360.38 501.816 3588
-2356.39 502.795 3595
-2347.8 502.795 3595
-2339.2 502.795 3595
-2335.79 503.914 3603
-2337.51 506.152 3619
-2339.15 508.389 3635
-2330.46 508.389 3635
-2326.23 509.368 3642
-2333.43 512.865 3667
-2334.81 515.103 3683
-2326 515.103 3683
-2369.41 526.711 3766
-2381.72 531.466 3800
-2388.87 535.103 3826
-2379.72 535.103 3826
-2387.3 538.879 3853
-2400.3 543.914 3889
-2430.35 552.865 3953
-2420.9 552.865 3953
-2446.22 560.837 4010
-2466.4 567.69 4059
-2468.8 570.487 4079
-2459.05 570.487 4079
-2449.29 570.487 4079
-2439.54 570.487 4079
-2429.78 570.487 4079
-2420.03 570.487 4079
-2398.46 567.69 4059
-2376.98 564.893 4039
-2367.32 564.893 4039
-1917.68 507.271 3627
-1909.01 507.271 3627
-1900.34 507.271 3627
-1891.66 507.271 3627
-1882.99 507.271 3627
-1886.2 510.487 3650
-1877.48 510.487 3650
-1902.54 519.718 3716
-1910.47 524.333 3749
-1901.5 524.333 3749
-1892.54 524.333 3749
-1896.13 527.83 3774
-1887.11 527.83 3774
-1878.08 527.83 3774
-1869.06 527.83 3774
-1860.04 527.83 3774
-1847.09 526.711 3766
-1838.08 526.711 3766
-1829.08 526.711 3766
-1815.72 525.452 3757
-1806.74 525.452 3757
-1822.63 532.725 3809
-1813.53 532.725 3809
-1804.42 532.725 3809
-1795.31 532.725 3809
-1786.2 532.725 3809
-1777.09 532.725 3809
-1755.92 529.089 3783
-1742.71 527.83 3774
-1741.96 530.347 3792
-1732.89 530.347 3792
-1727.46 531.466 3800
-1726.51 533.984 3818
-1717.38 533.984 3818
-1708.25 533.984 3818
-1699.12 533.984 3818
-1689.99 533.984 3818
-1688.35 536.361 3835
-1687.06 538.879 3853
-1677.84 538.879 3853
-1668.63 538.879 3853
-1659.41 538.879 3853
-1650.2 538.879 3853
-1633.32 536.361 3835
-1624.15 536.361 3835
-1607.82 533.984 3818
-1598.69 533.984 3818
-1589.56 533.984 3818
-1587.47 536.361 3835
-1578.3 536.361 3835
-1569.13 536.361 3835
-1559.96 536.361 3835
-1533.4 530.347 3792
-1503.43 523.075 3740
-1494.48 523.075 3740
-1482.36 521.956 3732
-1480.15 524.333 3749
-1480.99 527.83 3774
-1506.29 540.138 3862
-1497.06 540.138 3862
-1491.29 541.396 3871
-1488.92 543.914 3889
-1489.9 547.69 3916
-1480.53 547.69 3916
-1471.17 547.69 3916
-1461.8 547.69 3916
-1452.44 547.69 3916
-1400.33 531.466 3800
-1391.24 531.466 3800
-1385.43 532.725 3809
-1376.32 532.725 3809
-1367.21 532.725 3809
-1358.1 532.725 3809
-1358.2 536.361 3835
-1352.2 537.62 3844
-1343 537.62 3844
-1333.81 537.62 3844
-1324.62 537.62 3844
-1324.67 541.396 3871
-1315.41 541.396 3871
-1306.15 541.396 3871
-1302.93 543.914 3889
-1293.63 543.914 3889
-1284.33 543.914 3889
-601.614 256.642 1835
-597.226 256.642 1835
-591.546 256.083 1831
-585.885 255.523 1827
-581.516 255.523 1827
-575.883 254.964 1823
-570.897 254.684 1821
-564.053 253.565 1813
-559.101 253.286 1811
-554.77 253.286 1811
-548.312 252.307 1804
-542.188 251.467 1798
-535.496 250.349 1790
-531.215 250.349 1790
-525.168 249.509 1784
-514.771 246.572 1763
-507.08 244.894 1751
-502.893 244.894 1751
-495.857 243.495 1741
-489.152 242.237 1732
-481.65 240.558 1720
-477.537 240.558 1720
-470.396 239.02 1709
-465.491 238.6 1706
-460.059 237.901 1701
-454.919 237.342 1697
-450.861 237.342 1697
-445.487 236.642 1692
-440.919 236.363 1690
-435.068 235.384 1683
-431.043 235.384 1683
-426.258 234.964 1680
-420.984 234.265 1675
-416.231 233.845 1672
-412.233 233.845 1672
-408.235 233.845 1672
-403.028 233.146 1667
-398.084 232.586 1663
-394.107 232.586 1663
-388.957 231.887 1658
-384.993 231.887 1658
-381.028 231.887 1658
-377.063 231.887 1658
-372.423 231.468 1655
-366.907 230.489 1648
-362.746 230.349 1647
-357.718 229.649 1642
-353.792 229.649 1642
-349.865 229.649 1642
-344.885 228.95 1637
-340.762 228.81 1636
-336.85 228.81 1636
-332.531 228.53 1634
-328.221 228.251 1632
-323.524 227.691 1628
-319.631 227.691 1628
-315.35 227.412 1626
-310.887 226.992 1623
-306.628 226.712 1621
-302.751 226.712 1621
-298.322 226.293 1618
-294.271 226.153 1617
-290.045 225.873 1615
-286.183 225.873 1615
-281.971 225.593 1613
-277.942 225.454 1612
-274.087 225.454 1612
-270.232 225.454 1612
-266.377 225.454 1612
-262.197 225.174 1610
-258.347 225.174 1610
-254.339 225.034 1609
-250.647 225.174 1610
-246.797 225.174 1610
-243.249 225.454 1612
-239.84 225.873 1615
-236.416 226.293 1618
-232.547 226.293 1618
-229.102 226.712 1621
-225.503 226.992 1623
-222.715 228.111 1631
-218.814 228.111 1631
-215.309 228.53 1634
-212.437 229.649 1642
-208.892 230.069 1645
-204.958 230.069 1645
-202.491 231.747 1657
-198.888 232.167 1660
-196.327 233.845 1672
-192.329 233.845 1672
-189.457 235.244 1682
-186.317 236.363 1690
-183.03 237.342 1697
-178.972 237.342 1697
-175.327 237.901 1701
-171.36 238.041 1702
-167.486 238.321 1704
-163.412 238.321 1704
-159.337 238.321 1704
-155.444 238.6 1706
-151.631 239.02 1709
-147.544 239.02 1709
-143.457 239.02 1709
-139.371 239.02 1709
-135.601 239.579 1713
-131.504 239.579 1713
-127.408 239.579 1713
-123.168 239.3 1711
-119.076 239.3 1711
-236.755 551.606 3944
-227.843 552.865 3953
-218.39 552.865 3953
-208.937 552.865 3953
-200.443 555.522 3972
-191.426 556.921 3982
-181.903 556.921 3982
-172.381 556.921 3982
-162.859 556.921 3982
-152.952 555.522 3972
-143.815 556.921 3982
-134.293 556.921 3982
-125.052 558.179 3991
-115.798 559.578 4001
-107.239 564.893 4039
-97.581 564.893 4039
-88.7933 570.487 4079
-79.2329 571.886 4089
-69.4549 571.886 4089
-59.6768 571.886 4089
242.847 570.487 4079
252.601 570.487 4079
262.355 570.487 4079
272.109 570.487 4079
279.79 566.291 4049
289.473 566.291 4049
296.274 560.837 4010
302.278 554.263 3963
311.755 554.263 3963
321.231 554.263 3963
329.874 552.865 3953
337.781 550.347 3935
342.338 542.655 3880
353.248 545.172 3898
362.569 545.172 3898
371.891 545.172 3898
381.212 545.172 3898
388.73 542.655 3880
398.008 542.655 3880
402.563 536.361 3835
406.15 529.089 3783
407.843 519.718 3716
416.729 519.718 3716
420.919 513.984 3675
426.784 510.487 3650
431.814 506.152 3619
440.468 506.152 3619
445.275 501.816 3588
448.036 495.382 3542
452.64 491.187 3512
459.069 489.089 3497
467.431 489.089 3497
472.936 486.152 3476
478.203 483.075 3454
487.448 484.054 3461
496.727 485.033 3468
505.02 485.033 3468
516.569 488.11 3490
525.968 489.089 3497
537.844 492.306 3520
546.262 492.306 3520
558.146 495.382 3542
580.214 507.271 3627
600.577 517.34 3699
609.422 517.34 3699
632.308 529.089 3783
642.88 530.347 3792
668.625 543.914 3889
677.924 543.914 3889
707.016 559.578 4001
718.195 560.837 4010
731.414 563.634 4030
741.051 563.634 4030
750.688 563.634 4030
760.325 563.634 4030
769.962 563.634 4030
777.665 562.235 4020
787.278 562.235 4020
798.873 563.634 4030
808.51 563.634 4030
818.147 563.634 4030
829.632 564.893 4039
841.369 566.291 4049
851.051 566.291 4049
860.734 566.291 4049
866.332 563.634 4030
873.795 562.235 4020
891.978 567.69 4059
901.685 567.69 4059
911.391 567.69 4059
923.367 569.088 4069
933.097 569.088 4069
942.827 569.088 4069
947.875 566.291 4049
955.193 564.893 4039
957.923 560.837 4010
967.513 560.837 4010
972.472 558.179 3991
975.126 554.263 3963
982.118 552.865 3953
991.571 552.865 3953
989.375 546.431 3907
996.418 545.172 3898
1001.09 542.655 3880
1010.37 542.655 3880
1017.29 541.396 3871
1021.77 538.879 3853
1028.57 537.62 3844
1035.34 536.361 3835
1044.51 536.361 3835
1049.01 533.984 3818
1053.15 531.466 3800
1060 530.347 3792
1069.07 530.347 3792
1075.58 529.089 3783
1084.62 529.089 3783
1093.67 529.089 3783
1102.72 529.089 3783
1111.76 529.089 3783
1118.14 527.83 3774
1132.54 530.347 3792
1144.02 531.466 3800
1153.11 531.466 3800
1162.19 531.466 3800
1174.05 532.725 3809
1183.16 532.725 3809
1200.41 536.361 3835
1209.58 536.361 3835
1227.33 540.138 3862
1245.21 543.914 3889
1266.12 548.949 3925
1275.51 548.949 3925
1291.12 551.606 3944
1306.81 554.263 3963
1325.59 558.179 3991
1335.13 558.179 3991
1344.68 558.179 3991
1364.06 562.235 4020
1373.67 562.235 4020
1383.29 562.235 4020
1389.43 560.837 4010
1399.02 560.837 4010
1408.61 560.837 4010
1415.02 559.578 4001
1424.59 559.578 4001
1430.57 558.179 3991
1457.43 564.893 4039
1467.09 564.893 4039
1476.75 564.893 4039
1486.41 564.893 4039
1496.07 564.893 4039
1505.73 564.893 4039
1515.38 564.893 4039
1517.87 562.235 4020
1523.68 560.837 4010
1533.27 560.837 4010
1535.55 558.179 3991
1545.09 558.179 3991
1565.93 562.235 4020
1575.55 562.235 4020
1585.16 562.235 4020
1598.74 563.634 4030
1631.92 571.886 4089
1641.7 571.886 4089
1651.48 571.886 4089
1661.26 571.886 4089
1671.04 571.886 4089
1680.81 571.886 4089
1690.59 571.886 4089
1692.05 569.088 4069
1681.29 562.235 4020
1690.9 562.235 4020
1700.52 562.235 4020
1710.13 562.235 4020
1727.87 564.893 4039
1737.53 564.893 4039
1747.19 564.893 4039
1752.93 563.634 4030
1762.57 563.634 4030
1763.41 560.837 4010
1773 560.837 4010
1782.59 560.837 4010
1783.69 558.179 3991
1797.72 559.578 4001
1815.87 562.235 4020
1825.49 562.235 4020
1835.1 562.235 4020
1840.12 560.837 4010
1849.71 560.837 4010
1850.49 558.179 3991
1855.84 556.921 3982
1860.68 555.522 3972
1879.12 558.179 3991
1888.67 558.179 3991
1898.21 558.179 3991
1907.75 558.179 3991
1894.72 551.606 3944
1904.15 551.606 3944
1909.21 550.347 3935
1904.97 546.431 3907
1892.27 540.138 3862
1901.5 540.138 3862
1897.38 536.361 3835
1859.32 523.075 3740
1839.79 515.103 3683
1828.02 509.368 3642
1836.73 509.368 3642
1837.84 507.271 3627
1838.36 505.033 3611
1835.23 501.816 3588
1843.81 501.816 3588
1844.13 499.578 3572
1852.68 499.578 3572
1869.55 501.816 3588
1890.17 505.033 3611
1898.81 505.033 3611
1907.44 505.033 3611
1903.87 501.816 3588
1912.45 501.816 3588
1924.78 502.795 3595
1933.38 502.795 3595
1954.94 506.152 3619
1976.07 509.368 3642
2007.13 515.103 3683
2015.93 515.103 3683
2133.04 542.655 3880
2167.17 548.949 3925
2176.55 548.949 3925
2196.52 551.606 3944
2216.58 554.263 3963
2252.46 560.837 4010
2267.69 562.235 4020
2277.3 562.235 4020
2286.91 562.235 4020
2296.52 562.235 4020
2306.14 562.235 4020
2309.99 560.837 4010
2314.37 559.578 4001
2340.79 563.634 4030
2355.67 564.893 4039
2365.33 564.893 4039
2374.99 564.893 4039
2379.33 563.634 4030
2394.31 564.893 4039
2403.96 564.893 4039
2413.62 564.893 4039
2423.28 564.893 4039
2432.94 564.893 4039
2437.15 563.634 4030
2446.79 563.634 4030
2461.91 564.893 4039
2471.57 564.893 4039
2481.23 564.893 4039
2490.89 564.893 4039
2500.55 564.893 4039
2510.21 564.893 4039
2519.87 564.893 4039
2529.52 564.893 4039
2520.95 560.837 4010
2512.87 556.921 3982
2522.39 556.921 3982
2531.91 556.921 3982
2535.05 555.522 3972
2544.55 555.522 3972
2554.05 555.522 3972
2563.55 555.522 3972
2554.91 551.606 3944
2551.99 548.949 3925
2508.51 537.62 3844
2517.71 537.62 3844
2520.98 536.361 3835
2513 532.725 3809
523.248 103.076 737
525.011 103.076 737
527.488 103.216 738
529.252 103.216 738
531.017 103.216 738
532.782 103.216 738
534.547 103.216 738
536.312 103.216 738
538.805 103.356 739
541.304 103.496 740
543.074 103.496 740
544.843 103.496 740
546.613 103.496 740
548.382 103.496 740
550.152 103.496 740
551.922 103.496 740
553.691 103.496 740
555.461 103.496 740
556.477 103.356 739
558.244 103.356 739
560.769 103.496 740
562.539 103.496 740
564.308 103.496 740
566.078 103.496 740
-2334.52 443.551 3118
-2327.07 443.551 3118
-2311.43 441.986 3107
-2304 441.986 3107
-2296.57 441.986 3107
-2289.14 441.986 3107
-2277.3 441.133 3101
-2274.28 441.986 3107
-2270.5 442.698 3112
-2276.14 445.258 3130
-2268.66 445.258 3130
-2274.18 447.819 3148
-2270.97 448.672 3154
-2293.57 454.647 3196
-2285.93 454.647 3196
-2322.48 463.467 3258
-2419.13 484.378 3405
-2410.99 484.378 3405
-2437.42 491.349 3454
-2528.33 511.407 3595
-2542.16 515.959 3627
-2533.49 515.959 3627
-2552.66 521.649 3667
-2600.77 533.314 3749
-2603.56 535.733 3766
-2594.56 535.733 3766
-2585.55 535.733 3766
-2576.54 535.733 3766
-2567.54 535.733 3766
-2535.43 530.896 3732
-2493.34 523.925 3683
-2456.87 518.093 3642
-2448.16 518.093 3642
-2429.41 515.959 3627
-2404.72 512.545 3603
-2396.1 512.545 3603
-2387.48 512.545 3603
-2373.59 511.407 3595
-2364.99 511.407 3595
-2361.64 512.545 3603
-2363.47 514.821 3619
-2354.81 514.821 3619
-2351.35 515.959 3627
-2347.84 517.097 3635
-2359.74 521.649 3667
-2350.97 521.649 3667
-2347.31 522.787 3675
-2338.52 522.787 3675
-2334.81 523.925 3683
-2326 523.925 3683
-2369.41 535.733 3766
-2381.72 540.569 3800
-2388.87 544.268 3826
-2379.72 544.268 3826
-2387.3 548.109 3853
-2400.3 553.23 3889
-2430.35 562.334 3953
-2420.9 562.334 3953
-2446.22 570.443 4010
-2466.4 577.413 4059
-2462.75 578.836 4069
-2453.02 578.836 4069
-2449.29 580.258 4079
-2439.54 580.258 4079
-2429.78 580.258 4079
-2420.03 580.258 4079
-2398.46 577.413 4059
-2376.98 574.568 4039
-2367.32 574.568 4039
-1947.6 521.649 3667
-1938.83 521.649 3667
-1930.06 521.649 3667
-1916.58 520.369 3658
-1907.83 520.369 3658
-1894.93 519.231 3650
-1886.2 519.231 3650
-1877.48 519.231 3650
-1885.64 523.925 3683
-1893.65 528.62 3716
-1884.77 528.62 3716
-1875.88 528.62 3716
-1879.05 532.034 3740
-1874.61 533.314 3749
-1874.1 535.733 3766
-1865.1 535.733 3766
-1856.09 535.733 3766
-1847.09 535.733 3766
-1838.08 535.733 3766
-1829.08 535.733 3766
-1815.72 534.452 3757
-1806.74 534.452 3757
-1822.63 541.849 3809
-1813.53 541.849 3809
-1804.42 541.849 3809
-1795.31 541.849 3809
-1786.2 541.849 3809
-1769.16 539.431 3792
-1748.02 535.733 3766
-1742.71 536.871 3774
-1741.96 539.431 3792
-1732.89 539.431 3792
-1731.55 541.849 3809
-1726.51 543.13 3818
-1717.38 543.13 3818
-1708.25 543.13 3818
-1699.12 543.13 3818
-1686.01 541.849 3809
-1676.9 541.849 3809
-1675.23 544.268 3826
-1666.08 544.268 3826
-1656.94 544.268 3826
-1647.79 544.268 3826
-1638.64 544.268 3826
-1629.49 544.268 3826
-1616.95 543.13 3818
-1604.03 541.849 3809
-1594.92 541.849 3809
-1571.24 536.871 3774
-1587.47 545.548 3835
-1578.3 545.548 3835
-1569.13 545.548 3835
-1559.96 545.548 3835
-1519.24 534.452 3757
-1503.43 532.034 3740
-1494.48 532.034 3740
-1482.36 530.896 3732
-1476.6 532.034 3740
-1474.32 534.452 3757
-1471.97 536.871 3774
-1462.94 536.871 3774
-1453.92 536.871 3774
-1448.34 538.151 3783
-1442.72 539.431 3792
-1433.65 539.431 3792
-1427.59 540.569 3800
-1418.5 540.569 3800
-1409.41 540.569 3800
-1400.33 540.569 3800
-1391.24 540.569 3800
-1382.15 540.569 3800
-1373.07 540.569 3800
-1363.98 540.569 3800
-1352.04 539.431 3792
-1358.2 545.548 3835
-1355.36 548.109 3853
-1346.15 548.109 3853
-1343.18 550.669 3871
-1333.92 550.669 3871
-1327.75 551.95 3880
-1318.47 551.95 3880
-1312.23 553.23 3889
-1302.93 553.23 3889
-1293.63 553.23 3889
-1284.33 553.23 3889
-598.991 259.9 1827
-594.622 259.9 1827
-590.254 259.9 1827
-585.885 259.9 1827
-581.516 259.9 1827
-575.883 259.331 1823
-569.643 258.477 1817
-564.676 258.193 1815
-560.335 258.193 1815
-554.77 257.624 1811
-548.616 256.77 1805
-543.998 256.628 1804
-537.291 255.49 1796
-532.996 255.49 1796
-526.346 254.352 1788
-514.771 250.796 1763
-507.948 249.515 1754
-503.754 249.515 1754
-496.427 247.951 1743
-490.282 246.955 1736
-482.49 245.105 1723
-478.37 245.105 1723
-472.048 243.967 1715
-466.037 242.972 1708
-460.871 242.403 1704
-455.455 241.691 1699
-451.393 241.691 1699
-446.013 240.98 1694
-441.441 240.696 1692
-435.068 239.415 1683
-431.043 239.415 1683
-426.765 239.273 1682
-420.984 238.277 1675
-416.48 237.993 1673
-412.48 237.993 1673
-408.235 237.85 1672
-403.028 237.139 1667
-398.084 236.57 1663
-394.107 236.57 1663
-388.957 235.859 1658
-384.993 235.859 1658
-381.028 235.859 1658
-377.063 235.859 1658
-372.423 235.432 1655
-367.352 234.721 1650
-362.746 234.294 1647
-358.154 233.867 1644
-354.223 233.867 1644
-349.865 233.583 1642
-345.307 233.156 1639
-340.971 232.872 1637
-337.056 232.872 1637
-332.938 232.729 1636
-328.624 232.445 1634
-323.723 231.733 1629
-319.827 231.733 1629
-315.738 231.591 1628
-311.079 231.022 1624
-306.628 230.595 1621
-302.751 230.595 1621
-298.322 230.169 1618
-294.271 230.026 1617
-290.045 229.742 1615
-286.183 229.742 1615
-281.971 229.457 1613
-277.942 229.315 1612
-274.257 229.457 1613
-270.4 229.457 1613
-266.543 229.457 1613
-262.197 229.031 1610
-258.347 229.031 1610
-254.497 229.031 1610
-250.647 229.031 1610
-246.797 229.031 1610
-243.249 229.315 1612
-240.137 230.026 1617
-236.708 230.453 1620
-232.834 230.453 1620
-229.384 230.88 1623
-225.642 231.022 1624
-222.851 232.16 1632
-218.949 232.16 1632
-215.705 232.872 1637
-212.825 234.01 1645
-209.272 234.436 1648
-205.332 234.436 1648
-202.857 236.143 1660
-199.487 236.855 1665
-196.445 237.993 1673
-192.444 237.993 1673
-189.457 239.273 1682
-186.317 240.411 1690
-183.03 241.407 1697
-178.972 241.407 1697
-175.327 241.976 1701
-171.36 242.118 1702
-167.486 242.403 1704
-163.412 242.403 1704
-159.337 242.403 1704
-155.444 242.687 1706
-151.631 243.114 1709
-147.544 243.114 1709
-143.625 243.398 1711
-139.534 243.398 1711
-135.601 243.683 1713
-131.504 243.683 1713
-127.408 243.683 1713
-123.168 243.398 1711
-119.076 243.398 1711
-236.215 559.774 3935
-227.324 561.054 3944
-218.39 562.334 3953
-208.937 562.334 3953
-199.989 563.757 3963
-191.426 566.46 3982
-181.903 566.46 3982
-172.381 566.46 3982
-162.859 566.46 3982
-153.337 566.46 3982
-144.14 567.74 3991
-134.596 567.74 3991
-125.366 569.162 4001
-116.059 570.443 4010
-107.239 574.568 4039
-97.581 574.568 4039
-89.0109 581.681 4089
-79.2329 581.681 4089
-69.4549 581.681 4089
242.847 580.258 4079
252.601 580.258 4079
262.355 580.258 4079
270.108 575.991 4049
277.096 570.443 4010
286.685 570.443 4010
294.205 566.46 3982
300.829 561.054 3944
310.26 561.054 3944
319.691 561.054 3944
328.372 559.774 3935
337.781 559.774 3935
341.544 550.669 3871
352.432 553.23 3889
361.732 553.23 3889
371.032 553.23 3889
380.332 553.23 3889
387.828 550.669 3871
397.085 550.669 3871
402.563 545.548 3835
406.15 538.151 3783
407.843 528.62 3716
416.729 528.62 3716
420.919 522.787 3675
426.784 519.231 3650
431.814 514.821 3619
440.468 514.821 3619
445.275 510.411 3588
448.036 503.867 3542
452.64 499.6 3512
459.069 497.466 3497
467.431 497.466 3497
471.848 493.341 3468
478.203 491.349 3454
487.448 492.345 3461
496.727 493.341 3468
505.02 493.341 3468
516.569 496.47 3490
525.968 497.466 3497
537.844 500.738 3520
546.262 500.738 3520
558.146 503.867 3542
580.214 515.959 3627
600.577 526.201 3699
609.422 526.201 3699
626.625 533.314 3749
642.88 539.431 3792
668.625 553.23 3889
677.924 553.23 3889
696.943 561.054 3944
707.987 562.334 3953
720.888 565.037 3972
730.386 565.037 3972
739.884 565.037 3972
749.382 565.037 3972
758.881 565.037 3972
768.379 565.037 3972
781.598 567.74 3991
793.124 569.162 4001
802.692 569.162 4001
812.259 569.162 4001
827.784 573.288 4030
837.421 573.288 4030
847.058 573.288 4030
856.695 573.288 4030
862.032 570.443 4010
871.621 570.443 4010
885.605 573.288 4030
901.685 577.413 4059
911.391 577.413 4059
921.097 577.413 4059
930.804 577.413 4059
940.51 577.413 4059
947.875 575.991 4049
953.064 573.288 4030
957.923 570.443 4010
967.513 570.443 4010
970.279 566.46 3982
972.666 562.334 3953
975.162 558.351 3925
984.548 558.351 3925
989.375 555.79 3907
991.816 551.95 3880
996.45 549.389 3862
1005.69 549.389 3862
1014.92 549.389 3862
1019.38 546.828 3844
1028.57 546.828 3844
1030.75 543.13 3818
1039.88 543.13 3818
1049.01 543.13 3818
1050.93 539.431 3792
1057.48 538.151 3783
1066.53 538.151 3783
1075.58 538.151 3783
1084.62 538.151 3783
1091.07 536.871 3774
1100.09 536.871 3774
1109.12 536.871 3774
1118.14 536.871 3774
1127.17 536.871 3774
1141.61 539.431 3792
1153.11 540.569 3800
1162.19 540.569 3800
1171.28 540.569 3800
1180.37 540.569 3800
1200.41 545.548 3835
1209.58 545.548 3835
1221.61 546.828 3844
1245.21 553.23 3889
1263.22 557.071 3916
1272.58 557.071 3916
1288.17 559.774 3935
1306.81 563.757 3963
1325.59 567.74 3991
1335.13 567.74 3991
1344.68 567.74 3991
1364.06 571.865 4020
1373.67 571.865 4020
1383.29 571.865 4020
1389.43 570.443 4010
1399.02 570.443 4010
1408.61 570.443 4010
1415.02 569.162 4001
1424.59 569.162 4001
1430.57 567.74 3991
1454.19 573.288 4030
1463.82 573.288 4030
1476.75 574.568 4039
1486.41 574.568 4039
1496.07 574.568 4039
1505.73 574.568 4039
1515.38 574.568 4039
1517.87 571.865 4020
1523.68 570.443 4010
1533.27 570.443 4010
1535.55 567.74 3991
1545.09 567.74 3991
1565.93 571.865 4020
1575.55 571.865 4020
1585.16 571.865 4020
1598.74 573.288 4030
1608.38 573.288 4030
1625.64 575.991 4049
1635.32 575.991 4049
1653.13 578.836 4069
1662.86 578.836 4069
1672.59 578.836 4069
1682.32 578.836 4069
1679.58 574.568 4039
1677.11 570.443 4010
1686.7 570.443 4010
1692.48 569.162 4001
1702.05 569.162 4001
1719.74 571.865 4020
1729.36 571.865 4020
1738.97 571.865 4020
1744.23 570.443 4010
1753.82 570.443 4010
1763.41 570.443 4010
1773 570.443 4010
1774.14 567.74 3991
1783.69 567.74 3991
1793.23 567.74 3991
1807.29 569.162 4001
1816.86 569.162 4001
1826.43 569.162 4001
1835.99 569.162 4001
1845.56 569.162 4001
1850.49 567.74 3991
1846.99 563.757 3963
1856.46 563.757 3963
1870.18 565.037 3972
1879.67 565.037 3972
1889.17 565.037 3972
1898.67 565.037 3972
1894.72 561.054 3944
1904.15 561.054 3944
1909.21 559.774 3935
1904.97 555.79 3907
1892.27 549.389 3862
1901.5 549.389 3862
1897.38 545.548 3835
1859.32 532.034 3740
1839.79 523.925 3683
1828.02 518.093 3642
1836.73 518.093 3642
1837.84 515.959 3627
1838.36 513.683 3611
1835.23 510.411 3588
1843.81 510.411 3588
1844.13 508.135 3572
1852.68 508.135 3572
1869.55 510.411 3588
1890.17 513.683 3611
1898.81 513.683 3611
1907.44 513.683 3611
1903.87 510.411 3588
1912.45 510.411 3588
1924.78 511.407 3595
1933.38 511.407 3595
1954.94 514.821 3619
1976.07 518.093 3642
2007.13 523.925 3683
2015.93 523.925 3683
2133.04 551.95 3880
2167.17 558.351 3925
2176.55 558.351 3925
2196.52 561.054 3944
2216.58 563.757 3963
2252.46 570.443 4010
2267.69 571.865 4020
2277.3 571.865 4020
2286.91 571.865 4020
2296.52 571.865 4020
2306.14 571.865 4020
2309.99 570.443 4010
2314.37 569.162 4001
2340.79 573.288 4030
2355.67 574.568 4039
2365.33 574.568 4039
2374.99 574.568 4039
2379.33 573.288 4030
2394.31 574.568 4039
2403.96 574.568 4039
2413.62 574.568 4039
2423.28 574.568 4039
2432.94 574.568 4039
2437.15 573.288 4030
2446.79 573.288 4030
2461.91 574.568 4039
2471.57 574.568 4039
2481.23 574.568 4039
2490.89 574.568 4039
2500.55 574.568 4039
2510.21 574.568 4039
2519.87 574.568 4039
2529.52 574.568 4039
2520.95 570.443 4010
2512.87 566.46 3982
2522.39 566.46 3982
2531.91 566.46 3982
2535.05 565.037 3972
2544.55 565.037 3972
2554.05 565.037 3972
2563.55 565.037 3972
2554.91 561.054 3944
2551.99 558.351 3925
2508.51 546.828 3844
2517.71 546.828 3844
2520.98 545.548 3835
2513 541.849 3809
523.248 104.842 737
525.011 104.842 737
526.773 104.842 737
529.252 104.984 738
531.017 104.984 738
532.782 104.984 738
534.547 104.984 738
536.312 104.984 738
538.805 105.126 739
540.573 105.126 739
542.34 105.126 739
544.107 105.126 739
545.874 105.126 739
547.641 105.126 739
549.409 105.126 739
551.176 105.126 739
552.943 105.126 739
554.71 105.126 739
556.477 105.126 739
558.244 105.126 739
560.012 105.126 739
561.779 105.126 739
563.546 105.126 739
565.313 105.126 739
-2334.52 451.02 3118
-2327.07 451.02 3118
-2311.43 449.429 3107
-2304 449.429 3107
-2296.57 449.429 3107
-2289.14 449.429 3107
-2277.3 448.561 3101
-2274.28 449.429 3107
-2270.5 450.153 3112
-2276.14 452.756 3130
-2268.66 452.756 3130
-2274.18 455.36 3148
-2270.97 456.228 3154
-2293.57 462.303 3196
-2285.93 462.303 3196
-2322.48 471.272 3258
-2419.13 492.535 3405
-2410.99 492.535 3405
-2462.83 504.83 3490
-2539.58 522.333 3611
-2547.77 525.805 3635
-2539.07 525.805 3635
-2552.66 530.434 3667
-2600.77 542.295 3749
-2603.56 544.754 3766
-2594.56 544.754 3766
-2585.55 544.754 3766
-2576.54 544.754 3766
-2567.54 544.754 3766
-2535.43 539.836 3732
-2493.34 532.748 3683
-2467.67 529.132 3658
-2458.92 529.132 3658
-2434.76 525.805 3635
-2415.39 523.49 3619
-2401.42 522.333 3611
-2398.09 523.49 3619
-2389.43 523.49 3619
-2380.78 523.49 3619
-2372.12 523.49 3619
-2363.47 523.49 3619
-2354.81 523.49 3619
-2351.35 524.648 3627
-2352.36 526.817 3642
-2359.74 530.434 3667
-2350.97 530.434 3667
-2347.31 531.591 3675
-2338.52 531.591 3675
-2334.81 532.748 3683
-2326 532.748 3683
-2369.41 544.754 3766
-2381.72 549.672 3800
-2388.87 553.433 3826
-2379.72 553.433 3826
-2387.3 557.339 3853
-2400.3 562.546 3889
-2430.35 571.804 3953
-2420.9 571.804 3953
-2446.22 580.049 4010
-2466.4 587.137 4059
-2462.75 588.583 4069
-2453.02 588.583 4069
-2449.29 590.03 4079
-2439.54 590.03 4079
-2429.78 590.03 4079
-2420.03 590.03 4079
-2398.46 587.137 4059
-2376.98 584.244 4039
-2367.32 584.244 4039
-1947.6 530.434 3667
-1938.83 530.434 3667
-1930.06 530.434 3667
-1921.3 530.434 3667
-1907.83 529.132 3658
-1899.09 529.132 3658
-1890.34 529.132 3658
-1877.48 527.975 3650
-1885.64 532.748 3683
-1893.65 537.521 3716
-1884.77 537.521 3716
-1875.88 537.521 3716
-1879.05 540.993 3740
-1874.61 542.295 3749
-1874.1 544.754 3766
-1865.1 544.754 3766
-1860.04 545.911 3774
-1851.01 545.911 3774
-1841.99 545.911 3774
-1829.08 544.754 3766
-1815.72 543.452 3757
-1806.74 543.452 3757
-1822.63 550.974 3809
-1813.53 550.974 3809
-1804.42 550.974 3809
-1795.31 550.974 3809
-1786.2 550.974 3809
-1769.16 548.515 3792
-1748.02 544.754 3766
-1742.71 545.911 3774
-1741.96 548.515 3792
-1732.89 548.515 3792
-1731.55 550.974 3809
-1726.51 552.276 3818
-1717.38 552.276 3818
-1708.25 552.276 3818
-1699.12 552.276 3818
-1686.01 550.974 3809
-1676.9 550.974 3809
-1675.23 553.433 3826
-1666.08 553.433 3826
-1656.94 553.433 3826
-1647.79 553.433 3826
-1638.64 553.433 3826
-1629.49 553.433 3826
-1616.95 552.276 3818
-1604.03 550.974 3809
-1594.92 550.974 3809
-1571.24 545.911 3774
-1587.47 554.735 3835
-1578.3 554.735 3835
-1569.13 554.735 3835
-1559.96 554.735 3835
-1519.24 543.452 3757
-1503.43 540.993 3740
-1494.48 540.993 3740
-1482.36 539.836 3732
-1476.6 540.993 3740
-1474.32 543.452 3757
-1471.97 545.911 3774
-1462.94 545.911 3774
-1453.92 545.911 3774
-1448.34 547.213 3783
-1442.72 548.515 3792
-1433.65 548.515 3792
-1427.59 549.672 3800
-1418.5 549.672 3800
-1409.41 549.672 3800
-1400.33 549.672 3800
-1391.24 549.672 3800
-1382.15 549.672 3800
-1373.07 549.672 3800
-1363.98 549.672 3800
-1352.04 548.515 3792
-1358.2 554.735 3835
-1355.36 557.339 3853
-1346.15 557.339 3853
-1343.18 559.942 3871
-1333.92 559.942 3871
-1327.75 561.244 3880
-1318.47 561.244 3880
-1312.23 562.546 3889
-1302.93 562.546 3889
-1293.63 562.546 3889
-603.36 264.277 1827
-598.991 264.277 1827
-594.622 264.277 1827
-590.254 264.277 1827
-585.885 264.277 1827
-581.516 264.277 1827
-575.883 263.698 1823
-570.27 263.119 1819
-564.676 262.541 1815
-560.335 262.541 1815
-555.383 262.251 1813
-550.439 261.962 1811
-543.998 260.95 1804
-539.086 260.66 1802
-534.776 260.66 1802
-528.112 259.503 1794
-519.442 257.333 1779
-510.555 255.019 1763
-506.339 255.019 1763
-498.705 253.283 1751
-491.412 251.692 1740
-484.17 250.101 1729
-480.036 250.101 1729
-472.874 248.51 1718
-467.401 247.786 1713
-461.952 247.063 1708
-455.992 246.051 1701
-451.924 246.051 1701
-446.803 245.472 1697
-441.962 245.038 1694
-435.585 243.736 1685
-431.556 243.736 1685
-426.765 243.302 1682
-421.486 242.579 1677
-416.48 242 1673
-412.48 242 1673
-408.235 241.856 1672
-403.028 241.132 1667
-398.563 240.843 1665
-394.581 240.843 1665
-389.427 240.12 1660
-384.993 239.831 1658
-381.028 239.831 1658
-377.063 239.831 1658
-372.423 239.397 1655
-367.352 238.673 1650
-362.966 238.384 1648
-358.154 237.806 1644
-354.223 237.806 1644
-349.865 237.516 1642
-345.307 237.082 1639
-340.971 236.793 1637
-337.056 236.793 1637
-333.142 236.793 1637
-329.026 236.648 1636
-324.12 235.925 1631
-320.22 235.925 1631
-315.932 235.636 1629
-311.845 235.491 1628
-307.006 234.768 1623
-303.125 234.768 1623
-298.691 234.334 1620
-294.453 234.045 1618
-290.404 233.9 1617
-286.537 233.9 1617
-282.321 233.611 1615
-278.459 233.611 1615
-274.257 233.321 1613
-270.4 233.321 1613
-266.543 233.321 1613
-262.686 233.321 1613
-258.668 233.177 1612
-254.813 233.177 1612
-250.958 233.177 1612
-247.104 233.177 1612
-243.4 233.321 1613
-240.285 234.045 1618
-236.854 234.479 1621
-232.978 234.479 1621
-229.384 234.768 1623
-225.92 235.202 1626
-222.851 236.07 1632
-218.949 236.07 1632
-216.1 237.227 1640
-213.084 238.239 1647
-209.78 238.963 1652
-205.83 238.963 1652
-203.224 240.554 1663
-199.726 241.132 1667
-196.914 242.579 1677
-192.904 242.579 1677
-189.57 243.447 1683
-186.537 244.749 1692
-183.246 245.761 1699
-179.183 245.761 1699
-175.327 246.051 1701
-171.36 246.195 1702
-167.486 246.485 1704
-163.412 246.485 1704
-159.524 246.774 1706
-155.626 247.063 1708
-151.631 247.208 1709
-147.544 247.208 1709
-143.793 247.786 1713
-139.697 247.786 1713
-135.759 248.076 1715
-131.658 248.076 1715
-127.557 248.076 1715
-123.312 247.786 1713
-119.215 247.786 1713
-236.755 570.502 3944
-227.843 571.804 3953
-218.39 571.804 3953
-208.937 571.804 3953
-199.989 573.25 3963
-192.339 578.747 4001
-182.771 578.747 4001
-173.204 578.747 4001
-163.636 578.747 4001
-153.337 575.999 3982
-144.501 578.747 4001
-134.933 578.747 4001
-125.366 578.747 4001
-116.348 581.495 4020
-107.239 584.244 4039
-97.581 584.244 4039
-89.0109 591.476 4089
-79.2329 591.476 4089
-69.4549 591.476 4089
231.379 585.69 4049
241.061 585.69 4049
250.743 585.69 4049
260.426 585.69 4049
268.841 582.942 4030
275.161 575.999 3982
284.683 575.999 3982
291.397 570.502 3944
298.693 566.452 3916
308.057 566.452 3916
317.422 566.452 3916
326.786 566.452 3916
334.605 563.848 3898
340.75 558.64 3862
350.801 559.942 3871
360.058 559.942 3871
369.315 559.942 3871
378.571 559.942 3871
385.123 556.037 3844
394.315 556.037 3844
401.618 553.433 3826
406.15 547.213 3783
407.843 537.521 3716
416.729 537.521 3716
420.003 530.434 3667
424.095 524.648 3627
431.814 523.49 3619
440.468 523.49 3619
445.275 519.006 3588
448.036 512.352 3542
452.64 508.013 3512
459.069 505.843 3497
467.431 505.843 3497
471.848 501.648 3468
478.203 499.623 3454
487.448 500.636 3461
496.727 501.648 3468
505.02 501.648 3468
516.569 504.83 3490
525.968 505.843 3497
537.844 509.17 3520
546.262 509.17 3520
558.146 512.352 3542
580.214 524.648 3627
596.68 531.591 3675
605.468 531.591 3675
621.109 537.521 3716
635.59 542.295 3749
660.888 556.037 3844
670.08 556.037 3844
687.224 562.546 3889
699.748 565.15 3907
714.172 569.2 3935
723.582 569.2 3935
732.992 569.2 3935
742.402 569.2 3935
751.812 569.2 3935
759.287 567.753 3925
772.394 570.502 3944
781.825 570.502 3944
791.256 570.502 3944
800.688 570.502 3944
808.27 569.2 3935
817.68 569.2 3935
830.873 571.804 3953
840.326 571.804 3953
849.779 571.804 3953
863.362 574.552 3972
881.21 580.049 4010
893.021 581.495 4020
902.634 581.495 4020
914.516 582.942 4030
924.153 582.942 4030
933.79 582.942 4030
941.086 581.495 4020
948.334 580.049 4010
953.385 577.3 3991
962.928 577.3 3991
965.649 573.25 3963
970.451 570.502 3944
972.926 566.452 3916
982.29 566.452 3916
982.538 561.244 3880
989.516 559.942 3871
996.45 558.64 3862
1005.69 558.64 3862
1012.56 557.339 3853
1019.38 556.037 3844
1026.17 554.735 3835
1030.75 552.276 3818
1039.88 552.276 3818
1046.53 550.974 3809
1050.93 548.515 3792
1057.48 547.213 3783
1066.53 547.213 3783
1075.58 547.213 3783
1084.62 547.213 3783
1091.07 545.911 3774
1100.09 545.911 3774
1109.12 545.911 3774
1115.77 544.754 3766
1124.78 544.754 3766
1141.61 548.515 3792
1150.68 548.515 3792
1159.75 548.515 3792
1171.28 549.672 3800
1180.37 549.672 3800
1189.45 549.672 3800
1198.54 549.672 3800
1218.75 554.735 3835
1236.57 558.64 3862
1254.51 562.546 3889
1263.81 562.546 3889
1279 565.15 3907
1294.28 567.753 3925
1316.29 573.25 3963
1325.77 573.25 3963
1335.24 573.25 3963
1351.17 575.999 3982
1360.69 575.999 3982
1370.21 575.999 3982
1382.85 577.3 3991
1392.39 577.3 3991
1401.94 577.3 3991
1411.48 577.3 3991
1404.29 570.502 3944
1413.72 570.502 3944
1440.11 577.3 3991
1449.66 577.3 3991
1473.46 582.942 4030
1483.1 582.942 4030
1492.73 582.942 4030
1498.64 581.495 4020
1508.26 581.495 4020
1499.74 574.552 3972
1509.24 574.552 3972
1518.74 574.552 3972
1528.24 574.552 3972
1530.38 571.804 3953
1554.64 577.3 3991
1564.18 577.3 3991
1573.72 577.3 3991
1583.27 577.3 3991
1592.81 577.3 3991
1606.37 578.747 4001
1615.94 578.747 4001
1633.22 581.495 4020
1642.84 581.495 4020
1652.45 581.495 4020
1662.06 581.495 4020
1671.68 581.495 4020
1669.16 577.3 3991
1678.71 577.3 3991
1684.44 575.999 3982
1693.96 575.999 3982
1703.49 575.999 3982
1713.01 575.999 3982
1722.53 575.999 3982
1732.05 575.999 3982
1741.57 575.999 3982
1751.1 575.999 3982
1760.62 575.999 3982
1765.7 574.552 3972
1771.17 573.25 3963
1789.19 575.999 3982
1802.77 577.3 3991
1812.32 577.3 3991
1821.86 577.3 3991
1827.27 575.999 3982
1836.8 575.999 3982
1841.68 574.552 3972
1846.99 573.25 3963
1843.35 569.2 3935
1870.18 574.552 3972
1879.67 574.552 3972
1889.17 574.552 3972
1894.37 573.25 3963
1894.72 570.502 3944
1904.15 570.502 3944
1900 566.452 3916
1904.97 565.15 3907
1901.09 561.244 3880
1910.36 561.244 3880
1897.38 554.735 3835
1859.32 540.993 3740
1839.79 532.748 3683
1828.02 526.817 3642
1836.73 526.817 3642
1837.84 524.648 3627
1838.36 522.333 3611
1835.23 519.006 3588
1843.81 519.006 3588
1848.26 517.849 3580
1852.68 516.692 3572
1881.54 522.333 3611
1890.17 522.333 3611
1898.81 522.333 3611
1907.44 522.333 3611
1916.08 522.333 3611
1924.71 522.333 3611
1929.07 521.176 3603
1937.68 521.176 3603
1963.58 525.805 3635
1980.41 527.975 3650
2015.85 535.062 3699
2024.69 535.062 3699
2133.04 561.244 3880
2167.17 567.753 3925
2176.55 567.753 3925
2196.52 570.502 3944
2216.58 573.25 3963
2252.46 580.049 4010
2267.69 581.495 4020
2277.3 581.495 4020
2286.91 581.495 4020
2296.52 581.495 4020
2306.14 581.495 4020
2309.99 580.049 4010
2314.37 578.747 4001
2340.79 582.942 4030
2355.67 584.244 4039
2365.33 584.244 4039
2374.99 584.244 4039
2379.33 582.942 4030
2394.31 584.244 4039
2403.96 584.244 4039
2413.62 584.244 4039
2423.28 584.244 4039
2432.94 584.244 4039
2437.15 582.942 4030
2446.79 582.942 4030
2461.91 584.244 4039
2471.57 584.244 4039
2481.23 584.244 4039
2490.89 584.244 4039
2500.55 584.244 4039
2510.21 584.244 4039
2519.87 584.244 4039
2529.52 584.244 4039
2520.95 580.049 4010
2512.87 575.999 3982
2522.39 575.999 3982
2531.91 575.999 3982
2535.05 574.552 3972
2544.55 574.552 3972
2554.05 574.552 3972
2563.55 574.552 3972
2560.74 571.804 3953
2551.99 567.753 3925
2508.51 556.037 3844
2517.71 556.037 3844
2520.98 554.735 3835
2513 550.974 3809
523.248 106.607 737
525.011 106.607 737
526.773 106.607 737
528.535 106.607 737
531.017 106.752 738
532.782 106.752 738
534.547 106.752 738
536.312 106.752 738
538.805 106.897 739
540.573 106.897 739
542.34 106.897 739
544.107 106.897 739
545.874 106.897 739
547.641 106.897 739
549.409 106.897 739
550.43 106.752 738
552.195 106.752 738
553.959 106.752 738
555.724 106.752 738
557.489 106.752 738
559.254 106.752 738
561.779 106.897 739
563.546 106.897 739
565.313 106.897 739
-2334.52 458.49 3118
-2327.07 458.49 3118
-2306.96 455.99 3101
-2299.55 455.99 3101
-2292.13 455.99 3101
-2284.72 455.99 3101
-2277.3 455.99 3101
-2274.28 456.872 3107
-2270.5 457.607 3112
-2276.14 460.254 3130
-2268.66 460.254 3130
-2274.18 462.901 3148
-2270.97 463.783 3154
-2293.57 469.959 3196
-2285.93 469.959 3196
-2322.48 479.076 3258
-2419.13 500.692 3405
-2410.99 500.692 3405
-2462.83 513.191 3490
-2539.58 530.983 3611
-2547.77 534.512 3635
-2539.07 534.512 3635
-2552.66 539.218 3667
-2600.77 551.276 3749
-2603.56 553.776 3766
-2594.56 553.776 3766
-2585.55 553.776 3766
-2576.54 553.776 3766
-2567.54 553.776 3766
-2535.43 548.776 3732
-2493.34 541.571 3683
-2467.67 537.895 3658
-2458.92 537.895 3658
-2434.76 534.512 3635
-2415.39 532.16 3619
-2401.42 530.983 3611
-2398.09 532.16 3619
-2389.43 532.16 3619
-2380.78 532.16 3619
-2372.12 532.16 3619
-2363.47 532.16 3619
-2354.81 532.16 3619
-2351.35 533.336 3627
-2352.36 535.542 3642
-2359.74 539.218 3667
-2350.97 539.218 3667
-2347.31 540.394 3675
-2338.52 540.394 3675
-2334.81 541.571 3683
-2326 541.571 3683
-2332.29 545.1 3707
-2376.7 557.599 3792
-2367.64 557.599 3792
-2358.57 557.599 3792
-2387.3 566.568 3853
-2389.19 569.215 3871
-2402.07 574.509 3907
-2392.73 574.509 3907
-2423.03 584.067 3972
-2442.7 591.125 4020
-2462.75 598.33 4069
-2453.02 598.33 4069
-2443.29 598.33 4069
-2433.56 598.33 4069
-2423.83 598.33 4069
-2414.1 598.33 4069
-2392.55 595.39 4049
-1947.6 539.218 3667
-1938.83 539.218 3667
-1930.06 539.218 3667
-1921.3 539.218 3667
-1907.83 537.895 3658
-1899.09 537.895 3658
-1890.34 537.895 3658
-1877.48 536.718 3650
-1877.45 539.218 3667
-1880.91 542.747 3691
-1884.77 546.423 3716
-1875.88 546.423 3716
-1875.03 548.776 3732
-1866.11 548.776 3732
-1865.64 551.276 3749
-1856.68 551.276 3749
-1860.04 554.952 3774
-1851.01 554.952 3774
-1841.99 554.952 3774
-1824.7 552.452 3757
-1815.72 552.452 3757
-1806.74 552.452 3757
-1822.63 560.098 3809
-1813.53 560.098 3809
-1804.42 560.098 3809
-1795.31 560.098 3809
-1786.2 560.098 3809
-1769.16 557.599 3792
-1748.02 553.776 3766
-1742.71 554.952 3774
-1741.96 557.599 3792
-1732.89 557.599 3792
-1731.55 560.098 3809
-1722.44 560.098 3809
-1713.33 560.098 3809
-1704.22 560.098 3809
-1695.12 560.098 3809
-1682.02 558.775 3800
-1672.94 558.775 3800
-1667.79 560.098 3809
-1658.68 560.098 3809
-1649.57 560.098 3809
-1644.34 561.422 3818
-1635.21 561.422 3818
-1626.08 561.422 3818
-1613.14 560.098 3809
-1593.08 556.275 3783
-1584.04 556.275 3783
-1571.24 554.952 3774
-1572.98 558.775 3800
-1563.89 558.775 3800
-1554.81 558.775 3800
-1545.72 558.775 3800
-1519.24 552.452 3757
-1500.21 548.776 3732
-1491.29 548.776 3732
-1472.43 545.1 3707
-1463.57 545.1 3707
-1467.65 549.952 3740
-1468.85 553.776 3766
-1459.84 553.776 3766
-1453.92 554.952 3774
-1444.9 554.952 3774
-1435.87 554.952 3774
-1426.85 554.952 3774
-1421.2 556.275 3783
-1415.52 557.599 3792
-1406.45 557.599 3792
-1397.38 557.599 3792
-1391.24 558.775 3800
-1382.15 558.775 3800
-1373.07 558.775 3800
-1361.11 557.599 3792
-1352.04 557.599 3792
-1358.2 563.922 3835
-1355.36 566.568 3853
-1346.15 566.568 3853
-1343.18 569.215 3871
-1333.92 569.215 3871
-1327.75 570.539 3880
-1318.47 570.539 3880
-1312.23 571.862 3889
-1302.93 571.862 3889
-1293.63 571.862 3889
-602.7 268.359 1825
-598.991 268.653 1827
-594.622 268.653 1827
-590.254 268.653 1827
-585.885 268.653 1827
-581.516 268.653 1827
-575.883 268.065 1823
-570.27 267.477 1819
-564.676 266.889 1815
-560.335 266.889 1815
-555.383 266.595 1813
-550.439 266.3 1811
-543.998 265.271 1804
-539.086 264.977 1802
-534.776 264.977 1802
-528.112 263.801 1794
-519.442 261.595 1779
-510.555 259.242 1763
-506.339 259.242 1763
-498.99 257.625 1752
-491.412 255.86 1740
-484.17 254.243 1729
-480.036 254.243 1729
-472.874 252.625 1718
-467.401 251.89 1713
-461.952 251.155 1708
-455.992 250.125 1701
-451.924 250.125 1701
-447.33 249.831 1699
-441.962 249.096 1694
-435.585 247.773 1685
-431.556 247.773 1685
-427.526 247.773 1685
-421.738 246.743 1678
-416.978 246.302 1675
-412.973 246.302 1675
-408.235 245.861 1672
-403.269 245.273 1668
-399.041 245.126 1667
-395.055 245.126 1667
-389.427 244.096 1660
-384.993 243.802 1658
-381.028 243.802 1658
-377.063 243.802 1658
-372.873 243.655 1657
-367.352 242.626 1650
-362.966 242.332 1648
-358.154 241.744 1644
-354.223 241.744 1644
-349.865 241.45 1642
-345.307 241.008 1639
-340.971 240.714 1637
-337.056 240.714 1637
-333.142 240.714 1637
-329.026 240.567 1636
-324.12 239.832 1631
-320.22 239.832 1631
-315.932 239.538 1629
-311.845 239.391 1628
-307.195 238.803 1624
-303.312 238.803 1624
-298.875 238.362 1621
-294.817 238.215 1620
-290.584 237.921 1618
-286.715 237.921 1618
-282.671 237.773 1617
-278.804 237.773 1617
-274.597 237.479 1615
-270.735 237.479 1615
-266.873 237.479 1615
-262.686 237.185 1613
-258.828 237.185 1613
-254.971 237.185 1613
-251.114 237.185 1613
-247.257 237.185 1613
-244.003 237.773 1617
-240.582 238.215 1620
-237.147 238.656 1623
-233.265 238.656 1623
-229.526 238.803 1624
-226.337 239.538 1629
-223.124 240.273 1634
-219.217 240.273 1634
-216.364 241.45 1642
-213.213 242.332 1648
-209.907 243.067 1653
-205.955 243.067 1653
-203.468 244.832 1665
-199.846 245.273 1668
-196.914 246.596 1677
-192.904 246.596 1677
-189.57 247.479 1683
-186.758 249.096 1694
-183.462 250.125 1701
-179.394 250.125 1701
-175.43 250.272 1702
-171.561 250.566 1704
-167.879 251.155 1708
-163.795 251.155 1708
-159.711 251.155 1708
-155.9 251.596 1711
-151.808 251.596 1711
-147.717 251.596 1711
-143.961 252.184 1715
-139.86 252.184 1715
-135.838 252.331 1716
-131.735 252.331 1716
-127.631 252.331 1716
-123.312 251.89 1713
-119.215 251.89 1713
-236.755 579.95 3944
