ply
format ascii 1.0
comment File generated
element vertex 2143
property float x
property float y
property float z
end_header
-512.216 -194.304 1740
-507.471 -194.081 1738
-502.157 -193.634 1734
-498.01 -193.634 1734
-492.439 -193.076 1729
-487.175 -192.629 1725
-482.21 -192.294 1722
-476.427 -191.624 1716
-472.323 -191.624 1716
-467.401 -191.289 1713
-461.952 -190.73 1708
-457.332 -190.507 1706
-453.252 -190.507 1706
-448.12 -190.06 1702
-443.267 -189.725 1699
-437.912 -189.167 1694
-433.861 -189.167 1694
-428.541 -188.609 1689
-422.743 -187.827 1682
-418.223 -187.604 1680
-414.205 -187.604 1680
-409.456 -187.269 1677
-404.962 -187.045 1675
-400.238 -186.71 1672
-396.24 -186.71 1672
-391.303 -186.264 1668
-387.082 -186.152 1667
-382.637 -185.929 1665
-378.655 -185.929 1665
-374.223 -185.705 1663
-369.579 -185.37 1660
-365.609 -185.37 1660
-360.986 -185.035 1657
-357.024 -185.035 1657
-352.209 -184.589 1653
-348.256 -184.589 1653
-344.303 -184.589 1653
-340.351 -184.589 1653
-336.194 -184.477 1652
-332.244 -184.477 1652
-327.896 -184.254 1650
-323.95 -184.254 1650
-320.005 -184.254 1650
-316.059 -184.254 1650
-312.113 -184.254 1650
-308.541 -184.477 1652
-304.591 -184.477 1652
-300.822 -184.589 1653
-297.229 -184.812 1655
-293.803 -185.147 1658
-289.838 -185.147 1658
-286.218 -185.37 1660
-283.099 -185.929 1665
-279.955 -186.487 1670
-275.962 -186.487 1670
-272.457 -186.822 1673
-269.098 -187.269 1677
-265.088 -187.269 1677
-261.078 -187.269 1677
-257.067 -187.269 1677
-253.208 -187.38 1678
-249.196 -187.38 1678
-245.183 -187.38 1678
-241.17 -187.38 1678
-237.158 -187.38 1678
-233.145 -187.38 1678
-229.132 -187.38 1678
-224.986 -187.269 1677
-220.975 -187.269 1677
-216.965 -187.269 1677
-212.701 -187.045 1675
-208.446 -186.822 1673
-204.324 -186.71 1672
-199.487 -185.929 1665
-195.505 -185.929 1665
-191.179 -185.594 1662
-186.416 -184.812 1655
-182.127 -184.477 1652
-178.177 -184.477 1652
-173.488 -183.695 1645
-169.555 -183.695 1645
-165.52 -183.584 1644
-161.589 -183.584 1644
-157.466 -183.36 1642
-153.352 -183.137 1640
-149.339 -183.025 1639
-145.42 -183.025 1639
-141.328 -182.802 1637
-137.413 -182.802 1637
-133.417 -182.69 1636
-129.584 -182.802 1637
-125.67 -182.802 1637
-121.755 -182.802 1637
-117.841 -182.802 1637
-113.926 -182.802 1637
-110.012 -182.802 1637
-106.097 -182.802 1637
-102.307 -183.025 1639
-98.3879 -183.025 1639
-94.4686 -183.025 1639
-90.5492 -183.025 1639
-86.6299 -183.025 1639
-82.7105 -183.025 1639
-78.7912 -183.025 1639
-74.8718 -183.025 1639
-70.9525 -183.025 1639
-67.0332 -183.025 1639
-63.1138 -183.025 1639
-134.786 -416.748 3732
-125.861 -416.748 3732
-116.937 -416.748 3732
-108.736 -419.54 3757
-100.203 -421.438 3774
-91.1787 -421.438 3774
-82.1539 -421.438 3774
-72.9741 -420.545 3766
-63.9685 -420.545 3766
-54.5834 -417.642 3740
-45.5423 -416.748 3732
-36.5394 -415.855 3724
-27.6342 -415.855 3724
-18.7692 -416.748 3732
-9.84488 -416.748 3732
-0.920541 -416.748 3732
8.0038 -416.748 3732
16.9281 -416.748 3732
25.8525 -416.748 3732
34.8514 -417.642 3740
43.7949 -417.642 3740
52.7383 -417.642 3740
61.5499 -416.748 3732
70.3231 -415.855 3724
79.2283 -415.855 3724
88.1336 -415.855 3724
96.5958 -413.957 3707
105.46 -413.957 3707
114.078 -413.063 3699
123.189 -413.957 3707
132.054 -413.957 3707
140.919 -413.957 3707
149.783 -413.957 3707
158.648 -413.957 3707
167.512 -413.957 3707
176.377 -413.957 3707
185.241 -413.957 3707
194.106 -413.957 3707
202.532 -413.063 3699
210.921 -412.17 3691
219.271 -411.277 3683
228.078 -411.277 3683
236.885 -411.277 3683
245.159 -410.383 3675
253.394 -409.49 3667
262.163 -409.49 3667
270.932 -409.49 3667
279.701 -409.49 3667
288.469 -409.49 3667
297.238 -409.49 3667
306.007 -409.49 3667
314.776 -409.49 3667
324.251 -410.383 3675
333.039 -410.383 3675
341.827 -410.383 3675
350.615 -410.383 3675
358.621 -409.49 3667
366.488 -408.485 3658
375.235 -408.485 3658
383.143 -407.591 3650
391.871 -407.591 3650
400.599 -407.591 3650
409.328 -407.591 3650
418.056 -407.591 3650
425.849 -406.698 3642
433.723 -405.916 3635
442.415 -405.916 3635
451.107 -405.916 3635
459.8 -405.916 3635
468.492 -405.916 3635
477.185 -405.916 3635
485.877 -405.916 3635
494.569 -405.916 3635
503.262 -405.916 3635
512.94 -406.698 3642
522.795 -407.591 3650
531.523 -407.591 3650
540.252 -407.591 3650
1036.93 -444.665 3982
1053.81 -447.792 4010
1063.4 -447.792 4010
1075.67 -448.909 4020
1085.28 -448.909 4020
1094.89 -448.909 4020
1101.76 -447.792 4010
1103.59 -444.665 3982
1118.42 -446.787 4001
1127.99 -446.787 4001
1137.56 -446.787 4001
1147.13 -446.787 4001
1142.82 -441.427 3953
1152.27 -441.427 3953
1161.72 -441.427 3953
1176.8 -443.549 3972
1191.98 -445.671 3991
1201.52 -445.671 3991
1211.06 -445.671 3991
1220.61 -445.671 3991
1227.38 -444.665 3982
1236.9 -444.665 3982
1237.34 -441.427 3953
1246.8 -441.427 3953
1256.25 -441.427 3953
1277.87 -445.671 3991
1290.64 -446.787 4001
1300.21 -446.787 4001
1322.21 -451.031 4039
1331.87 -451.031 4039
1341.53 -451.031 4039
1351.19 -451.031 4039
1360.85 -451.031 4039
1370.51 -451.031 4039
1380.17 -451.031 4039
1389.82 -451.031 4039
1396.36 -450.026 4030
1392.39 -445.671 3991
1401.94 -445.671 3991
1411.48 -445.671 3991
1424.59 -446.787 4001
1434.15 -446.787 4001
1461.04 -452.147 4049
1470.72 -452.147 4049
1484.06 -453.264 4059
1493.77 -453.264 4059
1503.48 -453.264 4059
1513.18 -453.264 4059
1522.89 -453.264 4059
1759.04 -456.614 4089
1768.82 -456.614 4089
1778.59 -456.614 4089
1784 -455.497 4079
1780.56 -452.147 4049
1790.24 -452.147 4049
1795.48 -451.031 4039
1805.14 -451.031 4039
1819.29 -452.147 4049
1842.52 -455.497 4079
1852.28 -455.497 4079
1862.03 -455.497 4079
1871.79 -455.497 4079
1881.54 -455.497 4079
1886.66 -454.381 4069
1887.07 -452.147 4049
2505.8 -455.497 4079
2515.56 -455.497 4079
2525.31 -455.497 4079
2528.85 -454.381 4069
2538.58 -454.381 4069
2548.31 -454.381 4069
2539.18 -451.031 4039
2543.16 -450.026 4030
2552.8 -450.026 4030
2562.44 -450.026 4030
2565.69 -448.909 4020
2556.72 -445.671 3991
2566.27 -445.671 3991
2575.81 -445.671 3991
2585.36 -445.671 3991
2594.9 -445.671 3991
2604.44 -445.671 3991
2613.99 -445.671 3991
2605.12 -442.544 3963
2596.13 -439.417 3935
2592.96 -437.295 3916
2602.32 -437.295 3916
2593.68 -434.28 3889
2578.88 -430.26 3853
2576.01 -428.25 3835
2585.18 -428.25 3835
2617.58 -407.591 3650
2626.3 -407.591 3650
2653.08 -410.383 3675
2661.87 -410.383 3675
2670.66 -410.383 3675
2673.61 -409.49 3667
2682.38 -409.49 3667
2708.76 -412.17 3691
2772.81 -420.545 3766
2781.82 -420.545 3766
2810.09 -423.448 3792
2851.13 -428.25 3835
2860.3 -428.25 3835
2869.47 -428.25 3835
2878.64 -428.25 3835
2887.81 -428.25 3835
2896.98 -428.25 3835
2906.15 -428.25 3835
2915.32 -428.25 3835
2938.22 -430.26 3853
2947.43 -430.26 3853
-2379.93 -369.781 3384
-2371.84 -369.781 3384
-2363.75 -369.781 3384
-2350.78 -369.016 3377
-2328.83 -366.831 3357
-2373.35 -375.135 3433
-2389.25 -378.96 3468
-2380.96 -378.96 3468
-2372.66 -378.96 3468
-2369.83 -379.834 3476
-2396.16 -385.407 3527
-2387.73 -385.407 3527
-2404.93 -389.56 3565
-2406.49 -391.199 3580
-2403.28 -392.073 3588
-2394.7 -392.073 3588
-2390.78 -392.838 3595
-2423.93 -399.722 3658
-2415.18 -399.722 3658
-2406.43 -399.722 3658
-2408.83 -401.58 3675
-2405.27 -402.454 3683
-2396.46 -402.454 3683
-2392.84 -403.328 3691
-2400.16 -406.06 3716
-2391.27 -406.06 3716
-2382.39 -406.06 3716
-2357.53 -403.328 3691
-2333.43 -400.705 3667
-2294.24 -395.46 3619
-2295.69 -397.209 3635
-2286.99 -397.209 3635
-2278.3 -397.209 3635
-2269.61 -397.209 3635
-2260.92 -397.209 3635
-2232.4 -393.712 3603
-2204.65 -390.324 3572
-1835.39 -406.934 3724
-1826.49 -406.934 3724
-1867.37 -418.08 3826
-1858.22 -418.08 3826
-1849.07 -418.08 3826
-1819.24 -413.381 3783
-1810.19 -413.381 3783
-1796.86 -412.398 3774
-1800.15 -415.239 3800
-1803.32 -418.08 3826
-1840.6 -428.898 3925
-1831.21 -428.898 3925
-1834.82 -431.958 3953
-1825.37 -431.958 3953
-1815.92 -431.958 3953
-1806.46 -431.958 3953
-1784.28 -428.898 3925
-1762.69 -425.948 3898
-1753.37 -425.948 3898
-1744.04 -425.948 3898
-1255 -358.198 3278
-1247.16 -358.198 3278
-1239.32 -358.198 3278
-1231.48 -358.198 3278
-1221.03 -357.433 3271
-1213.21 -357.433 3271
-1205.39 -357.433 3271
-1195.37 -356.778 3265
-1185.02 -356.013 3258
-1172.89 -354.701 3246
-1165.13 -354.701 3246
-1152.73 -353.281 3233
-1145 -353.281 3233
-1135.16 -352.625 3227
-1127.44 -352.625 3227
-1113.13 -350.549 3208
-1109.94 -351.97 3221
-1104.29 -352.625 3227
-1096.57 -352.625 3227
-1088.86 -352.625 3227
-1081.14 -352.625 3227
-1071.43 -351.97 3221
-1059.43 -350.549 3208
-1051.76 -350.549 3208
-1044.09 -350.549 3208
-1030.6 -348.582 3190
-562.475 -191.666 1754
-558.917 -191.884 1756
-555.982 -192.321 1760
-551.773 -192.321 1760
-547.564 -192.321 1760
-542.738 -192.103 1758
-538.534 -192.103 1758
-534.33 -192.103 1758
-526.809 -190.901 1747
-520.837 -190.245 1741
-516.674 -190.245 1741
-512.216 -190.136 1740
-507.471 -189.917 1738
-502.157 -189.48 1734
-498.01 -189.48 1734
-492.439 -188.934 1729
-487.175 -188.497 1725
-482.21 -188.169 1722
-476.427 -187.513 1716
-472.323 -187.513 1716
-467.401 -187.185 1713
-461.952 -186.639 1708
-457.332 -186.42 1706
-453.252 -186.42 1706
-448.12 -185.983 1702
-443.267 -185.655 1699
-437.912 -185.109 1694
-433.861 -185.109 1694
-428.541 -184.563 1689
-422.743 -183.798 1682
-418.223 -183.579 1680
-414.205 -183.579 1680
-409.456 -183.251 1677
-404.962 -183.033 1675
-400.238 -182.705 1672
-396.24 -182.705 1672
-391.303 -182.268 1668
-387.082 -182.159 1667
-382.637 -181.94 1665
-378.655 -181.94 1665
-374.223 -181.722 1663
-369.579 -181.394 1660
-365.609 -181.394 1660
-360.986 -181.066 1657
-357.024 -181.066 1657
-352.635 -180.847 1655
-348.256 -180.629 1653
-344.303 -180.629 1653
-340.351 -180.629 1653
-336.194 -180.52 1652
-331.842 -180.301 1650
-327.896 -180.301 1650
-323.95 -180.301 1650
-320.005 -180.301 1650
-316.059 -180.301 1650
-312.113 -180.301 1650
-308.541 -180.52 1652
-304.591 -180.52 1652
-300.822 -180.629 1653
-297.229 -180.847 1655
-293.803 -181.175 1658
-289.838 -181.175 1658
-286.218 -181.394 1660
-283.099 -181.94 1665
-279.955 -182.487 1670
-275.962 -182.487 1670
-272.457 -182.814 1673
-269.098 -183.251 1677
-265.088 -183.251 1677
-261.078 -183.251 1677
-257.067 -183.251 1677
-253.208 -183.361 1678
-249.196 -183.361 1678
-245.183 -183.361 1678
-241.17 -183.361 1678
-237.158 -183.361 1678
-233.145 -183.361 1678
-229.132 -183.361 1678
-224.986 -183.251 1677
-220.975 -183.251 1677
-216.965 -183.251 1677
-212.447 -182.814 1673
-208.322 -182.705 1672
-203.835 -182.268 1668
-199.247 -181.722 1663
-195.27 -181.722 1663
-190.948 -181.394 1660
-186.19 -180.629 1653
-181.686 -180.083 1648
-177.746 -180.083 1648
-173.488 -179.755 1645
-169.452 -179.645 1644
-165.319 -179.427 1642
-161.392 -179.427 1642
-157.274 -179.208 1640
-153.259 -179.099 1639
-149.157 -178.881 1637
-145.243 -178.881 1637
-141.242 -178.771 1636
-137.33 -178.771 1636
-133.417 -178.771 1636
-129.584 -178.881 1637
-125.67 -178.881 1637
-121.755 -178.881 1637
-117.841 -178.881 1637
-113.926 -178.881 1637
-110.146 -179.099 1639
-106.227 -179.099 1639
-102.307 -179.099 1639
-98.3879 -179.099 1639
-94.4686 -179.099 1639
-90.5492 -179.099 1639
-86.6299 -179.099 1639
-82.7105 -179.099 1639
-78.7912 -179.099 1639
-74.8718 -179.099 1639
-70.9525 -179.099 1639
-67.0332 -179.099 1639
-63.1138 -179.099 1639
-116.937 -407.808 3732
-108.736 -410.54 3757
-99.7521 -410.54 3757
-90.768 -410.54 3757
-81.7838 -410.54 3757
-72.7997 -410.54 3757
-63.8156 -410.54 3757
-54.5834 -408.682 3740
-45.4446 -406.934 3724
-36.5394 -406.934 3724
-27.6342 -406.934 3724
-18.6888 -406.06 3716
-9.80268 -406.06 3716
-0.916594 -406.06 3716
7.96949 -406.06 3716
16.8556 -406.06 3716
25.7417 -406.06 3716
34.7023 -406.934 3724
43.6075 -406.934 3724
52.5127 -406.934 3724
61.286 -406.06 3716
70.1721 -406.06 3716
78.8667 -405.076 3707
87.7312 -405.076 3707
96.1789 -403.328 3691
105.005 -403.328 3691
113.831 -403.328 3691
122.924 -404.202 3699
131.769 -404.202 3699
140.614 -404.202 3699
149.46 -404.202 3699
158.305 -404.202 3699
167.151 -404.202 3699
175.996 -404.202 3699
184.842 -404.202 3699
193.687 -404.202 3699
201.656 -402.454 3683
210.464 -402.454 3683
219.271 -402.454 3683
227.583 -401.58 3675
236.371 -401.58 3675
245.159 -401.58 3675
253.394 -400.705 3667
262.163 -400.705 3667
270.932 -400.705 3667
279.701 -400.705 3667
288.469 -400.705 3667
297.238 -400.705 3667
306.007 -400.705 3667
314.776 -400.705 3667
323.545 -400.705 3667
332.314 -400.705 3667
341.083 -400.705 3667
348.993 -399.722 3658
357.741 -399.722 3658
365.686 -398.848 3650
374.415 -398.848 3650
382.303 -397.974 3642
391.012 -397.974 3642
399.721 -397.974 3642
408.431 -397.974 3642
416.338 -397.209 3635
425.03 -397.209 3635
432.768 -396.335 3627
441.441 -396.335 3627
450.115 -396.335 3627
458.788 -396.335 3627
467.461 -396.335 3627
475.084 -395.46 3619
483.738 -395.46 3619
492.393 -395.46 3619
499.939 -394.586 3611
510.827 -396.335 3627
519.501 -396.335 3627
528.174 -396.335 3627
536.847 -396.335 3627
1056.44 -439.279 4020
1066.06 -439.279 4020
1075.67 -439.279 4020
1085.28 -439.279 4020
1094.89 -439.279 4020
1104.51 -439.279 4020
1111.35 -438.186 4010
1118.42 -437.203 4001
1127.99 -437.203 4001
1137.56 -437.203 4001
1147.13 -437.203 4001
1142.82 -431.958 3953
1152.27 -431.958 3953
1161.72 -431.958 3953
1176.8 -434.034 3972
1191.98 -436.11 3991
1201.52 -436.11 3991
1211.06 -436.11 3991
1220.61 -436.11 3991
1227.38 -435.127 3982
1236.9 -435.127 3982
1237.34 -431.958 3953
1246.8 -431.958 3953
1256.25 -431.958 3953
1277.87 -436.11 3991
1290.64 -437.203 4001
1300.21 -437.203 4001
1322.21 -441.355 4039
1331.87 -441.355 4039
1341.53 -441.355 4039
1351.19 -441.355 4039
1360.85 -441.355 4039
1373.9 -442.448 4049
1383.58 -442.448 4049
1393.26 -442.448 4049
1399.48 -441.355 4039
1402.51 -439.279 4020
1412.13 -439.279 4020
1411.48 -436.11 3991
1424.59 -437.203 4001
1447.77 -441.355 4039
1461.04 -442.448 4049
1470.72 -442.448 4049
1484.06 -443.541 4059
1493.77 -443.541 4059
1503.48 -443.541 4059
1513.18 -443.541 4059
1522.89 -443.541 4059
1759.04 -446.819 4089
1768.82 -446.819 4089
1778.59 -446.819 4089
1788.37 -446.819 4089
1780.56 -442.448 4049
1790.24 -442.448 4049
1799.93 -442.448 4049
1809.61 -442.448 4049
1823.78 -443.541 4059
1847.04 -446.819 4089
1856.82 -446.819 4089
1866.6 -446.819 4089
1876.37 -446.819 4089
1886.15 -446.819 4089
1891.29 -445.726 4079
1887.07 -442.448 4049
2505.8 -445.726 4079
2515.56 -445.726 4079
2525.31 -445.726 4079
2528.85 -444.633 4069
2538.58 -444.633 4069
2548.31 -444.633 4069
2533.52 -440.372 4030
2543.16 -440.372 4030
2552.8 -440.372 4030
2562.44 -440.372 4030
2565.69 -439.279 4020
2556.72 -436.11 3991
2566.27 -436.11 3991
2575.81 -436.11 3991
2585.36 -436.11 3991
2594.9 -436.11 3991
2604.44 -436.11 3991
2613.99 -436.11 3991
2605.12 -433.05 3963
2596.13 -429.991 3935
2592.96 -427.915 3916
2602.32 -427.915 3916
2593.68 -424.964 3889
2578.88 -421.03 3853
2576.01 -419.063 3835
2585.18 -419.063 3835
2617.58 -398.848 3650
2626.3 -398.848 3650
2653.08 -401.58 3675
2661.87 -401.58 3675
2670.66 -401.58 3675
2673.61 -400.705 3667
2682.38 -400.705 3667
2708.76 -403.328 3691
2772.81 -411.524 3766
2781.82 -411.524 3766
2810.09 -414.365 3792
2851.13 -419.063 3835
2860.3 -419.063 3835
2869.47 -419.063 3835
2878.64 -419.063 3835
2887.81 -419.063 3835
2896.98 -419.063 3835
2906.15 -419.063 3835
2915.32 -419.063 3835
2938.22 -421.03 3853
2947.43 -421.03 3853
-2379.93 -361.675 3384
-2371.84 -361.675 3384
-2363.75 -361.675 3384
-2350.78 -360.927 3377
-2328.83 -358.789 3357
-2373.35 -366.912 3433
-2389.25 -370.652 3468
-2380.96 -370.652 3468
-2372.66 -370.652 3468
-2369.83 -371.507 3476
-2396.16 -376.958 3527
-2387.73 -376.958 3527
-2399.53 -380.165 3557
-2406.49 -382.623 3580
-2403.28 -383.478 3588
-2394.7 -383.478 3588
-2390.78 -384.226 3595
-2423.93 -390.959 3658
-2415.18 -390.959 3658
-2406.43 -390.959 3658
-2408.83 -392.776 3675
-2405.27 -393.631 3683
-2396.46 -393.631 3683
-2392.84 -394.486 3691
-2400.16 -397.158 3716
-2391.27 -397.158 3716
-2382.39 -397.158 3716
-2357.53 -394.486 3691
-2333.43 -391.921 3667
-2294.24 -386.791 3619
-2295.69 -388.501 3635
-2286.99 -388.501 3635
-2278.3 -388.501 3635
-2269.61 -388.501 3635
-2260.92 -388.501 3635
-2232.4 -385.081 3603
-2204.65 -381.768 3572
-1835.39 -398.013 3724
-1826.49 -398.013 3724
-1867.37 -408.915 3826
-1858.22 -408.915 3826
-1849.07 -408.915 3826
-1819.24 -404.319 3783
-1810.19 -404.319 3783
-1796.86 -403.357 3774
-1800.15 -406.136 3800
-1803.32 -408.915 3826
-1840.6 -419.496 3925
-1831.21 -419.496 3925
-1830.64 -421.526 3944
-1821.21 -421.526 3944
-1811.78 -421.526 3944
-1798.24 -420.564 3935
-1772.01 -416.61 3898
-1762.69 -416.61 3898
-1753.37 -416.61 3898
-1735.99 -414.686 3880
-1255 -350.346 3278
-1247.16 -350.346 3278
-1239.32 -350.346 3278
-1228.85 -349.598 3271
-1216.18 -348.208 3258
-1208.39 -348.208 3258
-1200.6 -348.208 3258
-1190.61 -347.567 3252
-1180.65 -346.926 3246
-1168.19 -345.536 3233
-1160.46 -345.536 3233
-1150.59 -344.895 3227
-1140.75 -344.254 3221
-1130.58 -343.505 3214
-1122.9 -343.505 3214
-1108.97 -341.582 3196
-1105.46 -342.864 3208
-1102.24 -344.254 3221
-1094.53 -344.254 3221
-1086.83 -344.254 3221
-1079.13 -344.254 3221
-1067.1 -342.864 3208
-1059.43 -342.864 3208
-1051.76 -342.864 3208
-1042.14 -342.223 3202
-1030.6 -340.94 3190
-562.475 -187.464 1754
-558.917 -187.678 1756
-555.982 -188.105 1760
-551.773 -188.105 1760
-547.564 -188.105 1760
-542.738 -187.891 1758
-538.534 -187.891 1758
-534.33 -187.891 1758
-526.809 -186.716 1747
-520.837 -186.074 1741
-516.674 -186.074 1741
-512.216 -185.967 1740
-507.471 -185.754 1738
-502.157 -185.326 1734
-498.01 -185.326 1734
-492.439 -184.792 1729
-486.61 -184.151 1723
-481.65 -183.83 1720
-476.149 -183.296 1715
-472.048 -183.296 1715
-466.855 -182.868 1711
-461.411 -182.334 1706
-456.26 -181.906 1702
-452.19 -181.906 1702
-447.856 -181.799 1701
-442.223 -181.158 1695
-437.912 -181.051 1694
-433.861 -181.051 1694
-428.541 -180.517 1689
-422.24 -179.555 1680
-417.725 -179.341 1678
-413.712 -179.341 1678
-409.456 -179.234 1677
-404.962 -179.02 1675
-400.238 -178.7 1672
-396.24 -178.7 1672
-391.303 -178.272 1668
-386.618 -177.952 1665
-382.637 -177.952 1665
-378.655 -177.952 1665
-374.223 -177.738 1663
-369.579 -177.417 1660
-365.609 -177.417 1660
-360.986 -177.097 1657
-357.024 -177.097 1657
-352.635 -176.883 1655
-348.256 -176.669 1653
-344.303 -176.669 1653
-340.351 -176.669 1653
-336.194 -176.562 1652
-331.842 -176.348 1650
-327.896 -176.348 1650
-323.95 -176.348 1650
-319.617 -176.135 1648
-315.676 -176.135 1648
-312.113 -176.348 1650
-308.541 -176.562 1652
-304.591 -176.562 1652
-300.822 -176.669 1653
-297.229 -176.883 1655
-293.803 -177.204 1658
-289.838 -177.204 1658
-286.218 -177.417 1660
-283.099 -177.952 1665
-279.955 -178.486 1670
-275.962 -178.486 1670
-272.457 -178.807 1673
-268.777 -179.02 1675
-265.088 -179.234 1677
-261.078 -179.234 1677
-257.067 -179.234 1677
-253.208 -179.341 1678
-249.196 -179.341 1678
-245.183 -179.341 1678
-241.17 -179.341 1678
-237.158 -179.341 1678
-233.145 -179.341 1678
-229.132 -179.341 1678
-224.986 -179.234 1677
-220.975 -179.234 1677
-216.965 -179.234 1677
-212.447 -178.807 1673
-208.073 -178.486 1670
-203.835 -178.272 1668
-198.888 -177.417 1660
-194.918 -177.417 1660
-190.718 -177.204 1658
-185.853 -176.348 1650
-181.576 -176.028 1647
-177.638 -176.028 1647
-173.383 -175.707 1644
-169.245 -175.493 1642
-165.117 -175.28 1640
-161.196 -175.28 1640
-157.178 -175.173 1639
-153.072 -174.959 1637
-149.066 -174.852 1636
-145.154 -174.852 1636
-141.242 -174.852 1636
-137.33 -174.852 1636
-133.254 -174.638 1634
-129.505 -174.852 1636
-125.67 -174.959 1637
-121.755 -174.959 1637
-117.841 -174.959 1637
-113.926 -174.959 1637
-110.146 -175.173 1639
-106.227 -175.173 1639
-102.307 -175.173 1639
-98.3879 -175.173 1639
-94.4686 -175.173 1639
-90.5492 -175.173 1639
-86.6299 -175.173 1639
-82.7105 -175.173 1639
-78.7912 -175.173 1639
-74.8718 -175.173 1639
-70.9525 -175.173 1639
-116.937 -398.868 3732
-108.244 -399.723 3740
-99.7521 -401.54 3757
-90.768 -401.54 3757
-81.7838 -401.54 3757
-72.6447 -400.685 3749
-63.6797 -400.685 3749
-54.3498 -398.013 3724
-45.4446 -398.013 3724
-36.4609 -397.158 3716
-27.5748 -397.158 3716
-18.6888 -397.158 3716
-9.77893 -396.196 3707
-0.914374 -396.196 3707
7.93303 -395.341 3699
16.7785 -395.341 3699
25.6239 -395.341 3699
34.5439 -396.196 3707
43.4084 -396.196 3707
52.273 -396.196 3707
61.1376 -396.196 3707
70.0021 -396.196 3707
78.3561 -393.631 3683
87.1632 -393.631 3683
95.9704 -393.631 3683
104.55 -392.776 3675
113.338 -392.776 3675
122.392 -393.631 3683
131.199 -393.631 3683
140.006 -393.631 3683
148.813 -393.631 3683
157.621 -393.631 3683
166.428 -393.631 3683
175.235 -393.631 3683
184.042 -393.631 3683
192.849 -393.631 3683
201.218 -392.776 3675
210.006 -392.776 3675
218.794 -392.776 3675
227.583 -392.776 3675
236.371 -392.776 3675
244.625 -391.921 3667
253.394 -391.921 3667
261.519 -390.959 3658
270.267 -390.959 3658
279.014 -390.959 3658
287.761 -390.959 3658
296.509 -390.959 3658
306.007 -391.921 3667
314.776 -391.921 3667
323.545 -391.921 3667
331.498 -390.959 3658
340.246 -390.959 3658
348.23 -390.104 3650
356.958 -390.104 3650
364.885 -389.249 3642
373.594 -389.249 3642
381.568 -388.501 3635
390.261 -388.501 3635
398.953 -388.501 3635
407.646 -388.501 3635
416.338 -388.501 3635
424.095 -387.646 3627
431.814 -386.791 3619
440.468 -386.791 3619
449.122 -386.791 3619
457.776 -386.791 3619
466.43 -386.791 3619
475.084 -386.791 3619
483.738 -386.791 3619
491.304 -385.936 3611
499.939 -385.936 3611
507.447 -385.081 3603
518.355 -386.791 3619
527.009 -386.791 3619
535.663 -386.791 3619
1056.44 -429.649 4020
1066.06 -429.649 4020
1075.67 -429.649 4020
1085.28 -429.649 4020
1094.89 -429.649 4020
1104.51 -429.649 4020
1111.35 -428.58 4010
1118.42 -427.618 4001
1127.99 -427.618 4001
1137.56 -427.618 4001
1147.13 -427.618 4001
1142.82 -422.488 3953
1152.27 -422.488 3953
1161.72 -422.488 3953
1171.17 -422.488 3953
1189.29 -425.588 3982
1198.81 -425.588 3982
1208.33 -425.588 3982
1217.86 -425.588 3982
1221.52 -423.557 3963
1231 -423.557 3963
1237.34 -422.488 3953
1243.96 -421.526 3944
1256.25 -422.488 3953
1277.87 -426.55 3991
1290.64 -427.618 4001
1300.21 -427.618 4001
1322.21 -431.68 4039
1331.87 -431.68 4039
1341.53 -431.68 4039
1351.19 -431.68 4039
1360.85 -431.68 4039
1373.9 -432.749 4049
1383.58 -432.749 4049
1393.26 -432.749 4049
1399.48 -431.68 4039
1402.51 -429.649 4020
1412.13 -429.649 4020
1411.48 -426.55 3991
1424.59 -427.618 4001
1447.77 -431.68 4039
1461.04 -432.749 4049
1470.72 -432.749 4049
1484.06 -433.817 4059
1493.77 -433.817 4059
1503.48 -433.817 4059
1513.18 -433.817 4059
1759.04 -437.024 4089
1768.82 -437.024 4089
1778.59 -437.024 4089
1788.37 -437.024 4089
1780.56 -432.749 4049
1790.24 -432.749 4049
1799.93 -432.749 4049
1809.61 -432.749 4049
1823.78 -433.817 4059
1847.04 -437.024 4089
1856.82 -437.024 4089
1866.6 -437.024 4089
1876.37 -437.024 4089
1886.15 -437.024 4089
1891.29 -435.955 4079
1887.07 -432.749 4049
2425.57 -433.817 4059
2435.28 -433.817 4059
2444.99 -433.817 4059
2505.8 -435.955 4079
2515.56 -435.955 4079
2525.31 -435.955 4079
2528.85 -434.886 4069
2538.58 -434.886 4069
2548.31 -434.886 4069
2533.52 -430.718 4030
2543.16 -430.718 4030
2552.8 -430.718 4030
2562.44 -430.718 4030
2565.69 -429.649 4020
2556.72 -426.55 3991
2566.27 -426.55 3991
2575.81 -426.55 3991
2585.36 -426.55 3991
2594.9 -426.55 3991
2598.57 -425.588 3982
2608.09 -425.588 3982
2592.63 -421.526 3944
2596.13 -420.564 3935
2592.96 -418.534 3916
2602.32 -418.534 3916
2593.68 -415.648 3889
2578.88 -411.8 3853
2576.01 -409.877 3835
2585.18 -409.877 3835
2576.76 -407.098 3809
2556.41 -392.776 3675
2565.2 -392.776 3675
2573.99 -392.776 3675
2594.02 -394.486 3691
2602.85 -394.486 3691
2611.67 -394.486 3691
2617.93 -392.776 3675
2626.72 -392.776 3675
2635.51 -392.776 3675
2644.29 -392.776 3675
2664.63 -394.486 3691
2673.46 -394.486 3691
2682.28 -394.486 3691
2691.11 -394.486 3691
2694.09 -393.631 3683
2720.51 -396.196 3707
2791.95 -405.281 3792
2801.02 -405.281 3792
2841.95 -409.877 3835
2857.82 -410.839 3844
2867.01 -410.839 3844
2876.2 -410.839 3844
2898.9 -412.762 3862
2908.14 -412.762 3862
2917.37 -412.762 3862
2919.79 -411.8 3853
2929 -411.8 3853
2938.22 -411.8 3853
2947.43 -411.8 3853
-2435.77 -359.419 3440
-2427.54 -359.419 3440
-2419.32 -359.419 3440
-2406.18 -358.688 3433
-2397.98 -358.688 3433
-2355.66 -353.568 3384
-2337.85 -352.106 3370
-2383.03 -360.151 3447
-2394.76 -363.181 3476
-2386.45 -363.181 3476
-2382.93 -363.912 3483
-2389.6 -366.211 3505
-2396.16 -368.509 3527
-2387.73 -368.509 3527
-2399.53 -371.644 3557
-2411.86 -374.883 3588
-2407.97 -375.614 3595
-2399.38 -375.614 3595
-2412.06 -378.958 3627
-2413.33 -380.525 3642
-2404.62 -380.525 3642
-2417.62 -383.973 3675
-2419.32 -385.644 3691
-2415.71 -386.48 3699
-2406.87 -386.48 3699
-2409.04 -388.256 3716
-2410.49 -389.928 3732
-2401.57 -389.928 3732
-2392.64 -389.928 3732
-2378.61 -389.092 3724
-2358.89 -387.316 3707
-2350.02 -387.316 3707
-2300.11 -380.525 3642
-2291.4 -380.525 3642
-2282.69 -380.525 3642
-2273.98 -380.525 3642
-2265.27 -380.525 3642
-2242.31 -378.122 3619
-2204.65 -373.211 3572
-1867.37 -399.75 3826
-1858.22 -399.75 3826
-1849.07 -399.75 3826
-1819.24 -395.257 3783
-1810.19 -395.257 3783
-1796.86 -394.316 3774
-1800.15 -397.033 3800
-1807.56 -400.69 3835
-1849.51 -412.078 3944
-1840.08 -412.078 3944
-1839.46 -414.064 3963
-1829.99 -414.064 3963
-1820.51 -414.064 3963
-1789.56 -409.153 3916
-1780.19 -409.153 3916
-1796.15 -415.004 3972
-1786.65 -415.004 3972
-1777.15 -415.004 3972
-1267.96 -341.762 3271
-1260.14 -341.762 3271
-1252.32 -341.762 3271
-1244.5 -341.762 3271
-1236.68 -341.762 3271
-1228.85 -341.762 3271
-1213.94 -339.777 3252
-1206.16 -339.777 3252
-1198.39 -339.777 3252
-1185.85 -338.418 3239
-1178.1 -338.418 3239
-1166.02 -337.165 3227
-1158.31 -337.165 3227
-1145.95 -335.806 3214
-1138.27 -335.806 3214
-1126.36 -334.553 3202
-1118.7 -334.553 3202
-1106.88 -333.299 3190
-1105.46 -335.179 3208
-1097.79 -335.179 3208
-1090.12 -335.179 3208
-1082.44 -335.179 3208
-1074.77 -335.179 3208
-1067.1 -335.179 3208
-1059.43 -335.179 3208
-1051.76 -335.179 3208
-1040.18 -333.926 3196
-1030.6 -333.299 3190
-560.19 -183.889 1760
-556.929 -184.202 1763
-552.714 -184.202 1763
-548.498 -184.202 1763
-542.738 -183.68 1758
-538.534 -183.68 1758
-534.33 -183.68 1758
-526.809 -182.531 1747
-520.837 -181.904 1741
-516.674 -181.904 1741
-512.216 -181.799 1740
-507.471 -181.59 1738
-502.157 -181.172 1734
-498.01 -181.172 1734
-492.439 -180.65 1729
-486.61 -180.023 1723
-481.65 -179.71 1720
-475.594 -178.978 1713
-471.497 -178.978 1713
-466.037 -178.456 1708
-460.871 -178.038 1704
-455.992 -177.725 1701
-451.924 -177.725 1701
-446.803 -177.307 1697
-442.223 -177.098 1695
-437.395 -176.784 1692
-433.348 -176.784 1692
-428.034 -176.262 1687
-422.743 -175.739 1682
-418.223 -175.53 1680
-414.205 -175.53 1680
-409.456 -175.217 1677
-404.962 -175.008 1675
-400.238 -174.695 1672
-396.24 -174.695 1672
-391.303 -174.277 1668
-386.618 -173.963 1665
-382.177 -173.754 1663
-378.2 -173.754 1663
-374.223 -173.754 1663
-369.579 -173.441 1660
-365.609 -173.441 1660
-360.986 -173.127 1657
-357.024 -173.127 1657
-352.635 -172.918 1655
-348.256 -172.709 1653
-344.303 -172.709 1653
-340.351 -172.709 1653
-335.787 -172.396 1650
-331.842 -172.396 1650
-327.499 -172.187 1648
-323.558 -172.187 1648
-319.617 -172.187 1648
-315.676 -172.187 1648
-312.113 -172.396 1650
-308.168 -172.396 1650
-304.222 -172.396 1650
-300.64 -172.605 1652
-297.229 -172.918 1655
-293.626 -173.127 1657
-289.663 -173.127 1657
-286.218 -173.441 1660
-283.099 -173.963 1665
-279.62 -174.277 1668
-275.631 -174.277 1668
-272.294 -174.695 1672
-268.456 -174.799 1673
-265.088 -175.217 1677
-261.078 -175.217 1677
-257.067 -175.217 1677
-253.057 -175.217 1677
-249.196 -175.321 1678
-245.183 -175.321 1678
-241.17 -175.321 1678
-237.158 -175.321 1678
-233.145 -175.321 1678
-229.132 -175.321 1678
-224.986 -175.217 1677
-220.975 -175.217 1677
-216.965 -175.217 1677
-212.447 -174.799 1673
-208.073 -174.486 1670
-203.835 -174.277 1668
-198.888 -173.441 1660
-194.918 -173.441 1660
-190.718 -173.232 1658
-185.853 -172.396 1650
-181.356 -171.873 1645
-177.422 -171.873 1645
-173.172 -171.56 1642
-169.039 -171.351 1640
-165.117 -171.351 1640
-161.196 -171.351 1640
-156.986 -171.038 1637
-152.978 -170.933 1636
-149.066 -170.933 1636
-145.154 -170.933 1636
-141.069 -170.724 1634
-137.162 -170.724 1634
-133.254 -170.724 1634
-129.505 -170.933 1636
-125.67 -171.038 1637
-121.755 -171.038 1637
-117.841 -171.038 1637
-113.926 -171.038 1637
-110.146 -171.247 1639
-106.227 -171.247 1639
-102.307 -171.247 1639
-98.3879 -171.247 1639
-94.4686 -171.247 1639
-90.5492 -171.247 1639
-86.6299 -171.247 1639
-82.7105 -171.247 1639
-78.7912 -171.247 1639
-74.8718 -171.247 1639
-70.9525 -171.247 1639
-116.937 -389.928 3732
-108.244 -390.764 3740
-99.5397 -391.704 3749
-90.5747 -391.704 3749
-81.6097 -391.704 3749
-72.6447 -391.704 3749
-63.6797 -391.704 3749
-54.3498 -389.092 3724
-45.4446 -389.092 3724
-36.4609 -388.256 3716
-27.5748 -388.256 3716
-18.6435 -387.316 3707
-9.75783 -386.48 3699
-0.912401 -386.48 3699
7.91587 -385.644 3691
16.7422 -385.644 3691
25.5685 -385.644 3691
34.4693 -386.48 3699
43.3148 -386.48 3699
52.1602 -386.48 3699
60.8737 -385.644 3691
69.5489 -384.809 3683
78.3561 -384.809 3683
87.1632 -384.809 3683
95.7619 -383.973 3675
104.55 -383.973 3675
113.338 -383.973 3675
122.126 -383.973 3675
130.914 -383.973 3675
140.006 -384.809 3683
148.813 -384.809 3683
157.621 -384.809 3683
166.428 -384.809 3683
174.854 -383.973 3675
183.642 -383.973 3675
192.43 -383.973 3675
201.218 -383.973 3675
210.006 -383.973 3675
218.794 -383.973 3675
227.583 -383.973 3675
236.371 -383.973 3675
244.625 -383.137 3667
252.772 -382.196 3658
261.519 -382.196 3658
270.267 -382.196 3658
279.014 -382.196 3658
287.761 -382.196 3658
296.509 -382.196 3658
305.256 -382.196 3658
314.004 -382.196 3658
322.751 -382.196 3658
330.773 -381.361 3650
339.502 -381.361 3650
348.23 -381.361 3650
356.176 -380.525 3642
364.184 -379.793 3635
372.876 -379.793 3635
381.568 -379.793 3635
389.402 -378.958 3627
398.075 -378.958 3627
406.748 -378.958 3627
415.422 -378.958 3627
423.16 -378.122 3619
431.814 -378.122 3619
440.468 -378.122 3619
449.122 -378.122 3619
457.776 -378.122 3619
466.43 -378.122 3619
475.084 -378.122 3619
483.738 -378.122 3619
491.304 -377.286 3611
498.831 -376.45 3603
507.447 -376.45 3603
516.063 -376.45 3603
1056.44 -420.019 4020
1066.06 -420.019 4020
1083.43 -423.049 4049
1093.11 -423.049 4049
1102.79 -423.049 4049
1104.51 -420.019 4020
1114.12 -420.019 4020
1120.94 -418.974 4010
1130.53 -418.974 4010
1140.12 -418.974 4010
1138.81 -415.004 3972
1134.72 -410.093 3925
1147.02 -411.138 3935
1156.43 -411.138 3935
1168.51 -412.078 3944
1186.3 -415.004 3972
1195.8 -415.004 3972
1205.3 -415.004 3972
1214.8 -415.004 3972
1221.52 -414.064 3963
1231 -414.064 3963
1228.58 -410.093 3925
1237.97 -410.093 3925
1250.53 -411.138 3935
1271.79 -415.004 3972
1287.41 -416.989 3991
1296.96 -416.989 3991
1319.27 -421.064 4030
1328.91 -421.064 4030
1341.53 -422.004 4039
1351.19 -422.004 4039
1364.22 -423.049 4049
1377.29 -424.094 4059
1387 -424.094 4059
1396.71 -424.094 4059
1406.41 -424.094 4059
1409.14 -422.004 4039
1418.8 -422.004 4039
1428.46 -422.004 4039
1438.12 -422.004 4039
1451.36 -423.049 4049
1475.48 -427.228 4089
1485.25 -427.228 4089
1495.03 -427.228 4089
1768.82 -427.228 4089
1778.59 -427.228 4089
1788.37 -427.228 4089
1784.96 -424.094 4059
1794.66 -424.094 4059
1799.93 -423.049 4049
1809.61 -423.049 4049
1823.78 -424.094 4059
1847.04 -427.228 4089
1856.82 -427.228 4089
1866.6 -427.228 4089
1876.37 -427.228 4089
1886.15 -427.228 4089
1891.29 -426.184 4079
1891.73 -424.094 4059
2360.52 -416.049 3982
2370.04 -416.049 3982
2431.55 -425.139 4069
2441.28 -425.139 4069
2451.01 -425.139 4069
2505.8 -426.184 4079
2515.56 -426.184 4079
2525.31 -426.184 4079
2510.21 -422.004 4039
2519.87 -422.004 4039
2529.52 -422.004 4039
2533.52 -421.064 4030
2536.85 -420.019 4020
2546.46 -420.019 4020
2556.08 -420.019 4020
2565.69 -420.019 4020
2556.72 -416.989 3991
2566.27 -416.989 3991
2575.81 -416.989 3991
2573.05 -415.004 3972
2576.69 -414.064 3963
2586.17 -414.064 3963
2595.65 -414.064 3963
2586.72 -411.138 3935
2583.59 -409.153 3916
2592.96 -409.153 3916
2602.32 -409.153 3916
2593.68 -406.332 3889
2572.86 -401.63 3844
2576.01 -400.69 3835
2585.18 -400.69 3835
2576.76 -397.973 3809
2556.68 -393.481 3766
2559.55 -392.54 3757
2540.5 -388.256 3716
2549.39 -388.256 3716
2541.06 -385.644 3691
2521.57 -381.361 3650
2530.29 -381.361 3650
2556.41 -383.973 3675
2565.2 -383.973 3675
2590.8 -386.48 3699
2611.59 -388.256 3716
2620.48 -388.256 3716
2629.36 -388.256 3716
2638.25 -388.256 3716
2640.72 -387.316 3707
2649.59 -387.316 3707
2652.72 -386.48 3699
2650.05 -384.809 3683
2664.63 -385.644 3691
2673.46 -385.644 3691
2682.28 -385.644 3691
2691.11 -385.644 3691
2699.94 -385.644 3691
2744.72 -390.764 3740
2811.1 -398.914 3818
2820.23 -398.914 3818
2848.62 -401.63 3844
2877.89 -404.451 3871
2887.15 -404.451 3871
2896.4 -404.451 3871
2905.66 -404.451 3871
2914.92 -404.451 3871
2924.17 -404.451 3871
2926.61 -403.511 3862
2935.84 -403.511 3862
2938.22 -402.571 3853
2947.43 -402.571 3853
-2617.78 -366.288 3588
-2609.2 -366.288 3588
-2600.62 -366.288 3588
-2592.04 -366.288 3588
-2583.46 -366.288 3588
-2536.13 -360.775 3534
-2517.67 -359.346 3520
-2498.56 -357.814 3505
-2490.18 -357.814 3505
-2476.13 -356.998 3497
-2467.77 -356.998 3497
-2429.16 -352.608 3454
-2416 -351.893 3447
-2407.75 -351.893 3447
-2370.27 -347.606 3405
-2337.85 -344.033 3370
-2383.03 -351.893 3447
-2409.23 -356.998 3497
-2400.87 -356.998 3497
-2392.51 -356.998 3497
-2394.37 -358.529 3512
-2400.92 -360.775 3534
-2392.47 -360.775 3534
-2404.93 -363.94 3565
-2411.86 -366.288 3588
-2407.97 -367.002 3595
-2399.38 -367.002 3595
-2412.06 -370.269 3627
-2413.33 -371.8 3642
-2404.62 -371.8 3642
-2417.62 -375.169 3675
-2419.32 -376.803 3691
-2415.71 -377.619 3699
-2406.87 -377.619 3699
-2409.04 -379.355 3716
-2410.49 -380.988 3732
-2401.57 -380.988 3732
-2392.64 -380.988 3732
-2378.61 -380.171 3724
-2358.89 -378.436 3707
-2350.02 -378.436 3707
-2300.11 -371.8 3642
-2291.4 -371.8 3642
-2282.69 -371.8 3642
-2273.98 -371.8 3642
-2265.27 -371.8 3642
-2242.31 -369.452 3619
-1823.94 -385.276 3774
-1814.91 -385.276 3774
-1805.89 -385.276 3774
-1788.77 -383.54 3757
-1812.47 -390.584 3826
-1816.05 -393.341 3853
-1871.55 -407.429 3991
-1862 -407.429 3991
-1852.46 -407.429 3991
-1842.92 -407.429 3991
-1833.37 -407.429 3991
-1819.72 -406.51 3982
-1810.19 -406.51 3982
-1817.86 -410.389 4020
-1808.24 -410.389 4020
-1798.63 -410.389 4020
-1267.96 -333.926 3271
-1260.14 -333.926 3271
-1252.32 -333.926 3271
-1244.5 -333.926 3271
-1236.68 -333.926 3271
-1221.72 -331.986 3252
-1211.7 -331.374 3246
-1201.34 -330.659 3239
-1193.6 -330.659 3239
-1185.85 -330.659 3239
-1175.92 -330.047 3233
-1161.33 -328.107 3214
-1153.64 -328.107 3214
-1145.95 -328.107 3214
-1138.27 -328.107 3214
-1126.36 -326.882 3202
-1118.7 -326.882 3202
-1106.88 -325.657 3190
-1103.39 -326.882 3202
-1097.79 -327.495 3208
-1092.15 -328.107 3214
-1084.47 -328.107 3214
-1076.78 -328.107 3214
-1067.1 -327.495 3208
-1059.43 -327.495 3208
-1051.76 -327.495 3208
-1040.18 -326.27 3196
-1028.66 -325.045 3184
-561.145 -179.979 1763
-558.825 -180.592 1769
-554.595 -180.592 1769
-550.364 -180.592 1769
-544.282 -179.979 1763
-540.066 -179.979 1763
-534.33 -179.469 1758
-526.809 -178.346 1747
-520.837 -177.733 1741
-516.674 -177.733 1741
-512.216 -177.631 1740
-507.471 -177.427 1738
-502.157 -177.019 1734
-498.01 -177.019 1734
-491.87 -176.304 1727
-486.61 -175.896 1723
-481.65 -175.589 1720
-475.594 -174.875 1713
-471.497 -174.875 1713
-466.037 -174.364 1708
-460.871 -173.956 1704
-456.26 -173.752 1702
-452.19 -173.752 1702
-446.803 -173.241 1697
-442.223 -173.037 1695
-437.912 -172.935 1694
-433.861 -172.935 1694
-428.795 -172.527 1690
-422.743 -171.71 1682
-418.223 -171.506 1680
-414.205 -171.506 1680
-409.456 -171.2 1677
-404.962 -170.995 1675
-400.238 -170.689 1672
-396.24 -170.689 1672
-391.303 -170.281 1668
-386.618 -169.975 1665
-382.177 -169.77 1663
-378.2 -169.77 1663
-374.223 -169.77 1663
-369.579 -169.464 1660
-365.609 -169.464 1660
-360.986 -169.158 1657
-357.024 -169.158 1657
-352.635 -168.954 1655
-348.256 -168.75 1653
-344.095 -168.647 1652
-340.145 -168.647 1652
-335.787 -168.443 1650
-331.842 -168.443 1650
-327.499 -168.239 1648
-323.558 -168.239 1648
-319.617 -168.239 1648
-315.484 -168.137 1647
-311.735 -168.239 1648
-308.168 -168.443 1650
-304.222 -168.443 1650
-300.64 -168.647 1652
-296.87 -168.75 1653
-293.271 -168.954 1655
-289.314 -168.954 1655
-285.701 -169.158 1657
-282.759 -169.77 1663
-279.452 -170.179 1667
-275.466 -170.179 1667
-271.968 -170.485 1670
-268.296 -170.689 1672
-264.456 -170.791 1673
-260.455 -170.791 1673
-256.761 -170.995 1675
-253.057 -171.2 1677
-249.047 -171.2 1677
-245.037 -171.2 1677
-241.027 -171.2 1677
-237.016 -171.2 1677
-233.006 -171.2 1677
-228.996 -171.2 1677
-224.986 -171.2 1677
-220.712 -170.995 1675
-216.448 -170.791 1673
-212.447 -170.791 1673
-208.073 -170.485 1670
-203.713 -170.179 1667
-198.888 -169.464 1660
-194.918 -169.464 1660
-190.373 -168.954 1655
-185.853 -168.443 1650
-181.356 -167.933 1645
-177.422 -167.933 1645
-172.961 -167.422 1640
-169.039 -167.422 1640
-165.017 -167.32 1639
-161.097 -167.32 1639
-156.986 -167.116 1637
-152.978 -167.014 1636
-148.884 -166.81 1634
-144.976 -166.81 1634
-140.896 -166.606 1632
-136.994 -166.606 1632
-133.254 -166.81 1634
-129.505 -167.014 1636
-125.67 -167.116 1637
-121.755 -167.116 1637
-117.841 -167.116 1637
-113.926 -167.116 1637
-110.146 -167.32 1639
-106.227 -167.32 1639
-102.307 -167.32 1639
-98.3879 -167.32 1639
-94.4686 -167.32 1639
-90.5492 -167.32 1639
-86.6299 -167.32 1639
-82.7105 -167.32 1639
-78.7912 -167.32 1639
-74.8718 -167.32 1639
-70.9525 -167.32 1639
-116.937 -380.988 3732
-108.013 -380.988 3732
-99.3007 -381.805 3740
-90.3572 -381.805 3740
-81.4138 -381.805 3740
-72.3153 -380.988 3732
-63.3909 -380.988 3732
-54.3498 -380.171 3724
-45.347 -379.355 3716
-36.4609 -379.355 3716
-27.5748 -379.355 3716
-18.6033 -377.619 3699
-9.75783 -377.619 3699
-0.912401 -377.619 3699
7.91587 -376.803 3691
16.7422 -376.803 3691
25.5685 -376.803 3691
34.4693 -377.619 3699
43.3148 -377.619 3699
52.1602 -377.619 3699
60.8737 -376.803 3691
69.7 -376.803 3691
78.3561 -375.986 3683
87.1632 -375.986 3683
95.9704 -375.986 3683
104.55 -375.169 3675
113.585 -375.986 3683
122.392 -375.986 3683
131.199 -375.986 3683
140.006 -375.986 3683
148.813 -375.986 3683
157.621 -375.986 3683
166.428 -375.986 3683
174.854 -375.169 3675
183.642 -375.169 3675
192.43 -375.169 3675
201.218 -375.169 3675
210.006 -375.169 3675
218.318 -374.352 3667
227.087 -374.352 3667
235.856 -374.352 3667
244.025 -373.434 3658
252.772 -373.434 3658
260.947 -372.617 3650
269.676 -372.617 3650
278.404 -372.617 3650
287.132 -372.617 3650
295.86 -372.617 3650
304.589 -372.617 3650
313.317 -372.617 3650
322.045 -372.617 3650
330.048 -371.8 3642
338.758 -371.8 3642
346.799 -371.086 3635
355.491 -371.086 3635
363.382 -370.269 3627
372.055 -370.269 3627
380.729 -370.269 3627
388.543 -369.452 3619
397.197 -369.452 3619
405.851 -369.452 3619
413.589 -368.636 3611
422.224 -368.636 3611
430.859 -368.636 3611
439.494 -368.636 3611
448.129 -368.636 3611
456.764 -368.636 3611
465.399 -368.636 3611
472.984 -367.819 3603
481.6 -367.819 3603
489.127 -367.002 3595
496.755 -366.288 3588
1056.44 -410.389 4020
1066.06 -410.389 4020
1088.78 -415.391 4069
1098.51 -415.391 4069
1108.24 -415.391 4069
1104.51 -410.389 4020
1114.12 -410.389 4020
1120.94 -409.368 4010
1130.53 -409.368 4010
1140.12 -409.368 4010
1138.81 -405.489 3972
1132.12 -399.772 3916
1141.48 -399.772 3916
1150.85 -399.772 3916
1165.84 -401.712 3935
1177.94 -402.631 3944
1187.37 -402.631 3944
1196.8 -402.631 3944
1206.23 -402.631 3944
1215.66 -402.631 3944
1225.1 -402.631 3944
1228.58 -400.691 3925
1232.29 -398.853 3907
1241.63 -398.853 3907
1271.79 -405.489 3972
1287.41 -407.429 3991
1296.96 -407.429 3991
1315.99 -410.389 4020
1325.61 -410.389 4020
1341.53 -412.329 4039
1351.19 -412.329 4039
1364.22 -413.35 4049
1377.29 -414.371 4059
1387 -414.371 4059
1396.71 -414.371 4059
1406.41 -414.371 4059
1409.14 -412.329 4039
1418.8 -412.329 4039
1428.46 -412.329 4039
1438.12 -412.329 4039
1451.36 -413.35 4049
1475.48 -417.433 4089
1485.25 -417.433 4089
1495.03 -417.433 4089
1764.49 -416.412 4079
1774.24 -416.412 4079
1784 -416.412 4079
1793.75 -416.412 4079
1803.51 -416.412 4079
1804.37 -414.371 4059
1814.08 -414.371 4059
1823.78 -414.371 4059
1842.52 -416.412 4079
1852.28 -416.412 4079
1862.03 -416.412 4079
1871.79 -416.412 4079
1881.54 -416.412 4079
1886.66 -415.391 4069
1891.73 -414.371 4059
2360.52 -406.51 3982
2370.04 -406.51 3982
2431.55 -415.391 4069
2441.28 -415.391 4069
2451.01 -415.391 4069
2492.39 -417.433 4089
2502.17 -417.433 4089
2511.95 -417.433 4089
2521.73 -417.433 4089
2525.31 -416.412 4079
2510.21 -412.329 4039
2519.87 -412.329 4039
2529.52 -412.329 4039
2533.52 -411.41 4030
2536.85 -410.389 4020
2546.46 -410.389 4020
2556.08 -410.389 4020
2565.69 -410.389 4020
2556.72 -407.429 3991
2566.27 -407.429 3991
2575.81 -407.429 3991
2573.05 -405.489 3972
2576.69 -404.57 3963
2586.17 -404.57 3963
2595.65 -404.57 3963
2586.72 -401.712 3935
2583.59 -399.772 3916
2592.96 -399.772 3916
2602.32 -399.772 3916
2593.68 -397.016 3889
2572.86 -392.422 3844
2576.01 -391.503 3835
2585.18 -391.503 3835
2576.76 -388.849 3809
2556.68 -384.459 3766
2565.68 -384.459 3766
2540.5 -379.355 3716
2549.39 -379.355 3716
2541.06 -376.803 3691
2533.31 -374.352 3667
2535.84 -373.434 3658
2567.54 -376.803 3691
2576.37 -376.803 3691
2602.71 -379.355 3716
2628.46 -381.805 3740
2655.74 -384.459 3766
2664.74 -384.459 3766
2673.75 -384.459 3766
2682.75 -384.459 3766
2691.76 -384.459 3766
2682.12 -381.805 3740
2691.06 -381.805 3740
2706.5 -382.724 3749
2715.47 -382.724 3749
2724.43 -382.724 3749
2733.4 -382.724 3749
2735.78 -381.805 3740
2782.89 -387.113 3792
2830.24 -392.422 3844
2839.43 -392.422 3844
2881.97 -397.016 3889
2897.96 -397.935 3898
2907.28 -397.935 3898
2916.61 -397.935 3898
2925.93 -397.935 3898
2935.25 -397.935 3898
2944.57 -397.935 3898
2947.07 -397.016 3889
2956.37 -397.016 3889
2945.08 -394.259 3862
2954.32 -394.259 3862
-2646.24 -361.581 3627
-2637.56 -361.581 3627
-2628.89 -361.581 3627
-2597.1 -358.39 3595
-2588.5 -358.39 3595
-2552.64 -354.602 3557
-2517.67 -350.914 3520
-2503.55 -350.116 3512
-2495.15 -350.116 3512
-2481.79 -349.418 3505
-2467.77 -348.621 3497
-2454.48 -347.923 3490
-2430.72 -345.73 3468
-2422.42 -345.73 3468
-2404.38 -344.334 3454
-2362.13 -339.449 3405
-2383.03 -343.636 3447
-2409.23 -348.621 3497
-2400.87 -348.621 3497
-2397.98 -349.418 3505
-2394.37 -350.116 3512
-2400.92 -352.309 3534
-2392.47 -352.309 3534
-2404.93 -355.4 3565
-2411.86 -357.693 3588
-2407.97 -358.39 3595
-2399.38 -358.39 3595
-2412.06 -361.581 3627
-2413.33 -363.076 3642
-2404.62 -363.076 3642
-2417.62 -366.366 3675
-2419.32 -367.961 3691
-2415.71 -368.758 3699
-2406.87 -368.758 3699
-2409.04 -370.453 3716
-2410.49 -372.048 3732
-2401.57 -372.048 3732
-2392.64 -372.048 3732
-2378.61 -371.251 3724
-2358.89 -369.556 3707
-2350.02 -369.556 3707
-2300.11 -363.076 3642
-2291.4 -363.076 3642
-2282.69 -363.076 3642
-2273.98 -363.076 3642
-2265.27 -363.076 3642
-2242.31 -360.783 3619
-1809.28 -369.556 3707
-1800.42 -369.556 3707
-1823.94 -376.235 3774
-1814.91 -376.235 3774
-1805.89 -376.235 3774
-1788.77 -374.54 3757
-1816.73 -382.316 3835
-1841.5 -389.494 3907
-1876.24 -398.865 4001
-1866.67 -398.865 4001
-1857.1 -398.865 4001
-1847.53 -398.865 4001
-1837.97 -398.865 4001
-1823.83 -397.868 3991
-1827.47 -400.759 4020
-1826.45 -402.653 4039
-1816.79 -402.653 4039
-1807.13 -402.653 4039
-1275.79 -326.09 3271
-1267.96 -326.09 3271
-1260.14 -326.09 3271
-1252.32 -326.09 3271
-1244.5 -326.09 3271
-1236.68 -326.09 3271
-1221.72 -324.196 3252
-1211.7 -323.598 3246
-1201.34 -322.9 3239
-1193.6 -322.9 3239
-1185.85 -322.9 3239
-1175.92 -322.302 3233
-1163.85 -321.106 3221
-1156.15 -321.106 3221
-1145.95 -320.408 3214
-1138.27 -320.408 3214
-1126.36 -319.212 3202
-1118.7 -319.212 3202
-1106.88 -318.015 3190
-1103.39 -319.212 3202
-1097.79 -319.81 3208
-1092.15 -320.408 3214
-1084.47 -320.408 3214
-1076.78 -320.408 3214
-1069.1 -320.408 3214
-1061.41 -320.408 3214
-1053.73 -320.408 3214
-1044.09 -319.81 3208
-1028.66 -317.417 3184
-561.145 -175.756 1763
-558.825 -176.354 1769
-554.595 -176.354 1769
-550.364 -176.354 1769
-544.282 -175.756 1763
-540.066 -175.756 1763
-534.33 -175.257 1758
-526.809 -174.161 1747
-520.837 -173.563 1741
-516.674 -173.563 1741
-512.216 -173.463 1740
-507.471 -173.264 1738
-502.157 -172.865 1734
-498.01 -172.865 1734
-491.87 -172.167 1727
-486.61 -171.768 1723
-481.65 -171.469 1720
-475.594 -170.771 1713
-471.497 -170.771 1713
-466.037 -170.273 1708
-460.871 -169.874 1704
-456.26 -169.675 1702
-452.19 -169.675 1702
-446.803 -169.176 1697
-442.223 -168.977 1695
-437.912 -168.877 1694
-433.861 -168.877 1694
-428.795 -168.478 1690
-422.743 -167.681 1682
-418.223 -167.481 1680
-414.205 -167.481 1680
-409.7 -167.282 1678
-404.962 -166.983 1675
-400.478 -166.784 1673
-396.477 -166.784 1673
-391.303 -166.285 1668
-386.618 -165.986 1665
-382.177 -165.787 1663
-378.2 -165.787 1663
-374.223 -165.787 1663
-369.579 -165.488 1660
-365.609 -165.488 1660
-360.986 -165.189 1657
-357.024 -165.189 1657
-352.635 -164.989 1655
-348.256 -164.79 1653
-344.095 -164.69 1652
-340.145 -164.69 1652
-335.787 -164.491 1650
-331.842 -164.491 1650
-327.499 -164.291 1648
-323.558 -164.291 1648
-319.617 -164.291 1648
-315.484 -164.192 1647
-311.735 -164.291 1648
-308.168 -164.491 1650
-304.222 -164.491 1650
-300.64 -164.69 1652
-296.87 -164.79 1653
-293.271 -164.989 1655
-289.314 -164.989 1655
-285.701 -165.189 1657
-282.759 -165.787 1663
-279.452 -166.185 1667
-275.466 -166.185 1667
-271.968 -166.485 1670
-268.296 -166.684 1672
-264.456 -166.784 1673
-260.455 -166.784 1673
-256.761 -166.983 1675
-253.057 -167.182 1677
-249.047 -167.182 1677
-245.037 -167.182 1677
-241.027 -167.182 1677
-237.016 -167.182 1677
-233.006 -167.182 1677
-228.996 -167.182 1677
-224.986 -167.182 1677
-220.712 -166.983 1675
-216.448 -166.784 1673
-212.447 -166.784 1673
-208.073 -166.485 1670
-203.713 -166.185 1667
-198.888 -165.488 1660
-194.918 -165.488 1660
-190.373 -164.989 1655
-185.853 -164.491 1650
-181.356 -163.992 1645
-177.422 -163.992 1645
-172.961 -163.494 1640
-169.039 -163.494 1640
-165.017 -163.394 1639
-161.097 -163.394 1639
-156.986 -163.195 1637
-152.978 -163.095 1636
-148.884 -162.896 1634
-144.976 -162.896 1634
-140.896 -162.696 1632
-136.994 -162.696 1632
-133.254 -162.896 1634
-129.584 -163.195 1637
-125.67 -163.195 1637
-121.755 -163.195 1637
-117.841 -163.195 1637
-114.065 -163.394 1639
-110.146 -163.394 1639
-106.227 -163.394 1639
-102.307 -163.394 1639
-98.3879 -163.394 1639
-94.4686 -163.394 1639
-90.5492 -163.394 1639
-86.6827 -163.494 1640
-82.9629 -163.893 1644
-79.0316 -163.893 1644
-75.1003 -163.893 1644
-71.169 -163.893 1644
-116.937 -372.048 3732
-108.013 -372.048 3732
-99.3007 -372.846 3740
-90.3572 -372.846 3740
-81.4138 -372.846 3740
-72.3153 -372.048 3732
-63.3909 -372.048 3732
-54.3498 -371.251 3724
-45.347 -370.453 3716
-36.4609 -370.453 3716
-27.5748 -370.453 3716
-18.6033 -368.758 3699
-9.75783 -368.758 3699
-0.912401 -368.758 3699
7.91587 -367.961 3691
16.7422 -367.961 3691
25.5685 -367.961 3691
34.4693 -368.758 3699
43.3148 -368.758 3699
52.1602 -368.758 3699
60.8737 -367.961 3691
69.7 -367.961 3691
78.5263 -367.961 3691
87.3526 -367.961 3691
96.1789 -367.961 3691
105.005 -367.961 3691
113.831 -367.961 3691
122.658 -367.961 3691
131.484 -367.961 3691
140.006 -367.163 3683
148.813 -367.163 3683
157.621 -367.163 3683
166.428 -367.163 3683
175.616 -367.961 3691
184.442 -367.961 3691
193.268 -367.961 3691
