ply
format ascii 1.0
comment File generated
element vertex 2138
property float x
property float y
property float z
end_header
-466.987 -83.0667 1682
-462.965 -83.0667 1682
-458.397 -82.9679 1680
-453.027 -82.721 1675
-447.145 -82.3753 1668
-443.156 -82.3753 1668
-438.904 -82.3259 1667
-434.396 -82.2271 1665
-429.898 -82.1283 1663
-425.921 -82.1283 1663
-420.422 -81.832 1657
-415.454 -81.6345 1653
-411.252 -81.5851 1652
-407.302 -81.5851 1652
-402.131 -81.3382 1647
-397.709 -81.2394 1645
-393.536 -81.19 1644
-389.604 -81.19 1644
-385.204 -81.0912 1642
-380.581 -80.9431 1639
-376.661 -80.9431 1639
-372.06 -80.7949 1636
-368.148 -80.7949 1636
-363.79 -80.6962 1634
-359.442 -80.5974 1632
-354.886 -80.4492 1629
-350.991 -80.4492 1629
-346.456 -80.3011 1626
-341.514 -80.0542 1621
-336.805 -79.8566 1617
-332.938 -79.8566 1617
-328.054 -79.6097 1612
-323.596 -79.4615 1609
-318.556 -79.1652 1603
-314.723 -79.1652 1603
-310.114 -78.9677 1599
-305.715 -78.8195 1596
-301.142 -78.622 1592
-297.335 -78.622 1592
-292.975 -78.4738 1589
-288.629 -78.3257 1586
-284.478 -78.2269 1584
-280.158 -78.0787 1581
-276.377 -78.0787 1581
-272.597 -78.0787 1581
-268.646 -78.0293 1580
-264.533 -77.9306 1578
-260.759 -77.9306 1578
-256.986 -77.9306 1578
-253.212 -77.9306 1578
-249.755 -78.0293 1580
-245.977 -78.0293 1580
-242.198 -78.0293 1580
-238.42 -78.0293 1580
-234.642 -78.0293 1580
-231.01 -78.0787 1581
-227.229 -78.0787 1581
-223.731 -78.1775 1583
-220.362 -78.3257 1586
-217.389 -78.622 1592
-213.582 -78.622 1592
-210.17 -78.7701 1595
-206.486 -78.8195 1596
-203.558 -79.1652 1603
-199.725 -79.1652 1603
-196.014 -79.2146 1604
-192.777 -79.4615 1609
-190.573 -80.1529 1623
-186.692 -80.1529 1623
-183.487 -80.4492 1629
-181.576 -81.3382 1647
-178.716 -81.832 1657
-174.754 -81.832 1657
-172.647 -82.721 1675
-169.447 -83.1161 1683
-166.11 -83.4618 1690
-162.069 -83.4618 1690
-159.524 -84.2519 1706
-155.718 -84.4001 1709
-152.163 -84.6964 1715
-148.062 -84.6964 1715
-144.213 -84.8446 1718
-140.431 -85.0421 1722
-137.105 -85.536 1732
-132.963 -85.536 1732
-129.639 -86.0792 1743
-125.903 -86.3755 1749
-122.625 -87.0175 1762
-118.412 -87.0175 1762
-114.652 -87.3632 1769
-110.672 -87.5608 1773
-106.432 -87.5608 1773
-102.192 -87.5608 1773
-179.023 -183.912 3724
-170.118 -183.912 3724
-161.212 -183.912 3724
-152.307 -183.912 3724
-143.094 -183.517 3716
-134.208 -183.517 3716
-124.209 -181.887 3683
-115.402 -181.887 3683
-106.594 -181.887 3683
-97.7873 -181.887 3683
-88.9801 -181.887 3683
-80.173 -181.887 3683
-71.3658 -181.887 3683
-62.8304 -182.678 3699
-53.985 -182.678 3699
-45.1396 -182.678 3699
-36.2941 -182.678 3699
-27.5081 -183.073 3707
-18.6435 -183.073 3707
-9.77893 -183.073 3707
-0.914374 -183.073 3707
7.93303 -182.678 3699
16.7785 -182.678 3699
25.5685 -182.282 3691
34.3202 -181.887 3683
43.0337 -181.492 3675
51.8218 -181.492 3675
60.4779 -181.097 3667
69.2468 -181.097 3667
78.0157 -181.097 3667
86.7846 -181.097 3667
95.319 -180.653 3658
104.066 -180.653 3658
112.567 -180.258 3650
121.295 -180.258 3650
130.024 -180.258 3650
139.056 -180.653 3658
147.803 -180.653 3658
156.551 -180.653 3658
165.298 -180.653 3658
174.045 -180.653 3658
183.243 -181.097 3667
192.011 -181.097 3667
201.218 -181.492 3675
210.006 -181.492 3675
219.271 -181.887 3683
228.078 -181.887 3683
236.885 -181.887 3683
245.692 -181.887 3683
254.499 -181.887 3683
263.307 -181.887 3683
272.114 -181.887 3683
280.921 -181.887 3683
290.357 -182.282 3691
299.184 -182.282 3691
308.01 -182.282 3691
316.836 -182.282 3691
325.663 -182.282 3691
333.764 -181.887 3683
342.571 -181.887 3683
351.378 -181.887 3683
359.403 -181.492 3675
368.191 -181.492 3675
376.979 -181.492 3675
385.767 -181.492 3675
394.555 -181.492 3675
403.343 -181.492 3675
412.131 -181.492 3675
420.003 -181.097 3667
427.72 -180.653 3658
438.495 -181.492 3675
447.284 -181.492 3675
456.072 -181.492 3675
464.86 -181.492 3675
472.617 -181.097 3667
481.385 -181.097 3667
490.154 -181.097 3667
498.923 -181.097 3667
508.8 -181.492 3675
519.841 -182.282 3691
528.668 -182.282 3691
537.494 -182.282 3691
543.952 -181.492 3675
974.406 -201.444 4079
984.161 -201.444 4079
993.915 -201.444 4079
1003.67 -201.444 4079
1010.94 -200.95 4069
1020.67 -200.95 4069
1025.33 -199.963 4049
1020.19 -197.098 3991
1029.73 -197.098 3991
1039.28 -197.098 3991
1038.84 -195.221 3953
1048.29 -195.221 3953
1045.43 -192.95 3907
1054.78 -192.95 3907
1064.12 -192.95 3907
1068.52 -192.061 3889
1090.56 -194.333 3935
1110.32 -196.16 3972
1122.63 -196.654 3982
1132.16 -196.654 3982
1141.68 -196.654 3982
1151.2 -196.654 3982
1160.72 -196.654 3982
1153.49 -193.839 3925
1174.14 -195.715 3963
1186.3 -196.16 3972
1195.8 -196.16 3972
1205.3 -196.16 3972
1212.04 -195.715 3963
1224.3 -196.16 3972
1251.81 -199.024 4030
1261.45 -199.024 4030
1273.92 -199.469 4039
1299.47 -201.938 4089
1309.25 -201.938 4089
1319.03 -201.938 4089
1328.8 -201.938 4089
1475.48 -201.938 4089
1485.25 -201.938 4089
1495.03 -201.938 4089
1504.81 -201.938 4089
1514.59 -201.938 4089
1524.37 -201.938 4089
1534.14 -201.938 4089
1543.92 -201.938 4089
1553.7 -201.938 4089
1563.48 -201.938 4089
1573.26 -201.938 4089
1579.16 -201.444 4079
1569.83 -199.024 4030
1579.47 -199.024 4030
1570.18 -196.654 3982
1575.73 -196.16 3972
1585.23 -196.16 3972
1618.01 -199.024 4030
1627.65 -199.024 4030
1637.29 -199.024 4030
1642.84 -198.53 4020
1652.45 -198.53 4020
1650.07 -197.098 3991
1602.23 -190.283 3853
1596.81 -188.554 3818
1591.22 -186.826 3783
1600.26 -186.826 3783
1602.08 -185.986 3766
1607.23 -185.542 3757
1591.27 -182.678 3699
1600.11 -182.678 3699
1598.52 -181.492 3675
1596.37 -180.258 3650
1587.95 -178.332 3611
1596.58 -178.332 3611
1574.55 -174.924 3542
1583.02 -174.924 3542
1625.37 -174.924 3542
1633.84 -174.924 3542
1642.31 -174.924 3542
1640.52 -173.838 3520
1648.94 -173.838 3520
2319.13 -194.777 3944
2328.56 -194.777 3944
2337.99 -194.777 3944
2336.11 -193.839 3925
2345.5 -193.839 3925
2344.08 -192.95 3907
2353.43 -192.95 3907
2330.11 -190.283 3853
2339.33 -190.283 3853
2370.48 -192.061 3889
2385.29 -192.505 3898
2394.61 -192.505 3898
2403.93 -192.505 3898
2413.26 -192.505 3898
2411.39 -191.616 3880
2420.67 -191.616 3880
2418.67 -190.727 3862
2422.25 -190.283 3853
2420.1 -189.394 3835
2429.28 -189.394 3835
2438.45 -189.394 3835
2447.62 -189.394 3835
2451.02 -188.95 3826
2438.31 -187.27 3792
2447.38 -187.27 3792
2450.61 -186.826 3783
2448.61 -185.986 3766
2457.61 -185.986 3766
2466.62 -185.986 3766
2475.62 -185.986 3766
2484.63 -185.986 3766
2482.38 -185.147 3749
2491.34 -185.147 3749
2500.31 -185.147 3749
2481.16 -183.073 3707
2484.65 -182.678 3699
2493.5 -182.678 3699
2502.34 -182.678 3699
2500.33 -181.887 3683
2503.68 -181.492 3675
2512.47 -181.492 3675
2521.26 -181.492 3675
2518.34 -180.653 3658
2527.09 -180.653 3658
2530.29 -180.258 3650
2539.02 -180.258 3650
2550.88 -179.863 3642
2559.58 -179.863 3642
2568.29 -179.863 3642
2606.88 -178.332 3611
2615.51 -178.332 3611
2624.15 -178.332 3611
2632.78 -178.332 3611
2641.42 -178.332 3611
2650.05 -178.332 3611
2670.47 -179.122 3627
2679.14 -179.122 3627
2717.46 -181.097 3667
2732.17 -181.492 3675
2764.83 -183.073 3707
2773.69 -183.073 3707
2789.31 -183.517 3716
2810.25 -184.307 3732
2832.01 -185.147 3749
2853.86 -185.986 3766
2862.87 -185.986 3766
2884.84 -186.826 3783
2893.88 -186.826 3783
-2618.29 -164.325 3497
-2609.93 -164.325 3497
-2601.56 -164.325 3497
-2593.2 -164.325 3497
-2584.84 -164.325 3497
-2576.48 -164.325 3497
-2557.83 -163.667 3483
-2544.38 -163.338 3476
-2536.07 -163.338 3476
-2511.76 -162.304 3454
-2503.5 -162.304 3454
-2490.18 -161.975 3447
-2481.94 -161.975 3447
-2463.65 -161.317 3433
-2415.39 -158.686 3377
-2388.06 -157.417 3350
-2434.05 -160.988 3426
-2450.64 -162.633 3461
-2442.36 -162.633 3461
-2454.48 -163.996 3490
-2451.04 -164.325 3497
-2442.68 -164.325 3497
-2444.76 -165.029 3512
-2436.36 -165.029 3512
-2480.5 -168.601 3588
-2471.92 -168.601 3588
-2468.15 -168.93 3595
-2459.55 -168.93 3595
-2483 -171.138 3642
-2474.29 -171.138 3642
-2476.41 -171.89 3658
-2479.13 -172.689 3675
-2486.48 -173.817 3699
-2477.63 -173.817 3699
-2474.13 -174.192 3707
-2476.57 -174.991 3724
-2478.26 -175.743 3740
-2469.32 -175.743 3740
-2460.38 -175.743 3740
-2451.43 -175.743 3740
-2442.49 -175.743 3740
-2428.34 -175.367 3732
-2430.44 -176.166 3749
-2426.64 -176.542 3757
-2417.66 -176.542 3757
-2408.67 -176.542 3757
-2399.69 -176.542 3757
-2374.8 -175.367 3732
-2365.87 -175.367 3732
-2351.89 -174.991 3724
-2332.29 -174.192 3707
-2318.42 -173.817 3699
-2042.14 -166.439 3542
-2050.9 -167.849 3572
-2042.36 -167.849 3572
-2033.81 -167.849 3572
-2025.27 -167.849 3572
-2016.73 -167.849 3572
-1978.95 -165.405 3520
-1933.59 -162.304 3454
-1917.53 -161.646 3440
-1920.96 -162.633 3461
-1912.68 -162.633 3461
-1904.4 -162.633 3461
-1896.13 -162.633 3461
-1887.85 -162.633 3461
-1852.96 -160.33 3412
-1682.39 -155.866 3317
-1677.49 -156.148 3323
-1669.54 -156.148 3323
-1668.6 -156.806 3337
-1660.62 -156.806 3337
-1665.51 -158.028 3363
-1657.47 -158.028 3363
-1649.43 -158.028 3363
-1631.63 -157.088 3343
-1623.63 -157.088 3343
-1615.64 -157.088 3343
-1634.09 -159.673 3398
-1625.97 -159.673 3398
-1617.84 -159.673 3398
-1609.72 -159.673 3398
-1611.49 -160.659 3419
-1626.29 -162.962 3468
-1621.73 -163.338 3476
-1613.42 -163.338 3476
-1608.34 -163.667 3483
-1606.44 -164.325 3497
-1614.99 -166.063 3534
-1606.54 -166.063 3534
-1601.7 -166.439 3542
-1603.58 -167.52 3565
-1598.19 -167.849 3572
-1589.64 -167.849 3572
-1581.1 -167.849 3572
-1569.48 -167.52 3565
-1560.95 -167.52 3565
-1548.94 -167.144 3557
-1536.97 -166.768 3549
-1531.93 -167.144 3557
-1523.43 -167.144 3557
-1514.92 -167.144 3557
-1506.42 -167.144 3557
-1497.91 -167.144 3557
-1489.4 -167.144 3557
-1474.65 -166.439 3542
-1466.18 -166.439 3542
-1457.71 -166.439 3542
-1449.24 -166.439 3542
-1437.52 -166.063 3534
-1429.07 -166.063 3534
-1411.77 -165.029 3512
-1403.38 -165.029 3512
-1389.02 -164.325 3497
-1375.13 -163.667 3483
-1364.05 -163.338 3476
-1355.74 -163.338 3476
-1341.61 -162.633 3461
-1330.64 -162.304 3454
-1317.02 -161.646 3440
-1300.81 -160.659 3419
-1292.63 -160.659 3419
-1271.31 -159.015 3384
-1257.99 -158.357 3370
-1237.69 -156.806 3337
-1229.71 -156.806 3337
-1219.17 -156.477 3330
-1206.47 -155.866 3317
-1193.48 -155.208 3303
-1185.59 -155.208 3303
-1175.55 -154.927 3297
-1160.93 -154.034 3278
-1150.63 -153.705 3271
-1142.81 -153.705 3271
-1132.91 -153.423 3265
-1118.55 -152.53 3246
-1106.34 -151.919 3233
-1098.61 -151.919 3233
-1088.86 -151.637 3227
-1079.13 -151.355 3221
-1065.11 -150.462 3202
-1049.52 -149.335 3178
-1041.92 -149.335 3178
-1034.32 -149.335 3178
-1026.72 -149.335 3178
-1019.13 -149.335 3178
-1011.53 -149.335 3178
-539.871 -80.3062 1709
-535.784 -80.3062 1709
-531.697 -80.3062 1709
-527.302 -80.2592 1708
-523.218 -80.2592 1708
-517.917 -80.0712 1704
-512.938 -79.9302 1701
-508.272 -79.8363 1699
-504.209 -79.8363 1699
-498.969 -79.6483 1695
-494.624 -79.6013 1694
-490.573 -79.6013 1694
-485.373 -79.4134 1690
-481.332 -79.4134 1690
-477.008 -79.3664 1689
-471.289 -79.0844 1683
-466.987 -79.0374 1682
-462.965 -79.0374 1682
-458.397 -78.9435 1680
-453.027 -78.7085 1675
-447.145 -78.3796 1668
-443.156 -78.3796 1668
-438.904 -78.3326 1667
-434.396 -78.2386 1665
-429.898 -78.1446 1663
-425.921 -78.1446 1663
-419.915 -77.7687 1655
-415.454 -77.6747 1653
-410.755 -77.5337 1650
-406.809 -77.5337 1650
-401.643 -77.2988 1645
-397.467 -77.2518 1644
-393.057 -77.1578 1642
-389.13 -77.1578 1642
-384.735 -77.0638 1640
-380.581 -77.0169 1639
-376.202 -76.9229 1637
-372.06 -76.8759 1636
-368.148 -76.8759 1636
-363.345 -76.6879 1632
-359.222 -76.6409 1631
-354.886 -76.547 1629
-350.991 -76.547 1629
-346.456 -76.406 1626
-341.304 -76.124 1620
-336.805 -75.9831 1617
-332.938 -75.9831 1617
-327.647 -75.6541 1610
-323.596 -75.6071 1609
-318.556 -75.3252 1603
-314.723 -75.3252 1603
-310.114 -75.1372 1599
-305.715 -74.9963 1596
-301.142 -74.8083 1592
-297.335 -74.8083 1592
-292.975 -74.6673 1589
-288.629 -74.5264 1586
-284.478 -74.4324 1584
-280.158 -74.2914 1581
-276.377 -74.2914 1581
-272.597 -74.2914 1581
-268.646 -74.2444 1580
-264.533 -74.1505 1578
-260.759 -74.1505 1578
-256.986 -74.1505 1578
-253.212 -74.1505 1578
-249.755 -74.2444 1580
-245.977 -74.2444 1580
-242.198 -74.2444 1580
-238.42 -74.2444 1580
-234.79 -74.2914 1581
-231.01 -74.2914 1581
-227.229 -74.2914 1581
-223.731 -74.3854 1583
-220.501 -74.5734 1587
-217.389 -74.8083 1592
-213.582 -74.8083 1592
-210.17 -74.9493 1595
-206.744 -75.0903 1598
-203.685 -75.3722 1604
-199.849 -75.3722 1604
-196.258 -75.4662 1606
-192.897 -75.6541 1610
-190.926 -76.406 1626
-187.037 -76.406 1626
-183.712 -76.6409 1631
-181.686 -77.4398 1648
-178.824 -77.9097 1658
-174.859 -77.9097 1658
-172.853 -78.8025 1677
-169.85 -79.2724 1687
-166.503 -79.6013 1694
-162.453 -79.6013 1694
-159.524 -80.1652 1706
-155.9 -80.4001 1711
-152.163 -80.5881 1715
-148.062 -80.5881 1715
-144.213 -80.7291 1718
-140.512 -80.964 1723
-137.263 -81.4809 1734
-133.116 -81.4809 1734
-129.788 -81.9978 1745
-126.047 -82.2797 1751
-122.486 -82.7027 1760
-118.278 -82.7027 1760
-114.523 -83.0316 1767
-110.422 -83.1256 1769
-106.192 -83.1256 1769
-101.962 -83.1256 1769
-179.023 -174.991 3724
-170.483 -175.367 3732
-161.559 -175.367 3732
-152.634 -175.367 3732
-143.094 -174.615 3716
-134.208 -174.615 3716
-124.209 -173.065 3683
-115.402 -173.065 3683
-106.594 -173.065 3683
-97.7873 -173.065 3683
-88.9801 -173.065 3683
-80.173 -173.065 3683
-71.3658 -173.065 3683
-62.6945 -173.441 3691
-53.8682 -173.441 3691
-45.1396 -173.817 3699
-36.2941 -173.817 3699
-27.5081 -174.192 3707
-18.6435 -174.192 3707
-9.77893 -174.192 3707
-0.914374 -174.192 3707
7.93303 -173.817 3699
16.7785 -173.817 3699
25.5685 -173.441 3691
34.3202 -173.065 3683
42.94 -172.313 3667
51.7089 -172.313 3667
60.4779 -172.313 3667
69.2468 -172.313 3667
77.8242 -171.89 3658
86.5716 -171.89 3658
95.319 -171.89 3658
103.839 -171.514 3650
112.567 -171.514 3650
121.561 -171.89 3658
130.309 -171.89 3658
139.056 -171.89 3658
147.803 -171.89 3658
156.551 -171.89 3658
165.298 -171.89 3658
174.045 -171.89 3658
182.393 -171.514 3650
191.54 -171.89 3658
200.78 -172.313 3667
209.549 -172.313 3667
218.794 -172.689 3675
227.583 -172.689 3675
236.371 -172.689 3675
245.159 -172.689 3675
253.947 -172.689 3675
263.307 -173.065 3683
272.114 -173.065 3683
280.921 -173.065 3683
290.357 -173.441 3691
299.184 -173.441 3691
308.01 -173.441 3691
316.836 -173.441 3691
325.663 -173.441 3691
334.489 -173.441 3691
343.315 -173.441 3691
351.378 -173.065 3683
359.403 -172.689 3675
368.191 -172.689 3675
376.979 -172.689 3675
385.767 -172.689 3675
394.555 -172.689 3675
403.343 -172.689 3675
412.131 -172.689 3675
420.003 -172.313 3667
427.72 -171.89 3658
438.495 -172.689 3675
447.284 -172.689 3675
456.072 -172.689 3675
464.86 -172.689 3675
473.648 -172.689 3675
481.385 -172.313 3667
490.154 -172.313 3667
498.923 -172.313 3667
508.8 -172.689 3675
518.715 -173.065 3683
527.522 -173.065 3683
536.329 -173.065 3683
543.952 -172.689 3675
546.724 -170.809 3635
555.416 -170.809 3635
960.312 -188.9 4020
976.922 -190.263 4049
986.605 -190.263 4049
996.287 -190.263 4049
1005.97 -190.263 4049
1015.65 -190.263 4049
1025.33 -190.263 4049
1025.05 -188.43 4010
1029.73 -187.538 3991
1039.28 -187.538 3991
1041.46 -186.222 3963
1050.94 -186.222 3963
1052.92 -184.906 3935
1054.78 -183.591 3907
1064.12 -183.591 3907
1073.46 -183.591 3907
1090.56 -184.906 3935
1113.11 -187.115 3982
1122.63 -187.115 3982
1132.16 -187.115 3982
1141.68 -187.115 3982
1151.2 -187.115 3982
1160.72 -187.115 3982
1153.49 -184.436 3925
1174.14 -186.222 3963
1186.3 -186.645 3972
1195.8 -186.645 3972
1205.3 -186.645 3972
1212.04 -186.222 3963
1224.3 -186.645 3972
1251.81 -189.37 4030
1261.45 -189.37 4030
1273.92 -189.793 4039
1299.47 -192.143 4089
1309.25 -192.143 4089
1319.03 -192.143 4089
1328.8 -192.143 4089
1475.48 -192.143 4089
1485.25 -192.143 4089
1495.03 -192.143 4089
1504.81 -192.143 4089
1514.59 -192.143 4089
1524.37 -192.143 4089
1534.14 -192.143 4089
1543.92 -192.143 4089
1553.7 -192.143 4089
1563.48 -192.143 4089
1573.26 -192.143 4089
1579.16 -191.673 4079
1569.83 -189.37 4030
1579.47 -189.37 4030
1570.18 -187.115 3982
1572.16 -186.222 3963
1566.47 -184.436 3925
1575.86 -184.436 3925
1577.97 -183.591 3907
1598.69 -184.906 3935
1608.1 -184.906 3935
1617.51 -184.906 3935
1626.92 -184.906 3935
1602.23 -181.053 3853
1567.95 -176.166 3749
1573.13 -175.743 3740
1582.07 -175.743 3740
1576.98 -174.192 3707
1585.84 -174.192 3707
1573.63 -171.89 3658
1582.37 -171.89 3658
1581.12 -170.809 3635
1575.81 -169.306 3603
1570.8 -167.849 3572
1579.34 -167.849 3572
1574.55 -166.439 3542
1583.02 -166.439 3542
1625.37 -166.439 3542
1633.84 -166.439 3542
1642.31 -166.439 3542
1640.52 -165.405 3520
1648.94 -165.405 3520
2255.03 -180.207 3835
2317.34 -184.436 3925
2326.73 -184.436 3925
2336.11 -184.436 3925
2340.12 -184.013 3916
2327.89 -182.322 3880
2315.48 -180.63 3844
2330.11 -181.053 3853
2339.33 -181.053 3853
2370.48 -182.745 3889
2385.29 -183.168 3898
2394.61 -183.168 3898
2403.93 -183.168 3898
2413.26 -183.168 3898
2411.39 -182.322 3880
2420.67 -182.322 3880
2418.67 -181.476 3862
2422.25 -181.053 3853
2420.1 -180.207 3835
2429.28 -180.207 3835
2438.45 -180.207 3835
2447.62 -180.207 3835
2451.02 -179.784 3826
2438.31 -178.187 3792
2447.38 -178.187 3792
2450.61 -177.764 3783
2448.61 -176.965 3766
2457.61 -176.965 3766
2466.62 -176.965 3766
2475.62 -176.965 3766
2484.63 -176.965 3766
2482.38 -176.166 3749
2491.34 -176.166 3749
2488.97 -175.367 3732
2481.16 -174.192 3707
2479.28 -173.441 3691
2488.11 -173.441 3691
2491.52 -173.065 3683
2494.9 -172.689 3675
2503.68 -172.689 3675
2500.85 -171.89 3658
2509.6 -171.89 3658
2599.42 -166.439 3542
2641.75 -168.601 3588
2650.33 -168.601 3588
2675.96 -169.681 3611
2702.44 -170.809 3635
2752.9 -173.441 3691
2761.72 -173.441 3691
2789.31 -174.615 3716
2810.25 -175.367 3732
2832.01 -176.166 3749
2853.86 -176.965 3766
2862.87 -176.965 3766
2884.84 -177.764 3783
2893.88 -177.764 3783
-2651.98 -157.954 3542
-2643.51 -157.954 3542
-2635.04 -157.954 3542
-2599.14 -156.304 3505
-2590.75 -156.304 3505
-2582.37 -156.304 3505
-2568.12 -155.947 3497
-2544.38 -155.011 3476
-2536.07 -155.011 3476
-2521.94 -154.654 3468
-2503.5 -154.03 3454
-2490.18 -153.718 3447
-2481.94 -153.718 3447
-2458.63 -152.781 3426
-2425.4 -151.22 3391
-2388.06 -149.392 3350
-2439.02 -153.093 3433
-2455.59 -154.654 3468
-2447.3 -154.654 3468
-2459.4 -155.947 3497
-2467.16 -156.973 3520
-2458.75 -156.973 3520
-2455.2 -157.285 3527
-2446.77 -157.285 3527
-2485.34 -160.318 3595
-2476.75 -160.318 3595
-2473.64 -160.674 3603
-2470.5 -161.031 3611
-2483 -162.414 3642
-2474.29 -162.414 3642
-2482.51 -163.529 3667
-2484.53 -164.242 3683
-2486.48 -164.956 3699
-2477.63 -164.956 3699
-2474.13 -165.312 3707
-2471.25 -165.714 3716
-2467.66 -166.07 3724
-2458.76 -166.07 3724
-2455.11 -166.427 3732
-2446.19 -166.427 3732
-2437.27 -166.427 3732
-2417.93 -165.714 3716
-2414.23 -166.07 3724
-2421.47 -167.185 3749
-2412.51 -167.185 3749
-2403.54 -167.185 3749
-2388.83 -166.784 3740
-2374.8 -166.427 3732
-2365.87 -166.427 3732
-2341.16 -165.312 3707
-2327.26 -164.956 3699
-2318.42 -164.956 3699
-2033.24 -156.616 3512
-2042.14 -157.954 3542
-2050.9 -159.292 3572
-2042.36 -159.292 3572
-2033.81 -159.292 3572
-2025.27 -159.292 3572
-2016.73 -159.292 3572
-1970.52 -156.304 3505
-1917.91 -152.781 3426
-1909.72 -152.781 3426
-1901.53 -152.781 3426
-1893.34 -152.781 3426
-1885.14 -152.781 3426
-1876.95 -152.781 3426
-1868.76 -152.781 3426
-1852.96 -152.157 3412
-1796.68 -148.188 3323
-1690.32 -147.92 3317
-1682.39 -147.92 3317
-1677.49 -148.188 3323
-1669.54 -148.188 3323
-1668.6 -148.812 3337
-1660.62 -148.812 3337
-1665.51 -149.972 3363
-1657.47 -149.972 3363
-1649.43 -149.972 3363
-1635.04 -149.392 3350
-1627.03 -149.392 3350
-1619.02 -149.392 3350
-1607.64 -149.08 3343
-1603 -149.392 3350
-1601.18 -149.972 3363
-1593.14 -149.972 3363
-1585.09 -149.972 3363
-1580.33 -150.284 3370
-1575.54 -150.596 3377
-1567.47 -150.596 3377
-1559.39 -150.596 3377
-1573.83 -152.781 3426
-1575.23 -153.718 3447
-1566.99 -153.718 3447
-1571.86 -155.011 3476
-1566.69 -155.323 3483
-1568.21 -156.304 3505
-1559.83 -156.304 3505
-1551.45 -156.304 3505
-1536.46 -155.635 3490
-1528.11 -155.635 3490
-1519.77 -155.635 3490
-1517.92 -156.304 3505
-1509.54 -156.304 3505
-1501.16 -156.304 3505
-1492.77 -156.304 3505
-1484.39 -156.304 3505
-1476.01 -156.304 3505
-1467.63 -156.304 3505
-1459.25 -156.304 3505
-1450.87 -156.304 3505
-1442.49 -156.304 3505
-1434.1 -156.304 3505
-1425.72 -156.304 3505
-1417.34 -156.304 3505
-1402.93 -155.635 3490
-1394.58 -155.635 3490
-1383.46 -155.323 3483
-1366.44 -154.342 3461
-1358.17 -154.342 3461
-1347.16 -154.03 3454
-1338.9 -154.03 3454
-1330.64 -154.03 3454
-1314.34 -153.093 3433
-1300.81 -152.469 3419
-1292.63 -152.469 3419
-1271.31 -150.908 3384
-1257.99 -150.284 3370
-1237.69 -148.812 3337
-1229.71 -148.812 3337
-1216.6 -148.188 3323
-1206.47 -147.92 3317
-1191.32 -147.029 3297
-1183.43 -147.029 3297
-1173.05 -146.716 3290
-1160.93 -146.181 3278
-1150.63 -145.869 3271
-1142.81 -145.869 3271
-1132.91 -145.602 3265
-1120.62 -145.022 3252
-1106.34 -144.174 3233
-1098.61 -144.174 3233
-1088.86 -143.907 3227
-1081.14 -143.907 3227
-1065.11 -142.792 3202
-1051.5 -141.989 3184
-1043.89 -141.989 3184
-1034.32 -141.722 3178
-1028.66 -141.989 3184
-1021.05 -141.989 3184
-1013.44 -141.989 3184
-539.871 -76.2122 1709
-535.784 -76.2122 1709
-531.697 -76.2122 1709
-527.302 -76.1676 1708
-523.218 -76.1676 1708
-517.917 -75.9893 1704
-513.24 -75.9001 1702
-508.272 -75.7663 1699
-504.209 -75.7663 1699
-499.558 -75.6771 1697
-494.916 -75.5879 1695
-490.573 -75.5433 1694
-485.373 -75.3649 1690
-481.332 -75.3649 1690
-477.008 -75.3203 1689
-471.849 -75.142 1685
-466.987 -75.0082 1682
-462.965 -75.0082 1682
-458.397 -74.919 1680
-453.568 -74.7852 1677
-447.145 -74.3839 1668
-443.156 -74.3839 1668
-438.904 -74.3393 1667
-434.396 -74.2501 1665
-429.898 -74.1609 1663
-425.921 -74.1609 1663
-419.915 -73.8041 1655
-415.203 -73.6703 1652
-410.755 -73.5812 1650
-406.809 -73.5812 1650
-401.398 -73.3136 1644
-397.467 -73.3136 1644
-393.057 -73.2244 1642
-389.13 -73.2244 1642
-384.735 -73.1352 1640
-380.581 -73.0906 1639
-376.202 -73.0014 1637
-371.605 -72.8676 1634
-367.698 -72.8676 1634
-363.345 -72.7785 1632
-358.782 -72.6447 1629
-354.668 -72.6001 1628
-350.775 -72.6001 1628
-346.03 -72.4217 1624
-341.304 -72.2433 1620
-336.388 -72.0203 1615
-332.526 -72.0203 1615
-327.647 -71.7974 1610
-323.596 -71.7528 1609
-318.556 -71.4852 1603
-314.723 -71.4852 1603
-310.114 -71.3068 1599
-305.715 -71.173 1596
-301.142 -70.9947 1592
-297.335 -70.9947 1592
-292.975 -70.8609 1589
-288.629 -70.7271 1586
-284.298 -70.5933 1583
-280.158 -70.5041 1581
-276.377 -70.5041 1581
-272.597 -70.5041 1581
-268.646 -70.4595 1580
-264.533 -70.3703 1578
-260.759 -70.3703 1578
-256.986 -70.3703 1578
-253.212 -70.3703 1578
-249.755 -70.4595 1580
-245.977 -70.4595 1580
-242.198 -70.4595 1580
-238.42 -70.4595 1580
-234.79 -70.5041 1581
-231.302 -70.5933 1583
-227.516 -70.5933 1583
-223.731 -70.5933 1583
-220.501 -70.7717 1587
-217.389 -70.9947 1592
-213.582 -70.9947 1592
-210.302 -71.173 1596
-206.744 -71.2622 1598
-203.685 -71.5298 1604
-199.849 -71.5298 1604
-196.258 -71.619 1606
-193.137 -71.8866 1612
-191.161 -72.6001 1628
-187.268 -72.6001 1628
-184.05 -72.8676 1634
-182.789 -73.9379 1658
-179.903 -74.3839 1668
-175.914 -74.3839 1668
-173.677 -75.142 1685
-170.554 -75.5433 1694
-166.995 -75.7663 1699
-162.932 -75.7663 1699
-159.804 -76.2122 1709
-155.9 -76.3014 1711
-152.252 -76.5244 1716
-148.148 -76.5244 1716
-144.213 -76.6136 1718
-140.512 -76.8366 1723
-137.263 -77.3271 1734
-133.116 -77.3271 1734
-129.788 -77.8176 1745
-126.047 -78.0852 1751
-122.486 -78.4866 1760
-118.278 -78.4866 1760
-114.523 -78.7987 1767
-110.297 -78.7987 1767
-106.072 -78.7987 1767
-101.846 -78.7987 1767
-179.023 -166.07 3724
-170.483 -166.427 3732
-161.559 -166.427 3732
-152.634 -166.427 3732
-143.094 -165.714 3716
-134.208 -165.714 3716
-124.209 -164.242 3683
-115.402 -164.242 3683
-106.594 -164.242 3683
-97.7873 -164.242 3683
-88.9801 -164.242 3683
-80.173 -164.242 3683
-71.3658 -164.242 3683
-62.5586 -164.242 3683
-53.7515 -164.242 3683
-45.0419 -164.599 3691
-36.2941 -164.956 3699
-27.5081 -165.312 3707
-18.6435 -165.312 3707
-9.77893 -165.312 3707
-0.912401 -164.956 3699
7.93303 -164.956 3699
16.7785 -164.956 3699
25.5685 -164.599 3691
34.3202 -164.242 3683
42.94 -163.529 3667
51.7089 -163.529 3667
60.4779 -163.529 3667
69.2468 -163.529 3667
77.8242 -163.127 3658
86.5716 -163.127 3658
95.319 -163.127 3658
103.839 -162.77 3650
112.567 -162.77 3650
121.561 -163.127 3658
130.309 -163.127 3658
139.056 -163.127 3658
147.803 -163.127 3658
156.551 -163.127 3658
165.298 -163.127 3658
174.045 -163.127 3658
182.393 -162.77 3650
191.54 -163.127 3658
200.78 -163.529 3667
209.549 -163.529 3667
218.794 -163.885 3675
227.583 -163.885 3675
236.371 -163.885 3675
245.159 -163.885 3675
253.947 -163.885 3675
263.307 -164.242 3683
272.114 -164.242 3683
280.921 -164.242 3683
290.357 -164.599 3691
299.184 -164.599 3691
308.01 -164.599 3691
316.836 -164.599 3691
325.663 -164.599 3691
334.489 -164.599 3691
343.315 -164.599 3691
351.378 -164.242 3683
359.403 -163.885 3675
368.191 -163.885 3675
376.979 -163.885 3675
385.767 -163.885 3675
394.555 -163.885 3675
403.343 -163.885 3675
412.131 -163.885 3675
420.919 -163.885 3675
427.72 -163.127 3658
439.45 -164.242 3683
448.257 -164.242 3683
457.064 -164.242 3683
465.872 -164.242 3683
473.648 -163.885 3675
481.385 -163.529 3667
490.154 -163.529 3667
498.923 -163.529 3667
507.692 -163.529 3667
516.461 -163.529 3667
525.23 -163.529 3667
533.999 -163.529 3667
542.768 -163.529 3667
546.724 -162.102 3635
555.416 -162.102 3635
555.573 -159.649 3580
612.206 -156.616 3512
620.605 -156.616 3512
632.943 -157.597 3534
641.394 -157.597 3534
649.845 -157.597 3534
658.296 -157.597 3534
957.923 -178.825 4010
974.51 -180.118 4039
984.168 -180.118 4039
993.826 -180.118 4039
1003.48 -180.118 4039
1013.14 -180.118 4039
1022.8 -180.118 4039
1025.05 -178.825 4010
1029.73 -177.977 3991
1039.28 -177.977 3991
1041.46 -176.729 3963
1050.94 -176.729 3963
1052.92 -175.48 3935
1054.78 -174.231 3907
1064.12 -174.231 3907
1073.46 -174.231 3907
1093.06 -175.881 3944
1113.11 -177.576 3982
1127.99 -178.423 4001
1137.56 -178.423 4001
1147.13 -178.423 4001
1151.2 -177.576 3982
1160.72 -177.576 3982
1170.24 -177.576 3982
1179.77 -177.576 3982
1189.29 -177.576 3982
1198.81 -177.576 3982
1208.33 -177.576 3982
1214.8 -177.13 3972
1233.23 -178.423 4001
1251.81 -179.716 4030
1261.45 -179.716 4030
1277.08 -180.564 4049
1299.47 -182.347 4089
1309.25 -182.347 4089
1319.03 -182.347 4089
1328.8 -182.347 4089
1471.87 -181.902 4079
1481.62 -181.902 4079
1495.03 -182.347 4089
1504.81 -182.347 4089
1514.59 -182.347 4089
1524.37 -182.347 4089
1534.14 -182.347 4089
1543.92 -182.347 4089
1553.7 -182.347 4089
1563.48 -182.347 4089
1569.41 -181.902 4079
1579.16 -181.902 4079
1573.33 -180.118 4039
1582.99 -180.118 4039
1589.1 -179.716 4030
1583.27 -177.977 3991
1534.14 -171.422 3844
1550.56 -172.225 3862
1559.8 -172.225 3862
1572.69 -172.626 3871
1581.95 -172.626 3871
1591.2 -172.626 3871
1600.46 -172.626 3871
1583.93 -169.861 3809
1547.04 -164.956 3699
1552.52 -164.599 3691
1561.34 -164.599 3691
1566.77 -164.242 3683
1564.88 -163.127 3658
1563.73 -162.102 3635
1572.43 -162.102 3635
1563.72 -160.318 3595
1562.26 -159.292 3572
1557.61 -157.954 3542
1566.08 -157.954 3542
1574.55 -157.954 3542
1583.02 -157.954 3542
1558.24 -154.654 3468
1566.53 -154.654 3468
1578.45 -155.011 3476
1586.77 -155.011 3476
1625.37 -157.954 3542
1633.84 -157.954 3542
1642.31 -157.954 3542
1640.52 -156.973 3520
1648.94 -156.973 3520
1646.53 -155.947 3497
1654.89 -155.947 3497
1663.25 -155.947 3497
2255.03 -171.02 3835
2290.77 -173.027 3880
2300.05 -173.027 3880
2309.33 -173.027 3880
2318.61 -173.027 3880
2295.49 -170.619 3826
2304.64 -170.619 3826
2330.11 -171.823 3853
2339.33 -171.823 3853
2348.54 -171.823 3853
2379.78 -173.429 3889
2389.08 -173.429 3889
2398.38 -173.429 3889
2407.68 -173.429 3889
2411.39 -173.027 3880
2420.67 -173.027 3880
2418.67 -172.225 3862
2416.59 -171.422 3844
2420.1 -171.02 3835
2429.28 -171.02 3835
2438.45 -171.02 3835
2447.62 -171.02 3835
2445.9 -170.262 3818
2438.31 -169.103 3792
2447.38 -169.103 3792
2450.61 -168.702 3783
2448.61 -167.943 3766
2457.61 -167.943 3766
2466.62 -167.943 3766
2475.62 -167.943 3766
2473.41 -167.185 3749
2465.83 -166.07 3724
2474.73 -166.07 3724
2472.3 -165.312 3707
2470.45 -164.599 3691
2468.53 -163.885 3675
2477.32 -163.885 3675
2480.7 -163.529 3667
2477.92 -162.77 3650
1946.34 -126.515 2837
1963.46 -127.184 2852
1970.28 -127.184 2852
1977.1 -127.184 2852
1983.92 -127.184 2852
2021.45 -129.146 2896
2028.37 -129.146 2896
2035.3 -129.146 2896
2652.99 -159.649 3580
2684.59 -161.031 3611
2711.13 -162.102 3635
2719.82 -162.102 3635
2776.55 -164.956 3699
2804.22 -166.07 3724
2832.01 -167.185 3749
2853.86 -167.943 3766
2862.87 -167.943 3766
2877.97 -168.3 3774
2887 -168.3 3774
-2651.98 -149.469 3542
-2643.51 -149.469 3542
-2635.04 -149.469 3542
-2626.57 -149.469 3542
-2618.1 -149.469 3542
-2582.37 -147.908 3505
-2568.12 -147.57 3497
-2544.38 -146.684 3476
-2536.07 -146.684 3476
-2521.94 -146.347 3468
-2503.5 -145.756 3454
-2490.18 -145.46 3447
-2481.94 -145.46 3447
-2458.63 -144.574 3426
-2425.4 -143.097 3391
-2388.06 -141.367 3350
-2444 -145.165 3440
-2455.59 -146.347 3468
-2457.89 -146.98 3483
-2475.58 -148.541 3520
-2472.07 -148.836 3527
-2463.63 -148.836 3527
-2465.64 -149.469 3542
-2467.58 -150.102 3557
-2485.34 -151.706 3595
-2476.75 -151.706 3595
-2479.13 -152.381 3611
-2470.5 -152.381 3611
-2483 -153.689 3642
-2474.29 -153.689 3642
-2482.51 -154.744 3667
-2484.53 -155.419 3683
-2486.48 -156.095 3699
-2477.63 -156.095 3699
-2474.13 -156.432 3707
-2471.25 -156.812 3716
-2467.66 -157.15 3724
-2458.76 -157.15 3724
-2455.11 -157.487 3732
-2446.19 -157.487 3732
-2437.27 -157.487 3732
-2417.93 -156.812 3716
-2414.23 -157.15 3724
-2421.47 -158.205 3749
-2412.51 -158.205 3749
-2403.54 -158.205 3749
-2388.83 -157.825 3740
-2374.8 -157.487 3732
-2365.87 -157.487 3732
-2341.16 -156.432 3707
-2327.26 -156.095 3699
-2318.42 -156.095 3699
-2041.29 -147.57 3497
-2032.92 -147.57 3497
-2033.24 -148.203 3512
-2042.14 -149.469 3542
-2050.9 -150.735 3572
-2042.36 -150.735 3572
-2033.81 -150.735 3572
-2025.27 -150.735 3572
-2016.73 -150.735 3572
-1970.52 -147.908 3505
-1917.91 -144.574 3426
-1909.72 -144.574 3426
-1901.53 -144.574 3426
-1893.34 -144.574 3426
-1885.14 -144.574 3426
-1876.95 -144.574 3426
-1868.76 -144.574 3426
-1852.96 -143.983 3412
-1796.68 -140.228 3323
-1777.97 -139.384 3303
-1770.07 -139.384 3303
-1762.17 -139.384 3303
-1751.09 -139.131 3297
-1736.33 -138.582 3284
-1718.48 -137.78 3265
-1710.67 -137.78 3265
-1688.31 -137.232 3252
-1683.63 -137.485 3258
-1682.53 -138.033 3271
-1674.7 -138.033 3271
-1690.32 -139.975 3317
-1682.39 -139.975 3317
-1677.49 -140.228 3323
-1669.54 -140.228 3323
-1668.6 -140.818 3337
-1667.09 -141.367 3350
-1672.45 -142.506 3377
-1664.37 -142.506 3377
-1656.3 -142.506 3377
-1638.46 -141.662 3357
-1630.43 -141.662 3357
-1619.02 -141.367 3350
-1607.64 -141.072 3343
-1603 -141.367 3350
-1601.18 -141.916 3363
-1593.14 -141.916 3363
-1585.09 -141.916 3363
-1580.33 -142.211 3370
-1575.54 -142.506 3377
-1567.47 -142.506 3377
-1559.39 -142.506 3377
-1573.83 -144.574 3426
-1575.23 -145.46 3447
-1566.99 -145.46 3447
-1571.86 -146.684 3476
-1566.69 -146.98 3483
-1568.21 -147.908 3505
-1559.83 -147.908 3505
-1551.45 -147.908 3505
-1536.46 -147.275 3490
-1528.11 -147.275 3490
-1519.77 -147.275 3490
-1517.92 -147.908 3505
-1509.54 -147.908 3505
-1501.16 -147.908 3505
-1492.77 -147.908 3505
-1484.39 -147.908 3505
-1476.01 -147.908 3505
-1467.63 -147.908 3505
-1459.25 -147.908 3505
-1450.87 -147.908 3505
-1442.49 -147.908 3505
-1434.1 -147.908 3505
-1425.72 -147.908 3505
-1417.34 -147.908 3505
-1402.93 -147.275 3490
-1394.58 -147.275 3490
-1383.46 -146.98 3483
-1366.44 -146.051 3461
-1358.17 -146.051 3461
-1347.16 -145.756 3454
-1338.9 -145.756 3454
-1330.64 -145.756 3454
-1314.34 -144.87 3433
-1300.81 -144.279 3419
-1292.63 -144.279 3419
-1271.31 -142.802 3384
-1257.99 -142.211 3370
-1237.69 -140.818 3337
-1229.71 -140.818 3337
-1216.6 -140.228 3323
-1206.47 -139.975 3317
-1191.32 -139.131 3297
-1183.43 -139.131 3297
-1173.05 -138.835 3290
-1160.93 -138.329 3278
-1150.63 -138.033 3271
-1142.81 -138.033 3271
-1134.99 -138.033 3271
-1122.69 -137.485 3258
-1108.4 -136.683 3239
-1100.65 -136.683 3239
-1090.88 -136.43 3233
-1081.14 -136.177 3227
-1065.11 -135.122 3202
-1053.49 -134.615 3190
-1045.86 -134.615 3190
-1036.28 -134.362 3184
-1028.66 -134.362 3184
-1021.05 -134.362 3184
-1013.44 -134.362 3184
-539.871 -72.1183 1709
-535.784 -72.1183 1709
-531.697 -72.1183 1709
-527.302 -72.0761 1708
-523.218 -72.0761 1708
-517.917 -71.9073 1704
-513.24 -71.8229 1702
-508.87 -71.7807 1701
-504.803 -71.7807 1701
-499.558 -71.6119 1697
-494.916 -71.5275 1695
-490.573 -71.4853 1694
-485.373 -71.3165 1690
-481.332 -71.3165 1690
-477.291 -71.3165 1690
-471.849 -71.1055 1685
-466.987 -70.9789 1682
-462.965 -70.9789 1682
-458.397 -70.8945 1680
-453.568 -70.7679 1677
-447.145 -70.3882 1668
-443.156 -70.3882 1668
-438.904 -70.346 1667
-434.396 -70.2616 1665
-429.898 -70.1772 1663
-425.921 -70.1772 1663
-419.915 -69.8396 1655
-415.203 -69.713 1652
-410.755 -69.6286 1650
-406.809 -69.6286 1650
-401.398 -69.3754 1644
-397.467 -69.3754 1644
-393.057 -69.291 1642
-389.13 -69.291 1642
-384.735 -69.2066 1640
-380.581 -69.1644 1639
-376.202 -69.08 1637
-371.605 -68.9534 1634
-367.698 -68.9534 1634
-363.345 -68.869 1632
-358.782 -68.7424 1629
-354.668 -68.7002 1628
-350.775 -68.7002 1628
-346.03 -68.5314 1624
-341.304 -68.3626 1620
-336.388 -68.1516 1615
-332.526 -68.1516 1615
-327.647 -67.9406 1610
-323.596 -67.8984 1609
-318.556 -67.6452 1603
-314.723 -67.6452 1603
-310.114 -67.4764 1599
-305.715 -67.3498 1596
-301.142 -67.181 1592
-297.335 -67.181 1592
-292.975 -67.0544 1589
-288.629 -66.9278 1586
-284.298 -66.8012 1583
-280.158 -66.7168 1581
-276.377 -66.7168 1581
-272.597 -66.7168 1581
-268.646 -66.6746 1580
-264.533 -66.5902 1578
-260.759 -66.5902 1578
-256.986 -66.5902 1578
-253.212 -66.5902 1578
-249.755 -66.6746 1580
-245.977 -66.6746 1580
-242.198 -66.6746 1580
-238.42 -66.6746 1580
-234.79 -66.7168 1581
-231.302 -66.8012 1583
-227.516 -66.8012 1583
-223.731 -66.8012 1583
-220.501 -66.97 1587
-217.389 -67.181 1592
-213.582 -67.181 1592
-210.302 -67.3498 1596
-206.744 -67.4342 1598
-203.685 -67.6874 1604
-199.849 -67.6874 1604
-196.258 -67.7718 1606
-193.137 -68.025 1612
-191.161 -68.7002 1628
-187.268 -68.7002 1628
-184.05 -68.9534 1634
-182.789 -69.9662 1658
-179.903 -70.3882 1668
-175.914 -70.3882 1668
-173.677 -71.1055 1685
-170.554 -71.4853 1694
-166.995 -71.6963 1699
-162.932 -71.6963 1699
-159.804 -72.1183 1709
-155.9 -72.2027 1711
-152.252 -72.4137 1716
-148.148 -72.4137 1716
-144.213 -72.4981 1718
-140.512 -72.7091 1723
-137.263 -73.1733 1734
-133.116 -73.1733 1734
-129.788 -73.6375 1745
-126.047 -73.8907 1751
-122.486 -74.2705 1760
-118.278 -74.2705 1760
-114.523 -74.5659 1767
-110.297 -74.5659 1767
-106.072 -74.5659 1767
-101.846 -74.5659 1767
-179.023 -157.15 3724
-170.483 -157.487 3732
-161.559 -157.487 3732
-152.634 -157.487 3732
-143.094 -156.812 3716
-134.208 -156.812 3716
-124.209 -155.419 3683
-115.652 -155.757 3691
-106.826 -155.757 3691
-97.9997 -155.757 3691
-89.1734 -155.757 3691
-80.173 -155.419 3683
-71.3658 -155.419 3683
-62.5586 -155.419 3683
-53.7515 -155.419 3683
-45.1396 -156.095 3699
-36.2941 -156.095 3699
-27.5081 -156.432 3707
-18.6435 -156.432 3707
-9.77893 -156.432 3707
-0.912401 -156.095 3699
7.93303 -156.095 3699
16.7785 -156.095 3699
25.5685 -155.757 3691
34.3948 -155.757 3691
42.94 -154.744 3667
51.7089 -154.744 3667
60.4779 -154.744 3667
69.2468 -154.744 3667
77.8242 -154.364 3658
86.5716 -154.364 3658
95.319 -154.364 3658
103.839 -154.027 3650
112.567 -154.027 3650
121.561 -154.364 3658
130.309 -154.364 3658
139.056 -154.364 3658
147.803 -154.364 3658
156.551 -154.364 3658
165.298 -154.364 3658
174.045 -154.364 3658
182.393 -154.027 3650
191.54 -154.364 3658
200.78 -154.744 3667
209.549 -154.744 3667
218.794 -155.082 3675
227.583 -155.082 3675
236.371 -155.082 3675
245.159 -155.082 3675
253.947 -155.082 3675
263.307 -155.419 3683
272.114 -155.419 3683
280.921 -155.419 3683
290.357 -155.757 3691
299.184 -155.757 3691
308.01 -155.757 3691
316.836 -155.757 3691
325.663 -155.757 3691
334.489 -155.757 3691
343.315 -155.757 3691
351.378 -155.419 3683
359.403 -155.082 3675
368.191 -155.082 3675
376.979 -155.082 3675
385.767 -155.082 3675
395.414 -155.419 3683
404.221 -155.419 3683
413.029 -155.419 3683
420.919 -155.082 3675
428.772 -154.744 3667
439.45 -155.419 3683
448.257 -155.419 3683
457.064 -155.419 3683
465.872 -155.419 3683
473.648 -155.082 3675
481.385 -154.744 3667
490.154 -154.744 3667
498.923 -154.744 3667
507.692 -154.744 3667
516.461 -154.744 3667
525.23 -154.744 3667
533.999 -154.744 3667
542.768 -154.744 3667
546.724 -153.394 3635
555.416 -153.394 3635
555.573 -151.073 3580
556.885 -149.132 3534
556.058 -146.684 3476
566.643 -147.275 3490
577.46 -147.908 3505
585.842 -147.908 3505
594.223 -147.908 3505
603.808 -148.203 3512
612.206 -148.203 3512
620.605 -148.203 3512
632.943 -149.132 3534
641.394 -149.132 3534
649.845 -149.132 3534
658.296 -149.132 3534
957.923 -169.219 4010
974.51 -170.442 4039
984.168 -170.442 4039
993.826 -170.442 4039
1003.48 -170.442 4039
1013.14 -170.442 4039
1022.8 -170.442 4039
1025.05 -169.219 4010
1029.73 -168.417 3991
1039.28 -168.417 3991
1041.46 -167.235 3963
1050.94 -167.235 3963
1052.92 -166.054 3935
1054.78 -164.872 3907
1064.12 -164.872 3907
1073.46 -164.872 3907
1098.32 -167.235 3963
1120.94 -169.219 4010
1130.53 -169.219 4010
1140.12 -169.219 4010
1149.71 -169.219 4010
1159.3 -169.219 4010
1168.88 -169.219 4010
1178.47 -169.219 4010
1191.03 -169.641 4020
1200.64 -169.641 4020
1210.25 -169.641 4020
1216.83 -169.219 4010
1220.61 -168.417 3991
1233.23 -168.839 4001
1251.81 -170.062 4030
1261.45 -170.062 4030
1277.08 -170.864 4049
1299.47 -172.552 4089
1309.25 -172.552 4089
1319.03 -172.552 4089
1328.8 -172.552 4089
1563.68 -170.442 4039
1573.33 -170.442 4039
1582.99 -170.442 4039
1589.1 -170.062 4030
1594.77 -169.641 4020
1541.33 -162.973 3862
1554.18 -163.353 3871
1563.43 -163.353 3871
1572.69 -163.353 3871
1581.95 -163.353 3871
1591.2 -163.353 3871
1593.02 -162.593 3853
1583.93 -160.736 3809
1537 -155.082 3675
1538.64 -154.364 3658
1547.39 -154.364 3658
1546.35 -153.394 3635
1555.04 -153.394 3635
1546.53 -151.706 3595
1555.12 -151.706 3595
1553.71 -150.735 3572
1542.58 -148.836 3527
1551.01 -148.836 3527
1559.44 -148.836 3527
1567.88 -148.836 3527
1573.18 -148.541 3520
1558.24 -146.347 3468
1566.53 -146.347 3468
1578.45 -146.684 3476
1586.77 -146.684 3476
1611.6 -148.203 3512
1620 -148.203 3512
1628.4 -148.203 3512
1636.79 -148.203 3512
1641.91 -147.908 3505
1646.53 -147.57 3497
1654.89 -147.57 3497
1663.25 -147.57 3497
1671.61 -147.57 3497
2234.45 -160.357 3800
2243.54 -160.357 3800
2252.63 -160.357 3800
2261.71 -160.357 3800
2270.8 -160.357 3800
2259.49 -158.922 3766
2294.4 -160.736 3809
2313.79 -161.454 3826
2322.93 -161.454 3826
2348.54 -162.593 3853
2363.26 -162.973 3862
2372.5 -162.973 3862
2381.73 -162.973 3862
2390.97 -162.973 3862
2400.2 -162.973 3862
2409.44 -162.973 3862
2407.4 -162.213 3844
2410.93 -161.834 3835
2414.43 -161.454 3826
2423.57 -161.454 3826
2427.64 -161.116 3818
2431.02 -160.736 3809
2429.24 -160.019 3792
2426.73 -159.26 3774
2435.76 -159.26 3774
2433.77 -158.542 3757
2448.61 -158.922 3766
2457.61 -158.922 3766
2466.62 -158.922 3766
2475.62 -158.922 3766
2456.92 -157.15 3724
2460.53 -156.812 3716
2469.41 -156.812 3716
2466.96 -156.095 3699
2459.74 -155.082 3675
2463.16 -154.744 3667
2471.93 -154.744 3667
2469.2 -154.027 3650
1900.19 -118.115 2799
1906.89 -118.115 2799
1923.15 -118.706 2813
1946.34 -119.719 2837
1963.46 -120.352 2852
1970.28 -120.352 2852
1977.1 -120.352 2852
1983.92 -120.352 2852
2021.45 -122.209 2896
2031.88 -122.42 2901
2038.81 -122.42 2901
2045.75 -122.42 2901
2711.13 -153.394 3635
2731.04 -154.027 3650
2745.78 -154.364 3658
2791.42 -156.432 3707
2813.13 -157.15 3724
2840.98 -158.205 3749
2849.94 -158.205 3749
2871.87 -158.922 3766
2880.88 -158.922 3766
-2651.98 -140.984 3542
-2643.51 -140.984 3542
-2635.04 -140.984 3542
-2626.57 -140.984 3542
-2618.1 -140.984 3542
-2582.37 -139.512 3505
-2568.12 -139.193 3497
-2544.38 -138.357 3476
-2536.07 -138.357 3476
-2521.94 -138.039 3468
-2503.5 -137.482 3454
-2485.13 -136.924 3440
-2476.9 -136.924 3440
-2453.6 -136.089 3419
-2425.4 -134.974 3391
-2388.06 -133.342 3350
-2444 -136.924 3440
-2455.59 -138.039 3468
-2457.89 -138.636 3483
-2475.58 -140.109 3520
-2472.07 -140.387 3527
-2463.63 -140.387 3527
-2465.64 -140.984 3542
-2467.58 -141.581 3557
-2485.34 -143.094 3595
-2476.75 -143.094 3595
-2479.13 -143.731 3611
-2470.5 -143.731 3611
-2483 -144.965 3642
-2474.29 -144.965 3642
-2482.51 -145.96 3667
-2484.53 -146.597 3683
-2486.48 -147.234 3699
-2477.63 -147.234 3699
-2474.13 -147.552 3707
-2465.26 -147.552 3707
-2462.36 -147.91 3716
-2453.48 -147.91 3716
-2444.59 -147.91 3716
-2435.7 -147.91 3716
-2426.82 -147.91 3716
-2412.07 -147.552 3707
-2409.04 -147.91 3716
-2405.33 -148.229 3724
-2396.42 -148.229 3724
-2387.52 -148.229 3724
-2378.61 -148.229 3724
-2358.89 -147.552 3707
-2350.02 -147.552 3707
-2336.11 -147.234 3699
-2327.26 -147.234 3699
-2318.42 -147.234 3699
-2041.29 -139.193 3497
-2032.92 -139.193 3497
-2033.24 -139.79 3512
-2042.14 -140.984 3542
-2050.9 -142.179 3572
-2042.36 -142.179 3572
-2033.81 -142.179 3572
-2025.27 -142.179 3572
-2016.73 -142.179 3572
-1970.52 -139.512 3505
-1914 -136.089 3419
-1886.31 -134.695 3384
-1893.76 -135.81 3412
-1885.6 -135.81 3412
-1877.44 -135.81 3412
-1831.48 -133.064 3343
-1812.58 -132.267 3323
-1804.63 -132.267 3323
-1796.68 -132.267 3323
-1777.97 -131.471 3303
-1770.07 -131.471 3303
-1762.17 -131.471 3303
-1751.09 -131.233 3297
-1736.33 -130.715 3284
-1718.48 -129.959 3265
-1710.67 -129.959 3265
-1688.31 -129.441 3252
-1683.63 -129.68 3258
-1682.53 -130.198 3271
-1674.7 -130.198 3271
-1690.32 -132.029 3317
-1682.39 -132.029 3317
-1677.49 -132.267 3323
-1669.54 -132.267 3323
-1668.6 -132.825 3337
-1667.09 -133.342 3350
-1672.45 -134.417 3377
-1664.37 -134.417 3377
-1656.3 -134.417 3377
-1638.46 -133.621 3357
-1630.43 -133.621 3357
-1619.02 -133.342 3350
-1607.64 -133.064 3343
-1599.65 -133.064 3343
-1591.66 -133.064 3343
-1583.66 -133.064 3343
-1572.84 -132.825 3337
-1570.96 -133.342 3350
-1562.95 -133.342 3350
-1554.93 -133.342 3350
-1552.93 -133.86 3363
-1551.32 -134.417 3377
-1556.04 -135.531 3405
-1547.89 -135.531 3405
-1555.58 -136.924 3440
-1550.5 -137.203 3447
-1551.65 -138.039 3468
-1543.36 -138.039 3468
-1535.07 -138.039 3468
-1520.61 -137.482 3454
-1512.35 -137.482 3454
-1501.04 -137.203 3447
-1489.77 -136.924 3440
-1487.57 -137.482 3454
-1479.31 -137.482 3454
-1471.05 -137.482 3454
-1465.76 -137.76 3461
-1457.48 -137.76 3461
-1452.14 -138.039 3468
-1443.84 -138.039 3468
-1435.55 -138.039 3468
-1427.26 -138.039 3468
-1418.97 -138.039 3468
-1410.67 -138.039 3468
-1402.38 -138.039 3468
-1391.27 -137.76 3461
-1383 -137.76 3461
-1374.72 -137.76 3461
-1363.68 -137.482 3454
-1355.42 -137.482 3454
-1347.16 -137.482 3454
-1338.9 -137.482 3454
-1325.25 -136.924 3440
-1314.34 -136.646 3433
-1298.14 -135.81 3412
-1289.98 -135.81 3412
-1268.68 -134.417 3377
-1257.99 -134.138 3370
-1235.09 -132.546 3330
-1227.13 -132.546 3330
-1214.41 -132.029 3317
-1206.47 -132.029 3317
-1191.32 -131.233 3297
-1183.43 -131.233 3297
-1173.05 -130.954 3290
-1160.93 -130.476 3278
-1150.63 -130.198 3271
-1142.81 -130.198 3271
-1134.99 -130.198 3271
-1122.69 -129.68 3258
-1108.4 -128.924 3239
-1100.65 -128.924 3239
-1090.88 -128.685 3233
-1081.14 -128.446 3227
-1065.11 -127.451 3202
-1053.49 -126.974 3190
-1045.86 -126.974 3190
-1036.28 -126.735 3184
-1028.66 -126.735 3184
-1021.05 -126.735 3184
-1013.44 -126.735 3184
-539.555 -67.9846 1708
-535.471 -67.9846 1708
-531.386 -67.9846 1708
-527.302 -67.9846 1708
-523.218 -67.9846 1708
-517.917 -67.8254 1704
-513.24 -67.7458 1702
-508.87 -67.706 1701
-504.803 -67.706 1701
-499.558 -67.5467 1697
-494.916 -67.4671 1695
-490.573 -67.4273 1694
-485.373 -67.2681 1690
-481.332 -67.2681 1690
-477.291 -67.2681 1690
-471.849 -67.0691 1685
-466.987 -66.9497 1682
-462.965 -66.9497 1682
-458.397 -66.8701 1680
-453.568 -66.7507 1677
-447.145 -66.3924 1668
-443.156 -66.3924 1668
-438.904 -66.3526 1667
-434.396 -66.273 1665
-429.898 -66.1934 1663
-425.921 -66.1934 1663
-419.915 -65.875 1655
-415.203 -65.7556 1652
-410.755 -65.676 1650
-406.809 -65.676 1650
-401.398 -65.4372 1644
-397.467 -65.4372 1644
-393.057 -65.3575 1642
-389.13 -65.3575 1642
-384.735 -65.2779 1640
-380.581 -65.2381 1639
-376.202 -65.1585 1637
-371.605 -65.0391 1634
-367.698 -65.0391 1634
-363.122 -64.9197 1631
-358.782 -64.8401 1629
-354.668 -64.8003 1628
-350.775 -64.8003 1628
-346.03 -64.6411 1624
-341.304 -64.4819 1620
-336.388 -64.2829 1615
-332.526 -64.2829 1615
-327.647 -64.0838 1610
-323.194 -63.9644 1607
-317.761 -63.646 1599
-313.937 -63.646 1599
-309.532 -63.5266 1596
-305.141 -63.4072 1593
-300.575 -63.248 1589
-296.775 -63.248 1589
-292.422 -63.1285 1586
-288.265 -63.0489 1584
-284.298 -63.0091 1583
-279.981 -62.8897 1580
-276.203 -62.8897 1580
-272.424 -62.8897 1580
-268.306 -62.8101 1578
-264.533 -62.8101 1578
-260.759 -62.8101 1578
-256.986 -62.8101 1578
-253.212 -62.8101 1578
-249.755 -62.8897 1580
-245.977 -62.8897 1580
-242.198 -62.8897 1580
-238.42 -62.8897 1580
-234.79 -62.9295 1581
-231.302 -63.0091 1583
-227.516 -63.0091 1583
-223.731 -63.0091 1583
-220.501 -63.1683 1587
-217.389 -63.3674 1592
-213.582 -63.3674 1592
-210.302 -63.5266 1596
-206.744 -63.6062 1598
-203.685 -63.845 1604
-199.849 -63.845 1604
-196.258 -63.9246 1606
-193.137 -64.1634 1612
-191.161 -64.8003 1628
-187.268 -64.8003 1628
-184.05 -65.0391 1634
-182.789 -65.9944 1658
-179.903 -66.3924 1668
-175.914 -66.3924 1668
-173.677 -67.0691 1685
-170.554 -67.4273 1694
-166.995 -67.6264 1699
-162.932 -67.6264 1699
-159.804 -68.0244 1709
-155.9 -68.104 1711
-152.252 -68.303 1716
-148.148 -68.303 1716
-144.213 -68.3826 1718
-140.512 -68.5816 1723
-137.263 -69.0195 1734
-133.116 -69.0195 1734
-129.639 -69.3777 1743
-125.903 -69.6165 1749
-122.208 -69.8952 1756
-118.009 -69.8952 1756
-114.523 -70.333 1767
-110.297 -70.333 1767
-106.072 -70.333 1767
-101.846 -70.333 1767
-179.023 -148.229 3724
-170.118 -148.229 3724
-161.212 -148.229 3724
-152.307 -148.229 3724
-143.094 -147.91 3716
-134.208 -147.91 3716
-124.479 -146.915 3691
-115.652 -146.915 3691
-106.826 -146.915 3691
-97.9997 -146.915 3691
-89.1734 -146.915 3691
-80.3471 -146.915 3691
-71.3658 -146.597 3683
-62.5586 -146.597 3683
-53.7515 -146.597 3683
-45.1396 -147.234 3699
-36.2941 -147.234 3699
-27.5081 -147.552 3707
-18.6435 -147.552 3707
-9.77893 -147.552 3707
-0.912401 -147.234 3699
7.93303 -147.234 3699
16.7785 -147.234 3699
25.5685 -146.915 3691
34.3948 -146.915 3691
42.94 -145.96 3667
51.7089 -145.96 3667
60.4779 -145.96 3667
69.0768 -145.602 3658
77.8242 -145.602 3658
86.5716 -145.602 3658
95.319 -145.602 3658
103.839 -145.283 3650
112.567 -145.283 3650
121.561 -145.602 3658
130.309 -145.602 3658
139.056 -145.602 3658
147.803 -145.602 3658
156.551 -145.602 3658
165.298 -145.602 3658
174.045 -145.602 3658
182.393 -145.283 3650
191.121 -145.283 3650
200.288 -145.602 3658
209.035 -145.602 3658
218.318 -145.96 3667
227.087 -145.96 3667
235.856 -145.96 3667
244.625 -145.96 3667
253.394 -145.96 3667
262.735 -146.278 3675
272.114 -146.597 3683
280.921 -146.597 3683
289.728 -146.597 3683
299.184 -146.915 3691
308.01 -146.915 3691
316.836 -146.915 3691
325.663 -146.915 3691
334.489 -146.915 3691
343.315 -146.915 3691
352.142 -146.915 3691
360.185 -146.597 3683
368.993 -146.597 3683
377.8 -146.597 3683
386.607 -146.597 3683
395.414 -146.597 3683
