ply
format ascii 1.0
comment File generated
element vertex 2258
property float x
property float y
property float z
end_header
2011 537.895 3658
2185.94 577.156 3925
2221.61 584.067 3972
2258.07 591.125 4020
2267.69 591.125 4020
2277.3 591.125 4020
2297.72 593.919 4039
2307.38 593.919 4039
2322.77 595.39 4049
2332.46 595.39 4049
2342.14 595.39 4049
2363.44 598.33 4069
2379 599.801 4079
2388.75 599.801 4079
2404.39 601.271 4089
2414.17 601.271 4089
2423.94 601.271 4089
2433.72 601.271 4089
2443.5 601.271 4089
2453.28 601.271 4089
2463.06 601.271 4089
2472.84 601.271 4089
2476.54 599.801 4079
2486.3 599.801 4079
2496.05 599.801 4079
2505.8 599.801 4079
2515.56 599.801 4079
2525.31 599.801 4079
2538.58 598.33 4069
2548.31 598.33 4069
2558.04 598.33 4069
2524.86 588.331 4001
2534.43 588.331 4001
2537.64 586.861 3991
2535.05 584.067 3972
2538.79 582.744 3963
2548.26 582.744 3963
2533.22 577.156 3925
2530.94 574.509 3907
2528.58 571.862 3889
2537.88 571.862 3889
2547.18 571.862 3889
2556.48 571.862 3889
523.958 108.52 738
525.723 108.52 738
527.488 108.52 738
529.252 108.52 738
531.017 108.52 738
532.782 108.52 738
534.547 108.52 738
536.312 108.52 738
538.076 108.52 738
540.573 108.667 739
542.34 108.667 739
544.107 108.667 739
545.135 108.52 738
546.9 108.52 738
548.665 108.52 738
550.43 108.52 738
552.195 108.52 738
553.959 108.52 738
555.724 108.52 738
557.489 108.52 738
559.254 108.52 738
561.019 108.52 738
562.783 108.52 738
564.548 108.52 738
-2330.03 465.062 3112
-2322.59 465.062 3112
-2311.43 464.315 3107
-2304 464.315 3107
-2296.57 464.315 3107
-2289.14 464.315 3107
-2277.3 463.418 3101
-2261.1 461.625 3089
-2266.85 464.315 3107
-2271.78 466.855 3124
-2264.31 466.855 3124
-2261.18 467.752 3130
-2266.65 470.442 3148
-2297.88 478.512 3202
-2290.22 478.512 3202
-2318.2 485.984 3252
-2310.43 485.984 3252
-2302.65 485.984 3252
-2501.6 531.564 3557
-2514.82 536.196 3588
-2506.24 536.196 3588
-2524.81 542.025 3627
-2526.54 544.266 3642
-2540.65 549.198 3675
-2531.86 549.198 3675
-2523.07 549.198 3675
-2514.29 549.198 3675
-2505.5 549.198 3675
-2496.71 549.198 3675
-2476.41 546.657 3658
-2456.87 544.266 3642
-2448.16 544.266 3642
-2439.45 544.266 3642
-2436.08 545.462 3650
-2427.36 545.462 3650
-2418.63 545.462 3650
-2409.9 545.462 3650
-2401.17 545.462 3650
-2387.2 544.266 3642
-2378.49 544.266 3642
-2369.78 544.266 3642
-2346.16 540.829 3619
-2332.34 539.634 3611
-2328.85 540.829 3619
-2320.2 540.829 3619
-2311.54 540.829 3619
-2302.89 540.829 3619
-2324.67 548.002 3667
-2315.9 548.002 3667
-2307.13 548.002 3667
-2303.37 549.198 3675
-2294.58 549.198 3675
-2285.8 549.198 3675
-2112.46 608.078 4069
-2102.73 608.078 4069
-2093 608.078 4069
-2073.03 605.089 4049
-2038.89 597.916 4001
-2029.32 597.916 4001
-1986.43 588.053 3935
-1977.02 588.053 3935
-1967.61 588.053 3935
-1958.2 588.053 3935
-1948.79 588.053 3935
-1930.02 585.213 3916
-1920.66 585.213 3916
-1911.29 585.213 3916
-1880.07 578.488 3871
-1875.16 579.833 3880
-1883.2 585.213 3916
-1891.54 590.743 3953
-1882.09 590.743 3953
-1872.63 590.743 3953
-1858.94 589.398 3944
-1849.51 589.398 3944
-1814.42 581.178 3889
-1788.41 575.798 3853
-1779.19 575.798 3853
-1778.25 578.488 3871
-1768.99 578.488 3871
-1759.73 578.488 3871
-1750.48 578.488 3871
-1741.22 578.488 3871
-1731.96 578.488 3871
-1722.71 578.488 3871
-1713.45 578.488 3871
-1712.12 581.178 3889
-1702.82 581.178 3889
-1693.52 581.178 3889
-1684.22 581.178 3889
-1674.92 581.178 3889
-1646.35 574.453 3844
-1633.32 573.108 3835
-1624.15 573.108 3835
-1614.98 573.108 3835
-1628.42 581.178 3889
-1619.12 581.178 3889
-1624.72 586.558 3925
-1615.34 586.558 3925
-1605.95 586.558 3925
-1596.57 586.558 3925
-1565.34 578.488 3871
-1552.47 577.143 3862
-1543.23 577.143 3862
-1534 577.143 3862
-1521.21 575.798 3853
-1512 575.798 3853
-1502.78 575.798 3853
-1486.59 573.108 3835
-1473.95 571.763 3826
-1475.14 575.798 3853
-1465.93 575.798 3853
-1456.71 575.798 3853
-1461.02 581.178 3889
-1451.72 581.178 3889
-1442.42 581.178 3889
-1429.81 579.833 3880
-1420.53 579.833 3880
-1411.25 579.833 3880
-1401.97 579.833 3880
-1389.46 578.488 3871
-1367.37 573.108 3835
-1352.18 570.568 3818
-1343.05 570.568 3818
-1333.92 570.568 3818
-1324.79 570.568 3818
-1315.66 570.568 3818
-1306.53 570.568 3818
-1294.34 569.223 3809
-1288.27 570.568 3818
-1279.14 570.568 3818
-1270.01 570.568 3818
-1260.88 570.568 3818
-595.057 271.236 1815
-590.717 271.236 1815
-586.377 271.236 1815
-582.678 271.535 1817
-578.333 271.535 1817
-573.988 271.535 1817
-569.016 271.236 1815
-564.676 271.236 1815
-560.335 271.236 1815
-555.383 270.938 1813
-550.439 270.639 1811
-543.395 269.294 1802
-537.889 268.696 1798
-533.589 268.696 1798
-526.935 267.5 1790
-518.275 265.259 1775
-509.686 263.017 1760
-505.477 263.017 1760
-498.136 261.373 1749
-491.412 260.028 1740
-484.17 258.384 1729
-480.036 258.384 1729
-472.874 256.741 1718
-467.947 256.292 1715
-462.223 255.396 1709
-455.992 254.2 1701
-451.924 254.2 1701
-447.33 253.901 1699
-441.962 253.154 1694
-436.102 252.108 1687
-432.068 252.108 1687
-427.526 251.809 1685
-421.738 250.763 1678
-417.476 250.614 1677
-413.466 250.614 1677
-408.967 250.315 1675
-404.237 249.866 1672
-399.76 249.567 1670
-395.766 249.567 1670
-390.13 248.521 1663
-385.457 248.073 1660
-381.028 247.774 1658
-377.063 247.774 1658
-372.873 247.625 1657
-367.352 246.579 1650
-362.966 246.28 1648
-358.372 245.831 1645
-354.438 245.831 1645
-350.291 245.682 1644
-345.307 244.935 1639
-341.387 244.935 1639
-337.468 244.935 1639
-332.938 244.486 1636
-328.624 244.188 1634
-323.723 243.44 1629
-319.827 243.44 1629
-315.932 243.44 1629
-311.845 243.291 1628
-307.006 242.544 1623
-303.125 242.544 1623
-298.691 242.095 1620
-294.453 241.796 1618
-290.584 241.796 1618
-286.715 241.796 1618
-282.671 241.647 1617
-278.459 241.348 1615
-274.597 241.348 1615
-270.735 241.348 1615
-266.873 241.348 1615
-262.686 241.049 1613
-258.668 240.9 1612
-254.971 241.049 1613
-251.425 241.348 1615
-247.563 241.348 1615
-244.003 241.647 1617
-240.731 242.245 1621
-237.147 242.544 1623
-233.265 242.544 1623
-229.808 242.992 1626
-226.198 243.291 1628
-223.124 244.188 1634
-219.217 244.188 1634
-216.364 245.383 1642
-213.213 246.28 1648
-210.161 247.326 1655
-206.204 247.326 1655
-203.835 249.269 1668
-200.325 249.866 1672
-197.501 251.361 1682
-193.479 251.361 1682
-190.02 252.108 1687
-186.868 253.303 1695
-183.462 254.2 1701
-179.394 254.2 1701
-175.43 254.35 1702
-171.561 254.648 1704
-167.879 255.246 1708
-163.795 255.246 1708
-159.711 255.246 1708
-155.718 255.396 1709
-151.808 255.695 1711
-147.717 255.695 1711
-143.793 255.993 1713
-139.697 255.993 1713
-135.838 256.442 1716
-131.735 256.442 1716
-128.152 257.488 1723
-124.031 257.488 1723
-119.911 257.488 1723
-115.791 257.488 1723
-224.673 582.523 3898
-215.351 582.523 3898
-206.03 582.523 3898
-196.709 582.523 3898
-186.955 581.178 3889
-177.655 581.178 3889
-168.355 581.178 3889
-159.055 581.178 3889
-149.063 578.488 3871
-140.131 579.833 3880
-130.853 579.833 3880
-122.984 586.558 3925
-113.888 588.053 3935
-105.726 595.076 3982
-96.2039 595.076 3982
-87.2912 599.261 4010
-78.4578 605.089 4049
-69.1152 608.078 4069
-59.3849 608.078 4069
-49.6547 608.078 4069
233.664 611.067 4089
243.442 611.067 4089
253.22 611.067 4089
262.355 609.572 4079
266.906 597.916 4001
273.848 592.237 3963
283.324 592.237 3963
287.999 582.523 3898
294.574 577.143 3862
305.933 581.178 3889
315.233 581.178 3889
324.533 581.178 3889
333.833 581.178 3889
342.338 579.833 3880
351.617 579.833 3880
360.895 579.833 3880
370.173 579.833 3880
379.451 579.833 3880
385.123 574.453 3844
394.315 574.453 3844
399.833 569.223 3809
404.325 562.797 3766
405.099 551.589 3691
413.926 551.589 3691
418.972 546.657 3658
425.03 543.22 3635
430.859 539.634 3611
439.494 539.634 3611
443.289 533.805 3572
446.139 527.08 3527
451.737 523.793 3505
457.231 520.505 3483
465.56 520.505 3483
469.943 516.171 3454
475.295 513.033 3433
483.504 513.033 3433
492.716 514.079 3440
500.943 514.079 3440
509.169 514.079 3440
520.553 517.217 3461
529.899 518.263 3468
538.192 518.263 3468
549.952 521.551 3490
569.016 531.564 3557
582.555 536.196 3588
591.135 536.196 3588
606.233 542.025 3627
621.688 548.002 3667
641.632 557.716 3732
650.557 557.716 3732
666.903 563.992 3774
679.151 566.682 3792
688.219 566.682 3792
697.287 566.682 3792
709.521 569.223 3809
718.63 569.223 3809
727.738 569.223 3809
735.106 567.878 3800
740.863 565.337 3783
749.91 565.337 3783
758.956 565.337 3783
768.002 565.337 3783
777.049 565.337 3783
786.095 565.337 3783
797.033 566.682 3792
806.101 566.682 3792
815.169 566.682 3792
831.627 571.763 3826
854.62 581.178 3889
863.92 581.178 3889
873.22 581.178 3889
888.647 585.213 3916
900.075 586.558 3925
913.863 589.398 3944
923.294 589.398 3944
932.726 589.398 3944
942.157 589.398 3944
951.588 589.398 3944
954.197 585.213 3916
954.703 579.833 3880
961.746 578.488 3871
971.002 578.488 3871
980.259 578.488 3871
989.516 578.488 3871
998.772 578.488 3871
1008.03 578.488 3871
1017.29 578.488 3871
1021.77 575.798 3853
1030.98 575.798 3853
1035.34 573.108 3835
1044.51 573.108 3835
1051.21 571.763 3826
1055.64 569.223 3809
1062.24 567.878 3800
1071.32 567.878 3800
1080.41 567.878 3800
1087.2 566.682 3792
1096.27 566.682 3792
1105.34 566.682 3792
1111.76 565.337 3783
1120.81 565.337 3783
1129.85 565.337 3783
1146.73 569.223 3809
1155.84 569.223 3809
1170.14 571.763 3826
1184.84 574.453 3844
1196.83 575.798 3853
1214.49 579.833 3880
1223.77 579.833 3880
1233.05 579.833 3880
1259.94 588.053 3935
1272.25 589.398 3944
1281.68 589.398 3944
1309.77 597.916 4001
1319.34 597.916 4001
1335.22 600.755 4020
1344.83 600.755 4020
1367.59 606.583 4059
1387.47 611.067 4089
1397.25 611.067 4089
1407.03 611.067 4089
1413.34 609.572 4079
1423.1 609.572 4079
1432.85 609.572 4079
1435.53 606.583 4059
1445.24 606.583 4059
1447.77 603.595 4039
1457.43 603.595 4039
1463.82 602.25 4030
1469.8 600.755 4020
1479.42 600.755 4020
1489.03 600.755 4020
1498.64 600.755 4020
1508.26 600.755 4020
1510.69 597.916 4001
1520.26 597.916 4001
1529.83 597.916 4001
1532.09 595.076 3982
1541.61 595.076 3982
1547.24 593.582 3972
1556.73 593.582 3972
1566.23 593.582 3972
1572.16 592.237 3963
1581.64 592.237 3963
1591.11 592.237 3963
1596.55 590.743 3953
1602.35 589.398 3944
1608.1 588.053 3935
1621.21 589.398 3944
1630.64 589.398 3944
1640.07 589.398 3944
1649.5 589.398 3944
1658.94 589.398 3944
1668.37 589.398 3944
1677.8 589.398 3944
1683.38 588.053 3935
1692.79 588.053 3935
1702.2 588.053 3935
1711.61 588.053 3935
1716.65 586.558 3925
1726.03 586.558 3925
1735.42 586.558 3925
1740.8 585.213 3916
1750.17 585.213 3916
1759.53 585.213 3916
1772.96 586.558 3925
1782.35 586.558 3925
1800.41 589.398 3944
1813.97 590.743 3953
1823.42 590.743 3953
1832.87 590.743 3953
1838.13 589.398 3944
1838.66 586.558 3925
1848.05 586.558 3925
1857.43 586.558 3925
1866.82 586.558 3925
1876.2 586.558 3925
1885.59 586.558 3925
1894.98 586.558 3925
1900 585.213 3916
1900.58 582.523 3898
1901.09 579.833 3880
1910.36 579.833 3880
1910.74 577.143 3862
1876.22 563.992 3774
1851.78 553.98 3707
1860.64 553.98 3707
1853.37 549.198 3675
1849.49 545.462 3650
1850.58 543.22 3635
1847 539.634 3611
1855.63 539.634 3611
1856.01 537.242 3595
1868.75 538.438 3603
1881.54 539.634 3611
1898.55 542.025 3627
1907.22 542.025 3627
1915.9 542.025 3627
1916.08 539.634 3611
1924.71 539.634 3611
1924.78 537.242 3595
1946.29 540.829 3619
1967.36 544.266 3642
1984.75 546.657 3658
1993.5 546.657 3658
2002.25 546.657 3658
2123.15 577.143 3862
2162.2 585.213 3916
2171.56 585.213 3916
2201.53 590.743 3953
2227.21 595.076 3982
2258.07 600.755 4020
2273.33 602.25 4030
2282.96 602.25 4030
2297.72 603.595 4039
2307.38 603.595 4039
2322.77 605.089 4049
2332.46 605.089 4049
2347.92 606.583 4059
2363.44 608.078 4069
2379 609.572 4079
2388.75 609.572 4079
2404.39 611.067 4089
2414.17 611.067 4089
2423.94 611.067 4089
2433.72 611.067 4089
2443.5 611.067 4089
2453.28 611.067 4089
2463.06 611.067 4089
2472.84 611.067 4089
2476.54 609.572 4079
2486.3 609.572 4079
2496.05 609.572 4079
2505.8 609.572 4079
2515.56 609.572 4079
2525.31 609.572 4079
2544.82 609.572 4079
2554.57 609.572 4079
2564.33 609.572 4079
2543.16 602.25 4030
2552.8 602.25 4030
2544 597.916 4001
2541.44 595.076 3982
2550.96 595.076 3982
2560.48 595.076 3982
2557.74 592.237 3963
2536.77 585.213 3916
2546.14 585.213 3916
2555.5 585.213 3916
2564.86 585.213 3916
2556.48 581.178 3889
2542.03 575.798 3853
523.958 110.288 738
525.723 110.288 738
527.488 110.288 738
529.252 110.288 738
531.017 110.288 738
532.782 110.288 738
534.547 110.288 738
536.312 110.288 738
538.076 110.288 738
540.573 110.437 739
542.34 110.437 739
544.107 110.437 739
545.135 110.288 738
546.9 110.288 738
548.665 110.288 738
550.43 110.288 738
552.195 110.288 738
553.959 110.288 738
555.724 110.288 738
557.489 110.288 738
559.254 110.288 738
561.019 110.288 738
562.783 110.288 738
564.548 110.288 738
-2330.03 472.517 3112
-2322.59 472.517 3112
-2311.43 471.758 3107
-2299.55 470.847 3101
-2292.13 470.847 3101
-2284.72 470.847 3101
-2272.9 469.936 3095
-2261.1 469.025 3089
-2266.85 471.758 3107
-2267.42 473.428 3118
-2259.96 473.428 3118
-2261.18 475.25 3130
-2266.65 477.983 3148
-2297.88 486.182 3202
-2290.22 486.182 3202
-2313.93 492.863 3246
-2306.17 492.863 3246
-2298.4 492.863 3246
-2512.15 542.362 3572
-2514.82 544.791 3588
-2506.24 544.791 3588
-2524.81 550.713 3627
-2526.54 552.991 3642
-2540.65 558.001 3675
-2531.86 558.001 3675
-2523.07 558.001 3675
-2514.29 558.001 3675
-2505.5 558.001 3675
-2496.71 558.001 3675
-2476.41 555.42 3658
-2456.87 552.991 3642
-2448.16 552.991 3642
-2439.45 552.991 3642
-2436.08 554.205 3650
-2427.36 554.205 3650
-2418.63 554.205 3650
-2409.9 554.205 3650
-2401.17 554.205 3650
-2387.2 552.991 3642
-2378.49 552.991 3642
-2369.78 552.991 3642
-2346.16 549.498 3619
-2332.34 548.284 3611
-2328.85 549.498 3619
-2320.2 549.498 3619
-2311.54 549.498 3619
-2302.89 549.498 3619
-2294.24 549.498 3619
-2300.11 552.991 3642
-2307.13 556.787 3667
-2303.37 558.001 3675
-2294.58 558.001 3675
-2285.8 558.001 3675
-2272.05 556.787 3667
-2112.46 617.825 4069
-2102.73 617.825 4069
-2093 617.825 4069
-2073.03 614.788 4049
-2038.89 607.5 4001
-2029.32 607.5 4001
-1986.43 597.479 3935
-1977.02 597.479 3935
-1967.61 597.479 3935
-1958.2 597.479 3935
-1948.79 597.479 3935
-1930.02 594.594 3916
-1920.66 594.594 3916
-1911.29 594.594 3916
-1901.93 594.594 3916
-1892.56 594.594 3916
-1883.2 594.594 3916
-1891.54 600.212 3953
-1882.09 600.212 3953
-1872.63 600.212 3953
-1858.94 598.845 3944
-1849.51 598.845 3944
-1831.21 595.961 3925
-1800.94 589.128 3880
-1795.82 590.494 3889
-1786.52 590.494 3889
-1777.22 590.494 3889
-1767.92 590.494 3889
-1750.48 587.761 3871
-1745.27 589.128 3880
-1735.99 589.128 3880
-1726.71 589.128 3880
-1721.42 590.494 3889
-1720.04 593.227 3907
-1710.7 593.227 3907
-1701.36 593.227 3907
-1692.01 593.227 3907
-1682.67 593.227 3907
-1646.35 583.662 3844
-1637.15 583.662 3844
-1627.96 583.662 3844
-1618.77 583.662 3844
-1635.96 593.227 3907
-1626.61 593.227 3907
-1624.72 595.961 3925
-1615.34 595.961 3925
-1605.95 595.961 3925
-1596.57 595.961 3925
-1565.34 587.761 3871
-1552.47 586.395 3862
-1543.23 586.395 3862
-1534 586.395 3862
-1521.21 585.028 3853
-1512 585.028 3853
-1502.78 585.028 3853
-1490.08 583.662 3844
-1480.89 583.662 3844
-1475.14 585.028 3853
-1476.2 589.128 3880
-1466.92 589.128 3880
-1464.41 591.861 3898
-1455.08 591.861 3898
-1445.76 591.861 3898
-1436.44 591.861 3898
-1427.12 591.861 3898
-1411.25 589.128 3880
-1401.97 589.128 3880
-1392.7 589.128 3880
-1377 586.395 3862
-1367.76 586.395 3862
-1358.53 586.395 3862
-1349.29 586.395 3862
-1340.06 586.395 3862
-1327.72 585.028 3853
-1330.83 590.494 3889
-1321.53 590.494 3889
-1312.23 590.494 3889
-1302.93 590.494 3889
-1293.63 590.494 3889
-1284.33 590.494 3889
-594.401 275.281 1813
-590.066 275.281 1813
-586.377 275.584 1815
-582.036 275.584 1815
-577.696 275.584 1815
-573.356 275.584 1815
-569.016 275.584 1815
-564.053 275.281 1813
-559.101 274.977 1811
-554.77 274.977 1811
-549.831 274.673 1809
-543.395 273.61 1802
-537.889 273.003 1798
-533.589 273.003 1798
-526.935 271.788 1790
-518.275 269.511 1775
-509.686 267.233 1760
-505.477 267.233 1760
-497.566 265.259 1747
-491.412 264.197 1740
-484.17 262.526 1729
-480.036 262.526 1729
-472.874 260.856 1718
-467.947 260.401 1715
-462.223 259.49 1709
-455.992 258.275 1701
-451.924 258.275 1701
-447.33 257.971 1699
-441.962 257.212 1694
-436.102 256.149 1687
-432.068 256.149 1687
-427.526 255.845 1685
-421.738 254.783 1678
-417.725 254.783 1678
-413.712 254.783 1678
-408.967 254.327 1675
-404.478 254.023 1673
-399.76 253.568 1670
-395.766 253.568 1670
-390.13 252.505 1663
-385.921 252.353 1662
-381.028 251.746 1658
-377.063 251.746 1658
-372.873 251.594 1657
-367.352 250.531 1650
-362.966 250.228 1648
-358.372 249.772 1645
-354.438 249.772 1645
-350.291 249.62 1644
-345.517 249.013 1640
-341.387 248.861 1639
-337.468 248.861 1639
-333.549 248.861 1639
-329.026 248.405 1636
-324.319 247.798 1632
-320.416 247.798 1632
-315.932 247.343 1629
-311.845 247.191 1628
-307.195 246.583 1624
-303.312 246.583 1624
-298.875 246.128 1621
-294.817 245.976 1620
-290.584 245.672 1618
-286.715 245.672 1618
-282.845 245.672 1618
-278.804 245.521 1617
-274.597 245.217 1615
-270.735 245.217 1615
-266.873 245.217 1615
-262.686 244.913 1613
-258.828 244.913 1613
-255.287 245.217 1615
-251.737 245.521 1617
-247.87 245.521 1617
-244.154 245.672 1618
-241.028 246.432 1623
-237.585 246.887 1626
-233.697 246.887 1626
-230.091 247.191 1628
-226.754 247.798 1632
-223.807 248.861 1639
-219.888 248.861 1639
-217.022 250.076 1647
-213.86 250.987 1653
-210.796 252.05 1660
-206.827 252.05 1660
-204.324 253.872 1672
-200.685 254.327 1675
-197.619 255.542 1683
-193.594 255.542 1683
-190.245 256.453 1689
-186.868 257.364 1695
-183.462 258.275 1701
-179.394 258.275 1701
-175.636 258.73 1704
-171.561 258.73 1704
-167.879 259.338 1708
-163.795 259.338 1708
-159.711 259.338 1708
-155.718 259.49 1709
-151.808 259.793 1711
-147.717 259.793 1711
-143.793 260.097 1713
-139.697 260.097 1713
-135.838 260.552 1716
-131.735 260.552 1716
-128.152 261.615 1723
-124.175 261.919 1725
-120.05 261.919 1725
-115.925 261.919 1725
-225.191 593.227 3907
-215.849 593.227 3907
-206.506 593.227 3907
-197.163 593.227 3907
-188.253 594.594 3916
-178.888 594.594 3916
-169.524 594.594 3916
-160.16 594.594 3916
-150.449 593.227 3907
-142.117 597.479 3935
-132.708 597.479 3935
-124.175 601.73 3963
-115.248 604.615 3982
-106.469 608.867 4010
-96.8804 608.867 4010
-87.7266 611.903 4030
-78.8454 617.825 4069
-69.4549 620.862 4089
-59.6768 620.862 4089
-49.8988 620.862 4089
233.664 620.862 4089
243.442 620.862 4089
253.22 620.862 4089
259.783 613.27 4039
266.239 605.982 3991
271.913 597.479 3935
281.323 597.479 3935
287.334 590.494 3889
294.574 586.395 3862
305.933 590.494 3889
315.233 590.494 3889
324.533 590.494 3889
333.833 590.494 3889
343.133 590.494 3889
351.617 589.128 3880
360.895 589.128 3880
369.315 587.761 3871
377.691 586.395 3862
384.221 582.295 3835
393.392 582.295 3835
399.833 578.347 3809
402.5 569.237 3749
405.099 560.431 3691
413.926 560.431 3691
418.056 554.205 3650
425.03 551.928 3635
430.859 548.284 3611
439.494 548.284 3611
443.289 542.362 3572
446.139 535.529 3527
451.737 532.189 3505
457.231 528.849 3483
465.56 528.849 3483
469.943 524.445 3454
475.295 521.257 3433
483.504 521.257 3433
492.716 522.32 3440
500.943 522.32 3440
509.169 522.32 3440
518.448 523.382 3447
528.83 525.508 3461
537.106 525.508 3461
548.849 528.849 3483
566.616 537.807 3542
579.957 542.362 3572
588.499 542.362 3572
602.222 547.069 3603
616.263 551.928 3635
635.959 561.645 3699
644.804 561.645 3699
659.481 566.656 3732
669.838 567.871 3740
678.781 567.871 3740
687.725 567.871 3740
699.835 570.452 3757
708.819 570.452 3757
717.803 570.452 3757
726.787 570.452 3757
735.772 570.452 3757
744.756 570.452 3757
753.74 570.452 3757
762.724 570.452 3757
768.216 567.871 3740
775.497 566.656 3732
782.74 565.441 3724
791.645 565.441 3724
798.831 564.227 3716
807.717 564.227 3716
827.591 571.818 3766
836.596 571.818 3766
845.602 571.818 3766
856.423 573.033 3774
875.538 579.714 3818
888.607 582.295 3835
897.777 582.295 3835
906.948 582.295 3835
916.119 582.295 3835
925.289 582.295 3835
930.318 579.714 3818
939.448 579.714 3818
944.106 576.981 3800
953.193 576.981 3800
966.838 579.714 3818
975.968 579.714 3818
987.162 580.929 3826
996.311 580.929 3826
1007.83 582.295 3835
1017 582.295 3835
1026.17 582.295 3835
1030.75 579.714 3818
1039.88 579.714 3818
1046.53 578.347 3809
1053.15 576.981 3800
1062.24 576.981 3800
1071.32 576.981 3800
1078.14 575.766 3792
1087.2 575.766 3792
1093.67 574.4 3783
1102.72 574.4 3783
1111.76 574.4 3783
1120.81 574.4 3783
1129.85 574.4 3783
1138.9 574.4 3783
1147.95 574.4 3783
1164.95 578.347 3809
1176.83 579.714 3818
1191.24 582.295 3835
1203.23 583.662 3844
1212.42 583.662 3844
1221.61 583.662 3844
1242.33 589.128 3880
1260.32 593.227 3907
1269.66 593.227 3907
1291.12 598.845 3944
1303.51 600.212 3953
1322.6 604.615 3982
1332.12 604.615 3982
1348.05 607.5 4001
1364.06 610.385 4020
1373.67 610.385 4020
1383.29 610.385 4020
1386.32 607.5 4001
1395.88 607.5 4001
1405.45 607.5 4001
1411.48 605.982 3991
1421.03 605.982 3991
1423.76 603.097 3972
1433.26 603.097 3972
1439.49 601.73 3963
1445.31 600.212 3953
1454.76 600.212 3953
1464.21 600.212 3953
1473.67 600.212 3953
1483.12 600.212 3953
1485.77 597.479 3935
1495.18 597.479 3935
1504.59 597.479 3935
1506.69 594.594 3916
1512.57 593.227 3907
1521.92 593.227 3907
1534.79 594.594 3916
1544.15 594.594 3916
1553.52 594.594 3916
1562.88 594.594 3916
1572.24 594.594 3916
1581.61 594.594 3916
1590.97 594.594 3916
1592.98 591.861 3898
1602.3 591.861 3898
1615.34 593.227 3907
1624.69 593.227 3907
1634.03 593.227 3907
1647.16 594.594 3916
1656.52 594.594 3916
1665.89 594.594 3916
1675.25 594.594 3916
1680.74 593.227 3907
1690.09 593.227 3907
1699.43 593.227 3907
1700.9 590.494 3889
1710.2 590.494 3889
1719.5 590.494 3889
1728.8 590.494 3889
1734.08 589.128 3880
1743.36 589.128 3880
1760.76 591.861 3898
1770.09 591.861 3898
1787.62 594.594 3916
1805.71 597.479 3935
1815.12 597.479 3935
1824.53 597.479 3935
1829.28 595.961 3925
1830.23 593.227 3907
1843.81 594.594 3916
1857.43 595.961 3925
1866.82 595.961 3925
1876.2 595.961 3925
1881.27 594.594 3916
1890.63 594.594 3916
1900 594.594 3916
1900.58 591.861 3898
1896.68 587.761 3871
1905.93 587.761 3871
1910.74 586.395 3862
1872.25 571.818 3766
1851.78 562.86 3707
1860.64 562.86 3707
1853.37 558.001 3675
1849.49 554.205 3650
1850.58 551.928 3635
1847 548.284 3611
1855.63 548.284 3611
1856.01 545.854 3595
1868.75 547.069 3603
1881.54 548.284 3611
1898.55 550.713 3627
1907.22 550.713 3627
1915.9 550.713 3627
1916.08 548.284 3611
1924.71 548.284 3611
1924.78 545.854 3595
1946.29 549.498 3619
1967.36 552.991 3642
1984.75 555.42 3658
1993.5 555.42 3658
2002.25 555.42 3658
2123.15 586.395 3862
2162.2 594.594 3916
2171.56 594.594 3916
2201.53 600.212 3953
2227.21 604.615 3982
2258.07 610.385 4020
2273.33 611.903 4030
2282.96 611.903 4030
2297.72 613.27 4039
2307.38 613.27 4039
2322.77 614.788 4049
2332.46 614.788 4049
2347.92 616.307 4059
2363.44 617.825 4069
2373.17 617.825 4069
2382.9 617.825 4069
2398.51 619.343 4079
2414.17 620.862 4089
2423.94 620.862 4089
2433.72 620.862 4089
2443.5 620.862 4089
2453.28 620.862 4089
2463.06 620.862 4089
2466.79 619.343 4079
2476.54 619.343 4079
2480.2 617.825 4069
2489.93 617.825 4069
2505.8 619.343 4079
2515.56 619.343 4079
2525.31 619.343 4079
2544.82 619.343 4079
2554.57 619.343 4079
2564.33 619.343 4079
2543.16 611.903 4030
2552.8 611.903 4030
2544 607.5 4001
2541.44 604.615 3982
2550.96 604.615 3982
2560.48 604.615 3982
2557.74 601.73 3963
2536.77 594.594 3916
2546.14 594.594 3916
2555.5 594.594 3916
2564.86 594.594 3916
2556.48 590.494 3889
2542.03 585.028 3853
523.958 112.056 738
525.723 112.056 738
527.488 112.056 738
529.252 112.056 738
531.017 112.056 738
532.782 112.056 738
533.823 111.904 737
535.585 111.904 737
538.076 112.056 738
539.841 112.056 738
541.606 112.056 738
543.371 112.056 738
545.135 112.056 738
546.9 112.056 738
548.665 112.056 738
549.684 111.904 737
551.446 111.904 737
553.209 111.904 737
554.971 111.904 737
556.734 111.904 737
558.496 111.904 737
561.019 112.056 738
562.783 112.056 738
564.548 112.056 738
-2334.52 480.897 3118
-2327.07 480.897 3118
-2311.43 479.201 3107
-2299.55 478.275 3101
-2292.13 478.275 3101
-2284.72 478.275 3101
-2272.9 477.35 3095
-2261.1 476.424 3089
-2266.85 479.201 3107
-2267.42 480.897 3118
-2259.96 480.897 3118
-2261.18 482.748 3130
-2266.65 485.524 3148
-2297.88 493.853 3202
-2290.22 493.853 3202
-2313.93 500.639 3246
-2306.17 500.639 3246
-2298.4 500.639 3246
-2512.15 550.919 3572
-2514.82 553.387 3588
-2506.24 553.387 3588
-2524.81 559.402 3627
-2526.54 561.715 3642
-2540.65 566.805 3675
-2531.86 566.805 3675
-2523.07 566.805 3675
-2514.29 566.805 3675
-2505.5 566.805 3675
-2496.71 566.805 3675
-2476.41 564.183 3658
-2456.87 561.715 3642
-2448.16 561.715 3642
-2439.45 561.715 3642
-2436.08 562.949 3650
-2427.36 562.949 3650
-2418.63 562.949 3650
-2409.9 562.949 3650
-2401.17 562.949 3650
-2387.2 561.715 3642
-2378.49 561.715 3642
-2369.78 561.715 3642
-2346.16 558.168 3619
-2332.34 556.934 3611
-2328.85 558.168 3619
-2320.2 558.168 3619
-2311.54 558.168 3619
-2302.89 558.168 3619
-2294.24 558.168 3619
-2300.11 561.715 3642
-2307.13 565.571 3667
-2308.39 568.039 3683
-2299.58 568.039 3683
-2290.77 568.039 3683
-2277.01 566.805 3675
-2112.46 627.572 4069
-2102.73 627.572 4069
-2093 627.572 4069
-2073.03 624.488 4049
-2038.89 617.085 4001
-2029.32 617.085 4001
-2000.57 611.224 3963
-1991.09 611.224 3963
-1981.61 611.224 3963
-1972.14 611.224 3963
-1957.71 609.681 3953
-1930.02 603.975 3916
-1920.66 603.975 3916
-1911.29 603.975 3916
-1901.93 603.975 3916
-1892.56 603.975 3916
-1887.53 605.363 3925
-1891.54 609.681 3953
-1882.09 609.681 3953
-1872.63 609.681 3953
-1858.94 608.293 3944
-1849.51 608.293 3944
-1831.21 605.363 3925
-1800.94 598.422 3880
-1795.82 599.811 3889
-1790.65 601.199 3898
-1781.33 601.199 3898
-1772.01 601.199 3898
-1758.62 599.811 3889
-1749.32 599.811 3889
-1735.99 598.422 3880
-1726.71 598.422 3880
-1721.42 599.811 3889
-1720.04 602.587 3907
-1710.7 602.587 3907
-1701.36 602.587 3907
-1692.01 602.587 3907
-1682.67 602.587 3907
-1646.35 592.87 3844
-1637.15 592.87 3844
-1627.96 592.87 3844
-1618.77 592.87 3844
-1635.96 602.587 3907
-1626.61 602.587 3907
-1628.86 606.905 3935
-1619.45 606.905 3935
-1610.04 606.905 3935
-1600.63 606.905 3935
-1565.34 597.034 3871
-1548.85 594.258 3853
-1539.64 594.258 3853
-1530.42 594.258 3853
-1521.21 594.258 3853
-1512 594.258 3853
-1502.78 594.258 3853
-1493.57 594.258 3853
-1487.82 595.646 3862
-1478.59 595.646 3862
-1479.62 599.811 3889
-1470.32 599.811 3889
-1481.69 608.293 3944
-1472.26 608.293 3944
-1462.82 608.293 3944
-1453.39 608.293 3944
-1440.67 606.905 3935
-1417.8 601.199 3898
-1408.48 601.199 3898
-1399.16 601.199 3898
-1386.63 599.811 3889
-1380.51 601.199 3898
-1371.19 601.199 3898
-1361.87 601.199 3898
-1352.55 601.199 3898
-1343.23 601.199 3898
-1336.99 602.587 3907
-1327.64 602.587 3907
-1324.38 605.363 3925
-1314.99 605.363 3925
-1305.6 605.363 3925
-1296.22 605.363 3925
-593.746 279.315 1811
-589.415 279.315 1811
-585.731 279.624 1813
-581.395 279.624 1813
-577.06 279.624 1813
-572.724 279.624 1813
-568.389 279.624 1813
-564.053 279.624 1813
-559.101 279.315 1811
-554.77 279.315 1811
-549.831 279.007 1809
-543.395 277.927 1802
-537.291 277.002 1796
-532.996 277.002 1796
-524.58 274.842 1782
-514.771 271.912 1763
-507.369 270.216 1752
-503.18 270.216 1752
-496.427 268.827 1743
-489.717 267.439 1734
-483.61 266.36 1727
-479.481 266.36 1727
-472.874 264.972 1718
-467.401 264.2 1713
-461.411 263.121 1706
-455.992 262.35 1701
-451.924 262.35 1701
-446.803 261.733 1697
-441.962 261.27 1694
-436.102 260.19 1687
-432.068 260.19 1687
-427.526 259.882 1685
-422.24 259.111 1680
-417.725 258.802 1678
-413.712 258.802 1678
-408.967 258.34 1675
-404.478 258.031 1673
-399.76 257.568 1670
-395.766 257.568 1670
-390.13 256.489 1663
-385.921 256.335 1662
-381.028 255.718 1658
-377.063 255.718 1658
-372.873 255.563 1657
-367.798 254.792 1652
-362.966 254.175 1648
-358.808 254.021 1647
-354.869 254.021 1647
-350.504 253.713 1645
-345.939 253.25 1642
-341.596 252.941 1640
-337.674 252.941 1640
-333.549 252.787 1639
-329.227 252.479 1637
-324.319 251.708 1632
-320.416 251.708 1632
-316.514 251.708 1632
-312.036 251.245 1629
-307.195 250.474 1624
-303.312 250.474 1624
-299.244 250.32 1623
-294.999 250.011 1621
-290.943 249.857 1620
-287.069 249.857 1620
-282.845 249.548 1618
-278.976 249.548 1618
-274.937 249.394 1617
-271.07 249.394 1617
-267.204 249.394 1617
-263.011 249.086 1615
-259.47 249.394 1617
-255.604 249.394 1617
-251.892 249.548 1618
-248.023 249.548 1618
-244.607 250.011 1621
-241.473 250.782 1626
-237.877 251.091 1628
-233.984 251.091 1628
-230.232 251.245 1629
-227.032 252.016 1634
-223.807 252.787 1639
-219.888 252.787 1639
-217.022 254.021 1647
-213.86 254.946 1653
-211.05 256.335 1662
-207.076 256.335 1662
-204.446 258.031 1673
-200.685 258.34 1675
-197.619 259.573 1683
-193.594 259.573 1683
-190.245 260.499 1689
-186.868 261.424 1695
-183.462 262.35 1701
-179.394 262.35 1701
-175.636 262.812 1704
-171.561 262.812 1704
-167.879 263.429 1708
-163.795 263.429 1708
-159.711 263.429 1708
-155.718 263.583 1709
-151.808 263.892 1711
-147.717 263.892 1711
-143.793 264.2 1713
-139.697 264.2 1713
-135.838 264.663 1716
-131.735 264.663 1716
-127.929 265.28 1720
-124.175 266.051 1725
-120.05 266.051 1725
-115.925 266.051 1725
-225.71 603.975 3916
-216.843 605.363 3925
-207.457 605.363 3925
-198.071 605.363 3925
-189.166 606.905 3935
-179.756 606.905 3935
-170.347 606.905 3935
-160.937 606.905 3935
-151.527 606.905 3935
-143.129 611.224 3963
-133.652 611.224 3963
-124.77 614.154 3982
-116.059 618.473 4010
-107.001 621.557 4030
-97.3636 621.557 4030
-88.3579 626.03 4059
-79.2329 630.657 4089
-69.4549 630.657 4089
-59.6768 630.657 4089
-49.8988 630.657 4089
211.49 622.945 4039
221.149 622.945 4039
230.807 622.945 4039
240.466 622.945 4039
250.124 622.945 4039
257.338 617.085 4001
263.704 609.681 3953
270.6 603.975 3916
279.964 603.975 3916
286.669 598.422 3880
295.261 597.034 3871
305.933 599.811 3889
316.692 602.587 3907
326.035 602.587 3907
335.378 602.587 3907
343.133 599.811 3889
351.617 598.422 3880
360.895 598.422 3880
369.315 597.034 3871
377.691 595.646 3862
383.32 590.094 3826
392.469 590.094 3826
398.889 586.084 3800
402.5 578.218 3749
405.099 569.273 3691
413.926 569.273 3691
417.14 561.715 3642
425.03 560.635 3635
430.859 556.934 3611
439.494 556.934 3611
443.289 550.919 3572
446.139 543.978 3527
451.737 540.585 3505
457.231 537.192 3483
465.56 537.192 3483
469.943 532.719 3454
475.295 529.48 3433
482.519 528.401 3426
491.714 529.48 3433
499.923 529.48 3433
509.169 530.56 3440
518.448 531.64 3447
528.83 533.799 3461
537.106 533.799 3461
548.849 537.192 3483
565.336 545.058 3534
578.82 549.839 3565
587.345 549.839 3565
600.885 554.466 3595
614.907 559.402 3627
628.91 564.183 3658
637.657 564.183 3658
653.649 570.506 3699
662.495 570.506 3699
671.34 570.506 3699
680.186 570.506 3699
690.521 571.74 3707
699.386 571.74 3707
709.97 573.128 3716
720.404 574.362 3724
729.309 574.362 3724
738.214 574.362 3724
747.119 574.362 3724
756.025 574.362 3724
763.286 573.128 3716
770.302 571.74 3707
777.485 570.506 3699
786.331 570.506 3699
795.176 570.506 3699
805.761 571.74 3707
816.603 573.128 3716
829.043 575.596 3732
837.968 575.596 3732
852.565 579.452 3757
861.549 579.452 3757
880.497 586.084 3800
889.584 586.084 3800
902.928 588.86 3818
912.058 588.86 3818
921.188 588.86 3818
925.932 586.084 3800
935.019 586.084 3800
942.118 584.85 3792
951.186 584.85 3792
960.254 584.85 3792
969.322 584.85 3792
980.453 586.084 3800
989.54 586.084 3800
1000.99 587.472 3809
1010.1 587.472 3809
1019.21 587.472 3809
1025.89 586.084 3800
1034.98 586.084 3800
1044.06 586.084 3800
1048.44 583.462 3783
1057.48 583.462 3783
1066.53 583.462 3783
1075.58 583.462 3783
1082.04 582.074 3774
1091.07 582.074 3774
1100.09 582.074 3774
1104.12 579.452 3757
1113.1 579.452 3757
1124.78 580.84 3766
1133.78 580.84 3766
1147.95 583.462 3783
1156.99 583.462 3783
1171.28 586.084 3800
1180.37 586.084 3800
1192.27 587.472 3809
1201.38 587.472 3809
1210.49 587.472 3809
1227.92 591.482 3835
1239.99 592.87 3844
1249.19 592.87 3844
1270.16 598.422 3880
1282.41 599.811 3889
1297.69 602.587 3907
1307.03 602.587 3907
1316.37 602.587 3907
1341.33 609.681 3953
1350.78 609.681 3953
1360.23 609.681 3953
1363.45 606.905 3935
1372.86 606.905 3935
1382.27 606.905 3935
1391.68 606.905 3935
1401.09 606.905 3935
1403.69 603.975 3916
1413.05 603.975 3916
1419.15 602.587 3907
1425.2 601.199 3898
1431.21 599.811 3889
1437.17 598.422 3880
1449.81 599.811 3889
1459.11 599.811 3889
1468.41 599.811 3889
1477.71 599.811 3889
1487.01 599.811 3889
1482.45 594.258 3853
1491.67 594.258 3853
1500.88 594.258 3853
1510.09 594.258 3853
1519.31 594.258 3853
1535.66 597.034 3871
1544.92 597.034 3871
1554.18 597.034 3871
1563.43 597.034 3871
1572.69 597.034 3871
1574.59 594.258 3853
1583.8 594.258 3853
1593.02 594.258 3853
1602.23 594.258 3853
1611.45 594.258 3853
1632.02 598.422 3880
1641.29 598.422 3880
1650.57 598.422 3880
1659.85 598.422 3880
1661.39 595.646 3862
1670.62 595.646 3862
1679.86 595.646 3862
1689.09 595.646 3862
1698.33 595.646 3862
1707.56 595.646 3862
1716.8 595.646 3862
1726.03 595.646 3862
1735.27 595.646 3862
1748.57 597.034 3871
1757.82 597.034 3871
1767.08 597.034 3871
1796.99 603.975 3916
1806.35 603.975 3916
1815.72 603.975 3916
1820.89 602.587 3907
1821.8 599.811 3889
1831.1 599.811 3889
1853.17 603.975 3916
1862.54 603.975 3916
1871.9 603.975 3916
1872.62 601.199 3898
1881.94 601.199 3898
1891.26 601.199 3898
1896.2 599.811 3889
1892.27 595.646 3862
1901.5 595.646 3862
1897.38 591.482 3835
1867.77 579.452 3757
1847.78 570.506 3699
1856.63 570.506 3699
1849.34 565.571 3667
1849.49 562.949 3650
1850.58 560.635 3635
1847 556.934 3611
1855.63 556.934 3611
1864.27 556.934 3611
1872.9 556.934 3611
1889.88 559.402 3627
1906.4 561.715 3642
1915.11 561.715 3642
1923.82 561.715 3642
1928.81 560.635 3635
1937.51 560.635 3635
1941.91 559.402 3627
1958.66 561.715 3642
1976.01 564.183 3658
2007 570.506 3699
2015.85 570.506 3699
2070.67 583.462 3783
2142.94 601.199 3898
2177.66 608.293 3944
2187.09 608.293 3944
2207.1 611.224 3963
2227.21 614.154 3982
2258.07 620.015 4020
2273.33 621.557 4030
2282.96 621.557 4030
2297.72 622.945 4039
2307.38 622.945 4039
2322.77 624.488 4049
2332.46 624.488 4049
2347.92 626.03 4059
2357.63 626.03 4059
2367.34 626.03 4059
2377.04 626.03 4059
2392.63 627.572 4069
2402.36 627.572 4069
2423.94 630.657 4089
2433.72 630.657 4089
2443.5 630.657 4089
2447.28 629.115 4079
2457.03 629.115 4079
2466.79 629.115 4079
2470.47 627.572 4069
2480.2 627.572 4069
2489.93 627.572 4069
2505.8 629.115 4079
2515.56 629.115 4079
2525.31 629.115 4079
2535.07 629.115 4079
2544.82 629.115 4079
2554.57 629.115 4079
2564.33 629.115 4079
2548.84 622.945 4039
2558.5 622.945 4039
2549.72 618.473 4010
2559.31 618.473 4010
2568.9 618.473 4010
2578.49 618.473 4010
2570 614.154 3982
2579.53 614.154 3982
2589.05 614.154 3982
2579.65 609.681 3953
2589.1 609.681 3953
2598.55 609.681 3953
2559.84 598.422 3880
527.488 113.824 738
529.252 113.824 738
531.017 113.824 738
532.782 113.824 738
533.098 113.515 736
535.585 113.669 737
538.076 113.824 738
539.841 113.824 738
541.606 113.824 738
543.371 113.824 738
545.135 113.824 738
546.9 113.824 738
547.922 113.669 737
549.684 113.669 737
551.446 113.669 737
553.209 113.669 737
554.971 113.669 737
556.734 113.669 737
558.496 113.669 737
560.258 113.669 737
562.783 113.824 738
564.548 113.824 738
-2334.52 488.366 3118
-2327.07 488.366 3118
-2311.43 486.644 3107
-2299.55 485.704 3101
-2292.13 485.704 3101
-2284.72 485.704 3101
-2268.49 483.824 3089
-2257.44 483.041 3084
-2253.72 483.824 3089
-2267.42 488.366 3118
-2259.96 488.366 3118
-2261.18 490.246 3130
-2266.65 493.065 3148
-2293.57 500.583 3196
-2285.93 500.583 3196
-2313.93 508.415 3246
-2306.17 508.415 3246
-2298.4 508.415 3246
-2512.15 559.476 3572
-2514.82 561.982 3588
-2506.24 561.982 3588
-2513.67 565.584 3611
-2521.69 569.343 3635
-2528.9 572.946 3658
-2520.15 572.946 3658
-2523.07 575.608 3675
-2514.29 575.608 3675
-2505.5 575.608 3675
-2496.71 575.608 3675
-2465.58 570.44 3642
-2456.87 570.44 3642
-2448.16 570.44 3642
-2439.45 570.44 3642
-2430.74 570.44 3642
-2422.04 570.44 3642
-2413.33 570.44 3642
-2404.62 570.44 3642
-2395.91 570.44 3642
-2387.2 570.44 3642
-2378.49 570.44 3642
-2365.23 569.343 3635
-2335.79 564.331 3603
-2332.34 565.584 3611
-2328.85 566.837 3619
-2320.2 566.837 3619
-2311.54 566.837 3619
-2302.89 566.837 3619
-2294.24 566.837 3619
-2300.11 570.44 3642
-2307.13 574.355 3667
-2308.39 576.861 3683
-2299.58 576.861 3683
-2290.77 576.861 3683
-2277.01 575.608 3675
-2005.25 616.332 3935
-2010.05 620.717 3963
-2000.57 620.717 3963
-1991.09 620.717 3963
-1981.61 620.717 3963
-1972.14 620.717 3963
-1957.71 619.151 3953
-1930.02 613.356 3916
-1920.66 613.356 3916
-1911.29 613.356 3916
-1901.93 613.356 3916
-1892.56 613.356 3916
-1887.53 614.765 3925
-1891.54 619.151 3953
-1882.09 619.151 3953
-1872.63 619.151 3953
-1858.94 617.741 3944
-1849.51 617.741 3944
-1831.21 614.765 3925
-1800.94 607.717 3880
-1795.82 609.127 3889
-1790.65 610.536 3898
-1781.33 610.536 3898
-1772.01 610.536 3898
-1758.62 609.127 3889
-1749.32 609.127 3889
-1735.99 607.717 3880
-1726.71 607.717 3880
-1721.42 609.127 3889
-1720.04 611.946 3907
-1710.7 611.946 3907
-1701.36 611.946 3907
-1692.01 611.946 3907
-1682.67 611.946 3907
-1646.35 602.078 3844
-1637.15 602.078 3844
-1627.96 602.078 3844
-1618.77 602.078 3844
-1635.96 611.946 3907
-1626.61 611.946 3907
-1628.86 616.332 3935
-1619.45 616.332 3935
-1610.04 616.332 3935
-1600.63 616.332 3935
-1565.34 606.307 3871
-1548.85 603.488 3853
-1539.64 603.488 3853
-1530.42 603.488 3853
-1528.32 606.307 3871
-1519.06 606.307 3871
-1509.8 606.307 3871
-1500.55 606.307 3871
-1487.82 604.898 3862
-1485.48 607.717 3880
-1486.47 611.946 3907
-1477.13 611.946 3907
-1485.07 619.151 3953
-1475.62 619.151 3953
-1466.16 619.151 3953
-1456.71 619.151 3953
-1440.67 616.332 3935
-1427.62 614.765 3925
-1418.23 614.765 3925
-1405.62 613.356 3916
-1389.84 610.536 3898
-1386.89 613.356 3916
-1377.52 613.356 3916
-1368.16 613.356 3916
-1358.8 613.356 3916
-1346.33 611.946 3907
-1343.15 614.765 3925
-1333.76 614.765 3925
-1330.79 617.741 3944
-1321.35 617.741 3944
-1311.92 617.741 3944
-1296.22 614.765 3925
-593.746 283.654 1811
-589.415 283.654 1811
-585.731 283.967 1813
-581.395 283.967 1813
-577.06 283.967 1813
-572.724 283.967 1813
-569.016 284.28 1815
-564.676 284.28 1815
-560.335 284.28 1815
-555.383 283.967 1813
-551.047 283.967 1813
-544.299 282.714 1805
-539.086 282.244 1802
-534.776 282.244 1802
-527.523 280.678 1792
-518.858 278.328 1777
-510.265 275.979 1762
-506.052 275.979 1762
-498.705 274.256 1751
-491.412 272.533 1740
-485.01 271.28 1732
-480.869 271.28 1732
-473.975 269.714 1722
-468.22 268.774 1716
-462.223 267.677 1709
-456.26 266.581 1702
-452.19 266.581 1702
-447.33 266.111 1699
-441.962 265.328 1694
-436.619 264.545 1689
-432.58 264.545 1689
-427.526 263.918 1685
-422.743 263.448 1682
-417.725 262.822 1678
-413.712 262.822 1678
-409.456 262.665 1677
-404.478 262.039 1673
-399.76 261.569 1670
-395.766 261.569 1670
-390.6 260.786 1665
-386.154 260.473 1663
-381.488 260.003 1660
-377.518 260.003 1660
-373.098 259.689 1658
-367.798 258.75 1652
-363.407 258.436 1650
-359.025 258.123 1648
-355.085 258.123 1648
-350.504 257.653 1645
-346.36 257.497 1644
-342.012 257.183 1642
-338.086 257.183 1642
-333.752 256.87 1640
-329.629 256.713 1639
-325.313 256.4 1637
-321.398 256.4 1637
-316.514 255.617 1632
-312.611 255.617 1632
-307.952 254.991 1628
-304.059 254.991 1628
-299.428 254.364 1624
-295.363 254.207 1623
-291.482 254.207 1623
-287.601 254.207 1623
-283.37 253.894 1621
-279.494 253.894 1621
-275.107 253.424 1618
-271.238 253.424 1618
-267.369 253.424 1618
-263.5 253.424 1618
-259.631 253.424 1618
-256.236 253.894 1621
-252.359 253.894 1621
-248.483 253.894 1621
-245.361 254.677 1626
-241.919 255.147 1629
-238.023 255.147 1629
-234.128 255.147 1629
-230.939 255.93 1634
-227.448 256.4 1637
-224.49 257.497 1644
-220.558 257.497 1644
-217.681 258.75 1652
-214.378 259.533 1657
-211.685 261.099 1667
-207.699 261.099 1667
-204.69 262.352 1675
-200.924 262.665 1677
-197.619 263.605 1683
-193.594 263.605 1683
-190.245 264.545 1689
-186.868 265.485 1695
-183.462 266.424 1701
-179.394 266.424 1701
-175.636 266.894 1704
-171.762 267.208 1706
-167.879 267.521 1708
-163.795 267.521 1708
-159.711 267.521 1708
-155.718 267.677 1709
-151.808 267.991 1711
-147.717 267.991 1711
-143.793 268.304 1713
-139.697 268.304 1713
-135.838 268.774 1716
-131.735 268.774 1716
-127.929 269.4 1720
-124.175 270.183 1725
-120.05 270.183 1725
-115.925 270.183 1725
-236.215 616.332 3935
-226.805 616.332 3935
-217.395 616.332 3935
-207.986 616.332 3935
-199.03 617.741 3944
-189.599 617.741 3944
-180.168 617.741 3944
-170.736 617.741 3944
-161.305 617.741 3944
-152.605 620.717 3963
-143.454 622.127 3972
-133.955 622.127 3972
-125.052 625.103 3991
-116.637 631.211 4030
-107.505 634.187 4049
-97.8226 634.187 4049
-88.5756 637.32 4069
-79.2329 640.452 4089
-69.4549 640.452 4089
-59.6768 640.452 4089
-49.8988 640.452 4089
203.831 638.886 4079
213.585 638.886 4079
223.339 638.886 4079
230.807 632.621 4039
240.466 632.621 4039
250.124 632.621 4039
257.338 626.669 4001
263.704 619.151 3953
270.6 613.356 3916
279.964 613.356 3916
286.669 607.717 3880
295.261 606.307 3871
305.933 609.127 3889
316.692 611.946 3907
326.035 611.946 3907
335.378 611.946 3907
343.133 609.127 3889
351.617 607.717 3880
360.895 607.717 3880
369.315 606.307 3871
377.691 604.898 3862
383.32 599.259 3826
392.469 599.259 3826
398.889 595.187 3800
402.5 587.199 3749
405.099 578.114 3691
413.926 578.114 3691
417.14 570.44 3642
425.03 569.343 3635
430.859 565.584 3611
439.494 565.584 3611
443.289 559.476 3572
446.139 552.427 3527
451.737 548.982 3505
457.231 545.536 3483
465.56 545.536 3483
469.943 540.993 3454
475.295 537.704 3433
482.519 536.608 3426
491.714 537.704 3433
499.923 537.704 3433
509.169 538.801 3440
518.448 539.897 3447
528.83 542.09 3461
537.106 542.09 3461
548.849 545.536 3483
565.336 553.524 3534
578.82 558.379 3565
587.345 558.379 3565
600.885 563.078 3595
614.907 568.09 3627
628.91 572.946 3658
637.657 572.946 3658
653.649 579.367 3699
662.495 579.367 3699
671.34 579.367 3699
680.186 579.367 3699
690.521 580.62 3707
699.386 580.62 3707
708.25 580.62 3707
710.925 575.608 3675
719.713 575.608 3675
728.501 575.608 3675
737.289 575.608 3675
746.077 575.608 3675
754.865 575.608 3675
761.991 574.355 3667
768.868 572.946 3658
779.528 574.355 3667
788.297 574.355 3667
798.805 575.608 3675
809.351 576.861 3683
823.49 580.62 3707
832.354 580.62 3707
845.077 583.283 3724
857.651 585.789 3740
874.473 591.114 3774
883.497 591.114 3774
898.671 595.187 3800
907.758 595.187 3800
916.845 595.187 3800
923.982 593.934 3792
930.836 592.524 3783
937.646 591.114 3774
946.671 591.114 3774
953.67 589.861 3766
960.375 588.452 3757
969.359 588.452 3757
982.77 591.114 3774
991.795 591.114 3774
1000.82 591.114 3774
1009.84 591.114 3774
1018.87 591.114 3774
1027.89 591.114 3774
1036.92 591.114 3774
1041.23 588.452 3757
1050.22 588.452 3757
1059.2 588.452 3757
1068.18 588.452 3757
1077.17 588.452 3757
1086.15 588.452 3757
1095.14 588.452 3757
1099.12 585.789 3740
1108.07 585.789 3740
1117.01 585.789 3740
1128.66 587.199 3749
1142.79 589.861 3766
1151.79 589.861 3766
1163.27 591.114 3774
1175.09 592.524 3783
1186.95 593.934 3792
1196.02 593.934 3792
1205.08 593.934 3792
1216.71 595.187 3800
1225.8 595.187 3800
1234.89 595.187 3800
1255.43 600.669 3835
1264.6 600.669 3835
1279.75 603.488 3853
1288.97 603.488 3853
1301.21 604.898 3862
1322.66 610.536 3898
1331.98 610.536 3898
1341.31 610.536 3898
1353.75 611.946 3907
1363.09 611.946 3907
1372.43 611.946 3907
1381.77 611.946 3907
1391.12 611.946 3907
1387.56 606.307 3871
1396.81 606.307 3871
1399.53 603.488 3853
1408.74 603.488 3853
1411.33 600.669 3835
1427.17 603.488 3853
1436.39 603.488 3853
1445.6 603.488 3853
1454.81 603.488 3853
1464.03 603.488 3853
1473.24 603.488 3853
1475.53 600.669 3835
1488.18 602.078 3844
1497.38 602.078 3844
1506.57 602.078 3844
1515.76 602.078 3844
1528.52 603.488 3853
1537.74 603.488 3853
1546.95 603.488 3853
1556.16 603.488 3853
1561.72 602.078 3844
1567.23 600.669 3835
1576.41 600.669 3835
1585.58 600.669 3835
1594.75 600.669 3835
1600.15 599.259 3826
1616.87 602.078 3844
1626.07 602.078 3844
1635.26 602.078 3844
1644.45 602.078 3844
1649.77 600.669 3835
1658.94 600.669 3835
1660.72 598.006 3818
1669.85 598.006 3818
1678.98 598.006 3818
1688.11 598.006 3818
1697.24 598.006 3818
1706.37 598.006 3818
1715.5 598.006 3818
1728.24 599.259 3826
1737.39 599.259 3826
1750.65 600.669 3835
1772.21 604.898 3862
1781.44 604.898 3862
1790.68 604.898 3862
1799.91 604.898 3862
1804.93 603.488 3853
1809.91 602.078 3844
1827.62 604.898 3862
1836.85 604.898 3862
1859 609.127 3889
1868.3 609.127 3889
1877.6 609.127 3889
1886.9 609.127 3889
1896.2 609.127 3889
1892.27 604.898 3862
1901.5 604.898 3862
1888.97 598.006 3818
1855.34 584.536 3732
1847.78 579.367 3699
1856.63 579.367 3699
1849.34 574.355 3667
1849.49 571.693 3650
1850.58 569.343 3635
1847 565.584 3611
1855.63 565.584 3611
1864.27 565.584 3611
1872.9 565.584 3611
1897.69 570.44 3642
1906.4 570.44 3642
1915.11 570.44 3642
1923.82 570.44 3642
1928.81 569.343 3635
1937.51 569.343 3635
1946.2 569.343 3635
1958.66 570.44 3642
1993.83 578.114 3691
2007 579.367 3699
2015.85 579.367 3699
2070.67 592.524 3783
2142.94 610.536 3898
2177.66 617.741 3944
2187.09 617.741 3944
2212.11 622.127 3972
2227.21 623.693 3982
2252.46 628.079 4010
2267.69 629.645 4020
2277.3 629.645 4020
2292.6 631.211 4030
2307.38 632.621 4039
2317.04 632.621 4039
2326.7 632.621 4039
2342.14 634.187 4049
2357.63 635.753 4059
2367.34 635.753 4059
2377.04 635.753 4059
2386.75 635.753 4059
2402.36 637.32 4069
2412.09 637.32 4069
2421.82 637.32 4069
2431.55 637.32 4069
2441.28 637.32 4069
2451.01 637.32 4069
2460.74 637.32 4069
2464.4 635.753 4059
2480.2 637.32 4069
2489.93 637.32 4069
2505.8 638.886 4079
2515.56 638.886 4079
2525.31 638.886 4079
2535.07 638.886 4079
2544.82 638.886 4079
2554.57 638.886 4079
2564.33 638.886 4079
2548.84 632.621 4039
2558.5 632.621 4039
2549.72 628.079 4010
2559.31 628.079 4010
2568.9 628.079 4010
2578.49 628.079 4010
2588.07 628.079 4010
2604.14 629.645 4020
2613.75 629.645 4020
2623.37 629.645 4020
2632.98 629.645 4020
2630.1 626.669 4001
2608 619.151 3953
527.488 115.592 738
529.252 115.592 738
531.017 115.592 738
532.06 115.435 737
533.098 115.278 736
534.858 115.278 736
537.347 115.435 737
539.841 115.592 738
541.606 115.592 738
543.371 115.592 738
544.397 115.435 737
546.159 115.435 737
547.922 115.435 737
549.684 115.435 737
551.446 115.435 737
553.209 115.435 737
554.971 115.435 737
556.734 115.435 737
558.496 115.435 737
560.258 115.435 737
562.021 115.435 737
563.783 115.435 737
-2334.52 495.836 3118
-2327.07 495.836 3118
-2315.15 494.881 3112
-2299.55 493.132 3101
-2287.7 492.178 3095
-2280.3 492.178 3095
-2272.9 492.178 3095
-2261.1 491.224 3089
-2258.09 492.178 3095
-2271.78 496.79 3124
-2264.31 496.79 3124
-2261.18 497.744 3130
-2266.65 500.606 3148
-2289.26 507.285 3190
-2281.64 507.285 3190
-2304.66 514.123 3233
-2296.93 514.123 3233
-2289.2 514.123 3233
-2507.23 566.919 3565
-2509.22 569.305 3580
-2500.66 569.305 3580
-2513.67 574.234 3611
-2521.69 578.051 3635
-2528.9 581.708 3658
-2520.15 581.708 3658
-2511.4 581.708 3658
-2502.65 581.708 3658
-2493.91 581.708 3658
-2479.73 580.436 3650
-2460.84 578.051 3635
-2452.15 578.051 3635
-2448.16 579.164 3642
