ply
format ascii 1.0
comment File generated
element vertex 2252
property float x
property float y
property float z
end_header
-233.701 376.267 1682
-229.679 376.267 1682
-225.791 376.491 1683
-222.03 376.938 1685
-218.259 377.386 1687
-214.225 377.386 1687
-210.44 377.833 1689
-207.012 378.952 1694
-203.321 379.623 1697
-199.263 379.623 1697
-196.01 381.189 1704
-191.935 381.189 1704
-187.86 381.189 1704
-183.785 381.189 1704
-381.869 890.783 3982
-372.347 890.783 3982
-362.825 890.783 3982
-353.302 890.783 3982
-343.78 890.783 3982
-333.419 888.546 3972
-323.92 888.546 3972
-312.206 882.282 3944
-302.774 882.282 3944
-293.343 882.282 3944
-283.912 882.282 3944
-273.854 880.269 3935
-264.444 880.269 3935
-253.803 876.018 3916
-245.001 878.032 3925
-236.755 882.282 3944
-227.324 882.282 3944
-217.893 882.282 3944
-208.461 882.282 3944
-199.484 884.295 3953
-190.031 884.295 3953
-180.579 884.295 3953
-171.126 884.295 3953
-161.673 884.295 3953
-151.527 880.269 3935
-142.117 880.269 3935
-130.246 863.938 3862
-119.632 854.096 3818
-109.749 848.279 3792
-100.681 848.279 3792
-91.1787 844.253 3774
-81.4138 836.647 3740
-71.6758 827.475 3699
-62.8304 827.475 3699
-53.518 820.317 3667
-44.444 814.724 3642
-35.5877 811.368 3627
-26.9144 811.368 3627
-18.1205 806 3603
-9.42281 799.065 3572
-0.877375 795.709 3557
7.61133 793.92 3549
16.0981 793.92 3549
24.5848 793.92 3549
33.0063 792.354 3542
41.3826 790.564 3534
49.8335 790.564 3534
58.2844 790.564 3534
66.7352 790.564 3534
75.1861 790.564 3534
83.6369 790.564 3534
91.9054 788.998 3527
100.34 788.998 3527
108.311 785.643 3512
116.709 785.643 3512
125.108 785.643 3512
133.506 785.643 3512
141.904 785.643 3512
150.302 785.643 3512
158.701 785.643 3512
167.099 785.643 3512
175.497 785.643 3512
183.529 784.077 3505
192.294 785.643 3512
200.692 785.643 3512
209.09 785.643 3512
217.984 787.432 3520
226.401 787.432 3520
234.819 787.432 3520
243.236 787.432 3520
251.653 787.432 3520
260.071 787.432 3520
268.488 787.432 3520
277.456 788.998 3527
287.674 793.92 3549
296.828 795.709 3557
305.334 795.709 3557
314.545 797.499 3565
323.07 797.499 3565
331.595 797.499 3565
340.12 797.499 3565
349.33 799.065 3572
357.872 799.065 3572
366.414 799.065 3572
374.955 799.065 3572
381.028 793.92 3549
387.868 790.564 3534
396.319 790.564 3534
401.448 784.077 3505
408.076 780.721 3490
414.751 777.589 3476
422.09 775.8 3468
430.383 775.8 3468
435.134 769.536 3440
440.653 764.838 3419
447.91 763.272 3412
456.069 763.272 3412
458.514 753.877 3370
461.035 744.929 3330
466.181 740.455 3310
474.096 740.455 3310
480.992 738.889 3303
488.891 738.889 3303
496.789 738.889 3303
504.688 738.889 3303
512.586 738.889 3303
520.485 738.889 3303
528.383 738.889 3303
537.418 740.455 3310
546.487 742.021 3317
554.419 742.021 3317
562.35 742.021 3317
571.314 743.363 3323
579.26 743.363 3323
587.207 743.363 3323
595.153 743.363 3323
603.099 743.363 3323
613.62 746.495 3337
621.6 746.495 3337
630.711 747.837 3343
638.706 747.837 3343
646.7 747.837 3343
654.694 747.837 3343
662.688 747.837 3343
669.478 746.495 3337
677.458 746.495 3337
685.438 746.495 3337
691.963 744.929 3330
699.926 744.929 3330
707.889 744.929 3330
715.852 744.929 3330
723.815 744.929 3330
730.24 743.363 3323
738.186 743.363 3323
746.133 743.363 3323
752.717 742.021 3317
760.649 742.021 3317
768.581 742.021 3317
776.513 742.021 3317
784.445 742.021 3317
792.377 742.021 3317
800.309 742.021 3317
809.703 743.363 3323
817.649 743.363 3323
827.335 744.929 3330
837.054 746.495 3337
848.325 749.403 3350
856.336 749.403 3350
866.153 750.969 3357
881.212 757.009 3384
894.823 761.706 3405
902.965 761.706 3405
914.854 764.838 3419
932.478 772.668 3454
946.73 777.589 3476
955.042 777.589 3476
971.391 784.077 3505
987.88 790.564 3534
998.586 792.354 3542
1007.06 792.354 3542
1019.83 795.709 3557
1034.98 800.854 3580
1050.25 806 3603
1061.21 807.789 3611
1069.85 807.789 3611
1085.65 813.158 3635
1098.86 816.514 3650
1110.02 818.303 3658
1118.76 818.303 3658
1127.51 818.303 3658
1136.26 818.303 3658
1145.01 818.303 3658
1153.75 818.303 3658
1162.5 818.303 3658
1171.25 818.303 3658
1179.99 818.303 3658
1186.14 816.514 3650
1194.87 816.514 3650
1203.6 816.514 3650
1212.33 816.514 3650
1221.06 816.514 3650
1229.78 816.514 3650
1238.51 816.514 3650
1247.24 816.514 3650
1255.97 816.514 3650
1261.92 814.724 3642
1270.63 814.724 3642
1279.34 814.724 3642
1288.05 814.724 3642
1296.76 814.724 3642
1305.47 814.724 3642
1311.65 813.158 3635
1320.35 813.158 3635
1329.04 813.158 3635
1340.31 814.724 3642
1349.02 814.724 3642
1357.73 814.724 3642
1366.43 814.724 3642
1375.14 814.724 3642
1381.19 813.158 3635
1389.89 813.158 3635
1398.58 813.158 3635
1404.17 811.368 3627
1409.73 809.579 3619
1418.38 809.579 3619
1423.88 807.789 3611
1429.34 806 3603
1434.77 804.21 3595
1440.55 802.644 3588
1449.13 802.644 3588
1448.37 797.499 3565
1453.63 795.709 3557
1455.97 792.354 3542
1464.44 792.354 3542
1472.91 792.354 3542
1478.03 790.564 3534
1483.54 788.998 3527
1491.97 788.998 3527
1500.4 788.998 3527
1508.84 788.998 3527
1526.74 793.92 3549
1545.17 799.065 3572
1553.71 799.065 3572
1575.81 806 3603
1591.47 809.579 3619
1607.19 813.158 3635
1615.89 813.158 3635
1631.28 816.514 3650
1665.62 829.265 3707
1720.56 852.082 3809
1729.67 852.082 3809
1783.52 874.005 3907
1796.99 876.018 3916
1823.42 884.295 3953
1832.87 884.295 3953
1846.99 886.532 3963
1865.36 890.783 3982
1874.89 890.783 3982
1884.41 890.783 3982
1893.93 890.783 3982
1903.45 890.783 3982
1903.85 886.532 3963
1913.32 886.532 3963
1913.58 882.282 3944
1909.36 876.018 3916
1905.5 869.978 3889
1914.79 869.978 3889
1906.28 861.925 3853
1880.7 846.266 3783
1876.76 840.45 3757
1885.74 840.45 3757
1882.12 834.857 3732
1866.21 823.896 3683
1858.22 816.514 3650
1851.09 809.579 3619
1859.74 809.579 3619
1864.27 807.789 3611
1877.05 809.579 3619
1885.71 809.579 3619
1894.36 809.579 3619
1903.02 809.579 3619
1907.44 807.789 3611
1932.53 814.724 3642
1954.56 820.317 3667
1963.33 820.317 3667
1989.31 827.475 3699
1998.15 827.475 3699
2020.56 833.068 3724
2038.19 836.647 3740
2052.06 838.66 3749
2079.72 846.266 3783
2112.5 855.885 3826
2136.63 861.925 3853
2145.84 861.925 3853
2170.15 867.965 3880
2194.6 874.005 3907
2203.94 874.005 3907
2213.28 874.005 3907
2217.51 871.992 3898
2226.83 871.992 3898
2246.48 876.018 3916
2255.84 876.018 3916
2265.21 876.018 3916
2290.83 882.282 3944
2311.35 886.532 3963
2320.82 886.532 3963
2341.47 890.783 3982
2356.31 892.796 3991
2371.78 895.033 4001
2381.35 895.033 4001
2390.91 895.033 4001
2405.88 897.046 4010
2427.52 901.52 4030
2437.15 901.52 4030
2446.79 901.52 4030
2456.43 901.52 4030
2471.57 903.534 4039
2481.23 903.534 4039
2490.89 903.534 4039
2500.55 903.534 4039
2510.21 903.534 4039
2519.87 903.534 4039
2529.52 903.534 4039
2539.18 903.534 4039
2548.84 903.534 4039
2558.5 903.534 4039
2562.44 901.52 4030
2572.07 901.52 4030
2575.3 899.283 4020
2584.92 899.283 4020
2594.53 899.283 4020
2597.66 897.046 4010
2589.05 890.783 3982
2598.57 890.783 3982
2589.1 884.295 3953
2598.55 884.295 3953
2596.13 880.269 3935
2581.04 871.992 3898
2590.36 871.992 3898
2575.67 863.938 3862
2549.43 852.082 3809
2535.03 844.253 3774
2544.06 844.253 3774
2524.67 834.857 3732
2516.62 829.265 3707
2503.68 822.106 3675
2500.85 818.303 3658
2509.6 818.303 3658
2512.84 816.514 3650
534.302 161.289 721
536.026 161.289 721
537.751 161.289 721
539.475 161.289 721
541.199 161.289 721
542.923 161.289 721
544.647 161.289 721
546.371 161.289 721
548.095 161.289 721
549.819 161.289 721
550.779 161.066 720
-2361.48 713.113 3154
-2353.94 713.113 3154
-2341.93 711.756 3148
-2334.4 711.756 3148
-2326.87 711.756 3148
-2319.35 711.756 3148
-2311.82 711.756 3148
-2295.51 709.043 3136
-2270.5 703.617 3112
-2280.51 709.043 3136
-2273.01 709.043 3136
-2282.85 714.469 3160
-2301.21 722.609 3196
-2302.18 725.322 3208
-2294.51 725.322 3208
-2322.48 736.627 3258
-2360.87 751.323 3323
-2352.92 751.323 3323
-2344.98 751.323 3323
-2475.58 795.864 3520
-2498.7 806.039 3565
-2490.18 806.039 3565
-2497.66 811.239 3588
-2489.08 811.239 3588
-2485.34 812.822 3595
-2476.75 812.822 3595
-2484.63 818.248 3619
-2475.97 818.248 3619
-2467.32 818.248 3619
-2458.66 818.248 3619
-2444.59 816.439 3611
-2425.17 812.822 3595
-2416.57 812.822 3595
-2397.93 809.43 3580
-2389.36 809.43 3580
-2380.8 809.43 3580
-2372.24 809.43 3580
-2363.68 809.43 3580
-2355.12 809.43 3580
-2346.56 809.43 3580
-2338 809.43 3580
-2329.44 809.43 3580
-2315.69 807.622 3572
-2307.15 807.622 3572
-2298.61 807.622 3572
-2295.19 809.43 3580
-2286.63 809.43 3580
-2287.62 812.822 3595
-2279.02 812.822 3595
-2270.42 812.822 3595
-2261.83 812.822 3595
-2263.26 816.439 3611
-2259.62 818.248 3619
-2250.97 818.248 3619
-2242.31 818.248 3619
-2233.66 818.248 3619
-2225 818.248 3619
-2216.35 818.248 3619
-2207.69 818.248 3619
-2203.9 820.057 3627
-2200.07 821.866 3635
-2200.42 825.257 3650
-2191.69 825.257 3650
-2182.96 825.257 3650
-2179 827.066 3658
-2175.59 829.101 3667
-2166.82 829.101 3667
-2158.06 829.101 3667
-2149.29 829.101 3667
-2140.52 829.101 3667
-2126.52 827.066 3658
-2117.77 827.066 3658
-2104.41 825.257 3650
-2095.68 825.257 3650
-2086.95 825.257 3650
-2078.23 825.257 3650
-2074.03 827.066 3658
-2070.37 829.101 3667
-2061.6 829.101 3667
-2061.79 832.718 3683
-2071.37 840.18 3716
-2062.49 840.18 3716
-2053.6 840.18 3716
-2044.72 840.18 3716
-2017.75 832.718 3683
-2008.94 832.718 3683
-2000.14 832.718 3683
-1991.33 832.718 3683
-1991.13 836.336 3699
-1986.58 838.145 3707
-1977.71 838.145 3707
-1973.63 840.18 3716
-1964.74 840.18 3716
-1955.85 840.18 3716
-1942.25 838.145 3707
-1929.22 836.336 3699
-1920.37 836.336 3699
-1911.53 836.336 3699
-1902.68 836.336 3699
-1877.45 829.101 3667
-1864.1 827.066 3658
-1855.35 827.066 3658
-1842.56 825.257 3650
-1818.26 818.248 3619
-1805.6 816.439 3611
-1796.97 816.439 3611
-1784.37 814.631 3603
-1771.81 812.822 3595
-1763.22 812.822 3595
-1754.62 812.822 3595
-1746.02 812.822 3595
-1734.04 811.239 3588
-1717.77 807.622 3572
-1709.23 807.622 3572
-1700.69 807.622 3572
-1688.83 806.039 3565
-1676.53 804.23 3557
-1671.78 806.039 3565
-1666.52 807.622 3572
-1657.98 807.622 3572
-1653.13 809.43 3580
-1644.57 809.43 3580
-1636.01 809.43 3580
-1627.45 809.43 3580
-1618.89 809.43 3580
-1610.33 809.43 3580
-1601.76 809.43 3580
-1589.64 807.622 3572
-1581.1 807.622 3572
-1576.08 809.43 3580
-1567.52 809.43 3580
-1558.96 809.43 3580
-1553.86 811.239 3588
-1545.28 811.239 3588
-1536.7 811.239 3588
-1528.12 811.239 3588
-1516.16 809.43 3580
-1507.6 809.43 3580
-1502.38 811.239 3588
-1493.8 811.239 3588
-1485.22 811.239 3588
-1473.35 809.43 3580
-1468.06 811.239 3588
-1459.48 811.239 3588
-1456.97 814.631 3603
-1458 820.057 3627
-1458.52 825.257 3650
-1449.79 825.257 3650
-1450.93 830.91 3675
-1448.42 834.527 3691
-1462.22 847.641 3749
-1453.25 847.641 3749
-1457.39 855.328 3783
-1461.74 863.242 3818
-1486.47 883.364 3907
-1477.13 883.364 3907
-1478.31 889.695 3935
-1468.9 889.695 3935
-1459.49 889.695 3935
-1450.08 889.695 3935
-1427.12 881.329 3898
-1401.43 871.155 3853
-1392.22 871.155 3853
-1379.77 869.12 3844
-1361.31 863.242 3818
-1352.18 863.242 3818
-1343.05 863.242 3818
-1321.69 855.328 3783
-1303.62 849.45 3757
-1291.88 847.641 3749
-1282.92 847.641 3749
-1273.95 847.641 3749
-1264.99 847.641 3749
-1256.02 847.641 3749
-1247.06 847.641 3749
-1238.09 847.641 3749
-1215.36 838.145 3707
-1201.29 834.527 3691
-1166.62 816.439 3611
-1157.98 816.439 3611
-520.837 393.636 1741
-516.674 393.636 1741
-512.51 393.636 1741
-507.471 392.958 1738
-502.157 392.054 1734
-498.01 392.054 1734
-493.864 392.054 1734
-489.152 391.602 1732
-484.73 391.375 1731
-480.591 391.375 1731
-475.901 390.923 1729
-471.767 390.923 1729
-466.009 389.567 1723
-461.889 389.567 1723
-457.503 389.341 1722
-452.332 388.436 1718
-447.441 387.758 1715
-442.823 387.306 1713
-438.727 387.306 1713
-433.616 386.401 1709
-428.775 385.723 1706
-423.451 384.592 1701
-419.383 384.592 1701
-413.118 382.558 1692
-408.347 381.879 1689
-402.871 380.523 1683
-398.847 380.523 1683
-392.946 378.714 1675
-388.244 378.036 1672
-383.326 377.131 1668
-379.337 377.131 1668
-374.674 376.453 1665
-369.579 375.322 1660
-364.949 374.644 1657
-360.986 374.644 1657
-357.024 374.644 1657
-353.061 374.644 1657
-348.678 374.192 1655
-344.72 374.192 1655
-340.762 374.192 1655
-336.805 374.192 1655
-332.445 373.74 1653
-328.492 373.74 1653
-324.932 374.192 1655
-320.974 374.192 1655
-317.4 374.644 1657
-314.005 375.322 1660
-310.409 375.775 1662
-306.435 375.775 1662
-302.642 376.001 1663
-298.665 376.001 1663
-294.689 376.001 1663
-290.712 376.001 1663
-287.08 376.453 1665
-283.099 376.453 1665
-279.452 376.905 1667
-275.466 376.905 1667
-271.48 376.905 1667
-267.654 377.131 1668
-263.665 377.131 1668
-259.677 377.131 1668
-256.301 378.036 1672
-252.454 378.262 1673
-248.75 378.714 1675
-244.745 378.714 1675
-241.027 379.166 1677
-237.158 379.392 1678
-233.84 380.523 1683
-229.815 380.523 1683
-226.059 380.975 1685
-222.293 381.427 1687
-218.518 381.879 1689
-214.479 381.879 1689
-210.565 382.105 1690
-207.134 383.236 1695
-203.56 384.14 1699
-199.497 384.14 1699
-196.24 385.723 1706
-192.386 386.175 1708
-188.301 386.175 1708
-184.217 386.175 1708
-381.869 900.322 3982
-372.347 900.322 3982
-362.825 900.322 3982
-353.302 900.322 3982
-343.78 900.322 3982
-333.419 898.061 3972
-323.92 898.061 3972
-312.206 891.73 3944
-302.774 891.73 3944
-293.343 891.73 3944
-283.912 891.73 3944
-273.854 889.695 3935
-264.444 889.695 3935
-254.386 887.434 3925
-245.001 887.434 3925
-236.755 891.73 3944
-227.324 891.73 3944
-217.893 891.73 3944
-208.461 891.73 3944
-199.484 893.765 3953
-190.031 893.765 3953
-180.579 893.765 3953
-171.126 893.765 3953
-161.673 893.765 3953
-151.527 889.695 3935
-142.117 889.695 3935
-130.246 873.19 3862
-119.632 863.242 3818
-109.749 857.363 3792
-100.681 857.363 3792
-91.1787 853.293 3774
-81.4138 845.606 3740
-71.6758 836.336 3699
-62.8304 836.336 3699
-53.518 829.101 3667
-44.444 823.448 3642
-35.6662 821.866 3635
-26.9738 821.866 3635
-18.1205 814.631 3603
-9.42281 807.622 3572
-0.877375 804.23 3557
7.61133 802.421 3549
16.0981 802.421 3549
24.5848 802.421 3549
33.0063 800.839 3542
41.3826 799.03 3534
49.8335 799.03 3534
58.2844 799.03 3534
66.7352 799.03 3534
75.1861 799.03 3534
83.6369 799.03 3534
91.9054 797.447 3527
100.34 797.447 3527
108.311 794.056 3512
116.709 794.056 3512
125.108 794.056 3512
133.506 794.056 3512
141.904 794.056 3512
150.302 794.056 3512
158.701 794.056 3512
167.099 794.056 3512
175.497 794.056 3512
183.529 792.473 3505
192.294 794.056 3512
200.692 794.056 3512
209.09 794.056 3512
217.984 795.864 3520
226.401 795.864 3520
234.819 795.864 3520
243.236 795.864 3520
251.653 795.864 3520
260.071 795.864 3520
268.488 795.864 3520
277.456 797.447 3527
287.674 802.421 3549
296.828 804.23 3557
305.334 804.23 3557
314.545 806.039 3565
323.07 806.039 3565
331.595 806.039 3565
340.12 806.039 3565
349.33 807.622 3572
357.872 807.622 3572
366.414 807.622 3572
374.955 807.622 3572
381.028 802.421 3549
387.868 799.03 3534
396.319 799.03 3534
401.448 792.473 3505
408.076 789.082 3490
414.751 785.916 3476
422.09 784.107 3468
430.383 784.107 3468
435.134 777.777 3440
440.653 773.029 3419
447.91 771.446 3412
456.069 771.446 3412
458.514 761.95 3370
461.035 752.906 3330
466.181 748.384 3310
474.096 748.384 3310
480.992 746.801 3303
488.891 746.801 3303
496.789 746.801 3303
504.688 746.801 3303
512.586 746.801 3303
520.485 746.801 3303
528.383 746.801 3303
536.281 746.801 3303
545.333 748.384 3310
553.248 748.384 3310
561.164 748.384 3310
570.282 749.967 3317
578.214 749.967 3317
586.146 749.967 3317
595.153 751.323 3323
603.099 751.323 3323
611.045 751.323 3323
618.992 751.323 3323
629.579 754.489 3337
638.706 755.845 3343
646.7 755.845 3343
654.694 755.845 3343
662.688 755.845 3343
669.478 754.489 3337
677.458 754.489 3337
685.438 754.489 3337
691.963 752.906 3330
699.926 752.906 3330
707.889 752.906 3330
715.852 752.906 3330
723.815 752.906 3330
730.24 751.323 3323
736.853 749.967 3317
744.785 749.967 3317
752.717 749.967 3317
760.649 749.967 3317
766.959 748.384 3310
774.874 748.384 3310
782.79 748.384 3310
790.705 748.384 3310
798.62 748.384 3310
808.241 749.967 3317
816.173 749.967 3317
824.105 749.967 3317
835.298 752.906 3330
845.033 754.489 3337
853.013 754.489 3337
866.153 759.01 3357
881.212 765.115 3384
894.823 769.863 3405
902.965 769.863 3405
914.854 773.029 3419
932.478 780.942 3454
946.73 785.916 3476
955.042 785.916 3476
971.391 792.473 3505
987.88 799.03 3534
998.586 800.839 3542
1007.06 800.839 3542
1019.83 804.23 3557
1034.98 809.43 3580
1050.25 814.631 3603
1061.21 816.439 3611
1069.85 816.439 3611
1085.65 821.866 3635
1098.86 825.257 3650
1107.59 825.257 3650
1116.32 825.257 3650
1127.51 827.066 3658
1136.26 827.066 3658
1145.01 827.066 3658
1153.75 827.066 3658
1159.96 825.257 3650
1168.69 825.257 3650
1177.41 825.257 3650
1186.14 825.257 3650
1194.87 825.257 3650
1200.96 823.448 3642
1209.67 823.448 3642
1218.38 823.448 3642
1229.78 825.257 3650
1238.51 825.257 3650
1247.24 825.257 3650
1253.22 823.448 3642
1261.92 823.448 3642
1270.63 823.448 3642
1279.34 823.448 3642
1288.05 823.448 3642
1296.76 823.448 3642
1305.47 823.448 3642
1311.65 821.866 3635
1320.35 821.866 3635
1329.04 821.866 3635
1340.31 823.448 3642
1349.02 823.448 3642
1357.73 823.448 3642
1366.43 823.448 3642
1375.14 823.448 3642
1381.19 821.866 3635
1389.89 821.866 3635
1395.5 820.057 3627
1404.17 820.057 3627
1406.61 816.439 3611
1415.25 816.439 3611
1420.73 814.631 3603
1426.17 812.822 3595
1431.97 811.239 3588
1437.34 809.43 3580
1445.9 809.43 3580
1445.12 804.23 3557
1447.5 800.839 3542
1455.97 800.839 3542
1464.44 800.839 3542
1466.67 797.447 3527
1475.1 797.447 3527
1477.23 794.056 3512
1485.63 794.056 3512
1491.05 792.473 3505
1508.84 797.447 3527
1520.28 799.03 3534
1538.68 804.23 3557
1547.19 804.23 3557
1569.25 811.239 3588
1591.47 818.248 3619
1607.19 821.866 3635
1615.89 821.866 3635
1631.28 825.257 3650
1665.62 838.145 3707
1720.56 861.207 3809
1729.67 861.207 3809
1783.52 883.364 3907
1809.84 891.73 3944
1823.42 893.765 3953
1832.87 893.765 3953
1846.99 896.026 3963
1865.36 900.322 3982
1874.89 900.322 3982
1884.41 900.322 3982
1893.93 900.322 3982
1903.45 900.322 3982
1903.85 896.026 3963
1913.32 896.026 3963
1913.58 891.73 3944
1918.62 889.695 3935
1914.31 883.364 3907
1923.66 883.364 3907
1915.19 875.225 3871
1885.17 857.363 3792
1881.25 851.485 3766
1890.26 851.485 3766
1886.15 845.606 3740
1870.27 834.527 3691
1858.22 825.257 3650
1855.18 820.057 3627
1863.86 820.057 3627
1872.53 820.057 3627
1881.2 820.057 3627
1889.88 820.057 3627
1898.55 820.057 3627
1907.22 820.057 3627
1915.9 820.057 3627
1945.79 829.101 3667
1967.35 834.527 3691
1976.18 834.527 3691
1989.31 836.336 3699
2002.48 838.145 3707
2020.56 841.988 3724
2029.47 841.988 3724
2061.36 851.485 3766
2089.06 859.172 3800
2122.44 869.12 3844
2141.62 873.19 3862
2150.85 873.19 3862
2185.26 883.364 3907
2204.71 887.434 3925
2214.1 887.434 3925
2223.48 887.434 3925
2232.87 887.434 3925
2242.25 887.434 3925
2251.64 887.434 3925
2261.03 887.434 3925
2281.4 891.73 3944
2307.1 898.061 3972
2322.43 900.322 3982
2331.95 900.322 3982
2352.64 904.618 4001
2362.21 904.618 4001
2377.11 906.652 4010
2386.7 906.652 4010
2402.27 908.913 4020
2417.88 911.174 4030
2432.94 913.209 4039
2442.6 913.209 4039
2458.33 915.47 4049
2468.01 915.47 4049
2477.69 915.47 4049
2487.37 915.47 4049
2497.06 915.47 4049
2506.74 915.47 4049
2516.42 915.47 4049
2526.1 915.47 4049
2529.52 913.209 4039
2545.47 915.47 4049
2555.15 915.47 4049
2564.83 915.47 4049
2574.52 915.47 4049
2577.82 913.209 4039
2581.71 911.174 4030
2591.35 911.174 4030
2600.98 911.174 4030
2604.14 908.913 4020
2607.25 906.652 4010
2616.84 906.652 4010
2626.43 906.652 4010
2630.1 904.618 4001
2608 893.765 3953
2598.92 887.434 3925
2608.3 887.434 3925
2575.67 873.19 3862
2566.84 867.085 3835
2547.12 857.363 3792
2556.19 857.363 3792
2536.17 847.641 3749
2522.73 840.18 3716
2509.13 832.718 3683
2500.85 827.066 3658
2509.6 827.066 3658
2512.84 825.257 3650
534.302 163.017 721
536.026 163.017 721
537.751 163.017 721
539.475 163.017 721
541.199 163.017 721
542.923 163.017 721
544.647 163.017 721
546.371 163.017 721
547.335 162.79 720
549.057 162.79 720
550.779 162.79 720
-2361.48 720.668 3154
-2353.94 720.668 3154
-2346.39 720.668 3154
-2338.85 720.668 3154
-2326.87 719.297 3148
-2319.35 719.297 3148
-2311.82 719.297 3148
-2299.9 717.926 3142
-2274.87 712.442 3118
-2284.87 717.926 3142
-2277.36 717.926 3142
-2282.85 722.039 3160
-2301.21 730.265 3196
-2302.18 733.007 3208
-2294.51 733.007 3208
-2322.48 744.431 3258
-2360.87 759.283 3323
-2352.92 759.283 3323
-2344.98 759.283 3323
-2475.58 804.297 3520
-2493.1 812.751 3557
-2484.59 812.751 3557
-2486.53 816.178 3572
-2483.53 818.006 3580
-2480.5 819.834 3588
-2471.92 819.834 3588
-2468.15 821.434 3595
-2459.55 821.434 3595
-2450.96 821.434 3595
-2442.36 821.434 3595
-2433.76 821.434 3595
-2415.05 818.006 3580
-2406.49 818.006 3580
-2392.57 816.178 3572
-2384.03 816.178 3572
-2370.83 814.579 3565
-2362.3 814.579 3565
-2353.78 814.579 3565
-2349.86 816.178 3572
-2341.32 816.178 3572
-2332.77 816.178 3572
-2324.23 816.178 3572
-2305.97 812.751 3557
-2297.46 812.751 3557
-2288.96 812.751 3557
-2290.07 816.178 3572
-2281.52 816.178 3572
-2278.07 818.006 3580
-2269.51 818.006 3580
-2266 819.834 3588
-2257.42 819.834 3588
-2253.23 821.434 3595
-2244.63 821.434 3595
-2241.01 823.262 3603
-2232.4 823.262 3603
-2223.78 823.262 3603
-2215.17 823.262 3603
-2211.45 825.09 3611
-2202.81 825.09 3611
-2199.04 826.917 3619
-2195.23 828.745 3627
-2191.38 830.573 3635
-2182.69 830.573 3635
-2178.18 832.173 3642
-2179 835.829 3658
-2175.59 837.885 3667
-2166.82 837.885 3667
-2158.06 837.885 3667
-2144.01 835.829 3658
-2135.26 835.829 3658
-2121.87 834.001 3650
-2113.14 834.001 3650
-2104.41 834.001 3650
-2095.68 834.001 3650
-2082.38 832.173 3642
-2078.23 834.001 3650
-2074.03 835.829 3658
-2070.37 837.885 3667
-2061.6 837.885 3667
-2061.79 841.541 3683
-2071.37 849.081 3716
-2062.49 849.081 3716
-2053.6 849.081 3716
-2044.72 849.081 3716
-2017.75 841.541 3683
-2008.94 841.541 3683
-2000.14 841.541 3683
-1991.33 841.541 3683
-1991.13 845.197 3699
-1986.58 847.025 3707
-1977.71 847.025 3707
-1973.63 849.081 3716
-1964.74 849.081 3716
-1955.85 849.081 3716
-1946.97 849.081 3716
-1929.22 845.197 3699
-1920.37 845.197 3699
-1911.53 845.197 3699
-1902.68 845.197 3699
-1881.55 839.713 3675
-1868.68 837.885 3667
-1859.91 837.885 3667
-1846.6 835.829 3658
-1822.28 828.745 3627
-1809.6 826.917 3619
-1800.95 826.917 3619
-1784.37 823.262 3603
-1775.76 823.262 3603
-1767.14 823.262 3603
-1758.53 823.262 3603
-1746.02 821.434 3595
-1737.43 821.434 3595
-1717.77 816.178 3572
-1709.23 816.178 3572
-1700.69 816.178 3572
-1692.14 816.178 3572
-1676.53 812.751 3557
-1671.78 814.579 3565
-1663.25 814.579 3565
-1654.73 814.579 3565
-1646.2 814.579 3565
-1640.89 816.178 3572
-1632.35 816.178 3572
-1623.81 816.178 3572
-1615.27 816.178 3572
-1606.73 816.178 3572
-1598.19 816.178 3572
-1586.53 814.579 3565
-1574.46 812.751 3557
-1565.96 812.751 3557
-1557.45 812.751 3557
-1548.94 812.751 3557
-1543.9 814.579 3565
-1535.38 814.579 3565
-1526.85 814.579 3565
-1518.33 814.579 3565
-1509.8 814.579 3565
-1501.28 814.579 3565
-1495.68 816.178 3572
-1487.14 816.178 3572
-1478.6 816.178 3572
-1470.06 816.178 3572
-1464.79 818.006 3580
-1456.23 818.006 3580
-1447.67 818.006 3580
-1448.35 823.262 3603
-1452.53 830.573 3635
-1443.83 830.573 3635
-1441.06 834.001 3650
-1442.14 839.713 3675
-1439.6 843.369 3691
-1430.77 843.369 3691
-1450.84 860.506 3766
-1451.79 866.447 3792
-1469.35 882.441 3862
-1460.12 882.441 3862
-1467.79 892.724 3907
-1458.44 892.724 3907
-1449.1 892.724 3907
-1439.76 892.724 3907
-1427.12 890.667 3898
-1398.16 878.328 3844
-1388.97 878.328 3844
-1373.31 874.216 3826
-1354.89 868.275 3800
-1345.81 868.275 3800
-1336.72 868.275 3800
-1318.55 862.334 3774
-1297.73 854.565 3740
-1286.03 852.737 3732
-1277.1 852.737 3732
-1268.18 852.737 3732
-1259.25 852.737 3732
-1250.33 852.737 3732
-1241.4 852.737 3732
-1224.22 847.025 3707
-1210.11 843.369 3691
-1201.29 843.369 3691
-1166.62 825.09 3611
-1157.98 825.09 3611
-519.939 397.121 1738
-515.783 397.121 1738
-511.627 397.121 1738
-507.471 397.121 1738
-502.157 396.207 1734
-498.01 396.207 1734
-493.864 396.207 1734
-489.152 395.751 1732
-484.73 395.522 1731
-480.591 395.522 1731
-475.901 395.065 1729
-471.767 395.065 1729
-466.009 393.694 1723
-461.889 393.694 1723
-457.503 393.466 1722
-452.332 392.552 1718
-447.441 391.866 1715
-442.823 391.409 1713
-438.727 391.409 1713
-433.616 390.495 1709
-428.775 389.81 1706
-423.451 388.667 1701
-419.383 388.667 1701
-413.118 386.611 1692
-408.347 385.925 1689
-402.871 384.554 1683
-398.847 384.554 1683
-392.946 382.726 1675
-388.244 382.041 1672
-383.326 381.127 1668
-379.337 381.127 1668
-374.674 380.441 1665
-369.579 379.299 1660
-364.949 378.613 1657
-360.986 378.613 1657
-357.024 378.613 1657
-353.061 378.613 1657
-348.678 378.157 1655
-344.72 378.157 1655
-340.762 378.157 1655
-336.805 378.157 1655
-332.445 377.7 1653
-328.492 377.7 1653
-324.932 378.157 1655
-320.974 378.157 1655
-317.4 378.613 1657
-314.005 379.299 1660
-310.409 379.756 1662
-306.435 379.756 1662
-302.642 379.984 1663
-298.665 379.984 1663
-294.689 379.984 1663
-290.712 379.984 1663
-287.08 380.441 1665
-283.099 380.441 1665
-279.452 380.898 1667
-275.466 380.898 1667
-271.48 380.898 1667
-267.654 381.127 1668
-263.665 381.127 1668
-259.677 381.127 1668
-256.301 382.041 1672
-252.454 382.269 1673
-248.75 382.726 1675
-244.745 382.726 1675
-241.027 383.183 1677
-237.158 383.412 1678
-233.84 384.554 1683
-229.815 384.554 1683
-226.059 385.011 1685
-222.293 385.468 1687
-218.518 385.925 1689
-214.479 385.925 1689
-210.565 386.154 1690
-207.134 387.296 1695
-203.56 388.21 1699
-199.497 388.21 1699
-196.24 389.81 1706
-192.386 390.267 1708
-188.301 390.267 1708
-184.217 390.267 1708
-381.869 909.861 3982
-372.347 909.861 3982
-362.825 909.861 3982
-353.302 909.861 3982
-343.78 909.861 3982
-333.419 907.576 3972
-323.186 905.519 3963
-312.206 901.178 3944
-302.774 901.178 3944
-293.343 901.178 3944
-283.912 901.178 3944
-273.854 899.121 3935
-264.444 899.121 3935
-254.386 896.836 3925
-245.001 896.836 3925
-236.755 901.178 3944
-227.324 901.178 3944
-217.893 901.178 3944
-208.461 901.178 3944
-199.484 903.234 3953
-190.031 903.234 3953
-180.579 903.234 3953
-171.126 903.234 3953
-161.305 901.178 3944
-151.527 899.121 3935
-142.117 899.121 3935
-130.246 882.441 3862
-119.068 868.275 3800
-109.749 866.447 3792
-100.681 866.447 3792
-91.1787 862.334 3774
-81.4138 854.565 3740
-71.6758 845.197 3699
-62.8304 845.197 3699
-53.518 837.885 3667
-44.444 832.173 3642
-35.6662 830.573 3635
-26.9738 830.573 3635
-18.1205 823.262 3603
-9.42281 816.178 3572
-0.875402 810.923 3549
7.61133 810.923 3549
16.0981 810.923 3549
24.5363 809.323 3542
32.9318 807.496 3534
41.3007 805.896 3527
49.7348 805.896 3527
58.1689 805.896 3527
66.603 805.896 3527
75.0372 805.896 3527
83.4713 805.896 3527
91.9054 805.896 3527
100.14 804.297 3520
108.311 802.469 3512
116.709 802.469 3512
125.108 802.469 3512
133.506 802.469 3512
141.904 802.469 3512
150.302 802.469 3512
158.701 802.469 3512
167.099 802.469 3512
175.497 802.469 3512
183.529 800.869 3505
192.294 802.469 3512
200.692 802.469 3512
209.09 802.469 3512
217.488 802.469 3512
225.887 802.469 3512
234.285 802.469 3512
243.236 804.297 3520
251.653 804.297 3520
260.071 804.297 3520
268.488 804.297 3520
277.456 805.896 3527
287.674 810.923 3549
296.828 812.751 3557
305.334 812.751 3557
314.545 814.579 3565
323.07 814.579 3565
331.595 814.579 3565
340.12 814.579 3565
349.33 816.178 3572
357.872 816.178 3572
366.414 816.178 3572
374.955 816.178 3572
381.028 810.923 3549
387.868 807.496 3534
396.319 807.496 3534
401.448 800.869 3505
408.076 797.442 3490
415.586 795.842 3483
423.063 794.243 3476
431.375 794.243 3476
436.019 787.617 3447
440.653 781.219 3419
447.91 779.619 3412
456.069 779.619 3412
457.562 768.423 3363
460.066 759.283 3323
466.181 756.313 3310
474.096 756.313 3310
480.118 753.343 3297
488.003 753.343 3297
495.887 753.343 3297
504.688 754.714 3303
512.586 754.714 3303
520.485 754.714 3303
528.383 754.714 3303
536.281 754.714 3303
545.333 756.313 3310
553.248 756.313 3310
561.164 756.313 3310
570.282 757.912 3317
578.214 757.912 3317
586.146 757.912 3317
595.153 759.283 3323
603.099 759.283 3323
611.045 759.283 3323
618.992 759.283 3323
629.579 762.482 3337
638.706 763.853 3343
646.7 763.853 3343
654.694 763.853 3343
662.688 763.853 3343
669.478 762.482 3337
677.458 762.482 3337
685.438 762.482 3337
691.963 760.883 3330
699.926 760.883 3330
707.889 760.883 3330
715.852 760.883 3330
723.815 760.883 3330
730.24 759.283 3323
736.853 757.912 3317
744.785 757.912 3317
752.717 757.912 3317
760.649 757.912 3317
766.959 756.313 3310
774.874 756.313 3310
782.79 756.313 3310
790.705 756.313 3310
798.62 756.313 3310
808.241 757.912 3317
816.173 757.912 3317
824.105 757.912 3317
835.298 760.883 3330
845.033 762.482 3337
853.013 762.482 3337
866.153 767.052 3357
881.212 773.222 3384
894.823 778.02 3405
902.965 778.02 3405
914.854 781.219 3419
932.478 789.216 3454
946.73 794.243 3476
955.042 794.243 3476
971.391 800.869 3505
987.88 807.496 3534
998.586 809.323 3542
1007.06 809.323 3542
1019.83 812.751 3557
1034.98 818.006 3580
1050.25 823.262 3603
1061.21 825.09 3611
1069.85 825.09 3611
1085.65 830.573 3635
1098.86 834.001 3650
1107.59 834.001 3650
1116.32 834.001 3650
1127.51 835.829 3658
1136.26 835.829 3658
1145.01 835.829 3658
1153.75 835.829 3658
1159.96 834.001 3650
1168.69 834.001 3650
1177.41 834.001 3650
1186.14 834.001 3650
1194.87 834.001 3650
1200.96 832.173 3642
1209.67 832.173 3642
1218.38 832.173 3642
1229.78 834.001 3650
1238.51 834.001 3650
1247.24 834.001 3650
1253.22 832.173 3642
1261.92 832.173 3642
1270.63 832.173 3642
1279.34 832.173 3642
1288.05 832.173 3642
1296.76 832.173 3642
1305.47 832.173 3642
1311.65 830.573 3635
1320.35 830.573 3635
1329.04 830.573 3635
1340.31 832.173 3642
1349.02 832.173 3642
1357.73 832.173 3642
1366.43 832.173 3642
1375.14 832.173 3642
1381.19 830.573 3635
1389.89 830.573 3635
1395.5 828.745 3627
1404.17 828.745 3627
1406.61 825.09 3611
1415.25 825.09 3611
1420.73 823.262 3603
1426.17 821.434 3595
1431.97 819.834 3588
1437.34 818.006 3580
1445.9 818.006 3580
1445.12 812.751 3557
1447.5 809.323 3542
1455.97 809.323 3542
1464.44 809.323 3542
1466.67 805.896 3527
1475.1 805.896 3527
1477.23 802.469 3512
1485.63 802.469 3512
1491.05 800.869 3505
1508.84 805.896 3527
1520.28 807.496 3534
1538.68 812.751 3557
1547.19 812.751 3557
1569.25 819.834 3588
1591.47 826.917 3619
1607.19 830.573 3635
1615.89 830.573 3635
1631.28 834.001 3650
1665.62 847.025 3707
1720.56 870.331 3809
1729.67 870.331 3809
1783.52 892.724 3907
1809.84 901.178 3944
1828.03 905.519 3963
1837.51 905.519 3963
1855.84 909.861 3982
1869.58 911.917 3991
1879.12 911.917 3991
1888.67 911.917 3991
1898.21 911.917 3991
1907.75 911.917 3991
1912.97 909.861 3982
1922.5 909.861 3982
1917.95 903.234 3953
1918.62 899.121 3935
1918.72 894.78 3916
1928.09 894.78 3916
1915.19 884.498 3871
1889.15 868.275 3800
1881.25 860.506 3766
1890.26 860.506 3766
1886.15 854.565 3740
1870.27 843.369 3691
1858.22 834.001 3650
1855.18 828.745 3627
1863.86 828.745 3627
1872.53 828.745 3627
1881.2 828.745 3627
1889.88 828.745 3627
1898.55 828.745 3627
1907.22 828.745 3627
1915.9 828.745 3627
1945.79 837.885 3667
1967.35 843.369 3691
1976.18 843.369 3691
1989.31 845.197 3699
2002.48 847.025 3707
2020.56 850.909 3724
2029.47 850.909 3724
2061.36 860.506 3766
2089.06 868.275 3800
2122.44 878.328 3844
2141.62 882.441 3862
2150.85 882.441 3862
2185.26 892.724 3907
2204.71 896.836 3925
2214.1 896.836 3925
2223.48 896.836 3925
2232.87 896.836 3925
2247.97 899.121 3935
2257.38 899.121 3935
2266.79 899.121 3935
2281.4 901.178 3944
2307.1 907.576 3972
2327.68 911.917 3991
2337.22 911.917 3991
2352.64 914.202 4001
2367.52 916.258 4010
2383.04 918.543 4020
2392.66 918.543 4020
2408.24 920.828 4030
2417.88 920.828 4030
2438.96 925.17 4049
2448.65 925.17 4049
2464.4 927.455 4059
2474.11 927.455 4059
2483.81 927.455 4059
2493.52 927.455 4059
2503.22 927.455 4059
2512.93 927.455 4059
2522.64 927.455 4059
2532.34 927.455 4059
2535.79 925.17 4049
2545.47 925.17 4049
2555.15 925.17 4049
2564.83 925.17 4049
2574.52 925.17 4049
2577.82 922.885 4039
2587.47 922.885 4039
2597.13 922.885 4039
2606.79 922.885 4039
2610.62 920.828 4030
2620.26 920.828 4030
2629.89 920.828 4030
2632.98 918.543 4020
2636.02 916.258 4010
2639.67 914.202 4001
2617.46 903.234 3953
2626.91 903.234 3953
2617.69 896.836 3925
2584.91 882.441 3862
2552.5 868.275 3800
2561.58 868.275 3800
2565.26 866.447 3792
2528.16 850.909 3724
2531.62 849.081 3716
2507 837.885 3667
2515.77 837.885 3667
2524.54 837.885 3667
534.302 164.744 721
536.026 164.744 721
537.751 164.744 721
539.475 164.744 721
540.448 164.515 720
542.17 164.515 720
543.892 164.515 720
545.613 164.515 720
547.335 164.515 720
549.057 164.515 720
550.779 164.515 720
-2361.48 728.224 3154
-2353.94 728.224 3154
-2346.39 728.224 3154
-2338.85 728.224 3154
-2326.87 726.838 3148
-2319.35 726.838 3148
-2311.82 726.838 3148
-2299.9 725.453 3142
-2274.87 719.911 3118
-2284.87 725.453 3142
-2277.36 725.453 3142
-2282.85 729.609 3160
-2296.89 736.536 3190
-2297.88 739.306 3202
-2290.22 739.306 3202
-2313.93 749.465 3246
-2346.66 762.626 3303
-2338.76 762.626 3303
-2330.86 762.626 3303
-2465.03 809.266 3505
-2487.49 819.425 3549
-2479 819.425 3549
-2481.65 823.119 3565
-2477.98 824.735 3572
-2474.97 826.582 3580
-2466.41 826.582 3580
-2463.34 828.429 3588
-2454.76 828.429 3588
-2446.18 828.429 3588
-2437.6 828.429 3588
-2423.61 826.582 3580
-2409.65 824.735 3572
-2401.11 824.735 3572
-2387.88 823.119 3565
-2379.35 823.119 3565
-2365.51 821.272 3557
-2357 821.272 3557
-2348.5 821.272 3557
-2339.99 821.272 3557
-2331.48 821.272 3557
-2322.98 821.272 3557
-2314.47 821.272 3557
-2300.78 819.425 3549
-2292.29 819.425 3549
-2288.96 821.272 3557
-2280.45 821.272 3557
-2271.94 821.272 3557
-2268.53 823.119 3565
-2269.51 826.582 3580
-2260.95 826.582 3580
-2252.39 826.582 3580
-2248.84 828.429 3588
-2244.63 830.046 3595
-2236.04 830.046 3595
-2227.44 830.046 3595
-2218.84 830.046 3595
-2210.25 830.046 3595
-2206.55 831.893 3603
-2197.93 831.893 3603
-2194.18 833.74 3611
-2190.39 835.587 3619
-2186.56 837.434 3627
-2177.88 837.434 3627
-2173.99 839.281 3635
-2169.47 840.897 3642
-2165.51 842.744 3650
-2156.78 842.744 3650
-2148.05 842.744 3650
-2139.32 842.744 3650
-2130.59 842.744 3650
-2117.22 840.897 3642
-2108.51 840.897 3642
-2099.8 840.897 3642
-2091.09 840.897 3642
-2082.38 840.897 3642
-2073.67 840.897 3642
-2069.5 842.744 3650
-2065.29 844.591 3658
-2056.54 844.591 3658
-2057.31 848.517 3675
-2071.37 857.983 3716
-2062.49 857.983 3716
-2053.6 857.983 3716
-2044.72 857.983 3716
-2017.75 850.364 3683
-2008.94 850.364 3683
-2000.14 850.364 3683
-1991.33 850.364 3683
-1991.13 854.058 3699
-1986.58 855.905 3707
-1977.71 855.905 3707
-1973.63 857.983 3716
-1964.74 857.983 3716
-1955.85 857.983 3716
-1946.97 857.983 3716
-1929.22 854.058 3699
-1920.37 854.058 3699
-1911.53 854.058 3699
-1902.68 854.058 3699
-1881.55 848.517 3675
-1868.68 846.669 3667
-1859.91 846.669 3667
-1846.6 844.591 3658
-1822.28 837.434 3627
-1809.6 835.587 3619
-1800.95 835.587 3619
-1784.37 831.893 3603
-1775.76 831.893 3603
-1767.14 831.893 3603
-1758.53 831.893 3603
-1746.02 830.046 3595
-1737.43 830.046 3595
-1717.77 824.735 3572
-1709.23 824.735 3572
-1700.69 824.735 3572
-1692.14 824.735 3572
-1676.53 821.272 3557
-1671.78 823.119 3565
-1663.25 823.119 3565
-1654.73 823.119 3565
-1646.2 823.119 3565
-1637.68 823.119 3565
-1629.15 823.119 3565
-1620.63 823.119 3565
-1612.1 823.119 3565
-1603.58 823.119 3565
-1595.05 823.119 3565
-1582.97 821.272 3557
-1570.92 819.425 3549
-1562.43 819.425 3549
-1557.45 821.272 3557
-1548.94 821.272 3557
-1540.44 821.272 3557
-1528.49 819.425 3549
-1520 819.425 3549
-1511.51 819.425 3549
-1503.03 819.425 3549
-1497.91 821.272 3557
-1489.4 821.272 3557
-1480.9 821.272 3557
-1472.39 821.272 3557
-1463.89 821.272 3557
-1455.38 821.272 3557
-1446.87 821.272 3557
-1438.37 821.272 3557
-1435.89 824.735 3572
-1433.74 828.429 3588
-1425.16 828.429 3588
-1425.66 833.74 3611
-1432.33 842.744 3650
-1430.24 846.669 3667
-1421.47 846.669 3667
-1418.86 850.364 3683
-1444.9 871.375 3774
-1442.72 875.531 3792
-1433.65 875.531 3792
-1454.26 893.771 3871
-1455.08 900.005 3898
-1445.76 900.005 3898
-1436.44 900.005 3898
-1413.94 891.693 3862
-1401.43 889.615 3853
-1392.22 889.615 3853
-1370.44 881.534 3818
-1352.04 875.531 3792
-1342.97 875.531 3792
-1333.91 875.531 3792
-1318.55 871.375 3774
-1297.73 863.524 3740
-1274.65 854.058 3699
-1265.81 854.058 3699
-1254.24 852.211 3691
-1245.42 852.211 3691
-1228.55 846.669 3667
-1219.78 846.669 3667
-1211.01 846.669 3667
-1202.24 846.669 3667
-1183.06 839.281 3635
-1166.62 833.74 3611
-1157.98 833.74 3611
-1136.93 824.735 3572
-514.596 400.361 1734
-510.45 400.361 1734
-506.303 400.361 1734
-502.157 400.361 1734
-498.01 400.361 1734
-493.294 399.9 1732
-489.152 399.9 1732
-484.17 399.207 1729
-480.036 399.207 1729
-475.901 399.207 1729
-471.767 399.207 1729
-466.55 398.283 1725
-462.425 398.283 1725
-457.503 397.591 1722
-452.859 397.129 1720
-447.702 396.205 1716
-442.823 395.513 1713
-438.727 395.513 1713
-434.123 395.051 1711
-428.775 393.896 1706
-423.7 392.973 1702
-419.63 392.973 1702
-413.85 391.357 1695
-408.588 390.202 1690
-403.35 389.048 1685
-399.321 389.048 1685
-394.119 387.893 1680
-388.94 386.739 1675
-384.245 386.046 1672
-380.247 386.046 1672
-375.124 384.892 1667
-369.579 383.276 1660
-365.609 383.276 1660
-361.64 383.276 1660
-357.239 382.814 1658
-353.274 382.814 1658
-349.099 382.583 1657
-345.137 382.583 1657
-341.174 382.583 1657
-336.805 382.121 1655
-332.847 382.121 1655
-328.89 382.121 1655
-325.325 382.583 1657
-321.362 382.583 1657
-317.591 382.814 1658
-314.383 383.737 1662
-310.596 383.968 1663
-306.619 383.968 1663
-302.642 383.968 1663
-298.665 383.968 1663
-295.043 384.43 1665
-291.062 384.43 1665
-287.425 384.892 1667
-283.439 384.892 1667
-279.62 385.123 1668
-275.631 385.123 1668
-271.643 385.123 1668
-267.975 385.584 1670
-264.297 386.046 1672
-260.299 386.046 1672
-256.454 386.277 1673
-252.755 386.739 1675
-249.047 387.201 1677
-245.037 387.201 1677
-241.458 387.893 1680
-237.723 388.355 1682
-234.118 389.048 1685
-230.088 389.048 1685
-226.327 389.51 1687
-222.557 389.971 1689
-218.647 390.202 1690
-214.606 390.202 1690
-211.188 391.357 1695
-207.623 392.28 1699
-203.92 392.973 1702
-199.85 392.973 1702
-196.585 394.589 1709
-192.723 395.051 1711
-188.632 395.051 1711
-184.54 395.051 1711
-362.825 919.399 3982
-353.302 919.399 3982
-343.78 919.399 3982
-332.663 915.013 3963
-323.186 915.013 3963
-312.918 912.704 3953
-303.465 912.704 3953
-294.013 912.704 3953
-283.912 910.626 3944
-273.854 908.548 3935
-264.444 908.548 3935
-254.386 906.239 3925
-245.001 906.239 3925
-236.755 910.626 3944
-227.324 910.626 3944
-217.893 910.626 3944
-208.937 912.704 3953
-199.484 912.704 3953
-190.031 912.704 3953
-180.579 912.704 3953
-171.126 912.704 3953
-161.305 910.626 3944
-151.527 908.548 3935
-142.117 908.548 3935
-129.942 889.615 3853
-119.068 877.378 3800
-109.749 875.531 3792
-100.681 875.531 3792
-91.1787 871.375 3774
-81.4138 863.524 3740
-71.6758 854.058 3699
-62.8304 854.058 3699
-53.518 846.669 3667
-44.444 840.897 3642
-35.6662 839.281 3635
-26.9738 839.281 3635
-18.1205 831.893 3603
-9.42281 824.735 3572
-0.877375 821.272 3557
7.59632 817.808 3542
16.0663 817.808 3542
24.5363 817.808 3542
32.9318 815.961 3534
41.3826 815.961 3534
49.8335 815.961 3534
58.2844 815.961 3534
66.603 814.345 3527
75.0372 814.345 3527
83.4713 814.345 3527
91.9054 814.345 3527
100.14 812.729 3520
108.311 810.882 3512
116.709 810.882 3512
125.108 810.882 3512
133.506 810.882 3512
141.904 810.882 3512
150.302 810.882 3512
158.701 810.882 3512
167.099 810.882 3512
175.147 809.266 3505
183.529 809.266 3505
191.91 809.266 3505
200.292 809.266 3505
209.09 810.882 3512
217.488 810.882 3512
225.887 810.882 3512
234.285 810.882 3512
243.236 812.729 3520
251.653 812.729 3520
260.071 812.729 3520
268.488 812.729 3520
276.906 812.729 3520
287.674 819.425 3549
296.828 821.272 3557
305.334 821.272 3557
313.84 821.272 3557
322.345 821.272 3557
331.595 823.119 3565
340.12 823.119 3565
349.33 824.735 3572
357.872 824.735 3572
366.414 824.735 3572
374.955 824.735 3572
381.028 819.425 3549
387.868 815.961 3534
396.319 815.961 3534
401.448 809.266 3505
408.076 805.802 3490
415.586 804.186 3483
423.063 802.57 3476
431.375 802.57 3476
436.019 795.874 3447
440.653 789.409 3419
447.91 787.793 3412
456.069 787.793 3412
456.745 775.094 3357
460.066 767.244 3323
465.195 762.626 3303
473.094 762.626 3303
480.118 761.241 3297
488.003 761.241 3297
495.887 761.241 3297
503.771 761.241 3297
511.655 761.241 3297
519.539 761.241 3297
528.383 762.626 3303
536.281 762.626 3303
544.18 762.626 3303
552.078 762.626 3303
559.977 762.626 3303
569.079 764.242 3310
578.214 765.858 3317
586.146 765.858 3317
594.078 765.858 3317
603.099 767.244 3323
611.045 767.244 3323
618.992 767.244 3323
629.579 770.476 3337
638.706 771.862 3343
646.7 771.862 3343
654.694 771.862 3343
662.688 771.862 3343
669.478 770.476 3337
677.458 770.476 3337
685.438 770.476 3337
691.963 768.86 3330
698.455 767.244 3323
706.401 767.244 3323
714.347 767.244 3323
722.294 767.244 3323
728.921 765.858 3317
736.853 765.858 3317
744.785 765.858 3317
752.717 765.858 3317
759.044 764.242 3310
766.959 764.242 3310
774.874 764.242 3310
782.79 764.242 3310
790.705 764.242 3310
798.62 764.242 3310
808.241 765.858 3317
816.173 765.858 3317
824.105 765.858 3317
833.542 767.244 3323
845.033 770.476 3337
853.013 770.476 3337
866.153 775.094 3357
877.566 778.096 3370
892.983 784.56 3398
901.109 784.56 3398
912.981 787.793 3412
930.589 795.874 3447
944.551 800.723 3468
952.844 800.723 3468
971.391 809.266 3505
985.923 814.345 3527
998.586 817.808 3542
1007.06 817.808 3542
1019.83 821.272 3557
1034.98 826.582 3580
1050.25 831.893 3603
1061.21 833.74 3611
1069.85 833.74 3611
1085.65 839.281 3635
1096.45 840.897 3642
1107.59 842.744 3650
1116.32 842.744 3650
1127.51 844.591 3658
1136.26 844.591 3658
1145.01 844.591 3658
1151.23 842.744 3650
1159.96 842.744 3650
1168.69 842.744 3650
1177.41 842.744 3650
1186.14 842.744 3650
1194.87 842.744 3650
1200.96 840.897 3642
1209.67 840.897 3642
1218.38 840.897 3642
1227.09 840.897 3642
1235.8 840.897 3642
1244.51 840.897 3642
1253.22 840.897 3642
1259.5 839.281 3635
1270.63 840.897 3642
1279.34 840.897 3642
1288.05 840.897 3642
1296.76 840.897 3642
1302.96 839.281 3635
1311.65 839.281 3635
1320.35 839.281 3635
1329.04 839.281 3635
1337.73 839.281 3635
1346.42 839.281 3635
1355.12 839.281 3635
1363.81 839.281 3635
1372.5 839.281 3635
1378.15 837.434 3627
1386.83 837.434 3627
1395.5 837.434 3627
1401.08 835.587 3619
1403.5 831.893 3603
1412.11 831.893 3603
1417.57 830.046 3595
1423.39 828.429 3588
1428.78 826.582 3580
1431.32 823.119 3565
1439.84 823.119 3565
1439.03 817.808 3542
1441.37 814.345 3527
1449.8 814.345 3527
1458.23 814.345 3527
1460.43 810.882 3512
1468.83 810.882 3512
1470.92 807.418 3497
1479.28 807.418 3497
1487.64 807.418 3497
1499.43 809.266 3505
1517.27 814.345 3527
1535.22 819.425 3549
1543.71 819.425 3549
1569.25 828.429 3588
1587.95 833.74 3611
1603.66 837.434 3627
1612.33 837.434 3627
1627.71 840.897 3642
1662.03 854.058 3699
1720.56 879.456 3809
1729.67 879.456 3809
1783.52 902.083 3907
1809.84 910.626 3944
1828.03 915.013 3963
1837.51 915.013 3963
1855.84 919.399 3982
1869.58 921.477 3991
1879.12 921.477 3991
1888.67 921.477 3991
1898.21 921.477 3991
1907.75 921.477 3991
1912.97 919.399 3982
1922.5 919.399 3982
1917.95 912.704 3953
1918.62 908.548 3935
1918.72 904.161 3916
1928.09 904.161 3916
1915.19 893.771 3871
1889.15 877.378 3800
1881.25 869.528 3766
1890.26 869.528 3766
1886.15 863.524 3740
1870.27 852.211 3691
1858.22 842.744 3650
1855.18 837.434 3627
1863.86 837.434 3627
1872.53 837.434 3627
1881.2 837.434 3627
1889.88 837.434 3627
1898.55 837.434 3627
1907.22 837.434 3627
1915.9 837.434 3627
1945.79 846.669 3667
1967.35 852.211 3691
1976.18 852.211 3691
1989.31 854.058 3699
2002.48 855.905 3707
2020.56 859.83 3724
2033.83 861.677 3732
2061.36 869.528 3766
2089.06 877.378 3800
2122.44 887.537 3844
2141.62 891.693 3862
2150.85 891.693 3862
2190.29 904.161 3916
2204.71 906.239 3925
2214.1 906.239 3925
2223.48 906.239 3925
2232.87 906.239 3925
2247.97 908.548 3935
2257.38 908.548 3935
2266.79 908.548 3935
2281.4 910.626 3944
2307.1 917.091 3972
2327.68 921.477 3991
2337.22 921.477 3991
2352.64 923.786 4001
2367.52 925.864 4010
2383.04 928.173 4020
2392.66 928.173 4020
2408.24 930.482 4030
2423.28 932.56 4039
2444.99 937.178 4059
2454.69 937.178 4059
2464.4 937.178 4059
2474.11 937.178 4059
2483.81 937.178 4059
2493.52 937.178 4059
2503.22 937.178 4059
2512.93 937.178 4059
2522.64 937.178 4059
2532.34 937.178 4059
2535.79 934.869 4049
2545.47 934.869 4049
2555.15 934.869 4049
2564.83 934.869 4049
2574.52 934.869 4049
2584.2 934.869 4049
2593.88 934.869 4049
2603.56 934.869 4049
2613.25 934.869 4049
2622.93 934.869 4049
2620.26 930.482 4030
2629.89 930.482 4030
2632.98 928.173 4020
2642.59 928.173 4020
2645.61 925.864 4010
2617.46 912.704 3953
2626.91 912.704 3953
2630.36 910.626 3944
2584.91 891.693 3862
2564.59 881.534 3818
2573.72 881.534 3818
2565.26 875.531 3792
2550.56 867.45 3757
2531.62 857.983 3716
2523.41 852.211 3691
2532.24 852.211 3691
2524.54 846.669 3667
534.302 166.471 721
536.026 166.471 721
537.751 166.471 721
539.475 166.471 721
540.448 166.24 720
542.17 166.24 720
543.892 166.24 720
545.613 166.24 720
547.335 166.24 720
549.057 166.24 720
550.779 166.24 720
-2361.48 735.779 3154
-2353.94 735.779 3154
-2346.39 735.779 3154
-2338.85 735.779 3154
-2326.87 734.379 3148
-2319.35 734.379 3148
-2311.82 734.379 3148
-2299.9 732.98 3142
-2279.25 728.78 3124
-2284.87 732.98 3142
-2277.36 732.98 3142
-2282.85 737.179 3160
-2296.89 744.177 3190
-2297.88 746.977 3202
-2290.22 746.977 3202
-2313.93 757.241 3246
-2346.66 770.538 3303
-2338.76 770.538 3303
-2330.86 770.538 3303
-2465.03 817.662 3505
-2487.49 827.926 3549
-2479 827.926 3549
-2481.65 831.659 3565
-2477.98 833.292 3572
-2474.97 835.158 3580
-2466.41 835.158 3580
-2463.34 837.024 3588
-2454.76 837.024 3588
-2446.18 837.024 3588
-2437.6 837.024 3588
-2423.61 835.158 3580
-2409.65 833.292 3572
-2401.11 833.292 3572
-2387.88 831.659 3565
-2379.35 831.659 3565
-2365.51 829.793 3557
-2357 829.793 3557
-2348.5 829.793 3557
-2339.99 829.793 3557
-2331.48 829.793 3557
-2322.98 829.793 3557
-2314.47 829.793 3557
-2300.78 827.926 3549
-2292.29 827.926 3549
-2288.96 829.793 3557
-2280.45 829.793 3557
-2271.94 829.793 3557
-2268.53 831.659 3565
-2269.51 835.158 3580
-2260.95 835.158 3580
-2252.39 835.158 3580
-2248.84 837.024 3588
-2244.63 838.657 3595
-2236.04 838.657 3595
-2227.44 838.657 3595
-2218.84 838.657 3595
-2210.25 838.657 3595
-2206.55 840.524 3603
-2197.93 840.524 3603
-2194.18 842.39 3611
-2190.39 844.256 3619
-2186.56 846.122 3627
-2177.88 846.122 3627
-2173.99 847.989 3635
-2169.47 849.622 3642
-2165.51 851.488 3650
-2156.78 851.488 3650
-2148.05 851.488 3650
-2139.32 851.488 3650
-2130.59 851.488 3650
-2117.22 849.622 3642
-2108.51 849.622 3642
-2099.8 849.622 3642
-2091.09 849.622 3642
-2082.38 849.622 3642
-2073.67 849.622 3642
-2069.5 851.488 3650
-2065.29 853.354 3658
-2056.54 853.354 3658
-2057.31 857.32 3675
-2071.37 866.885 3716
-2062.49 866.885 3716
-2053.6 866.885 3716
-2044.72 866.885 3716
-2017.75 859.186 3683
-2008.94 859.186 3683
-2000.14 859.186 3683
-1991.33 859.186 3683
-1991.13 862.919 3699
-1986.58 864.785 3707
-1977.71 864.785 3707
-1973.63 866.885 3716
-1964.74 866.885 3716
-1955.85 866.885 3716
-1946.97 866.885 3716
-1929.22 862.919 3699
-1920.37 862.919 3699
