ply
format ascii 1.0
comment File generated
element vertex 2250
property float x
property float y
property float z
end_header
-540.679 217.256 1765
-534.938 216.64 1760
-528.317 215.655 1752
-522.632 215.04 1747
-518.454 215.04 1747
-513.099 214.548 1743
-507.471 213.932 1738
-502.157 213.44 1734
-498.01 213.44 1734
-492.439 212.824 1729
-487.175 212.332 1725
-482.21 211.963 1722
-478.092 211.963 1722
-472.874 211.47 1718
-467.947 211.101 1715
-462.223 210.362 1709
-457.332 209.993 1706
-453.252 209.993 1706
-448.12 209.501 1702
-442.223 208.639 1695
-437.912 208.516 1694
-433.861 208.516 1694
-428.541 207.901 1689
-424.502 207.901 1689
-418.97 207.162 1683
-414.945 207.162 1683
-410.676 207.039 1682
-406.171 206.793 1680
-401.675 206.547 1678
-397.662 206.547 1678
-393.415 206.424 1677
-388.94 206.177 1675
-384.245 205.808 1672
-380.247 205.808 1672
-376.249 205.808 1672
-372.25 205.808 1672
-367.812 205.562 1670
-363.818 205.562 1670
-359.825 205.562 1670
-354.766 204.946 1665
-350.784 204.946 1665
-347.219 205.193 1667
-343.439 205.316 1668
-339.45 205.316 1668
-335.462 205.316 1668
-331.274 205.193 1667
-327.288 205.193 1667
-323.302 205.193 1667
-319.315 205.193 1667
-314.951 204.946 1665
-310.969 204.946 1665
-306.619 204.7 1663
-302.642 204.7 1663
-298.665 204.7 1663
-295.043 204.946 1665
-291.062 204.946 1665
-287.08 204.946 1665
-283.099 204.946 1665
-279.117 204.946 1665
-275.136 204.946 1665
-271.154 204.946 1665
-267.173 204.946 1665
-263.507 205.193 1667
-259.521 205.193 1667
-255.994 205.562 1670
-252.303 205.808 1672
-248.304 205.808 1672
-244.306 205.808 1672
-240.308 205.808 1672
-236.31 205.808 1672
-232.311 205.808 1672
-228.313 205.808 1672
-224.315 205.808 1672
-220.317 205.808 1672
-216.318 205.808 1672
-211.812 205.316 1668
-207.824 205.316 1668
-203.468 204.946 1665
-199.247 204.7 1663
-195.27 204.7 1663
-190.603 203.962 1657
-186.416 203.716 1655
-182.238 203.469 1653
-178.285 203.469 1653
-174.332 203.469 1653
-170.276 203.346 1652
-165.621 202.485 1645
-161.687 202.485 1645
-157.753 202.485 1645
-153.82 202.485 1645
-149.795 202.362 1644
-145.864 202.362 1644
-141.932 202.362 1644
-138.001 202.362 1644
-133.744 201.869 1640
-129.822 201.869 1640
-125.9 201.869 1640
-122.35 202.485 1645
-118.561 202.731 1647
-114.97 203.346 1652
-111.02 203.346 1652
-107.264 203.716 1655
-103.618 204.331 1660
-99.6485 204.331 1660
-95.679 204.331 1660
-183.926 470.946 3826
-174.777 470.946 3826
-165.628 470.946 3826
-156.479 470.946 3826
-147.33 470.946 3826
-140.781 479.809 3898
-131.46 479.809 3898
-122.984 483.132 3925
-114.148 485.471 3944
-104.956 486.579 3953
-95.5033 486.579 3953
-86.2681 487.81 3963
-76.9658 488.917 3972
-68.6056 497.164 4039
-58.9471 497.164 4039
-49.8988 503.319 4089
-40.1208 503.319 4089
-30.3427 503.319 4089
-20.5647 503.319 4089
282.555 503.319 4089
292.333 503.319 4089
302.111 503.319 4089
308.838 498.395 4049
315.452 493.595 4010
325.041 493.595 4010
333.045 491.256 3991
340.957 488.917 3972
346.309 483.132 3925
356.601 484.363 3935
366.848 485.471 3944
376.279 485.471 3944
385.71 485.471 3944
393.238 483.132 3925
402.624 483.132 3925
408.231 478.701 3889
412.699 473.162 3844
410.477 460.36 3740
419.421 460.36 3740
423.668 455.314 3699
428.772 451.375 3667
429.905 443.497 3603
434.747 439.681 3572
443.289 439.681 3572
444.241 432.296 3512
450.706 430.449 3497
454.343 426.018 3461
462.619 426.018 3461
470.895 426.018 3461
479.172 426.018 3461
490.546 428.726 3483
499.878 429.588 3490
508.224 429.588 3490
517.605 430.449 3497
525.968 430.449 3497
536.622 432.296 3512
545.02 432.296 3512
558.146 435.988 3542
582.613 448.297 3642
597.979 453.344 3683
606.786 453.344 3683
619.605 456.298 3707
651.696 473.162 3844
676.533 484.363 3935
685.943 484.363 3935
698.534 486.579 3953
707.987 486.579 3953
717.439 486.579 3953
726.892 486.579 3953
734.669 485.471 3944
740.515 483.132 3925
749.901 483.132 3925
759.287 483.132 3925
770.631 484.363 3935
780.041 484.363 3935
789.451 484.363 3935
796.83 483.132 3925
800.67 479.809 3898
809.992 479.809 3898
819.313 479.809 3898
828.634 479.809 3898
837.955 479.809 3898
847.277 479.809 3898
866.707 485.471 3944
882.358 488.917 3972
891.856 488.917 3972
901.355 488.917 3972
910.853 488.917 3972
920.351 488.917 3972
927.742 487.81 3963
937.219 487.81 3963
946.696 487.81 3963
956.173 487.81 3963
965.649 487.81 3963
975.126 487.81 3963
984.603 487.81 3963
994.08 487.81 3963
1003.56 487.81 3963
1015.33 488.917 3972
1024.83 488.917 3972
1034.33 488.917 3972
1043.83 488.917 3972
1048.29 486.579 3953
1057.74 486.579 3953
1062.33 484.363 3935
1071.74 484.363 3935
1078.41 483.132 3925
1080.31 479.809 3898
1084.6 477.593 3880
1093.88 477.593 3880
1103.16 477.593 3880
1120.17 480.916 3907
1132.12 482.024 3916
1149.65 485.471 3944
1159.08 485.471 3944
1168.51 485.471 3944
1180.63 486.579 3953
1195.8 488.917 3972
1205.3 488.917 3972
1220.61 491.256 3991
1239.09 494.826 4020
1248.7 494.826 4020
1258.32 494.826 4020
1273.92 497.164 4039
1293.11 500.857 4069
1309.25 503.319 4089
1319.03 503.319 4089
1328.8 503.319 4089
1338.58 503.319 4089
1348.36 503.319 4089
1487.83 491.256 3991
1497.38 491.256 3991
1510.69 492.487 4001
1534.7 497.164 4039
1555.83 500.857 4069
1565.56 500.857 4069
1575.29 500.857 4069
1692.05 500.857 4069
1701.78 500.857 4069
1711.51 500.857 4069
1717.01 499.626 4059
1730.97 500.857 4069
1740.7 500.857 4069
1750.43 500.857 4069
1760.16 500.857 4069
1765.55 499.626 4059
1770.88 498.395 4049
1776.16 497.164 4039
1785.82 497.164 4039
1795.48 497.164 4039
1805.14 497.164 4039
1814.8 497.164 4039
1833.49 499.626 4059
1843.2 499.626 4059
1852.9 499.626 4059
1858.02 498.395 4049
1867.7 498.395 4049
1872.75 497.164 4039
1873.55 494.826 4020
1887.85 496.057 4030
1897.49 496.057 4030
1907.12 496.057 4030
1916.76 496.057 4030
1926.4 496.057 4030
1922.1 492.487 4001
1931.67 492.487 4001
1804.56 453.344 3683
1813.37 453.344 3683
1822.18 453.344 3683
1791.21 443.497 3603
1780.84 438.819 3565
1777.83 435.988 3542
1786.3 435.988 3542
1787.16 434.142 3527
1795.6 434.142 3527
1804.03 434.142 3527
1812.47 434.142 3527
1817.29 433.28 3520
1817.92 431.434 3505
1826.31 431.434 3505
1834.69 431.434 3505
1843.07 431.434 3505
1851.45 431.434 3505
1863.55 432.296 3512
1871.94 432.296 3512
1884.63 433.28 3520
1893.04 433.28 3520
1901.46 433.28 3520
1905.54 432.296 3512
1913.94 432.296 3512
1902.63 427.864 3476
1930.73 432.296 3512
1959.56 436.85 3549
1985.24 440.666 3580
1993.8 440.666 3580
2015.22 443.497 3603
2023.84 443.497 3603
2224.81 485.471 3944
2234.25 485.471 3944
2254.49 487.81 3963
2274.82 490.148 3982
2284.34 490.148 3982
2293.86 490.148 3982
2297.6 488.917 3972
2312.9 490.148 3982
2327.68 491.256 3991
2337.22 491.256 3991
2369.7 496.057 4030
2402.36 500.857 4069
2423.94 503.319 4089
2433.72 503.319 4089
2443.5 503.319 4089
2453.28 503.319 4089
2463.06 503.319 4089
2472.84 503.319 4089
2551.06 503.319 4089
2560.84 503.319 4089
2570.62 503.319 4089
2574.08 502.088 4079
2583.84 502.088 4079
2593.59 502.088 4079
2603.35 502.088 4079
2613.1 502.088 4079
2622.85 502.088 4079
523.609 91.0873 740
525.378 91.0873 740
527.148 91.0873 740
529.632 91.2104 741
531.404 91.2104 741
533.176 91.2104 741
534.948 91.2104 741
536.72 91.2104 741
538.492 91.2104 741
540.993 91.3335 742
542.767 91.3335 742
544.542 91.3335 742
546.316 91.3335 742
548.09 91.3335 742
549.865 91.3335 742
551.639 91.3335 742
553.413 91.3335 742
555.188 91.3335 742
556.962 91.3335 742
558.736 91.3335 742
560.511 91.3335 742
563.043 91.4566 743
564.819 91.4566 743
566.596 91.4566 743
568.373 91.4566 743
-2330.03 390.514 3112
-2322.59 390.514 3112
-2311.43 389.887 3107
-2304 389.887 3107
-2296.57 389.887 3107
-2289.14 389.887 3107
-2281.71 389.887 3107
-2274.28 389.887 3107
-2283.63 392.773 3130
-2276.14 392.773 3130
-2268.66 392.773 3130
-2265.51 393.526 3136
-2266.65 395.031 3148
-2297.88 401.808 3202
-2290.22 401.808 3202
-2300.38 404.945 3227
-2346.66 414.482 3303
-2406.03 426.403 3398
-2397.9 426.403 3398
-2414.39 430.795 3433
-2420.9 433.43 3454
-2412.64 433.43 3454
-2476.08 446.355 3557
-2483.53 449.242 3580
-2480.5 450.246 3588
-2471.92 450.246 3588
-2463.34 450.246 3588
-2454.76 450.246 3588
-2446.18 450.246 3588
-2437.6 450.246 3588
-2423.61 449.242 3580
-2415.05 449.242 3580
-2406.49 449.242 3580
-2397.93 449.242 3580
-2379.35 447.359 3565
-2370.83 447.359 3565
-2362.3 447.359 3565
-2343.21 445.352 3549
-2330.12 444.473 3542
-2321.65 444.473 3542
-2313.18 444.473 3542
-2304.71 444.473 3542
-2296.24 444.473 3542
-2287.77 444.473 3542
-2279.3 444.473 3542
-2280.45 446.355 3557
-2271.94 446.355 3557
-2263.44 446.355 3557
-2269.51 449.242 3580
-2266 450.246 3588
-2257.42 450.246 3588
-2258.25 452.128 3603
-2249.63 452.128 3603
-2255.94 455.139 3627
-2247.27 455.139 3627
-2268.22 461.163 3675
-2259.43 461.163 3675
-2250.64 461.163 3675
-1968.65 475.845 3792
-2062.42 500.817 3991
-2052.88 500.817 3991
-2043.33 500.817 3991
-2033.79 500.817 3991
-2029.32 502.071 4001
-2019.75 502.071 4001
-2010.18 502.071 4001
-1991.12 499.687 3982
-1981.59 499.687 3982
-1967.12 498.432 3972
-1943.82 494.919 3944
-1880.93 481.241 3835
-1871.76 481.241 3835
-1858.22 480.111 3826
-1849.07 480.111 3826
-1857.23 484.629 3862
-1887.23 494.919 3944
-1877.8 494.919 3944
-1895.37 502.071 4001
-1885.8 502.071 4001
-1876.24 502.071 4001
-1866.67 502.071 4001
-1821.83 492.534 3925
-1812.44 492.534 3925
-1807.65 493.789 3935
-1798.24 493.789 3935
-1788.83 493.789 3935
-1774.9 492.534 3925
-1765.51 492.534 3925
-1744.04 489.146 3898
-1726.71 486.888 3880
-1682.02 476.849 3800
-1692.31 482.37 3844
-1683.12 482.37 3844
-1673.92 482.37 3844
-1664.73 482.37 3844
-1655.54 482.37 3844
-1646.35 482.37 3844
-1618.41 476.849 3800
-1587.73 470.449 3749
-1564.87 466.308 3716
-1555.98 466.308 3716
-1547.09 466.308 3716
-1562.22 473.586 3774
-1553.19 473.586 3774
-1544.17 473.586 3774
-1535.14 473.586 3774
-1533.4 475.845 3792
-1531.16 477.978 3809
-1536.04 482.37 3844
-1526.85 482.37 3844
-1517.66 482.37 3844
-1508.46 482.37 3844
-1499.27 482.37 3844
-1473.02 476.849 3800
-1463.94 476.849 3800
-1454.85 476.849 3800
-1445.76 476.849 3800
-1430.25 474.715 3783
-677.139 235.162 1874
-672.658 235.162 1874
-668.176 235.162 1874
-663.695 235.162 1874
-658.51 234.911 1872
-647.046 232.401 1852
-642.617 232.401 1852
-633.02 230.519 1837
-628.627 230.519 1837
-624.234 230.519 1837
-619.841 230.519 1837
-614.108 230.017 1833
-608.395 229.515 1829
-601.379 228.511 1821
-597.024 228.511 1821
-590.066 227.507 1813
-584.438 227.005 1809
-578.509 226.378 1804
-574.195 226.378 1804
-566.09 224.872 1792
-560.551 224.37 1788
-554.409 223.617 1782
-546.134 221.986 1769
-541.904 221.986 1769
-535.85 221.233 1763
-529.523 220.354 1756
-524.128 219.852 1752
-519.938 219.852 1752
-514.276 219.225 1747
-508.931 218.723 1743
-503.315 218.096 1738
-499.159 218.096 1738
-493.864 217.594 1734
-488.305 216.966 1729
-483.05 216.464 1725
-478.925 216.464 1725
-473.975 216.088 1722
-468.765 215.586 1718
-463.846 215.209 1715
-458.672 214.707 1711
-454.581 214.707 1711
-449.173 214.08 1706
-444.05 213.578 1702
-439.204 213.202 1699
-435.141 213.202 1699
-429.81 212.574 1694
-425.256 212.323 1692
-420.463 211.947 1689
-416.424 211.947 1689
-411.897 211.696 1687
-406.896 211.194 1683
-402.153 210.817 1680
-398.136 210.817 1680
-393.649 210.566 1678
-389.405 210.441 1677
-385.394 210.441 1677
-381.384 210.441 1677
-376.474 209.939 1673
-372.25 209.813 1672
-368.252 209.813 1672
-364.254 209.813 1672
-360.256 209.813 1672
-355.192 209.186 1667
-351.206 209.186 1667
-347.219 209.186 1667
-343.439 209.311 1668
-339.45 209.311 1668
-335.462 209.311 1668
-331.473 209.311 1668
-327.484 209.311 1668
-323.496 209.311 1668
-319.315 209.186 1667
-315.329 209.186 1667
-311.343 209.186 1667
-306.619 208.684 1663
-302.642 208.684 1663
-298.665 208.684 1663
-295.043 208.935 1665
-291.062 208.935 1665
-287.08 208.935 1665
-283.099 208.935 1665
-279.117 208.935 1665
-275.136 208.935 1665
-271.154 208.935 1665
-267.173 208.935 1665
-263.507 209.186 1667
-259.521 209.186 1667
-255.994 209.562 1670
-252.303 209.813 1672
-248.304 209.813 1672
-244.306 209.813 1672
-240.308 209.813 1672
-236.027 209.562 1670
-232.311 209.813 1672
-228.313 209.813 1672
-224.315 209.813 1672
-220.317 209.813 1672
-216.318 209.813 1672
-211.812 209.311 1668
-207.699 209.186 1667
-203.468 208.935 1665
-199.247 208.684 1663
-195.27 208.684 1663
-190.603 207.931 1657
-186.416 207.68 1655
-182.238 207.429 1653
-178.285 207.429 1653
-174.332 207.429 1653
-170.276 207.304 1652
-165.621 206.425 1645
-161.687 206.425 1645
-157.753 206.425 1645
-153.82 206.425 1645
-149.795 206.3 1644
-145.864 206.3 1644
-141.932 206.3 1644
-137.833 206.049 1642
-133.744 205.798 1640
-129.822 205.798 1640
-125.9 205.798 1640
-122.127 206.049 1642
-118.201 206.049 1642
-114.692 206.802 1648
-110.751 206.802 1648
-107.264 207.68 1655
-103.306 207.68 1655
-99.3484 207.68 1655
-95.3908 207.68 1655
-182.676 476.849 3800
-174.001 477.978 3809
-164.892 477.978 3809
-156.479 480.111 3826
-147.676 481.241 3835
-141.431 491.405 3916
-132.067 491.405 3916
-123.58 494.919 3944
-114.698 497.303 3963
-105.461 498.432 3972
-95.9623 498.432 3972
-86.8776 500.817 3991
-77.8959 504.456 4020
-68.9453 509.35 4059
-59.239 509.35 4059
-49.8988 513.114 4089
-40.1208 513.114 4089
-30.3427 513.114 4089
282.555 513.114 4089
292.333 513.114 4089
302.111 513.114 4089
306.626 504.456 4020
313.957 500.817 3991
323.501 500.817 3991
331.459 498.432 3972
339.327 496.048 3953
344.721 490.276 3907
354.064 490.276 3907
363.406 490.276 3907
372.749 490.276 3907
382.092 490.276 3907
390.533 489.146 3898
399.854 489.146 3898
404.452 483.499 3853
407.976 476.849 3800
407.843 466.308 3716
416.729 466.308 3716
421.836 462.167 3683
425.849 457.022 3642
429.905 452.128 3603
435.721 449.242 3580
444.282 449.242 3580
447.024 443.469 3534
451.737 439.83 3505
458.15 437.948 3490
466.495 437.948 3490
472.936 436.191 3476
481.248 436.191 3476
490.546 437.069 3483
499.878 437.948 3490
508.224 437.948 3490
516.569 437.948 3490
524.915 437.948 3490
533.261 437.948 3490
541.606 437.948 3490
556.885 443.469 3534
582.613 457.022 3642
597.979 462.167 3683
606.786 462.167 3683
619.605 465.178 3707
650.17 481.241 3835
676.533 493.789 3935
685.943 493.789 3935
698.534 496.048 3953
707.987 496.048 3953
717.439 496.048 3953
726.892 496.048 3953
734.669 494.919 3944
740.515 492.534 3925
749.901 492.534 3925
759.287 492.534 3925
770.631 493.789 3935
780.041 493.789 3935
789.451 493.789 3935
796.83 492.534 3925
806.216 492.534 3925
815.602 492.534 3925
823.096 491.405 3916
832.461 491.405 3916
841.825 491.405 3916
857.275 494.919 3944
877.035 500.817 3991
886.579 500.817 3991
896.122 500.817 3991
907.935 502.071 4001
917.503 502.071 4001
927.071 502.071 4001
934.297 500.817 3991
943.841 500.817 3991
948.846 498.432 3972
958.344 498.432 3972
967.842 498.432 3972
977.341 498.432 3972
986.839 498.432 3972
996.337 498.432 3972
1003.56 497.303 3963
1010.48 496.048 3953
1019.93 496.048 3953
1029.38 496.048 3953
1038.84 496.048 3953
1045.9 494.919 3944
1052.92 493.789 3935
1059.63 492.534 3925
1069.02 492.534 3925
1073.46 490.276 3907
1075.32 486.888 3880
1079.57 484.629 3862
1088.8 484.629 3862
1095.48 483.499 3853
1109.85 485.758 3871
1124.31 488.017 3889
1136.24 489.146 3898
1145.56 489.146 3898
1157.55 490.276 3907
1175.25 493.789 3935
1190.08 496.048 3953
1199.53 496.048 3953
1214.8 498.432 3972
1230.15 500.817 3991
1245.6 503.201 4010
1255.19 503.201 4010
1271.08 505.711 4030
1289.94 509.35 4059
1302.84 510.605 4069
1312.57 510.605 4069
1328.8 513.114 4089
1338.58 513.114 4089
1348.36 513.114 4089
1700.37 513.114 4089
1710.15 513.114 4089
1719.93 513.114 4089
1721.24 510.605 4069
1735.23 511.859 4079
1744.98 511.859 4079
1754.74 511.859 4079
1764.49 511.859 4079
1769.9 510.605 4069
1775.25 509.35 4059
1780.56 508.095 4049
1790.24 508.095 4049
1799.93 508.095 4049
1814.08 509.35 4059
1823.78 509.35 4059
1838.01 510.605 4069
1847.74 510.605 4069
1857.47 510.605 4069
1867.2 510.605 4069
1876.93 510.605 4069
1877.38 508.095 4049
1882.41 506.84 4039
1896.75 508.095 4049
1911.14 509.35 4059
1920.85 509.35 4059
1930.55 509.35 4059
1935.48 508.095 4049
1931.23 504.456 4020
1940.84 504.456 4020
1836.22 472.582 3766
1845.23 472.582 3766
1854.23 472.582 3766
1838.5 466.308 3716
1810.6 457.022 3642
1788.34 449.242 3580
1792.88 448.238 3572
1801.42 448.238 3572
1806.42 447.359 3565
1803.24 444.473 3542
1807.61 443.469 3534
1816.06 443.469 3534
1820.9 442.591 3527
1825.7 441.712 3520
1834.12 441.712 3520
1842.54 441.712 3520
1850.96 441.712 3520
1859.37 441.712 3520
1863.55 440.709 3512
1871.94 440.709 3512
1884.63 441.712 3520
1893.04 441.712 3520
1901.46 441.712 3520
1909.88 441.712 3520
1918.3 441.712 3520
1926.71 441.712 3520
1947.23 444.473 3542
1976.68 449.242 3580
1997.99 452.128 3603
2006.61 452.128 3603
2015.22 452.128 3603
2023.84 452.128 3603
2224.81 494.919 3944
2234.25 494.919 3944
2265.29 499.687 3982
2279.96 500.817 3991
2289.5 500.817 3991
2299.04 500.817 3991
2303.38 499.687 3982
2318.13 500.817 3991
2350.42 505.711 4030
2360.06 505.711 4030
2380.87 508.095 4049
2402.36 510.605 4069
2418.02 511.859 4079
2427.77 511.859 4079
2443.5 513.114 4089
2453.28 513.114 4089
2463.06 513.114 4089
2472.84 513.114 4089
2541.28 513.114 4089
2551.06 513.114 4089
2560.84 513.114 4089
2570.62 513.114 4089
2574.08 511.859 4079
2583.84 511.859 4079
2593.59 511.859 4079
2603.35 511.859 4079
2613.1 511.859 4079
2622.85 511.859 4079
523.609 92.86 740
525.378 92.86 740
527.148 92.86 740
528.917 92.86 740
531.404 92.9855 741
533.176 92.9855 741
534.948 92.9855 741
535.995 92.86 740
538.492 92.9855 741
540.993 93.111 742
542.767 93.111 742
544.542 93.111 742
546.316 93.111 742
548.09 93.111 742
549.865 93.111 742
550.895 92.9855 741
552.667 92.9855 741
555.188 93.111 742
556.962 93.111 742
558.736 93.111 742
560.511 93.111 742
562.285 93.111 742
564.819 93.2365 743
566.596 93.2365 743
568.373 93.2365 743
-2330.03 397.969 3112
-2322.59 397.969 3112
-2311.43 397.329 3107
-2304 397.329 3107
-2296.57 397.329 3107
-2289.14 397.329 3107
-2281.71 397.329 3107
-2274.28 397.329 3107
-2283.63 400.271 3130
-2276.14 400.271 3130
-2268.66 400.271 3130
-2265.51 401.038 3136
-2266.65 402.573 3148
-2297.88 409.478 3202
-2290.22 409.478 3202
-2300.38 412.675 3227
-2346.66 422.394 3303
-2406.03 434.543 3398
-2397.9 434.543 3398
-2414.39 439.019 3433
-2420.9 441.704 3454
-2412.64 441.704 3454
-2476.08 454.876 3557
-2483.53 457.818 3580
-2480.5 458.841 3588
-2471.92 458.841 3588
-2463.34 458.841 3588
-2454.76 458.841 3588
-2446.18 458.841 3588
-2437.6 458.841 3588
-2423.61 457.818 3580
-2415.05 457.818 3580
-2406.49 457.818 3580
-2397.93 457.818 3580
-2379.35 455.899 3565
-2370.83 455.899 3565
-2362.3 455.899 3565
-2343.21 453.853 3549
-2330.12 452.958 3542
-2321.65 452.958 3542
-2307.96 451.935 3534
-2299.51 451.935 3534
-2291.06 451.935 3534
-2278.08 451.04 3527
-2269.65 451.04 3527
-2265.7 451.935 3534
-2257.25 451.935 3534
-2248.8 451.935 3534
-2254.93 454.876 3557
-2255.9 456.794 3572
-2247.36 456.794 3572
-2253.23 459.736 3595
-2244.63 459.736 3595
-2255.94 463.828 3627
-2247.27 463.828 3627
-2252.79 466.769 3650
-2244.06 466.769 3650
-2235.33 466.769 3650
-2062.42 510.377 3991
-2052.88 510.377 3991
-2043.33 510.377 3991
-2033.79 510.377 3991
-2029.32 511.656 4001
-2019.75 511.656 4001
-2010.18 511.656 4001
-1991.12 509.226 3982
-1981.59 509.226 3982
-1967.12 507.947 3972
-1943.82 504.367 3944
-1880.93 490.427 3835
-1871.76 490.427 3835
-1858.22 489.277 3826
-1849.07 489.277 3826
-1857.23 493.88 3862
-1887.23 504.367 3944
-1877.8 504.367 3944
-1895.37 511.656 4001
-1885.8 511.656 4001
-1876.24 511.656 4001
-1866.67 511.656 4001
-1796.76 495.031 3871
-1791.66 496.182 3880
-1782.38 496.182 3880
-1773.1 496.182 3880
-1763.83 496.182 3880
-1750.48 495.031 3871
-1741.22 495.031 3871
-1731.96 495.031 3871
-1679.54 482.627 3774
-1674.5 483.778 3783
-1680.86 488.253 3818
-1683.12 491.578 3844
-1673.92 491.578 3844
-1664.73 491.578 3844
-1647.79 489.277 3826
-1638.64 489.277 3826
-1611.17 483.778 3783
-1583.92 478.279 3740
-1564.87 475.21 3716
-1555.98 475.21 3716
-1547.09 475.21 3716
-1562.22 482.627 3774
-1553.19 482.627 3774
-1544.17 482.627 3774
-1535.14 482.627 3774
-1533.4 484.929 3792
-1531.16 487.103 3809
-1536.04 491.578 3844
-1526.85 491.578 3844
-1517.66 491.578 3844
-1508.46 491.578 3844
-1499.27 491.578 3844
-1473.02 485.952 3800
-1463.94 485.952 3800
-1454.85 485.952 3800
-1445.76 485.952 3800
-1430.25 483.778 3783
-677.139 239.651 1874
-672.658 239.651 1874
-668.176 239.651 1874
-663.695 239.651 1874
-658.51 239.395 1872
-647.046 236.837 1852
-642.617 236.837 1852
-633.02 234.919 1837
-627.258 234.408 1833
-622.875 234.408 1833
-618.492 234.408 1833
-612.768 233.896 1829
-606.399 233.129 1823
-600.058 232.362 1817
-595.713 232.362 1817
-590.066 231.85 1813
-583.792 231.083 1807
-578.509 230.699 1804
-574.195 230.699 1804
-566.09 229.165 1792
-560.551 228.653 1788
-554.409 227.886 1782
-546.134 226.223 1769
-541.904 226.223 1769
-535.85 225.456 1763
-529.523 224.561 1756
-524.128 224.049 1752
-519.938 224.049 1752
-514.276 223.41 1747
-508.931 222.898 1743
-503.315 222.259 1738
-499.159 222.259 1738
-493.864 221.747 1734
-488.305 221.108 1729
-483.05 220.596 1725
-478.925 220.596 1725
-473.975 220.213 1722
-468.765 219.701 1718
-463.846 219.318 1715
-458.672 218.806 1711
-454.581 218.806 1711
-449.173 218.167 1706
-444.05 217.655 1702
-439.204 217.272 1699
-435.141 217.272 1699
-429.81 216.632 1694
-425.256 216.376 1692
-420.463 215.993 1689
-416.424 215.993 1689
-411.897 215.737 1687
-406.896 215.225 1683
-402.153 214.842 1680
-398.136 214.842 1680
-393.649 214.586 1678
-389.405 214.458 1677
-385.394 214.458 1677
-381.384 214.458 1677
-376.924 214.202 1675
-372.918 214.202 1675
-368.913 214.202 1675
-364.908 214.202 1675
-360.902 214.202 1675
-356.257 213.819 1672
-351.838 213.563 1670
-347.844 213.563 1670
-343.851 213.563 1670
-339.857 213.563 1670
-335.864 213.563 1670
-331.87 213.563 1670
-327.877 213.563 1670
-323.496 213.307 1668
-319.507 213.307 1668
-315.518 213.307 1668
-311.53 213.307 1668
-306.988 212.924 1665
-303.006 212.924 1665
-299.025 212.924 1665
-295.043 212.924 1665
-291.062 212.924 1665
-287.08 212.924 1665
-283.099 212.924 1665
-279.117 212.924 1665
-275.136 212.924 1665
-271.154 212.924 1665
-267.173 212.924 1665
-263.507 213.179 1667
-259.521 213.179 1667
-255.994 213.563 1670
-252.001 213.563 1670
-248.007 213.563 1670
-244.014 213.563 1670
-240.02 213.563 1670
-236.027 213.563 1670
-232.311 213.819 1672
-228.313 213.819 1672
-224.315 213.819 1672
-220.317 213.819 1672
-216.318 213.819 1672
-211.812 213.307 1668
-207.699 213.179 1667
-203.468 212.924 1665
-199.247 212.668 1663
-195.27 212.668 1663
-190.603 211.9 1657
-186.416 211.645 1655
-182.238 211.389 1653
-178.285 211.389 1653
-174.332 211.389 1653
-170.276 211.261 1652
-165.822 210.622 1647
-161.884 210.622 1647
-157.753 210.366 1645
-153.82 210.366 1645
-149.886 210.366 1645
-145.952 210.366 1645
-141.932 210.238 1644
-138.001 210.238 1644
-133.744 209.726 1640
-129.822 209.726 1640
-125.9 209.726 1640
-122.276 210.238 1644
-118.345 210.238 1644
-114.831 211.005 1650
-110.885 211.005 1650
-107.264 211.645 1655
-103.306 211.645 1655
-99.3484 211.645 1655
-95.3908 211.645 1655
-182.676 485.952 3800
-174.001 487.103 3809
-164.892 487.103 3809
-156.479 489.277 3826
-148.023 491.578 3844
-141.431 500.786 3916
-132.067 500.786 3916
-123.58 504.367 3944
-114.959 507.947 3972
-105.965 510.377 3991
-96.4213 510.377 3991
-87.5089 514.086 4020
-78.2641 516.515 4039
-69.1152 520.352 4069
-59.3849 520.352 4069
-49.8988 522.909 4089
-40.1208 522.909 4089
-30.3427 522.909 4089
282.555 522.909 4089
292.333 522.909 4089
302.111 522.909 4089
306.626 514.086 4020
313.957 510.377 3991
323.501 510.377 3991
331.459 507.947 3972
339.327 505.518 3953
344.721 499.635 3907
354.064 499.635 3907
363.406 499.635 3907
372.749 499.635 3907
382.092 499.635 3907
390.533 498.484 3898
399.854 498.484 3898
404.452 492.729 3853
407.976 485.952 3800
407.843 475.21 3716
416.729 475.21 3716
421.836 470.989 3683
425.849 465.746 3642
429.905 460.759 3603
435.721 457.818 3580
444.282 457.818 3580
447.024 451.935 3534
452.64 449.122 3512
458.15 446.308 3490
466.495 446.308 3490
473.889 445.413 3483
481.248 444.518 3476
490.546 445.413 3483
499.878 446.308 3490
508.224 446.308 3490
516.569 446.308 3490
524.915 446.308 3490
533.261 446.308 3490
541.606 446.308 3490
556.885 451.935 3534
582.613 465.746 3642
597.979 470.989 3683
606.786 470.989 3683
619.605 474.059 3707
650.17 490.427 3835
676.533 503.216 3935
685.943 503.216 3935
698.534 505.518 3953
707.987 505.518 3953
717.439 505.518 3953
726.892 505.518 3953
734.669 504.367 3944
740.515 501.937 3925
749.901 501.937 3925
759.287 501.937 3925
770.631 503.216 3935
780.041 503.216 3935
789.451 503.216 3935
796.83 501.937 3925
806.216 501.937 3925
815.602 501.937 3925
823.096 500.786 3916
832.461 500.786 3916
841.825 500.786 3916
857.275 504.367 3944
877.035 510.377 3991
886.579 510.377 3991
896.122 510.377 3991
907.935 511.656 4001
917.503 511.656 4001
927.071 511.656 4001
934.297 510.377 3991
943.841 510.377 3991
951.235 509.226 3982
960.757 509.226 3982
967.842 507.947 3972
977.341 507.947 3972
986.839 507.947 3972
996.337 507.947 3972
1003.56 506.796 3963
1010.48 505.518 3953
1019.93 505.518 3953
1029.38 505.518 3953
1038.84 505.518 3953
1045.9 504.367 3944
1052.92 503.216 3935
1059.63 501.937 3925
1069.02 501.937 3925
1073.46 499.635 3907
1075.32 496.182 3880
1079.57 493.88 3862
1088.8 493.88 3862
1095.48 492.729 3853
1109.85 495.031 3871
1124.31 497.333 3889
1136.24 498.484 3898
1145.56 498.484 3898
1157.55 499.635 3907
1175.25 503.216 3935
1190.08 505.518 3953
1199.53 505.518 3953
1214.8 507.947 3972
1230.15 510.377 3991
1245.6 512.807 4010
1255.19 512.807 4010
1271.08 515.364 4030
1289.94 519.073 4059
1302.84 520.352 4069
1312.57 520.352 4069
1328.8 522.909 4089
1338.58 522.909 4089
1348.36 522.909 4089
1358.14 522.909 4089
1700.37 522.909 4089
1710.15 522.909 4089
1719.93 522.909 4089
1729.7 522.909 4089
1739.48 522.909 4089
1749.26 522.909 4089
1759.04 522.909 4089
1764.49 521.631 4079
1769.9 520.352 4069
1775.25 519.073 4059
1780.56 517.794 4049
1790.24 517.794 4049
1799.93 517.794 4049
1814.08 519.073 4059
1823.78 519.073 4059
1838.01 520.352 4069
1847.74 520.352 4069
1857.47 520.352 4069
1867.2 520.352 4069
1876.93 520.352 4069
1886.66 520.352 4069
1887.07 517.794 4049
1896.75 517.794 4049
1920.56 521.631 4079
1930.31 521.631 4079
1940.06 521.631 4079
1935.48 517.794 4049
1931.23 514.086 4020
1940.84 514.086 4020
1932.02 509.226 3982
1891.81 496.182 3880
1861.89 485.952 3800
1870.97 485.952 3800
1854.83 479.43 3749
1834.96 472.012 3691
1795.83 459.736 3595
1796.9 457.818 3580
1805.46 457.818 3580
1809.97 456.794 3572
1818.51 456.794 3572
1811.71 452.958 3542
1820.18 452.958 3542
1824.52 451.935 3534
1832.97 451.935 3534
1841.42 451.935 3534
1849.87 451.935 3534
1858.32 451.935 3534
1866.77 451.935 3534
1867.79 450.145 3520
1883.67 451.935 3534
1896.41 452.958 3542
1904.88 452.958 3542
1913.35 452.958 3542
1921.82 452.958 3542
1930.29 452.958 3542
1934.38 451.935 3534
1947.23 452.958 3542
2029.13 469.966 3675
2051.23 473.035 3699
2060.07 473.035 3699
2115.9 483.778 3783
2189.54 498.484 3898
2235.53 506.796 3963
2245.01 506.796 3963
2265.29 509.226 3982
2279.96 510.377 3991
2289.5 510.377 3991
2299.04 510.377 3991
2303.38 509.226 3982
2318.13 510.377 3991
2350.42 515.364 4030
2360.06 515.364 4030
2380.87 517.794 4049
2402.36 520.352 4069
2418.02 521.631 4079
2427.77 521.631 4079
2443.5 522.909 4089
2453.28 522.909 4089
2463.06 522.909 4089
2541.28 522.909 4089
2551.06 522.909 4089
2560.84 522.909 4089
2564.33 521.631 4079
2561.46 519.073 4059
2571.17 519.073 4059
2580.87 519.073 4059
2590.58 519.073 4059
2593.88 517.794 4049
2603.56 517.794 4049
525.378 94.6327 740
527.148 94.6327 740
528.917 94.6327 740
530.687 94.6327 740
532.456 94.6327 740
534.226 94.6327 740
535.995 94.6327 740
537.765 94.6327 740
540.264 94.7606 741
542.036 94.7606 741
543.808 94.7606 741
545.58 94.7606 741
547.352 94.7606 741
549.123 94.7606 741
550.895 94.7606 741
552.667 94.7606 741
554.439 94.7606 741
556.211 94.7606 741
557.983 94.7606 741
559.755 94.7606 741
562.285 94.8884 742
564.059 94.8884 742
565.834 94.8884 742
567.608 94.8884 742
-2339.02 406.987 3124
-2331.54 406.987 3124
-2319.61 406.205 3118
-2316.6 406.987 3124
-2309.13 406.987 3124
-2301.66 406.987 3124
-2289.79 406.205 3118
-2277.94 405.424 3112
-2283.63 407.769 3130
-2280.51 408.55 3136
-2273.01 408.55 3136
-2269.84 409.332 3142
-2266.65 410.114 3148
-2297.88 417.149 3202
-2290.22 417.149 3202
-2300.38 420.406 3227
-2346.66 430.307 3303
-2406.03 442.683 3398
-2397.9 442.683 3398
-2414.39 447.243 3433
-2420.9 449.979 3454
-2412.64 449.979 3454
-2486.53 465.351 3572
-2493.94 468.348 3595
-2490.87 469.39 3603
-2482.26 469.39 3603
-2473.64 469.39 3603
-2459.55 468.348 3595
-2450.96 468.348 3595
-2437.6 467.436 3588
-2423.61 466.393 3580
-2415.05 466.393 3580
-2406.49 466.393 3580
-2397.93 466.393 3580
-2379.35 464.439 3565
-2370.83 464.439 3565
-2362.3 464.439 3565
-2343.21 462.355 3549
-2330.12 461.443 3542
-2321.65 461.443 3542
-2307.96 460.401 3534
-2299.51 460.401 3534
-2286.52 459.489 3527
-2273.56 458.577 3520
-2265.15 458.577 3520
-2265.7 460.401 3534
-2257.25 460.401 3534
-2248.8 460.401 3534
-2240.35 460.401 3534
-2251.48 464.439 3565
-2242.95 464.439 3565
-2248.84 467.436 3588
-2240.26 467.436 3588
-2245.99 470.432 3611
-2237.35 470.432 3611
-2238.59 472.517 3627
-2229.92 472.517 3627
-2221.25 472.517 3627
-2067.59 521.24 4001
-2058.02 521.24 4001
-2048.45 521.24 4001
-2033.79 519.938 3991
-2029.32 521.24 4001
-2019.75 521.24 4001
-2010.18 521.24 4001
-1991.12 518.765 3982
-1981.59 518.765 3982
-1972.07 518.765 3982
-1953.18 516.29 3963
-1898.59 504.304 3871
-1889.33 504.304 3871
-1862.59 499.614 3835
-1849.07 498.442 3826
-1857.23 503.132 3862
-1887.23 513.814 3944
-1877.8 513.814 3944
-1890.64 519.938 3991
-1881.09 519.938 3991
-1871.55 519.938 3991
-1862 519.938 3991
-1796.76 504.304 3871
-1787.5 504.304 3871
-1782.38 505.477 3880
-1773.1 505.477 3880
-1763.83 505.477 3880
-1742.34 501.959 3853
-1733.12 501.959 3853
-1700.2 495.055 3800
-1683.54 492.84 3783
-1674.5 492.84 3783
-1680.86 497.4 3818
-1679.17 499.614 3835
-1670 499.614 3835
-1660.83 499.614 3835
-1647.79 498.442 3826
-1638.64 498.442 3826
-1607.34 491.667 3774
-1587.73 488.41 3749
-1574.97 487.238 3740
-1569.8 488.41 3749
-1560.83 488.41 3749
-1569.67 494.012 3792
-1560.6 494.012 3792
-1551.53 494.012 3792
-1542.46 494.012 3792
-1533.4 494.012 3792
-1531.16 496.227 3809
-1532.44 499.614 3835
-1523.27 499.614 3835
-1517.66 500.787 3844
-1508.46 500.787 3844
-1499.27 500.787 3844
-1473.02 495.055 3800
-1463.94 495.055 3800
-1454.85 495.055 3800
-1445.76 495.055 3800
-1433.65 494.012 3792
-1417.82 491.667 3774
-682.559 246.094 1889
-678.042 246.094 1889
-673.524 246.094 1889
-669.007 246.094 1889
-659.214 244.14 1874
-650.54 242.577 1862
-646.087 242.577 1862
-632.331 239.059 1835
-627.258 238.799 1833
-622.875 238.799 1833
-618.492 238.799 1833
-612.768 238.278 1829
-606.399 237.496 1823
-599.397 236.454 1815
-595.057 236.454 1815
-590.066 236.193 1813
-583.792 235.411 1807
-578.509 235.021 1804
-574.195 235.021 1804
-566.09 233.457 1792
-561.178 233.197 1790
-555.031 232.415 1784
-546.134 230.461 1769
-541.904 230.461 1769
-536.458 229.94 1765
-530.126 229.028 1758
-524.726 228.507 1754
-520.531 228.507 1754
-514.865 227.855 1749
-509.515 227.334 1745
-504.184 226.813 1741
-500.02 226.813 1741
-495.003 226.422 1738
-489.717 225.901 1734
-484.17 225.25 1729
-480.036 225.25 1729
-474.8 224.729 1725
-470.675 224.729 1725
-465.198 224.077 1720
-459.745 223.426 1715
-455.643 223.426 1715
-450.489 222.905 1711
-445.876 222.644 1709
-439.98 221.732 1702
-435.91 221.732 1702
-431.586 221.602 1701
-427.016 221.341 1699
-421.957 220.82 1695
-417.904 220.82 1695
-413.606 220.69 1694
-408.347 220.039 1689
-403.35 219.518 1685
-399.321 219.518 1685
-394.822 219.257 1683
-390.566 219.127 1682
-385.624 218.606 1678
-381.612 218.606 1678
-377.374 218.475 1677
-372.918 218.215 1675
-368.913 218.215 1675
-364.908 218.215 1675
-360.902 218.215 1675
-356.257 217.824 1672
-351.838 217.563 1670
-347.844 217.563 1670
-343.851 217.563 1670
-339.857 217.563 1670
-335.864 217.563 1670
-331.87 217.563 1670
-327.877 217.563 1670
-323.496 217.303 1668
-319.507 217.303 1668
-315.518 217.303 1668
-311.53 217.303 1668
-306.988 216.912 1665
-303.006 216.912 1665
-299.025 216.912 1665
-295.043 216.912 1665
-291.062 216.912 1665
-287.08 216.912 1665
-283.099 216.912 1665
-279.117 216.912 1665
-275.136 216.912 1665
-271.154 216.912 1665
-267.173 216.912 1665
-263.507 217.173 1667
-259.521 217.173 1667
-255.994 217.563 1670
-252.001 217.563 1670
-248.007 217.563 1670
-244.014 217.563 1670
-240.02 217.563 1670
-236.027 217.563 1670
-232.311 217.824 1672
-228.313 217.824 1672
-224.315 217.824 1672
-220.317 217.824 1672
-216.318 217.824 1672
-211.812 217.303 1668
-207.699 217.173 1667
-203.468 216.912 1665
-199.247 216.651 1663
-195.27 216.651 1663
-190.373 215.609 1655
-186.416 215.609 1655
-182.238 215.349 1653
-178.285 215.349 1653
-174.332 215.349 1653
-170.276 215.218 1652
-165.822 214.567 1647
-161.884 214.567 1647
-157.753 214.306 1645
-153.82 214.306 1645
-149.886 214.306 1645
-145.952 214.306 1645
-141.932 214.176 1644
-138.001 214.176 1644
-133.744 213.655 1640
-129.822 213.655 1640
-125.9 213.655 1640
-122.276 214.176 1644
-118.345 214.176 1644
-114.831 214.958 1650
-110.885 214.958 1650
-106.94 214.958 1650
-103.306 215.609 1655
-99.3484 215.609 1655
-95.3908 215.609 1655
-182.676 495.055 3800
-174.001 496.227 3809
-164.892 496.227 3809
-156.479 498.442 3826
-148.023 500.787 3844
-141.431 510.167 3916
-132.067 510.167 3916
-123.58 513.814 3944
-114.959 517.462 3972
-105.965 519.938 3991
-96.4213 519.938 3991
-87.5089 523.716 4020
-78.2641 526.191 4039
-69.1152 530.099 4069
-59.3849 530.099 4069
-49.6547 530.099 4069
281.863 531.402 4079
291.618 531.402 4079
301.372 531.402 4079
305.176 521.24 4001
312.463 517.462 3972
321.961 517.462 3972
329.874 514.987 3953
338.554 513.814 3944
342.338 505.477 3880
353.248 507.822 3898
362.569 507.822 3898
371.891 507.822 3898
381.212 507.822 3898
388.73 505.477 3880
398.008 505.477 3880
401.618 498.442 3826
406.15 492.84 3783
407.843 484.111 3716
416.729 484.111 3716
421.836 479.812 3683
425.849 474.471 3642
429.905 469.39 3603
435.721 466.393 3580
444.282 466.393 3580
447.024 460.401 3534
452.64 457.535 3512
458.15 454.668 3490
466.495 454.668 3490
473.889 453.757 3483
481.248 452.845 3476
490.546 453.757 3483
499.878 454.668 3490
508.224 454.668 3490
516.569 454.668 3490
524.915 454.668 3490
533.261 454.668 3490
541.606 454.668 3490
555.782 459.489 3527
581.493 473.559 3635
593.92 476.555 3658
602.667 476.555 3658
619.605 482.939 3707
648.644 498.442 3826
671.719 508.994 3907
681.062 508.994 3907
696.943 513.814 3944
706.375 513.814 3944
715.806 513.814 3944
723.582 512.642 3935
732.992 512.642 3935
740.515 511.339 3925
749.901 511.339 3925
759.287 511.339 3925
770.631 512.642 3935
780.041 512.642 3935
789.451 512.642 3935
796.83 511.339 3925
806.216 511.339 3925
815.602 511.339 3925
823.096 510.167 3916
832.461 510.167 3916
841.825 510.167 3916
857.275 513.814 3944
877.035 519.938 3991
886.579 519.938 3991
896.122 519.938 3991
907.935 521.24 4001
917.503 521.24 4001
927.071 521.24 4001
934.297 519.938 3991
943.841 519.938 3991
951.235 518.765 3982
960.757 518.765 3982
967.842 517.462 3972
977.341 517.462 3972
986.839 517.462 3972
996.337 517.462 3972
1003.56 516.29 3963
1010.48 514.987 3953
1019.93 514.987 3953
1029.38 514.987 3953
1038.84 514.987 3953
1045.9 513.814 3944
1050.25 511.339 3925
1054.78 508.994 3907
1064.12 508.994 3907
1068.52 506.649 3889
1070.33 503.132 3862
1072.02 499.614 3835
1081.19 499.614 3835
1090.36 499.614 3835
1102.11 500.787 3844
1116.51 503.132 3862
1130.99 505.477 3880
1140.27 505.477 3880
1152.21 506.649 3889
1164.2 507.822 3898
1181.65 511.339 3925
1191.04 511.339 3925
1208.99 514.987 3953
1227.38 518.765 3982
1245.6 522.413 4010
1255.19 522.413 4010
1271.08 525.018 4030
1283.58 526.191 4039
1299.64 528.796 4059
1312.57 530.099 4069
1322.31 530.099 4069
1338.58 532.705 4089
1348.36 532.705 4089
1358.14 532.705 4089
1700.37 532.705 4089
1710.15 532.705 4089
1719.93 532.705 4089
1729.7 532.705 4089
1739.48 532.705 4089
1749.26 532.705 4089
1759.04 532.705 4089
1768.82 532.705 4089
1774.24 531.402 4079
1779.63 530.099 4069
1789.36 530.099 4069
1799.09 530.099 4069
1804.37 528.796 4059
1814.08 528.796 4059
1828.28 530.099 4069
1842.52 531.402 4079
1852.28 531.402 4079
1862.03 531.402 4079
1871.79 531.402 4079
1881.54 531.402 4079
1891.29 531.402 4079
1896.39 530.099 4069
1915.49 532.705 4089
1925.27 532.705 4089
1935.04 532.705 4089
1944.82 532.705 4089
1949.82 531.402 4079
1936.03 525.018 4030
1945.67 525.018 4030
1941.24 521.24 4001
1900.58 507.822 3898
1887.86 501.959 3853
1897.07 501.959 3853
1867.2 491.667 3774
1838.94 481.896 3699
1799.83 469.39 3603
1804.43 468.348 3595
1813.02 468.348 3595
1818.07 467.436 3588
1818.51 465.351 3572
1819.38 463.397 3557
1827.88 463.397 3557
1828.65 461.443 3542
1837.12 461.443 3542
1845.59 461.443 3542
1854.06 461.443 3542
1862.53 461.443 3542
1871 461.443 3542
1875.22 460.401 3534
1887.94 461.443 3542
1896.41 461.443 3542
1904.88 461.443 3542
1917.13 462.355 3549
1925.61 462.355 3549
1934.1 462.355 3549
1938.76 461.443 3542
2020.34 478.77 3675
2046.8 482.939 3707
2083.39 489.453 3757
2092.37 489.453 3757
2135.48 497.4 3818
2204.71 511.339 3925
2235.53 516.29 3963
2245.01 516.29 3963
2265.29 518.765 3982
2279.96 519.938 3991
2289.5 519.938 3991
2299.04 519.938 3991
2303.38 518.765 3982
2318.13 519.938 3991
2350.42 525.018 4030
2360.06 525.018 4030
2380.87 527.494 4049
2402.36 530.099 4069
2418.02 531.402 4079
2427.77 531.402 4079
2443.5 532.705 4089
2453.28 532.705 4089
2463.06 532.705 4089
2472.84 532.705 4089
2541.28 532.705 4089
2551.06 532.705 4089
2560.84 532.705 4089
2564.33 531.402 4079
2561.46 528.796 4059
2571.17 528.796 4059
2580.87 528.796 4059
2590.58 528.796 4059
2593.88 527.494 4049
2603.56 527.494 4049
525.378 96.4054 740
527.148 96.4054 740
528.917 96.4054 740
530.687 96.4054 740
532.456 96.4054 740
534.226 96.4054 740
535.995 96.4054 740
537.765 96.4054 740
540.264 96.5356 741
542.036 96.5356 741
543.808 96.5356 741
545.58 96.5356 741
547.352 96.5356 741
549.123 96.5356 741
550.895 96.5356 741
552.667 96.5356 741
554.439 96.5356 741
556.211 96.5356 741
557.983 96.5356 741
559.755 96.5356 741
562.285 96.6659 742
564.059 96.6659 742
565.834 96.6659 742
567.608 96.6659 742
-2339.02 414.47 3124
-2331.54 414.47 3124
-2319.61 413.674 3118
-2316.6 414.47 3124
-2309.13 414.47 3124
-2301.66 414.47 3124
-2289.79 413.674 3118
-2277.94 412.878 3112
-2283.63 415.267 3130
-2280.51 416.063 3136
-2273.01 416.063 3136
-2274.18 417.655 3148
-2270.97 418.451 3154
-2297.88 424.819 3202
-2290.22 424.819 3202
-2300.38 428.136 3227
-2346.66 438.219 3303
-2401.07 449.894 3391
-2392.96 449.894 3391
-2414.39 455.466 3433
-2436.32 461.171 3476
-2428.01 461.171 3476
-2486.53 473.908 3572
-2493.94 476.959 3595
-2490.87 478.021 3603
-2482.26 478.021 3603
-2473.64 478.021 3603
-2459.55 476.959 3595
-2450.96 476.959 3595
-2437.6 476.031 3588
-2418.19 473.908 3572
-2409.65 473.908 3572
-2401.11 473.908 3572
-2392.57 473.908 3572
-2379.35 472.979 3565
-2365.51 471.918 3557
-2357 471.918 3557
-2343.21 470.857 3549
-2330.12 469.928 3542
-2321.65 469.928 3542
-2307.96 468.866 3534
-2299.51 468.866 3534
-2286.52 467.938 3527
-2273.56 467.009 3520
-2265.15 467.009 3520
-2265.7 468.866 3534
-2257.25 468.866 3534
-2248.8 468.866 3534
-2245.42 469.928 3542
-2255.9 473.908 3572
-2247.36 473.908 3572
-2253.23 476.959 3595
-2244.63 476.959 3595
-2241.01 478.021 3603
-2232.4 478.021 3603
-2223.78 478.021 3603
-2067.59 530.825 4001
-2058.02 530.825 4001
-2048.45 530.825 4001
-2033.79 529.498 3991
-2029.32 530.825 4001
-2019.75 530.825 4001
-2010.18 530.825 4001
-2000.62 530.825 4001
-1991.05 530.825 4001
-1981.48 530.825 4001
-1962.55 528.304 3982
-1943.71 525.783 3963
-1934.23 525.783 3963
-1880.07 513.577 3871
-1866.47 512.383 3862
-1883.2 519.548 3916
-1896.32 525.783 3963
-1886.85 525.783 3963
-1881.63 526.977 3972
-1872.14 526.977 3972
-1862.64 526.977 3972
-1853.14 526.977 3972
-1809.29 517.159 3898
-1795.82 515.965 3889
-1786.52 515.965 3889
-1777.22 515.965 3889
-1767.92 515.965 3889
-1758.62 515.965 3889
-1749.32 515.965 3889
-1740.02 515.965 3889
-1691.11 504.157 3800
-1686.01 505.352 3809
-1684.38 507.607 3826
-1679.17 508.801 3835
-1670 508.801 3835
-1660.83 508.801 3835
-1647.79 507.607 3826
-1638.64 507.607 3826
-1615.01 503.096 3792
-1598.32 500.708 3774
-1578.76 497.391 3749
-1576.92 499.647 3766
-1567.91 499.647 3766
-1572.98 504.157 3800
-1567.6 505.352 3809
-1558.49 505.352 3809
-1549.38 505.352 3809
-1536.63 504.157 3800
-1527.55 504.157 3800
-1525.65 506.546 3818
-1516.52 506.546 3818
-1507.39 506.546 3818
-1488.06 503.096 3792
-1482.11 504.157 3800
-1473.02 504.157 3800
-1463.94 504.157 3800
-1454.85 504.157 3800
-1445.76 504.157 3800
-1433.65 503.096 3792
-1421.2 501.902 3783
-682.559 250.619 1889
-681.272 251.813 1898
-676.733 251.813 1898
-672.195 251.813 1898
-660.269 249.027 1877
-651.239 247.302 1864
-646.781 247.302 1864
-633.02 243.72 1837
-627.943 243.455 1835
-622.875 243.19 1833
-618.492 243.19 1833
-612.768 242.659 1829
-606.399 241.863 1823
-599.397 240.802 1815
-595.057 240.802 1815
-590.066 240.536 1813
-583.792 239.74 1807
-578.509 239.342 1804
-574.195 239.342 1804
-566.09 237.75 1792
-561.178 237.485 1790
-555.031 236.689 1784
-546.134 234.699 1769
-541.904 234.699 1769
-537.066 234.433 1767
-530.126 233.239 1758
-524.726 232.708 1754
-520.531 232.708 1754
-515.454 232.31 1751
-510.099 231.78 1747
-504.763 231.249 1743
-500.595 231.249 1743
-495.857 230.984 1741
-490.282 230.32 1736
-485.01 229.79 1732
-480.869 229.79 1732
-475.901 229.392 1729
-471.767 229.392 1729
-466.55 228.861 1725
-462.425 228.861 1725
-457.503 228.463 1722
-452.859 228.198 1720
-448.224 227.932 1718
-442.823 227.269 1713
-438.727 227.269 1713
-434.123 227.004 1711
-429.529 226.738 1709
-424.695 226.34 1706
-420.616 226.34 1706
-415.56 225.809 1702
-410.281 225.146 1697
-405.505 224.748 1694
-401.454 224.748 1694
-396.934 224.483 1692
-392.423 224.217 1690
-387.692 223.819 1687
-383.658 223.819 1687
-379.624 223.819 1687
-374.477 223.156 1682
-370.014 222.891 1680
-365.997 222.891 1680
-361.548 222.625 1678
-356.897 222.227 1675
-352.259 221.829 1672
-348.261 221.829 1672
-344.263 221.829 1672
-339.857 221.564 1670
-335.864 221.564 1670
-331.87 221.564 1670
-327.877 221.564 1670
-323.883 221.564 1670
-319.89 221.564 1670
-315.518 221.299 1668
-311.53 221.299 1668
-307.356 221.166 1667
-303.37 221.166 1667
-299.384 221.166 1667
-295.398 221.166 1667
-291.411 221.166 1667
-287.425 221.166 1667
-283.439 221.166 1667
-279.452 221.166 1667
-275.466 221.166 1667
-271.154 220.901 1665
-267.493 221.166 1667
-263.507 221.166 1667
-259.521 221.166 1667
-255.994 221.564 1670
-252.001 221.564 1670
-248.007 221.564 1670
-244.014 221.564 1670
-240.02 221.564 1670
-236.027 221.564 1670
-232.034 221.564 1670
-228.04 221.564 1670
-224.047 221.564 1670
-220.053 221.564 1670
-216.06 221.564 1670
-211.812 221.299 1668
-207.699 221.166 1667
-203.468 220.901 1665
-199.127 220.503 1662
-195.153 220.503 1662
-190.373 219.574 1655
-186.19 219.308 1653
-182.238 219.308 1653
-178.285 219.308 1653
-174.227 219.176 1652
-170.276 219.176 1652
-165.822 218.512 1647
-161.884 218.512 1647
-157.945 218.512 1647
-154.007 218.512 1647
-150.068 218.512 1647
-146.13 218.512 1647
-142.019 218.247 1645
-138.001 218.114 1644
-134.07 218.114 1644
-130.138 218.114 1644
-126.207 218.114 1644
-122.722 218.91 1650
-118.776 218.91 1650
-114.831 218.91 1650
-110.885 218.91 1650
-106.94 218.91 1650
-103.805 220.635 1663
-99.8286 220.635 1663
-95.8519 220.635 1663
-183.926 507.607 3826
-174.777 507.607 3826
-165.628 507.607 3826
-156.847 508.801 3835
-148.716 512.383 3862
-141.756 520.742 3925
-132.37 520.742 3925
-124.175 525.783 3963
-115.248 528.304 3982
-105.965 529.498 3991
-96.4213 529.498 3991
-87.5089 533.346 4020
-78.4578 537.193 4049
-69.4549 542.5 4089
-59.6768 542.5 4089
-49.8988 542.5 4089
279.79 537.193 4049
289.473 537.193 4049
299.155 537.193 4049
304.414 529.498 3991
311.755 525.783 3963
321.231 525.783 3963
329.874 524.456 3953
338.554 523.262 3944
342.338 514.771 3880
352.432 515.965 3889
361.732 515.965 3889
371.032 515.965 3889
380.332 515.965 3889
388.73 514.771 3880
398.008 514.771 3880
401.618 507.607 3826
406.15 501.902 3783
407.843 493.013 3716
416.729 493.013 3716
421.836 488.635 3683
425.849 483.195 3642
429.905 478.021 3603
435.721 474.969 3580
444.282 474.969 3580
447.024 468.866 3534
452.64 465.948 3512
458.15 463.029 3490
466.495 463.029 3490
473.889 462.1 3483
481.248 461.171 3476
490.546 462.1 3483
499.878 463.029 3490
508.224 463.029 3490
516.569 463.029 3490
524.915 463.029 3490
533.261 463.029 3490
541.606 463.029 3490
554.679 467.009 3520
572.695 474.969 3580
590.186 482.266 3635
598.878 482.266 3635
614.256 487.573 3675
625.757 489.696 3691
648.853 500.708 3774
657.878 500.708 3774
690.405 518.353 3907
699.748 518.353 3907
709.091 518.353 3907
718.434 518.353 3907
727.776 518.353 3907
728.629 512.383 3862
737.864 512.383 3862
747.1 512.383 3862
763.385 517.159 3898
772.706 517.159 3898
782.028 517.159 3898
791.349 517.159 3898
795.124 513.577 3871
806.251 514.771 3880
821.205 518.353 3907
832.461 519.548 3916
841.825 519.548 3916
857.275 523.262 3944
877.035 529.498 3991
886.579 529.498 3991
896.122 529.498 3991
907.935 530.825 4001
917.503 530.825 4001
927.071 530.825 4001
934.297 529.498 3991
943.841 529.498 3991
951.235 528.304 3982
960.757 528.304 3982
967.842 526.977 3972
977.341 526.977 3972
986.839 526.977 3972
996.337 526.977 3972
1001.02 524.456 3953
1008.18 523.262 3944
1017.61 523.262 3944
1027.04 523.262 3944
1036.47 523.262 3944
1036.09 518.353 3907
1045.43 518.353 3907
1049.92 515.965 3889
1059.22 515.965 3889
1058.62 511.189 3853
1062.85 508.801 3835
1069.5 507.607 3826
1078.65 507.607 3826
1087.8 507.607 3826
1096.95 507.607 3826
1108.7 508.801 3835
1123.12 511.189 3853
1132.33 511.189 3853
1141.55 511.189 3853
1156.14 513.577 3871
1170.81 515.965 3889
1180.11 515.965 3889
1200.42 520.742 3925
1221.52 525.783 3963
1236.9 528.304 3982
1246.42 528.304 3982
1264.78 532.019 4010
1274.36 532.019 4010
1293.24 535.866 4039
1306.12 537.193 4049
1315.81 537.193 4049
1338.58 542.5 4089
1348.36 542.5 4089
1358.14 542.5 4089
1367.92 542.5 4089
1710.15 542.5 4089
1719.93 542.5 4089
1729.7 542.5 4089
1739.48 542.5 4089
1749.26 542.5 4089
1759.04 542.5 4089
1768.82 542.5 4089
1774.24 541.173 4079
1779.63 539.846 4069
1789.36 539.846 4069
1799.09 539.846 4069
1804.37 538.52 4059
1814.08 538.52 4059
1828.28 539.846 4069
1842.52 541.173 4079
1852.28 541.173 4079
1862.03 541.173 4079
1871.79 541.173 4079
1881.54 541.173 4079
1891.29 541.173 4079
1896.39 539.846 4069
1915.49 542.5 4089
1925.27 542.5 4089
1935.04 542.5 4089
1944.82 542.5 4089
1949.82 541.173 4079
1936.03 534.672 4030
1945.67 534.672 4030
1941.24 530.825 4001
1900.58 517.159 3898
1887.86 511.189 3853
1897.07 511.189 3853
1867.2 500.708 3774
1838.94 490.757 3699
1799.83 478.021 3603
1804.43 476.959 3595
1813.02 476.959 3595
1818.07 476.031 3588
1818.51 473.908 3572
1819.38 471.918 3557
1827.88 471.918 3557
1828.65 469.928 3542
1837.12 469.928 3542
1845.59 469.928 3542
1854.06 469.928 3542
1862.53 469.928 3542
1871 469.928 3542
1875.22 468.866 3534
1887.94 469.928 3542
1896.41 469.928 3542
1904.88 469.928 3542
1917.13 470.857 3549
1925.61 470.857 3549
1934.1 470.857 3549
1938.76 469.928 3542
2020.34 487.573 3675
2046.8 491.819 3707
2083.39 498.453 3757
2092.37 498.453 3757
2135.48 506.546 3818
2204.71 520.742 3925
2235.53 525.783 3963
2245.01 525.783 3963
