ply
format ascii 1.0
comment File generated
element vertex 2246
property float x
property float y
property float z
end_header
1811.2 186.387 3476
1830.5 187.513 3497
1838.86 187.513 3497
1859.37 188.747 3520
1871.51 189.122 3527
1891.67 190.302 3549
1900.15 190.302 3549
1908.64 190.302 3549
1921.45 190.731 3557
1929.95 190.731 3557
1946.63 191.535 3572
1955.18 191.535 3572
1976.36 192.768 3595
1989.38 193.197 3603
2002.43 193.626 3611
2011.06 193.626 3611
2033.12 194.913 3635
2045.75 195.288 3642
2077.58 197.487 3683
2086.39 197.487 3683
2108.85 198.774 3707
2117.72 198.774 3707
2126.58 198.774 3707
2130.84 198.345 3699
2130.43 197.487 3683
2139.23 197.487 3683
2148.04 197.487 3683
2161.53 197.916 3691
2170.36 197.916 3691
2179.19 197.916 3691
2188.01 197.916 3691
2196.84 197.916 3691
2205.66 197.916 3691
2209.69 197.487 3683
2213.68 197.058 3675
2227.31 197.487 3683
2236.11 197.487 3683
2249.8 197.916 3691
2263.52 198.345 3699
2277.28 198.774 3707
2286.14 198.774 3707
2295.01 198.774 3707
2303.87 198.774 3707
2318.35 199.256 3716
2327.24 199.256 3716
2341.15 199.685 3724
2350.06 199.685 3724
2358.96 199.685 3724
2367.87 199.685 3724
2376.77 199.685 3724
2385.68 199.685 3724
2404.87 200.543 3740
2419.62 201.026 3749
2428.59 201.026 3749
2437.55 201.026 3749
2446.52 201.026 3749
2455.48 201.026 3749
2458.53 200.543 3740
2462.2 200.114 3732
2465.83 199.685 3724
2474.73 199.685 3724
2483.64 199.685 3724
2487.19 199.256 3716
2496.07 199.256 3716
2504.96 199.256 3716
2496.93 197.916 3691
2500.33 197.487 3683
2498.23 196.629 3667
2500.85 196.146 3658
2509.6 196.146 3658
2497 194.484 3627
2494.62 193.626 3611
2460.28 190.302 3549
2468.76 190.302 3549
2007.49 154.215 2876
2014.37 154.215 2876
2021.24 154.215 2876
2000.62 152.123 2837
1997.5 151.373 2823
2004.25 151.373 2823
2003.87 150.837 2813
1997.02 149.818 2794
1997.25 149.335 2785
2003.91 149.335 2785
2004.07 148.853 2776
2007.09 148.584 2771
2013.71 148.584 2771
2030.55 149.335 2785
2043.79 149.818 2794
2050.47 149.818 2794
2060.83 150.086 2799
2071.22 150.354 2804
2084.59 150.837 2813
2091.32 150.837 2813
2105.51 151.373 2823
2116 151.641 2828
2122.76 151.641 2828
2129.52 151.641 2828
2139.31 151.855 2832
2149.87 152.123 2837
2164.25 152.66 2847
2171.06 152.66 2847
2177.87 152.66 2847
-2348 175.668 3136
-2340.5 175.668 3136
-2328.54 175.332 3130
-2316.6 174.996 3124
-2309.13 174.996 3124
-2306.08 175.332 3130
-2298.6 175.332 3130
-2304.29 176.341 3148
-2301.14 176.677 3154
-2302.32 177.349 3166
-2294.75 177.349 3166
-2291.52 177.685 3172
-2288.25 178.021 3178
-2280.65 178.021 3178
-2273.05 178.021 3178
-2265.45 178.021 3178
-2257.85 178.021 3178
-2250.25 178.021 3178
-2242.65 178.021 3178
-2235.05 178.021 3178
-2231.66 178.357 3184
-2228.24 178.693 3190
-2220.61 178.693 3190
-2212.98 178.693 3190
-2209.5 179.029 3196
-2210.13 179.702 3208
-2202.45 179.702 3208
-2198.89 180.038 3214
-2191.2 180.038 3214
-2183.52 180.038 3214
-2175.83 180.038 3214
-2168.15 180.038 3214
-2177.26 181.438 3239
-2174.21 181.83 3246
-2166.45 181.83 3246
-2158.68 181.83 3246
-2150.92 181.83 3246
-2143.16 181.83 3246
-2135.4 181.83 3246
-2127.64 181.83 3246
-2119.87 181.83 3246
-2119.92 182.503 3258
-2112.13 182.503 3258
-2112.73 183.231 3271
-2109.42 183.623 3278
-2109.27 184.295 3290
-2101.4 184.295 3290
-2093.54 184.295 3290
-2085.67 184.295 3290
-2082.22 184.687 3297
-2074.34 184.687 3297
-2070.21 185.023 3303
-2062.32 185.023 3303
-2054.42 185.023 3303
-2046.52 185.023 3303
-2034.92 184.687 3297
-2015.35 183.623 3278
-2014.86 184.295 3290
-2007 184.295 3290
-2019.18 186.144 3323
-2023.34 187.264 3343
-2023.78 188.048 3357
-2015.76 188.048 3357
-2011.32 188.384 3363
-2003.28 188.384 3363
-1995.23 188.384 3363
-1987.19 188.384 3363
-1975.62 188.048 3357
-1963.49 187.656 3350
-1955.48 187.656 3350
-1947.47 187.656 3350
-1935.4 187.264 3343
-1927.41 187.264 3343
-1919.41 187.264 3343
-1907.99 186.928 3337
-1900.01 186.928 3337
-1876.72 185.415 3310
-1868.81 185.415 3310
-1860.89 185.415 3310
-1852.98 185.415 3310
-1845.06 185.415 3310
-1837.15 185.415 3310
-1829.23 185.415 3310
-1821.32 185.415 3310
-1809.57 185.023 3303
-1794.58 184.295 3290
-1786.71 184.295 3290
-1775.6 183.959 3284
-1767.74 183.959 3284
-1759.89 183.959 3284
-1752.04 183.959 3284
-1744.18 183.959 3284
-1739.5 184.295 3290
-1735.32 184.687 3297
-1727.44 184.687 3297
-1719.55 184.687 3297
-1711.67 184.687 3297
-1706.89 185.023 3303
-1706.19 185.807 3317
-1698.26 185.807 3317
-1690.32 185.807 3317
-1699.13 187.656 3350
-1697.68 188.384 3363
-1689.64 188.384 3363
-1681.6 188.384 3363
-1673.56 188.384 3363
-1665.51 188.384 3363
-1657.47 188.384 3363
-1656.3 189.169 3377
-1648.22 189.169 3377
-1640.15 189.169 3377
-1632.07 189.169 3377
-1623.99 189.169 3377
-1615.92 189.169 3377
-1611.18 189.561 3384
-1603.08 189.561 3384
-1598.29 189.953 3391
-1590.18 189.953 3391
-1582.07 189.953 3391
-1573.96 189.953 3391
-1562.62 189.561 3384
-1554.53 189.561 3384
-1546.44 189.561 3384
-1538.35 189.561 3384
-1530.25 189.561 3384
-1512.72 188.384 3363
-1504.67 188.384 3363
-1496.63 188.384 3363
-1488.59 188.384 3363
-1486.71 189.169 3377
-1478.64 189.169 3377
-1470.56 189.169 3377
-1462.49 189.169 3377
-1451.4 188.776 3370
-1443.34 188.776 3370
-1432.3 188.384 3363
-1421.71 188.048 3357
-1405.26 186.928 3337
-1402.73 187.656 3350
-1394.72 187.656 3350
-1400.78 189.561 3384
-1401.33 190.737 3405
-1398.92 191.521 3419
-1390.74 191.521 3419
-1382.56 191.521 3419
-1374.39 191.521 3419
-1366.21 191.521 3419
-1355.26 191.129 3412
-1347.1 191.129 3412
-1338.94 191.129 3412
-1333.51 191.521 3419
-1333.47 192.698 3440
-1325.25 192.698 3440
-1322.38 193.482 3454
-1314.12 193.482 3454
-1305.86 193.482 3454
-1297.6 193.482 3454
-1289.34 193.482 3454
-1275.89 192.698 3440
-1267.67 192.698 3440
-1259.44 192.698 3440
-1253.76 193.09 3447
-1245.52 193.09 3447
-1237.27 193.09 3447
-1229.03 193.09 3447
-1213.35 191.913 3426
-1197.77 190.737 3405
-1189.63 190.737 3405
-1162.4 187.656 3350
-1149.91 186.928 3337
-1119.35 183.231 3271
-1111.52 183.231 3271
-613.768 101.894 1819
-609.418 101.894 1819
-605.068 101.894 1819
-600.718 101.894 1819
-596.369 101.894 1819
-590.066 101.558 1813
-583.792 101.222 1807
-577.868 100.942 1802
-569.739 100.27 1790
-565.459 100.27 1790
-557.103 99.5417 1777
-546.32 98.3654 1756
-538.107 97.6372 1743
-533.939 97.6372 1743
-527.644 97.245 1736
-521.984 96.965 1731
-515.452 96.5168 1723
-511.332 96.5168 1723
-504.268 95.9567 1713
-499.003 95.7326 1709
-493.469 95.4525 1704
-489.394 95.4525 1704
-483.895 95.1724 1699
-478.42 94.8923 1694
-471.289 94.2762 1683
-465.876 93.9961 1678
-461.864 93.9961 1678
-456.487 93.716 1673
-450.863 93.3799 1667
-445.805 93.1558 1663
-441.828 93.1558 1663
-437.588 93.0998 1662
-433.092 92.9878 1660
-428.347 92.8197 1657
-424.384 92.8197 1657
-420.422 92.8197 1657
-416.711 92.8757 1658
-412.746 92.8757 1658
-408.781 92.8757 1658
-404.572 92.8197 1657
-400.61 92.8197 1657
-396.169 92.7077 1655
-392.211 92.7077 1655
-388.254 92.7077 1655
-383.832 92.5957 1653
-379.649 92.5396 1652
-375.699 92.5396 1652
-371.748 92.5396 1652
-366.907 92.3156 1648
-362.746 92.2596 1647
-358.372 92.1475 1645
-354.438 92.1475 1645
-350.291 92.0915 1644
-345.939 91.9795 1642
-342.012 91.9795 1642
-338.086 91.9795 1642
-333.752 91.8674 1640
-329.629 91.8114 1639
-325.313 91.6994 1637
-321.398 91.6994 1637
-317.483 91.6994 1637
-313.569 91.6994 1637
-310.033 91.8114 1639
-306.113 91.8114 1639
-302.194 91.8114 1639
-298.275 91.8114 1639
-294.355 91.8114 1639
-290.613 91.8674 1640
-286.691 91.8674 1640
-282.77 91.8674 1640
-278.848 91.8674 1640
-274.926 91.8674 1640
-270.839 91.8114 1639
-267.083 91.8674 1640
-263.161 91.8674 1640
-259.239 91.8674 1640
-255.317 91.8674 1640
-251.396 91.8674 1640
-247.323 91.8114 1639
-243.404 91.8114 1639
-239.484 91.8114 1639
-235.278 91.6994 1637
-231.363 91.6994 1637
-227.31 91.6434 1636
-223.397 91.6434 1636
-219.485 91.6434 1636
-215.046 91.4193 1632
-210.755 91.2513 1629
-206.86 91.2513 1629
-202.964 91.2513 1629
-199.069 91.2513 1629
-195.054 91.1952 1628
-191.161 91.1952 1628
-187.268 91.1952 1628
-183.375 91.1952 1628
-179.592 91.2513 1629
-175.696 91.2513 1629
-171.801 91.2513 1629
-168.112 91.3633 1631
-164.312 91.4193 1632
-160.803 91.6434 1636
-156.89 91.6434 1636
-153.259 91.8114 1639
-149.339 91.8114 1639
-145.686 91.9795 1642
-141.76 91.9795 1642
-138.085 92.1475 1645
-134.559 92.4276 1650
-130.851 92.5957 1653
-126.898 92.5957 1653
-122.945 92.5957 1653
-118.992 92.5957 1653
-115.04 92.5957 1653
-111.087 92.5957 1653
-107.134 92.5957 1653
-103.805 93.1558 1663
-99.8286 93.1558 1663
-95.8519 93.1558 1663
-144.536 197.963 3534
-136.663 198.803 3549
-128.176 198.803 3549
-119.69 198.803 3549
-111.454 199.252 3557
-102.948 199.252 3557
-94.4419 199.252 3557
-85.936 199.252 3557
-77.4302 199.252 3557
-68.7693 198.803 3549
-60.1636 198.411 3542
-51.6936 198.411 3542
-43.0406 197.571 3527
-34.6065 197.571 3527
-26.1724 197.571 3527
-17.7382 197.571 3527
-9.3041 197.571 3527
-0.869975 197.571 3527
7.57916 197.963 3534
16.03 197.963 3534
24.4809 197.963 3534
32.8665 197.571 3527
41.3007 197.571 3527
49.7348 197.571 3527
57.8061 196.339 3505
66.0365 195.891 3497
74.3989 195.891 3497
82.7613 195.891 3497
90.5765 194.714 3476
98.8886 194.714 3476
106.522 193.482 3454
114.782 193.482 3454
123.041 193.482 3454
131.301 193.482 3454
139.561 193.482 3454
147.82 193.482 3454
156.08 193.482 3454
163.007 191.913 3426
171.2 191.913 3426
178.293 190.737 3405
186.435 190.737 3405
192.577 188.776 3370
199.862 188.048 3357
212.163 191.913 3426
220.805 192.305 3433
229.015 192.305 3433
238.192 193.09 3447
249.509 195.498 3490
257.854 195.498 3490
266.2 195.498 3490
274.546 195.498 3490
281.756 194.714 3476
291.237 195.498 3490
299.582 195.498 3490
309.869 196.731 3512
318.267 196.731 3512
326.666 196.731 3512
332.965 195.498 3490
340.626 195.106 3483
348.254 194.714 3476
356.566 194.714 3476
364.038 194.266 3468
370.077 193.09 3447
376.015 191.913 3426
381.852 190.737 3405
389.995 190.737 3405
395.682 189.561 3384
398.166 186.928 3337
405.294 186.536 3330
413.257 186.536 3330
419.575 185.807 3317
426.605 185.415 3310
432.814 184.687 3297
441.5 185.023 3303
449.398 185.023 3303
460.066 186.144 3323
468.012 186.144 3323
475.958 186.144 3323
482.012 185.415 3310
488.891 185.023 3303
493.931 183.959 3284
505.757 185.415 3310
515.69 186.144 3323
523.636 186.144 3323
541.341 189.561 3384
551.706 190.345 3398
572.682 194.714 3476
580.994 194.714 3476
594.223 196.339 3505
605.184 197.179 3520
614.821 197.571 3527
623.255 197.571 3527
631.689 197.571 3527
640.124 197.571 3527
648.558 197.571 3527
656.992 197.571 3527
664.105 197.179 3520
672.523 197.179 3520
683.648 197.963 3534
692.099 197.963 3534
703.524 198.803 3549
712.01 198.803 3549
720.497 198.803 3549
728.984 198.803 3549
737.471 198.803 3549
742.804 197.963 3534
751.255 197.963 3534
759.706 197.963 3534
766.635 197.571 3527
775.07 197.571 3527
783.504 197.571 3527
790.366 197.179 3520
801.961 197.963 3534
810.411 197.963 3534
820.716 198.411 3542
830.825 198.803 3549
839.311 198.803 3549
849.709 199.252 3557
858.215 199.252 3557
868.67 199.7 3565
877.195 199.7 3565
885.72 199.7 3565
890.232 198.803 3549
898.718 198.803 3549
905.416 198.411 3542
917.756 199.252 3557
928.345 199.7 3565
936.87 199.7 3565
945.395 199.7 3565
953.92 199.7 3565
962.445 199.7 3565
970.97 199.7 3565
977.297 199.252 3557
989.96 200.092 3572
998.502 200.092 3572
1007.04 200.092 3572
1015.59 200.092 3572
1024.13 200.092 3572
1030.65 199.7 3565
1039.17 199.7 3565
1049.75 200.092 3572
1058.29 200.092 3572
1071.61 200.988 3588
1080.19 200.988 3588
1090.9 201.38 3595
1099.5 201.38 3595
1108.09 201.38 3595
1116.69 201.38 3595
1125.29 201.38 3595
1133.88 201.38 3595
1142.48 201.38 3595
1151.08 201.38 3595
1167.41 202.725 3619
1176.07 202.725 3619
1184.72 202.725 3619
1193.38 202.725 3619
1204.69 203.173 3627
1213.36 203.173 3627
1229.78 204.461 3650
1238.51 204.461 3650
1249.97 204.909 3658
1258.72 204.909 3658
1267.47 204.909 3658
1273.43 204.461 3650
1282.15 204.461 3650
1290.88 204.461 3650
1299.61 204.461 3650
1305.47 204.013 3642
1314.18 204.013 3642
1328.7 204.909 3658
1337.45 204.909 3658
1346.2 204.909 3658
1354.94 204.909 3658
1363.69 204.909 3658
1372.44 204.909 3658
1381.18 204.909 3658
1389.93 204.909 3658
1398.68 204.909 3658
1407.43 204.909 3658
1413.08 204.461 3650
1418.69 204.013 3642
1427.4 204.013 3642
1433.35 203.621 3635
1435.69 202.725 3619
1444.35 202.725 3619
1453 202.725 3619
1461.65 202.725 3619
1470.31 202.725 3619
1472.42 201.828 3603
1481.04 201.828 3603
1489.66 201.828 3603
1498.27 201.828 3603
1506.89 201.828 3603
1512.14 201.38 3595
1520.74 201.38 3595
1526.35 200.988 3588
1534.93 200.988 3588
1540.07 200.54 3580
1548.63 200.54 3580
1557.19 200.54 3580
1565.76 200.54 3580
1574.32 200.54 3580
1582.88 200.54 3580
1594.99 200.988 3588
1603.57 200.988 3588
1618.89 201.828 3603
1634.74 202.725 3619
1650.66 203.621 3635
1659.35 203.621 3635
1668.04 203.621 3635
1661.97 201.828 3603
1670.59 201.828 3603
1675.48 201.38 3595
1684.07 201.38 3595
1689.37 200.988 3588
1697.95 200.988 3588
1706.53 200.988 3588
1711.29 200.54 3580
1701.6 198.411 3542
1710.07 198.411 3542
1714.65 197.963 3534
1719.69 197.571 3527
1724.7 197.179 3520
1733.11 197.179 3520
1744.99 197.571 3527
1753.43 197.571 3527
1761.86 197.571 3527
1770.3 197.571 3527
1778.73 197.571 3527
1771.96 195.891 3497
1765.56 194.266 3468
1759.53 192.698 3440
1767.76 192.698 3440
1775.99 192.698 3440
1791.47 193.482 3454
1807.03 194.266 3468
1826.84 195.498 3490
1838.86 195.891 3497
1855.15 196.731 3512
1867.79 197.179 3520
1891.67 198.803 3549
1900.15 198.803 3549
1908.64 198.803 3549
1921.45 199.252 3557
1929.95 199.252 3557
1946.63 200.092 3572
1955.18 200.092 3572
1972.51 200.988 3588
1989.38 201.828 3603
2002.43 202.276 3611
2011.06 202.276 3611
2033.12 203.621 3635
2045.75 204.013 3642
2091.12 207.654 3707
2099.99 207.654 3707
2118.52 208.606 3724
2127.43 208.606 3724
2136.33 208.606 3724
2145.24 208.606 3724
2149.52 208.158 3716
2148.53 207.206 3699
2157.37 207.206 3699
2166.22 207.206 3699
2175.06 207.206 3699
2183.91 207.206 3699
2192.75 207.206 3699
2201.6 207.206 3699
2210.45 207.206 3699
2214.49 206.758 3691
2218.5 206.31 3683
2232.14 206.758 3691
2240.97 206.758 3691
2254.67 207.206 3699
2268.41 207.654 3707
2277.28 207.654 3707
2286.14 207.654 3707
2305.53 208.606 3724
2314.44 208.606 3724
2323.34 208.606 3724
2332.25 208.606 3724
2346.18 209.054 3732
2355.11 209.054 3732
2364.03 209.054 3732
2367.87 208.606 3724
2376.77 208.606 3724
2390.8 209.054 3732
2404.87 209.503 3740
2419.62 210.007 3749
2428.59 210.007 3749
2437.55 210.007 3749
2446.52 210.007 3749
2455.48 210.007 3749
2458.53 209.503 3740
2456.92 208.606 3724
2465.83 208.606 3724
2474.73 208.606 3724
2478.3 208.158 3716
2481.16 207.654 3707
2490.03 207.654 3707
2498.89 207.654 3707
2491.52 206.31 3683
2494.9 205.861 3675
2498.23 205.413 3667
2495.38 204.461 3650
2504.11 204.461 3650
2497 203.173 3627
2483.57 201.38 3595
2476.22 200.092 3572
2484.76 200.092 3572
2007.49 161.104 2876
2014.37 161.104 2876
2021.24 161.104 2876
2000.62 158.919 2837
1997.5 158.135 2823
2004.25 158.135 2823
2003.87 157.575 2813
1997.02 156.511 2794
1997.25 156.007 2785
2003.91 156.007 2785
2004.07 155.502 2776
2007.09 155.222 2771
2013.71 155.222 2771
2030.55 156.007 2785
2043.79 156.511 2794
2050.47 156.511 2794
2060.83 156.791 2799
2071.22 157.071 2804
2084.59 157.575 2813
2091.32 157.575 2813
2105.51 158.135 2823
2116 158.415 2828
2122.76 158.415 2828
2129.52 158.415 2828
2139.31 158.639 2832
2146.08 158.639 2832
2164.25 159.48 2847
2171.06 159.48 2847
2177.87 159.48 2847
-2343.51 182.83 3130
-2336.02 182.83 3130
-2328.54 182.83 3130
-2316.6 182.48 3124
-2309.13 182.48 3124
-2306.08 182.83 3130
-2298.6 182.83 3130
-2304.29 183.882 3148
-2301.14 184.232 3154
-2302.32 184.933 3166
-2294.75 184.933 3166
-2291.52 185.284 3172
-2283.93 185.284 3172
-2280.65 185.634 3178
-2273.05 185.634 3178
-2265.45 185.634 3178
-2257.85 185.634 3178
-2250.25 185.634 3178
-2242.65 185.634 3178
-2235.05 185.634 3178
-2231.66 185.985 3184
-2228.24 186.335 3190
-2220.61 186.335 3190
-2212.98 186.335 3190
-2209.5 186.686 3196
-2210.13 187.386 3208
-2202.45 187.386 3208
-2198.89 187.737 3214
-2191.2 187.737 3214
-2183.52 187.737 3214
-2175.83 187.737 3214
-2168.15 187.737 3214
-2177.26 189.197 3239
-2174.21 189.606 3246
-2166.45 189.606 3246
-2158.68 189.606 3246
-2150.92 189.606 3246
-2143.16 189.606 3246
-2135.4 189.606 3246
-2127.64 189.606 3246
-2119.87 189.606 3246
-2119.92 190.307 3258
-2112.13 190.307 3258
-2112.73 191.066 3271
-2109.42 191.475 3278
-2109.27 192.176 3290
-2101.4 192.176 3290
-2093.54 192.176 3290
-2085.67 192.176 3290
-2082.22 192.585 3297
-2074.34 192.585 3297
-2070.21 192.936 3303
-2062.32 192.936 3303
-2054.42 192.936 3303
-2046.52 192.936 3303
-2034.92 192.585 3297
-2015.35 191.475 3278
-2014.86 192.176 3290
-2007 192.176 3290
-2019.18 194.104 3323
-2023.34 195.272 3343
-2023.78 196.09 3357
-2015.76 196.09 3357
-2011.32 196.44 3363
-2003.28 196.44 3363
-1995.23 196.44 3363
-1987.19 196.44 3363
-1975.62 196.09 3357
-1963.49 195.681 3350
-1955.48 195.681 3350
-1947.47 195.681 3350
-1931.93 194.922 3337
-1923.95 194.922 3337
-1915.97 194.922 3337
-1907.99 194.922 3337
-1900.01 194.922 3337
-1872.75 192.936 3303
-1864.85 192.936 3303
-1860.89 193.345 3310
-1852.98 193.345 3310
-1845.06 193.345 3310
-1837.15 193.345 3310
-1829.23 193.345 3310
-1821.32 193.345 3310
-1809.57 192.936 3303
-1794.58 192.176 3290
-1786.71 192.176 3290
-1768.57 191.066 3271
-1767.74 191.826 3284
-1759.89 191.826 3284
-1752.04 191.826 3284
-1744.18 191.826 3284
-1739.5 192.176 3290
-1735.32 192.585 3297
-1727.44 192.585 3297
-1719.55 192.585 3297
-1711.67 192.585 3297
-1706.89 192.936 3303
-1706.19 193.753 3317
-1698.26 193.753 3317
-1690.32 193.753 3317
-1699.13 195.681 3350
-1697.68 196.44 3363
-1689.64 196.44 3363
-1681.6 196.44 3363
-1673.56 196.44 3363
-1665.51 196.44 3363
-1657.47 196.44 3363
-1656.3 197.258 3377
-1648.22 197.258 3377
-1640.15 197.258 3377
-1632.07 197.258 3377
-1623.99 197.258 3377
-1615.92 197.258 3377
-1611.18 197.667 3384
-1603.08 197.667 3384
-1598.29 198.076 3391
-1590.18 198.076 3391
-1582.07 198.076 3391
-1573.96 198.076 3391
-1562.62 197.667 3384
-1554.53 197.667 3384
-1546.44 197.667 3384
-1538.35 197.667 3384
-1530.25 197.667 3384
-1512.72 196.44 3363
-1504.67 196.44 3363
-1496.63 196.44 3363
-1488.59 196.44 3363
-1489.79 197.667 3384
-1481.7 197.667 3384
-1473.61 197.667 3384
-1465.52 197.667 3384
-1457.43 197.667 3384
-1449.33 197.667 3384
-1441.24 197.667 3384
-1433.15 197.667 3384
-1410.74 195.681 3350
-1402.73 195.681 3350
-1394.72 195.681 3350
-1403.68 198.076 3391
-1407.09 199.711 3419
-1401.78 200.12 3426
-1393.59 200.12 3426
-1385.4 200.12 3426
-1374.39 199.711 3419
-1366.21 199.711 3419
-1358.04 199.711 3419
-1349.86 199.711 3419
-1341.69 199.711 3419
-1333.51 199.711 3419
-1336.19 201.347 3447
-1327.94 201.347 3447
-1325.06 202.165 3461
-1319.45 202.574 3468
-1311.16 202.574 3468
-1302.86 202.574 3468
-1294.57 202.574 3468
-1275.89 200.938 3440
-1270.24 201.347 3447
-1262 201.347 3447
-1256.31 201.756 3454
-1248.05 201.756 3454
-1239.79 201.756 3454
-1229.03 201.347 3447
-1220.79 201.347 3447
-1205.16 200.12 3426
-1196.97 200.12 3426
-1162.4 195.681 3350
-1149.91 194.922 3337
-613.768 106.252 1819
-609.418 106.252 1819
-605.068 106.252 1819
-600.718 106.252 1819
-596.369 106.252 1819
-590.066 105.901 1813
-583.792 105.551 1807
-577.868 105.259 1802
-569.739 104.558 1790
-565.459 104.558 1790
-557.103 103.799 1777
-546.32 102.572 1756
-538.107 101.813 1743
-533.939 101.813 1743
-527.644 101.404 1736
-521.984 101.112 1731
-514.554 100.469 1720
-510.441 100.469 1720
-503.679 99.9433 1711
-498.711 99.7681 1708
-492.89 99.4176 1702
-488.82 99.4176 1702
-483.326 99.1256 1697
-477.855 98.8335 1692
-471.009 98.2494 1682
-465.599 97.9573 1677
-461.588 97.9573 1677
-456.214 97.6653 1672
-450.863 97.3732 1667
-445.805 97.1396 1663
-441.828 97.1396 1663
-437.588 97.0811 1662
-433.092 96.9643 1660
-428.347 96.7891 1657
-424.384 96.7891 1657
-420.422 96.7891 1657
-416.711 96.8475 1658
-412.746 96.8475 1658
-408.781 96.8475 1658
-404.572 96.7891 1657
-400.61 96.7891 1657
-396.169 96.6723 1655
-392.211 96.6723 1655
-388.254 96.6723 1655
-383.832 96.5554 1653
-379.649 96.497 1652
-375.699 96.497 1652
-371.748 96.497 1652
-366.907 96.2634 1648
-362.746 96.205 1647
-358.372 96.0881 1645
-354.438 96.0881 1645
-350.291 96.0297 1644
-345.939 95.9129 1642
-342.012 95.9129 1642
-338.086 95.9129 1642
-333.752 95.7961 1640
-329.629 95.7377 1639
-325.71 95.7377 1639
-321.791 95.7377 1639
-317.871 95.7377 1639
-313.952 95.7377 1639
-310.033 95.7377 1639
-306.113 95.7377 1639
-302.194 95.7377 1639
-298.275 95.7377 1639
-294.355 95.7377 1639
-290.613 95.7961 1640
-286.691 95.7961 1640
-282.77 95.7961 1640
-278.848 95.7961 1640
-274.926 95.7961 1640
-270.839 95.7377 1639
-267.083 95.7961 1640
-263.161 95.7961 1640
-259.239 95.7961 1640
-255.317 95.7961 1640
-251.396 95.7961 1640
-247.323 95.7377 1639
-243.404 95.7377 1639
-239.484 95.7377 1639
-235.565 95.7377 1639
-231.363 95.6208 1637
-227.448 95.6208 1637
-223.534 95.6208 1637
-219.485 95.5624 1636
-215.046 95.3288 1632
-211.014 95.2704 1631
-207.114 95.2704 1631
-202.964 95.1535 1629
-199.069 95.1535 1629
-195.054 95.0951 1628
-191.278 95.1535 1629
-187.383 95.1535 1629
-183.487 95.1535 1629
-179.812 95.2704 1631
-176.02 95.3288 1632
-172.117 95.3288 1632
-168.215 95.3288 1632
-164.715 95.5624 1636
-161.097 95.7377 1639
-157.178 95.7377 1639
-153.352 95.7961 1640
-149.613 95.9129 1642
-146.13 96.205 1647
-142.191 96.205 1647
-138.673 96.497 1652
-134.967 96.6723 1655
-131.405 96.9643 1660
-127.435 96.9643 1660
-123.466 96.9643 1660
-119.496 96.9643 1660
-115.527 96.9643 1660
-111.557 96.9643 1660
-107.782 97.1396 1663
-104.742 98.0157 1678
-100.729 98.0157 1678
-96.7165 98.0157 1678
-145.15 207.305 3549
-136.663 207.305 3549
-128.465 207.772 3557
-119.959 207.772 3557
-111.704 208.24 3565
-103.179 208.24 3565
-94.6543 208.24 3565
-86.1293 208.24 3565
-77.6043 208.24 3565
-68.9243 207.772 3557
-60.4184 207.772 3557
-51.9126 207.772 3557
-43.2237 206.896 3542
-34.7537 206.896 3542
-26.2837 206.896 3542
-17.8137 206.896 3542
-9.34367 206.896 3542
-0.873675 206.896 3542
7.61133 207.305 3549
16.0981 207.305 3549
24.5848 207.305 3549
33.0715 207.305 3549
41.5583 207.305 3549
50.045 207.305 3549
58.1689 206.02 3527
66.603 206.02 3527
74.8882 205.611 3520
83.3056 205.611 3520
91.1237 204.268 3497
99.2869 203.859 3490
107.201 203.041 3476
115.513 203.041 3476
123.54 202.574 3468
131.833 202.574 3468
140.449 203.041 3476
148.762 203.041 3476
157.074 203.041 3476
164.006 201.347 3447
171.2 200.12 3426
178.293 198.894 3405
186.435 198.894 3405
192.577 196.849 3370
200.219 196.44 3363
212.163 200.12 3426
221.256 200.938 3440
229.482 200.938 3440
239.159 202.165 3461
250.009 204.268 3497
258.371 204.268 3497
266.734 204.268 3497
275.096 204.268 3497
281.756 203.041 3476
293.073 205.144 3512
301.471 205.144 3512
310.575 205.611 3520
318.992 205.611 3520
327.41 205.611 3520
335.064 205.144 3512
341.311 203.859 3490
348.955 203.45 3483
357.284 203.45 3483
364.878 203.041 3476
370.077 201.347 3447
376.783 200.529 3433
384.207 200.12 3426
392.4 200.12 3426
395.682 197.667 3384
399.717 195.681 3350
406.146 194.922 3337
414.125 194.922 3337
420.334 194.104 3323
426.605 193.345 3310
432.814 192.585 3297
441.5 192.936 3303
449.398 192.936 3303
460.066 194.104 3323
468.012 194.104 3323
475.958 194.104 3323
482.012 193.345 3310
488.891 192.936 3303
493.931 191.826 3284
505.757 193.345 3310
515.69 194.104 3323
523.636 194.104 3323
541.341 197.667 3384
551.706 198.485 3398
572.682 203.041 3476
580.994 203.041 3476
596.766 205.611 3520
607.591 206.429 3534
616.041 206.429 3534
624.492 206.429 3534
635.63 207.305 3549
644.116 207.305 3549
652.603 207.305 3549
661.09 207.305 3549
669.577 207.305 3549
678.063 207.305 3549
688.098 207.772 3557
696.604 207.772 3557
708.083 208.649 3572
718.23 209.116 3580
726.79 209.116 3580
735.351 209.116 3580
740.795 208.24 3565
745.957 207.305 3549
754.444 207.305 3549
762.931 207.305 3549
771.417 207.305 3549
778.366 206.896 3542
786.836 206.896 3542
793.51 206.429 3534
801.961 206.429 3534
812.246 206.896 3542
822.338 207.305 3549
832.697 207.772 3557
841.203 207.772 3557
851.62 208.24 3565
861.834 208.649 3572
870.376 208.649 3572
878.918 208.649 3572
887.459 208.649 3572
894.245 208.24 3565
902.77 208.24 3565
909.25 207.772 3557
923.69 209.116 3580
936.157 209.992 3595
944.754 209.992 3595
953.351 209.992 3595
961.948 209.992 3595
968.654 209.583 3588
977.234 209.583 3588
985.814 209.583 3588
994.394 209.583 3588
1004.93 209.992 3595
1013.53 209.992 3595
1022.12 209.992 3595
1030.72 209.992 3595
1037.29 209.583 3588
1047.91 209.992 3595
1056.51 209.992 3595
1065.11 209.992 3595
1076.09 210.459 3603
1089.53 211.394 3619
1098.18 211.394 3619
1106.84 211.394 3619
1115.49 211.394 3619
1124.14 211.394 3619
1132.8 211.394 3619
1138.93 210.927 3611
1147.56 210.927 3611
1158.76 211.394 3619
1172.58 212.328 3635
1181.27 212.328 3635
1189.96 212.328 3635
1198.65 212.328 3635
1207.35 212.328 3635
1216.04 212.328 3635
1229.78 213.205 3650
1238.51 213.205 3650
1249.97 213.672 3658
1258.72 213.672 3658
1267.47 213.672 3658
1273.43 213.205 3650
1282.15 213.205 3650
1290.88 213.205 3650
1299.61 213.205 3650
1305.47 212.737 3642
1314.18 212.737 3642
1328.7 213.672 3658
1337.45 213.672 3658
1349.51 214.198 3667
1358.28 214.198 3667
1367.05 214.198 3667
1375.81 214.198 3667
1381.18 213.672 3658
1389.93 213.672 3658
1398.68 213.672 3658
1407.43 213.672 3658
1416.17 213.672 3658
1424.92 213.672 3658
1433.67 213.672 3658
1433.35 212.328 3635
1442.04 212.328 3635
1444.35 211.394 3619
1453 211.394 3619
1461.65 211.394 3619
1470.31 211.394 3619
1475.69 210.927 3611
1484.33 210.927 3611
1492.96 210.927 3611
1498.27 210.459 3603
1506.89 210.459 3603
1512.14 209.992 3595
1520.74 209.992 3595
1526.35 209.583 3588
1534.93 209.583 3588
1540.07 209.116 3580
1548.63 209.116 3580
1557.19 209.116 3580
1565.76 209.116 3580
1574.32 209.116 3580
1582.88 209.116 3580
1594.99 209.583 3588
1603.57 209.583 3588
1618.89 210.459 3603
1634.74 211.394 3619
1650.66 212.328 3635
1659.35 212.328 3635
1668.04 212.328 3635
1665.66 210.927 3611
1674.3 210.927 3611
1675.48 209.992 3595
1684.07 209.992 3595
1692.67 209.992 3595
1701.27 209.992 3595
1706.53 209.583 3588
1711.29 209.116 3580
1701.6 206.896 3542
1710.07 206.896 3542
1714.65 206.429 3534
1723.1 206.429 3534
1724.7 205.611 3520
1743.95 206.896 3542
1752.42 206.896 3542
1760.89 206.896 3542
1769.36 206.896 3542
1770.3 206.02 3527
1778.73 206.02 3527
1771.96 204.268 3497
1773.2 203.45 3483
1759.53 200.938 3440
1767.76 200.938 3440
1775.99 200.938 3440
1791.47 201.756 3454
1807.03 202.574 3468
1826.84 203.859 3490
1838.86 204.268 3497
1855.15 205.144 3512
1867.79 205.611 3520
1891.67 207.305 3549
1900.15 207.305 3549
1908.64 207.305 3549
1921.45 207.772 3557
1929.95 207.772 3557
1946.63 208.649 3572
1955.18 208.649 3572
1972.51 209.583 3588
1989.38 210.459 3603
2006.86 211.394 3619
2015.52 211.394 3619
2033.12 212.328 3635
2054.73 213.672 3658
2100.71 217.527 3724
2109.62 217.527 3724
2132.74 218.987 3749
2146.28 219.455 3757
2155.26 219.455 3757
2164.25 219.455 3757
2163.4 218.462 3740
2158.4 217.06 3716
2167.29 217.06 3716
2176.17 217.06 3716
2194.47 217.994 3732
2203.39 217.994 3732
2212.32 217.994 3732
2221.24 217.994 3732
2230.17 217.994 3732
2234.29 217.527 3724
2232.95 216.534 3707
2241.82 216.534 3707
2245.83 216.067 3699
2259.55 216.534 3707
2283.71 217.994 3732
2292.64 217.994 3732
2301.56 217.994 3732
2315.44 218.462 3740
2324.38 218.462 3740
2333.32 218.462 3740
2337.26 217.994 3732
2351.21 218.462 3740
2360.15 218.462 3740
2369.1 218.462 3740
2378.04 218.462 3740
2386.98 218.462 3740
2395.93 218.462 3740
2415.8 219.455 3757
2430.6 219.98 3766
2439.6 219.98 3766
2448.61 219.98 3766
2457.61 219.98 3766
2466.62 219.98 3766
2464.45 218.987 3749
2467.48 218.462 3740
2465.83 217.527 3724
2474.73 217.527 3724
2478.3 217.06 3716
2481.16 216.534 3707
2490.03 216.534 3707
2498.89 216.534 3707
2491.52 215.132 3683
2494.9 214.665 3675
2498.23 214.198 3667
2495.38 213.205 3650
2504.11 213.205 3650
2497 211.861 3627
2483.57 209.992 3595
2476.22 208.649 3572
2484.76 208.649 3572
2007.49 167.994 2876
2014.37 167.994 2876
2021.24 167.994 2876
2000.62 165.716 2837
1997.5 164.898 2823
2004.25 164.898 2823
2003.87 164.314 2813
1997.02 163.204 2794
1997.25 162.678 2785
2003.91 162.678 2785
2004.07 162.152 2776
2007.09 161.86 2771
2013.71 161.86 2771
2030.55 162.678 2785
2043.79 163.204 2794
2050.47 163.204 2794
2060.83 163.496 2799
2071.22 163.788 2804
2081.63 164.08 2809
2088.35 164.08 2809
2101.78 164.606 2818
2112.26 164.898 2823
2122.76 165.19 2828
2129.52 165.19 2828
2139.31 165.423 2832
2146.08 165.423 2832
2164.25 166.3 2847
2171.06 166.3 2847
2177.87 166.3 2847
-2343.51 190.328 3130
-2336.02 190.328 3130
-2328.54 190.328 3130
-2316.6 189.963 3124
-2304.7 189.599 3118
-2301.66 189.963 3124
-2294.19 189.963 3124
-2295.51 190.693 3136
-2296.76 191.423 3148
-2293.6 191.788 3154
-2286.06 191.788 3154
-2287.18 192.517 3166
-2279.61 192.517 3166
-2272.04 192.517 3166
-2264.47 192.517 3166
-2261.18 192.882 3172
-2253.59 192.882 3172
-2246.01 192.882 3172
-2234.19 192.517 3166
-2230.84 192.882 3172
-2227.46 193.247 3178
-2219.86 193.247 3178
-2212.26 193.247 3178
-2204.66 193.247 3178
-2209.5 194.342 3196
-2205.99 194.706 3202
-2198.34 194.706 3202
-2198.89 195.436 3214
-2191.2 195.436 3214
-2183.52 195.436 3214
-2175.83 195.436 3214
-2185.01 196.956 3239
-2198.78 198.902 3271
-2212.39 200.848 3303
-2204.49 200.848 3303
-2201.25 201.274 3310
-2193.33 201.274 3310
-2185.42 201.274 3310
-2168.95 200.483 3297
-2156.48 200.057 3290
-2136.2 198.902 3271
-2136.84 199.693 3284
-2128.98 199.693 3284
-2129.53 200.483 3297
-2130.01 201.274 3310
-2122.09 201.274 3310
-2114.18 201.274 3310
-2110.72 201.699 3317
-2111.03 202.49 3330
-2107.48 202.915 3337
-2099.5 202.915 3337
-2091.53 202.915 3337
-2083.55 202.915 3337
-2075.57 202.915 3337
-2067.59 202.915 3337
-2042.94 201.274 3310
-2019.04 199.693 3284
-2027.11 201.274 3310
-2019.2 201.274 3310
-2031.33 203.28 3343
-2027.58 203.706 3350
-2023.78 204.132 3357
-2015.76 204.132 3357
-2011.32 204.496 3363
-2003.28 204.496 3363
-1995.23 204.496 3363
-1987.19 204.496 3363
-1975.62 204.132 3357
-1967.59 204.132 3357
-1959.56 204.132 3357
-1939.91 202.915 3337
-1931.93 202.915 3337
-1923.95 202.915 3337
-1915.97 202.915 3337
-1907.99 202.915 3337
-1900.01 202.915 3337
-1869.35 200.483 3297
-1864.85 200.848 3303
-1856.96 200.848 3303
-1849.06 200.848 3303
-1841.16 200.848 3303
-1837.15 201.274 3310
-1829.23 201.274 3310
-1821.32 201.274 3310
-1806.28 200.483 3297
-1794.58 200.057 3290
-1786.71 200.057 3290
-1768.57 198.902 3271
-1774.74 200.483 3297
-1766.86 200.483 3297
-1758.97 200.483 3297
-1751.09 200.483 3297
-1743.21 200.483 3297
-1735.32 200.483 3297
-1727.44 200.483 3297
-1719.55 200.483 3297
-1711.67 200.483 3297
-1706.89 200.848 3303
-1706.19 201.699 3317
-1698.26 201.699 3317
-1700.52 202.915 3337
-1705.72 204.496 3363
-1708.28 205.773 3384
-1700.19 205.773 3384
-1692.1 205.773 3384
-1684.01 205.773 3384
-1679.38 206.199 3391
-1671.27 206.199 3391
-1663.16 206.199 3391
-1655.05 206.199 3391
-1646.94 206.199 3391
-1638.84 206.199 3391
-1634.09 206.625 3398
-1625.97 206.625 3398
-1624.51 207.476 3412
-1616.35 207.476 3412
-1608.19 207.476 3412
-1600.03 207.476 3412
-1591.87 207.476 3412
-1583.71 207.476 3412
-1572.32 207.05 3405
-1564.18 207.05 3405
-1556.04 207.05 3405
-1544.71 206.625 3398
-1536.59 206.625 3398
-1528.46 206.625 3398
-1523.47 207.05 3405
-1515.32 207.05 3405
-1507.18 207.05 3405
-1495.96 206.625 3398
-1487.83 206.625 3398
-1473.61 205.773 3384
-1465.52 205.773 3384
-1457.43 205.773 3384
-1449.33 205.773 3384
-1441.24 205.773 3384
-1433.15 205.773 3384
-1410.74 203.706 3350
-1402.73 203.706 3350
-1394.72 203.706 3350
-1403.68 206.199 3391
-1407.09 207.902 3419
-1401.78 208.327 3426
-1393.59 208.327 3426
-1385.4 208.327 3426
-1374.39 207.902 3419
-1366.21 207.902 3419
-1358.04 207.902 3419
-1349.86 207.902 3419
-1341.69 207.902 3419
-1333.51 207.902 3419
-1336.19 209.604 3447
-1327.94 209.604 3447
-1325.06 210.456 3461
-1319.45 210.881 3468
-1311.16 210.881 3468
-1302.86 210.881 3468
-1294.57 210.881 3468
-1275.89 209.179 3440
-1270.24 209.604 3447
-1262 209.604 3447
-1256.31 210.03 3454
-1248.05 210.03 3454
-1239.79 210.03 3454
-1229.03 209.604 3447
-1220.79 209.604 3447
-1205.16 208.327 3426
-1196.97 208.327 3426
-1162.4 203.706 3350
-613.768 110.609 1819
-609.418 110.609 1819
-605.068 110.609 1819
-599.397 110.366 1815
-595.057 110.366 1815
-590.066 110.244 1813
-583.792 109.88 1807
-577.868 109.576 1802
-569.739 108.846 1790
-565.459 108.846 1790
-557.103 108.055 1777
-546.32 106.778 1756
-538.107 105.988 1743
-533.939 105.988 1743
-527.644 105.562 1736
-521.984 105.258 1731
-514.554 104.589 1720
-510.441 104.589 1720
-503.679 104.042 1711
-498.128 103.738 1706
-492.89 103.495 1702
-488.82 103.495 1702
-483.326 103.191 1697
-477.291 102.765 1690
-470.449 102.157 1680
-465.599 101.975 1677
-461.588 101.975 1677
-456.214 101.671 1672
-450.863 101.367 1667
-445.805 101.123 1663
-441.828 101.123 1663
-437.588 101.062 1662
-433.092 100.941 1660
-428.347 100.758 1657
-424.384 100.758 1657
-420.422 100.758 1657
-416.711 100.819 1658
-412.746 100.819 1658
-408.781 100.819 1658
-404.572 100.758 1657
-400.61 100.758 1657
-395.69 100.515 1653
-391.737 100.515 1653
-387.784 100.515 1653
-383.599 100.454 1652
-379.649 100.454 1652
-375.699 100.454 1652
-371.748 100.454 1652
-366.907 100.211 1648
-362.746 100.15 1647
-358.372 100.029 1645
-354.438 100.029 1645
-350.291 99.9679 1644
-345.939 99.8463 1642
-341.596 99.7247 1640
-337.674 99.7247 1640
-333.752 99.7247 1640
-329.629 99.6639 1639
-325.71 99.6639 1639
-321.791 99.6639 1639
-317.871 99.6639 1639
-313.952 99.6639 1639
-310.033 99.6639 1639
-306.113 99.6639 1639
-302.194 99.6639 1639
-298.275 99.6639 1639
-294.355 99.6639 1639
-290.613 99.7247 1640
-286.691 99.7247 1640
-282.77 99.7247 1640
-278.848 99.7247 1640
-274.926 99.7247 1640
-270.839 99.6639 1639
-267.083 99.7247 1640
-263.161 99.7247 1640
-259.239 99.7247 1640
-255.317 99.7247 1640
-251.396 99.7247 1640
-247.323 99.6639 1639
-243.404 99.6639 1639
-239.484 99.6639 1639
-235.565 99.6639 1639
-231.363 99.5423 1637
-227.448 99.5423 1637
-223.534 99.5423 1637
-219.485 99.4815 1636
-215.046 99.2382 1632
-211.014 99.1774 1631
-207.114 99.1774 1631
-202.964 99.0558 1629
-199.069 99.0558 1629
-195.054 98.995 1628
-191.278 99.0558 1629
-187.383 99.0558 1629
-183.487 99.0558 1629
-179.812 99.1774 1631
-176.02 99.2382 1632
-172.117 99.2382 1632
-168.215 99.2382 1632
-164.715 99.4815 1636
-161.097 99.6639 1639
-157.178 99.6639 1639
-153.352 99.7247 1640
-149.613 99.8463 1642
-146.13 100.15 1647
-142.191 100.15 1647
-138.673 100.454 1652
-134.967 100.637 1655
-131.405 100.941 1660
-127.435 100.941 1660
-123.466 100.941 1660
-119.496 100.941 1660
-115.527 100.941 1660
-111.557 100.941 1660
-107.782 101.123 1663
-104.742 102.035 1678
-100.729 102.035 1678
-96.7165 102.035 1678
-145.15 215.807 3549
-136.663 215.807 3549
-128.465 216.293 3557
-119.959 216.293 3557
-111.704 216.78 3565
-103.179 216.78 3565
-94.6543 216.78 3565
-86.1293 216.78 3565
-77.6043 216.78 3565
-68.9243 216.293 3557
-60.4184 216.293 3557
-51.9126 216.293 3557
-43.2237 215.381 3542
-34.7537 215.381 3542
-26.2837 215.381 3542
-17.8137 215.381 3542
-9.34367 215.381 3542
-0.873675 215.381 3542
7.61133 215.807 3549
16.0981 215.807 3549
24.5848 215.807 3549
33.0715 215.807 3549
41.5583 215.807 3549
50.045 215.807 3549
58.1689 214.469 3527
66.603 214.469 3527
74.8882 214.043 3520
83.3056 214.043 3520
91.1237 212.645 3497
99.2869 212.219 3490
107.201 211.368 3476
115.513 211.368 3476
123.54 210.881 3468
131.833 210.881 3468
140.449 211.368 3476
148.762 211.368 3476
157.074 211.368 3476
164.006 209.604 3447
171.2 208.327 3426
178.293 207.05 3405
186.435 207.05 3405
192.577 204.922 3370
200.219 204.496 3363
212.163 208.327 3426
221.256 209.179 3440
229.482 209.179 3440
239.159 210.456 3461
250.009 212.645 3497
258.371 212.645 3497
266.734 212.645 3497
275.096 212.645 3497
281.756 211.368 3476
293.073 213.557 3512
301.471 213.557 3512
310.575 214.043 3520
318.992 214.043 3520
327.41 214.043 3520
335.064 213.557 3512
341.311 212.219 3490
348.955 211.793 3483
357.284 211.793 3483
364.878 211.368 3476
370.077 209.604 3447
376.783 208.753 3433
384.207 208.327 3426
392.4 208.327 3426
395.682 205.773 3384
399.717 203.706 3350
406.146 202.915 3337
414.125 202.915 3337
420.334 202.064 3323
426.605 201.274 3310
431.895 200.057 3290
441.5 200.848 3303
449.398 200.848 3303
459.235 201.699 3317
467.167 201.699 3317
475.099 201.699 3317
480.992 200.848 3303
486.078 199.693 3284
493.029 199.328 3278
501.784 199.693 3284
514.759 201.699 3317
522.691 201.699 3317
539.101 204.922 3370
551.706 206.625 3398
572.682 211.368 3476
580.994 211.368 3476
596.766 214.043 3520
607.591 214.895 3534
616.041 214.895 3534
624.492 214.895 3534
635.63 215.807 3549
644.116 215.807 3549
652.603 215.807 3549
661.09 215.807 3549
669.577 215.807 3549
678.063 215.807 3549
688.098 216.293 3557
696.604 216.293 3557
708.083 217.205 3572
718.23 217.692 3580
726.79 217.692 3580
735.351 217.692 3580
740.795 216.78 3565
745.957 215.807 3549
754.444 215.807 3549
762.931 215.807 3549
771.417 215.807 3549
778.366 215.381 3542
786.836 215.381 3542
793.51 214.895 3534
801.961 214.895 3534
812.246 215.381 3542
822.338 215.807 3549
832.697 216.293 3557
841.203 216.293 3557
851.62 216.78 3565
861.834 217.205 3572
870.376 217.205 3572
878.918 217.205 3572
887.459 217.205 3572
894.245 216.78 3565
902.77 216.78 3565
909.25 216.293 3557
923.69 217.692 3580
936.157 218.604 3595
944.754 218.604 3595
953.351 218.604 3595
961.948 218.604 3595
968.654 218.178 3588
977.234 218.178 3588
985.814 218.178 3588
994.394 218.178 3588
1004.93 218.604 3595
1013.53 218.604 3595
1022.12 218.604 3595
1030.72 218.604 3595
1037.29 218.178 3588
1047.91 218.604 3595
1056.51 218.604 3595
1065.11 218.604 3595
1076.09 219.09 3603
1089.53 220.063 3619
1098.18 220.063 3619
1106.84 220.063 3619
1115.49 220.063 3619
1124.14 220.063 3619
1132.8 220.063 3619
1138.93 219.577 3611
1147.56 219.577 3611
1158.76 220.063 3619
1172.58 221.036 3635
1181.27 221.036 3635
1189.96 221.036 3635
1198.65 221.036 3635
1207.35 221.036 3635
1216.04 221.036 3635
1229.78 221.948 3650
1238.51 221.948 3650
1249.97 222.435 3658
1258.72 222.435 3658
1267.47 222.435 3658
1273.43 221.948 3650
1282.15 221.948 3650
1290.88 221.948 3650
1296.76 221.462 3642
1305.47 221.462 3642
1311.65 221.036 3635
1328.7 222.435 3658
1337.45 222.435 3658
1349.51 222.982 3667
1358.28 222.982 3667
1367.05 222.982 3667
1375.81 222.982 3667
1381.18 222.435 3658
1389.93 222.435 3658
1398.68 222.435 3658
1407.43 222.435 3658
1416.17 222.435 3658
1424.92 222.435 3658
1433.67 222.435 3658
1433.35 221.036 3635
1442.04 221.036 3635
1444.35 220.063 3619
1453 220.063 3619
1461.65 220.063 3619
1470.31 220.063 3619
1475.69 219.577 3611
1484.33 219.577 3611
1492.96 219.577 3611
1498.27 219.09 3603
1506.89 219.09 3603
1512.14 218.604 3595
1520.74 218.604 3595
1526.35 218.178 3588
1534.93 218.178 3588
1540.07 217.692 3580
1548.63 217.692 3580
1557.19 217.692 3580
1565.76 217.692 3580
1574.32 217.692 3580
1582.88 217.692 3580
1591.44 217.692 3580
1600 217.692 3580
1615.3 218.604 3595
1627.51 219.09 3603
1639.76 219.577 3611
1648.39 219.577 3611
1657.03 219.577 3611
1665.66 219.577 3611
1674.3 219.577 3611
1675.48 218.604 3595
1684.07 218.604 3595
1692.67 218.604 3595
1701.27 218.604 3595
1706.53 218.178 3588
1704.12 216.78 3565
1701.6 215.381 3542
1710.07 215.381 3542
1714.65 214.895 3534
1723.1 214.895 3534
1724.7 214.043 3520
1743.95 215.381 3542
1752.42 215.381 3542
1760.89 215.381 3542
1769.36 215.381 3542
1770.3 214.469 3527
1778.73 214.469 3527
1771.96 212.645 3497
1773.2 211.793 3483
1759.53 209.179 3440
1767.76 209.179 3440
1772.37 208.753 3433
1787.84 209.604 3447
1799.73 210.03 3454
1819.51 211.368 3476
1838.86 212.645 3497
1847.22 212.645 3497
1867.79 214.043 3520
1883.67 214.895 3534
1900.15 215.807 3549
1908.64 215.807 3549
1917.13 215.807 3549
1925.61 215.807 3549
1942.82 216.78 3565
1951.34 216.78 3565
1972.51 218.178 3588
1989.38 219.09 3603
2006.86 220.063 3619
2015.52 220.063 3619
2033.12 221.036 3635
2064.28 223.468 3675
2114.81 227.968 3749
2123.78 227.968 3749
2142.42 229.002 3766
2151.42 229.002 3766
2160.43 229.002 3766
2169.43 229.002 3766
2178.44 229.002 3766
2187.44 229.002 3766
2196.45 229.002 3766
2205.45 229.002 3766
2219.16 229.488 3774
2228.19 229.488 3774
2237.21 229.488 3774
2246.24 229.488 3774
2255.26 229.488 3774
2254.09 228.455 3757
2258.25 227.968 3749
2267.22 227.968 3749
2265.86 226.935 3732
2274.79 226.935 3732
2299.01 228.455 3757
2307.99 228.455 3757
2316.98 228.455 3757
2331.53 229.002 3766
2340.54 229.002 3766
2349.55 229.002 3766
2358.55 229.002 3766
2367.56 229.002 3766
2365.83 227.968 3749
2374.8 227.968 3749
2388.85 228.455 3757
2397.83 228.455 3757
2406.82 228.455 3757
2426.73 229.488 3774
2441.57 230.036 3783
2450.61 230.036 3783
2459.66 230.036 3783
2468.71 230.036 3783
2477.75 230.036 3783
2475.62 229.002 3766
2473.41 227.968 3749
2476.42 227.421 3740
2485.36 227.421 3740
2483.64 226.448 3724
2481.16 225.414 3707
2490.03 225.414 3707
2498.89 225.414 3707
2486.11 223.468 3675
2494.9 223.468 3675
2492.1 222.435 3658
2495.38 221.948 3650
2504.11 221.948 3650
2512.84 221.948 3650
2483.57 218.604 3595
2476.22 217.205 3572
2484.76 217.205 3572
2007.49 174.883 2876
2014.37 174.883 2876
2021.24 174.883 2876
2000.62 172.512 2837
1997.5 171.66 2823
2004.25 171.66 2823
2003.87 171.052 2813
1997.02 169.897 2794
1997.25 169.35 2785
2003.91 169.35 2785
2000.46 168.498 2771
2007.09 168.498 2771
2013.71 168.498 2771
2026.9 169.046 2780
2040.86 169.654 2790
2047.53 169.654 2790
2060.83 170.201 2799
2071.22 170.505 2804
2081.63 170.809 2809
2088.35 170.809 2809
2101.78 171.356 2818
2112.26 171.66 2823
2122.76 171.964 2828
2129.52 171.964 2828
2139.31 172.208 2832
2146.08 172.208 2832
2164.25 173.12 2847
2171.06 173.12 2847
2177.87 173.12 2847
-2343.51 197.826 3130
-2336.02 197.826 3130
-2324.07 197.447 3124
-2316.6 197.447 3124
-2304.7 197.068 3118
-2297.24 197.068 3118
-2289.79 197.068 3118
-2286.72 197.447 3124
-2288.01 198.205 3136
-2284.87 198.585 3142
-2277.36 198.585 3142
-2274.18 198.964 3148
-2266.65 198.964 3148
-2259.12 198.964 3148
-2251.6 198.964 3148
-2248.34 199.343 3154
-2240.8 199.343 3154
-2233.26 199.343 3154
-2225.72 199.343 3154
-2222.4 199.722 3160
-2227.46 200.86 3178
-2219.86 200.86 3178
-2212.26 200.86 3178
-2204.66 200.86 3178
-2197.06 200.86 3178
-2205.99 202.377 3202
-2198.34 202.377 3202
-2198.89 203.135 3214
-2191.2 203.135 3214
-2188.27 203.578 3221
-2180.57 203.578 3221
-2206.6 206.738 3271
-2220.29 208.76 3303
-2217.08 209.203 3310
-2209.16 209.203 3310
-2201.25 209.203 3310
-2197.97 209.645 3317
-2190.04 209.645 3317
-2182.1 209.645 3317
-2174.17 209.645 3317
-2153.18 208.381 3297
-2162.21 210.024 3323
-2154.27 210.024 3323
-2146.32 210.024 3323
-2142.88 210.467 3330
-2139.4 210.909 3337
-2131.42 210.909 3337
-2123.44 210.909 3337
-2128.14 212.173 3357
-2123.91 212.553 3363
-2115.86 212.553 3363
-2107.82 212.553 3363
-2099.78 212.553 3363
-2091.74 212.553 3363
-2083.7 212.553 3363
-2067.63 211.731 3350
-2051.63 210.909 3337
-2043.65 210.909 3337
-2035.67 210.909 3337
-2035.59 211.731 3350
-2027.58 211.731 3350
-2023.78 212.173 3357
-2015.76 212.173 3357
-2011.32 212.553 3363
-2003.28 212.553 3363
-1995.23 212.553 3363
-1987.19 212.553 3363
-1975.62 212.173 3357
-1967.59 212.173 3357
-1959.56 212.173 3357
-1943.4 211.288 3343
-1931.93 210.909 3337
-1923.95 210.909 3337
-1915.97 210.909 3337
-1907.99 210.909 3337
-1900.01 210.909 3337
-1869.35 208.381 3297
-1864.85 208.76 3303
-1856.96 208.76 3303
-1849.06 208.76 3303
-1841.16 208.76 3303
-1837.15 209.203 3310
-1829.23 209.203 3310
-1821.32 209.203 3310
-1806.28 208.381 3297
-1794.58 207.939 3290
-1786.71 207.939 3290
-1778.84 207.939 3290
-1774.74 208.381 3297
-1766.86 208.381 3297
-1765.91 209.203 3310
-1757.99 209.203 3310
-1750.08 209.203 3310
-1745.85 209.645 3317
-1737.92 209.645 3317
-1729.98 209.645 3317
-1711.67 208.381 3297
-1714.12 209.645 3317
-1716.48 210.909 3337
-1708.5 210.909 3337
-1703.57 211.288 3343
-1716.37 213.88 3384
-1708.28 213.88 3384
-1700.19 213.88 3384
-1692.1 213.88 3384
-1687.49 214.322 3391
-1686.31 215.207 3405
-1678.17 215.207 3405
-1676.9 216.092 3419
-1668.72 216.092 3419
-1660.54 216.092 3419
-1652.37 216.092 3419
-1650.92 216.977 3433
-1649.41 217.862 3447
-1644.5 218.304 3454
-1636.24 218.304 3454
-1631.28 218.746 3461
-1626.29 219.189 3468
-1618 219.189 3468
-1609.7 219.189 3468
-1598.18 218.746 3461
-1589.9 218.746 3461
-1581.63 218.746 3461
-1573.35 218.746 3461
-1561.91 218.304 3454
-1553.65 218.304 3454
-1548.52 218.746 3461
-1540.25 218.746 3461
-1531.97 218.746 3461
-1520.61 218.304 3454
-1512.35 218.304 3454
-1491.9 216.534 3426
-1483.71 216.534 3426
-1475.51 216.534 3426
-1467.32 216.534 3426
-1459.13 216.534 3426
-1450.94 216.534 3426
-1425.06 213.88 3384
-1416.96 213.88 3384
-1408.87 213.88 3384
-1418.17 216.534 3426
-1412.85 216.977 3433
-1407.51 217.419 3440
-1399.28 217.419 3440
-1391.06 217.419 3440
-1382.83 217.419 3440
-1374.6 217.419 3440
-1360.82 216.534 3426
-1352.62 216.534 3426
-1344.43 216.534 3426
-1341.7 217.419 3440
-1336.19 217.862 3447
-1327.94 217.862 3447
-1333.48 220.137 3483
-1325.16 220.137 3483
-1316.83 220.137 3483
-1308.5 220.137 3483
-1297.56 219.695 3476
-1278.49 217.862 3447
-1272.82 218.304 3454
-1264.56 218.304 3454
-1256.31 218.304 3454
-1248.05 218.304 3454
-1239.79 218.304 3454
-1231.53 218.304 3454
-1220.79 217.862 3447
-1207.62 216.977 3433
-1199.41 216.977 3433
-1188.77 216.534 3426
-611.743 114.588 1813
-607.408 114.588 1813
-603.738 114.714 1815
-599.397 114.714 1815
-595.057 114.714 1815
-590.066 114.588 1813
-583.792 114.208 1807
-577.868 113.892 1802
-569.102 113.007 1788
-564.827 113.007 1788
-557.103 112.312 1777
-546.32 110.985 1756
-538.107 110.163 1743
-533.939 110.163 1743
-526.428 109.468 1732
-520.778 109.152 1727
-513.956 108.583 1718
-509.848 108.583 1718
-503.09 108.014 1709
-497.544 107.698 1704
-492.6 107.509 1701
-488.532 107.509 1701
-482.756 107.13 1695
-477.008 106.75 1689
-469.889 106.055 1678
-465.043 105.865 1675
-461.038 105.865 1675
-456.214 105.676 1672
-450.863 105.36 1667
-445.805 105.107 1663
-441.828 105.107 1663
-437.061 104.917 1660
-432.57 104.791 1658
-428.347 104.728 1657
-424.384 104.728 1657
-420.422 104.728 1657
-416.46 104.728 1657
-412.497 104.728 1657
-408.535 104.728 1657
-404.572 104.728 1657
-400.61 104.728 1657
-395.69 104.475 1653
-391.737 104.475 1653
-387.784 104.475 1653
-383.599 104.412 1652
-379.649 104.412 1652
-375.699 104.412 1652
-371.298 104.285 1650
-366.907 104.159 1648
-362.746 104.096 1647
-358.372 103.969 1645
-354.438 103.969 1645
-349.865 103.78 1642
-345.939 103.78 1642
-341.596 103.653 1640
-337.674 103.653 1640
-333.752 103.653 1640
-329.629 103.59 1639
-325.71 103.59 1639
-321.791 103.59 1639
-317.871 103.59 1639
-313.952 103.59 1639
-310.222 103.653 1640
-306.3 103.653 1640
-302.378 103.653 1640
-298.275 103.59 1639
-294.355 103.59 1639
-290.613 103.653 1640
-286.691 103.653 1640
-282.77 103.653 1640
-278.848 103.653 1640
-274.926 103.653 1640
-271.004 103.653 1640
-267.083 103.653 1640
-263.161 103.653 1640
-259.239 103.653 1640
-255.317 103.653 1640
-251.396 103.653 1640
-247.474 103.653 1640
-243.552 103.653 1640
-239.484 103.59 1639
-235.565 103.59 1639
-231.363 103.464 1637
-227.448 103.464 1637
-223.534 103.464 1637
-219.485 103.401 1636
-215.309 103.274 1634
-211.143 103.148 1632
-207.241 103.148 1632
-203.214 103.085 1631
-199.069 102.958 1629
-195.173 102.958 1629
-191.513 103.085 1631
-187.613 103.085 1631
-183.712 103.085 1631
