ply
format ascii 1.0
comment File generated
element vertex 2263
property float x
property float y
property float z
end_header
-497.148 416.255 1731
-492.439 415.774 1729
-488.305 415.774 1729
-484.17 415.774 1729
-480.036 415.774 1729
-475.901 415.774 1729
-471.767 415.774 1729
-466.55 414.812 1725
-462.425 414.812 1725
-457.769 414.331 1723
-453.385 414.091 1722
-448.746 413.61 1720
-444.116 413.129 1718
-440.007 413.129 1718
-435.392 412.648 1716
-430.032 411.446 1711
-425.193 410.724 1708
-421.109 410.724 1708
-416.048 409.762 1704
-411.248 409.041 1701
-405.744 407.598 1695
-401.691 407.598 1695
-396.934 406.877 1692
-391.727 405.674 1687
-386.773 404.713 1683
-382.749 404.713 1683
-377.599 403.51 1678
-372.473 402.308 1673
-368.472 402.308 1673
-364.472 402.308 1673
-359.825 401.586 1670
-355.405 401.105 1668
-350.784 400.384 1665
-346.386 399.903 1663
-342.41 399.903 1663
-338.229 399.663 1662
-334.255 399.663 1662
-330.281 399.663 1662
-326.306 399.663 1662
-322.332 399.663 1662
-318.549 399.903 1663
-315.329 400.865 1667
-311.343 400.865 1667
-307.356 400.865 1667
-303.552 401.105 1668
-299.563 401.105 1668
-296.284 402.067 1672
-292.285 402.067 1672
-288.287 402.067 1672
-284.289 402.067 1672
-280.458 402.308 1673
-276.458 402.308 1673
-272.783 402.789 1675
-269.098 403.27 1677
-265.246 403.51 1678
-261.233 403.51 1678
-257.527 403.991 1680
-253.812 404.472 1682
-249.79 404.472 1682
-245.767 404.472 1682
-242.464 405.674 1687
-238.712 406.155 1689
-235.368 407.358 1694
-231.317 407.358 1694
-227.401 407.598 1695
-223.611 408.079 1697
-220.07 409.041 1701
-216.003 409.041 1701
-211.935 409.041 1701
-208.479 410.243 1706
-204.758 410.965 1709
-200.672 410.965 1709
-196.815 411.446 1711
-192.949 411.927 1713
-189.624 413.61 1720
-185.511 413.61 1720
-181.398 413.61 1720
-177.285 413.61 1720
-173.172 413.61 1720
-353.018 983.286 4089
-343.24 983.286 4089
-333.462 983.286 4089
-322.892 980.881 4079
-313.138 980.881 4079
-299.74 969.098 4030
-287.295 959.719 3991
-276.429 955.15 3972
-266.931 955.15 3972
-256.849 952.986 3963
-247.373 952.986 3963
-237.896 952.986 3963
-228.938 955.15 3972
-219.44 955.15 3972
-210.946 959.719 3991
-201.402 959.719 3991
-191.858 959.719 3991
-182.315 959.719 3991
-172.381 957.555 3982
-162.45 955.15 3972
-152.22 950.581 3953
-142.767 950.581 3953
-131.46 937.356 3898
-120.164 922.206 3835
-110.502 918.118 3818
-101.372 918.118 3818
-90.768 903.449 3757
-81.6097 901.525 3749
-72.1603 895.514 3724
-63.2551 895.514 3724
-53.7515 885.654 3683
-44.444 875.795 3642
-35.5877 872.188 3627
-26.9144 872.188 3627
-18.0802 864.493 3595
-9.44391 860.886 3580
-0.881075 858.962 3572
7.64565 857.279 3565
16.1706 857.279 3565
24.6956 857.279 3565
33.1461 855.355 3557
41.5583 853.431 3549
50.045 853.431 3549
58.4163 851.748 3542
66.7352 849.824 3534
75.1861 849.824 3534
83.6369 849.824 3534
92.0878 849.824 3534
100.34 848.141 3527
108.558 846.458 3520
116.975 846.458 3520
125.393 846.458 3520
134.076 848.141 3527
142.51 848.141 3527
150.944 848.141 3527
159.062 846.458 3520
167.479 846.458 3520
175.897 846.458 3520
184.314 846.458 3520
192.732 846.458 3520
201.149 846.458 3520
209.566 846.458 3520
217.984 846.458 3520
226.851 848.141 3527
235.286 848.141 3527
243.72 848.141 3527
252.154 848.141 3527
261.105 849.824 3534
269.556 849.824 3534
278.007 849.824 3534
287.106 851.748 3542
296.828 855.355 3557
305.334 855.355 3557
313.84 855.355 3557
322.345 855.355 3557
331.595 857.279 3565
340.12 857.279 3565
350.895 862.81 3588
359.475 862.81 3588
368.055 862.81 3588
376.635 862.81 3588
384.356 860.886 3580
390.392 855.355 3557
398.898 855.355 3557
403.968 848.141 3527
410.648 844.534 3512
418.211 842.851 3505
425.619 840.927 3497
433.982 840.927 3497
436.019 828.903 3447
442.458 825.537 3433
448.829 822.17 3419
457.005 822.17 3419
456.745 807.261 3357
462.835 803.894 3343
468.012 799.085 3323
475.958 799.085 3323
483.905 799.085 3323
489.927 795.959 3310
497.842 795.959 3310
505.757 795.959 3310
513.672 795.959 3310
520.485 794.275 3303
527.423 792.833 3297
536.281 794.275 3303
545.333 795.959 3310
553.248 795.959 3310
561.164 795.959 3310
569.079 795.959 3310
579.26 799.085 3323
587.207 799.085 3323
596.407 800.768 3330
604.37 800.768 3330
614.723 803.894 3343
622.717 803.894 3343
632.032 805.578 3350
640.043 805.578 3350
648.054 805.578 3350
654.694 803.894 3343
661.498 802.451 3337
669.478 802.451 3337
677.458 802.451 3337
685.438 802.451 3337
693.418 802.451 3337
701.397 802.451 3337
709.377 802.451 3337
717.357 802.451 3337
725.337 802.451 3337
733.317 802.451 3337
739.741 800.768 3330
747.704 800.768 3330
755.667 800.768 3330
763.63 800.768 3330
769.971 799.085 3323
777.918 799.085 3323
784.445 797.642 3317
792.377 797.642 3317
800.309 797.642 3317
809.703 799.085 3323
817.649 799.085 3323
825.596 799.085 3323
833.542 799.085 3323
843.261 800.768 3330
851.224 800.768 3330
866.153 807.261 3357
881.212 813.754 3384
894.823 818.803 3405
902.965 818.803 3405
912.981 820.487 3412
932.478 830.587 3454
946.73 835.877 3476
955.042 835.877 3476
973.331 844.534 3512
987.88 849.824 3534
1000.56 853.431 3549
1009.05 853.431 3549
1024.13 858.962 3572
1041.63 866.417 3603
1054.91 870.264 3619
1068.27 874.112 3635
1076.96 874.112 3635
1095.21 881.807 3667
1108.79 885.654 3683
1117.6 885.654 3683
1126.41 885.654 3683
1135.22 885.654 3683
1144.02 885.654 3683
1152.83 885.654 3683
1161.64 885.654 3683
1170.45 885.654 3683
1179.25 885.654 3683
1188.06 885.654 3683
1196.87 885.654 3683
1203.05 883.731 3675
1211.84 883.731 3675
1220.63 883.731 3675
1226.74 881.807 3667
1235.51 881.807 3667
1241.23 879.643 3658
1249.97 879.643 3658
1258.72 879.643 3658
1267.47 879.643 3658
1276.22 879.643 3658
1284.96 879.643 3658
1290.88 877.719 3650
1296.76 875.795 3642
1305.47 875.795 3642
1314.18 875.795 3642
1322.89 875.795 3642
1331.6 875.795 3642
1337.73 874.112 3635
1346.42 874.112 3635
1355.12 874.112 3635
1357.81 870.264 3619
1363.44 868.34 3611
1372.07 868.34 3611
1380.71 868.34 3611
1386.27 866.417 3603
1391.78 864.493 3595
1397.65 862.81 3588
1406.23 862.81 3588
1405.74 857.279 3565
1411.1 855.355 3557
1413.62 851.748 3542
1416.06 848.141 3527
1424.5 848.141 3527
1417.9 839.243 3490
1423.38 837.56 3483
1425.55 833.953 3468
1433.84 833.953 3468
1436.31 830.587 3454
1441.64 828.903 3447
1452.83 830.587 3454
1467.01 833.953 3468
1475.31 833.953 3468
1490.02 837.56 3483
1510.82 844.534 3512
1532.2 851.748 3542
1540.67 851.748 3542
1559.19 857.279 3565
1574.32 860.886 3580
1593.05 866.417 3603
1615.89 874.112 3635
1624.58 874.112 3635
1651.24 883.731 3675
1716.5 913.789 3800
1725.58 913.789 3800
1767.08 930.863 3871
1788.73 937.356 3898
1810.5 943.848 3925
1819.89 943.848 3925
1842.33 950.581 3953
1856.46 952.986 3963
1865.94 952.986 3963
1875.42 952.986 3963
1880.14 950.581 3953
1880.98 946.253 3935
1885.59 943.848 3925
1894.98 943.848 3925
1873.8 928.699 3862
1865.48 920.042 3826
1866.3 915.954 3809
1875.41 915.954 3809
1871.65 909.701 3783
1859.32 899.361 3740
1856.27 893.59 3716
1865.16 893.59 3716
1861.44 887.578 3691
1853.54 879.643 3658
1846.51 872.188 3627
1847 868.34 3611
1855.63 868.34 3611
1864.27 868.34 3611
1872.9 868.34 3611
1881.54 868.34 3611
1890.17 868.34 3611
1894.6 866.417 3603
1907.44 868.34 3611
1945.79 881.807 3667
1971.62 889.502 3699
1980.46 889.502 3699
1998.45 893.59 3716
2025.16 901.525 3749
2052.58 909.701 3783
2061.62 909.701 3783
2108.98 926.534 3853
2147.89 939.52 3907
2162.2 941.684 3916
2171.56 941.684 3916
2191.51 946.253 3935
2200.92 946.253 3935
2220.44 950.581 3953
2229.89 950.581 3953
2239.34 950.581 3953
2243.68 948.417 3944
2253.11 948.417 3944
2267.7 950.581 3953
2277.15 950.581 3953
2292.39 952.986 3963
2318.13 959.719 3991
2327.68 959.719 3991
2337.22 959.719 3991
2346.76 959.719 3991
2345.09 955.15 3972
2365.85 959.719 3991
2375.39 959.719 3991
2390.91 962.124 4001
2400.48 962.124 4001
2415.47 964.288 4010
2425.06 964.288 4010
2440.72 966.693 4020
2456.43 969.098 4030
2471.57 971.262 4039
2487.37 973.667 4049
2497.06 973.667 4049
2506.74 973.667 4049
2516.42 973.667 4049
2526.1 973.667 4049
2529.52 971.262 4039
2539.18 971.262 4039
2543.16 969.098 4030
2552.8 969.098 4030
2562.44 969.098 4030
2565.69 966.693 4020
2563.13 962.124 4001
2572.7 962.124 4001
2575.81 959.719 3991
2579.53 957.555 3982
2576.69 952.986 3963
2573.77 948.417 3944
2583.2 948.417 3944
2592.63 948.417 3944
2583.59 941.684 3916
2587 939.52 3907
2596.34 939.52 3907
2593.68 935.191 3889
2584.91 928.699 3862
2569.96 920.042 3826
2579.11 920.042 3826
2570.67 913.789 3800
2579.76 913.789 3800
2594.98 915.954 3809
2604.08 915.954 3809
2637.2 924.37 3844
2646.4 924.37 3844
2655.59 924.37 3844
2569.81 891.426 3707
2578.67 891.426 3707
535.043 173.62 722
536.77 173.62 722
538.496 173.62 722
539.475 173.38 721
541.199 173.38 721
542.923 173.38 721
544.647 173.38 721
546.371 173.38 721
547.335 173.139 720
549.057 173.139 720
550.014 172.899 719
-2365.97 767.458 3160
-2358.41 767.458 3160
-2346.39 766.001 3154
-2334.4 764.544 3148
-2326.87 764.544 3148
-2319.35 764.544 3148
-2311.82 764.544 3148
-2299.9 763.086 3142
-2292.38 763.086 3142
-2306.69 770.372 3172
-2299.1 770.372 3172
-2295.85 771.829 3178
-2305.53 777.658 3202
-2311.51 782.273 3221
-2303.81 782.273 3221
-2318.2 789.802 3252
-2342.4 800.731 3297
-2362.84 810.445 3337
-2354.86 810.445 3337
-2424.24 837.161 3447
-2436.32 844.204 3476
-2428.01 844.204 3476
-2439.89 851.247 3505
-2436.36 852.947 3512
-2438.33 856.59 3527
-2429.9 856.59 3527
-2421.46 856.59 3527
-2417.82 858.29 3534
-2409.37 858.29 3534
-2400.92 858.29 3534
-2392.47 858.29 3534
-2379.29 856.59 3527
-2370.86 856.59 3527
-2357.74 854.89 3520
-2349.32 854.89 3520
-2340.9 854.89 3520
-2337.12 856.59 3527
-2328.69 856.59 3527
-2324.86 858.29 3534
-2321.65 860.233 3542
-2313.18 860.233 3542
-2304.71 860.233 3542
-2296.24 860.233 3542
-2287.77 860.233 3542
-2283.81 861.933 3549
-2280.45 863.876 3557
-2271.94 863.876 3557
-2263.44 863.876 3557
-2269.51 869.462 3580
-2260.95 869.462 3580
-2252.39 869.462 3580
-2248.84 871.405 3588
-2244.63 873.105 3595
-2241.01 875.048 3603
-2232.4 875.048 3603
-2223.78 875.048 3603
-2220.08 876.991 3611
-2211.45 876.991 3611
-2202.81 876.991 3611
-2194.18 876.991 3611
-2190.39 878.934 3619
-2186.56 880.877 3627
-2177.88 880.877 3627
-2182.96 886.462 3650
-2179 888.405 3658
-2170.25 888.405 3658
-2161.51 888.405 3658
-2152.76 888.405 3658
-2139.32 886.462 3650
-2130.59 886.462 3650
-2113.15 882.819 3635
-2104.45 882.819 3635
-2095.76 882.819 3635
-2087.07 882.819 3635
-2078.38 882.819 3635
-2065.13 880.877 3627
-2056.46 880.877 3627
-2047.78 880.877 3627
-2039.11 880.877 3627
-2030.44 880.877 3627
-2021.76 880.877 3627
-2013.09 880.877 3627
-2004.42 880.877 3627
-2000.15 882.819 3635
-1991.45 882.819 3635
-1982.76 882.819 3635
-1974.07 882.819 3635
-1961.05 880.877 3627
-1956.68 882.819 3635
-1951.74 884.52 3642
-1943.03 884.52 3642
-1942.82 888.405 3658
-1934.07 888.405 3658
-1925.33 888.405 3658
-1916.58 888.405 3658
-1903.66 886.462 3650
-1890.78 884.52 3642
-1882.07 884.52 3642
-1869.76 882.819 3635
-1856.97 880.877 3627
-1848.3 880.877 3627
-1839.62 880.877 3627
-1830.95 880.877 3627
-1822.28 880.877 3627
-1809.6 878.934 3619
-1800.95 878.934 3619
-1788.33 876.991 3611
-1771.81 873.105 3595
-1763.22 873.105 3595
-1754.62 873.105 3595
-1742.62 871.405 3588
-1734.04 871.405 3588
-1717.77 867.519 3572
-1709.23 867.519 3572
-1700.69 867.519 3572
-1688.83 865.819 3565
-1680.3 865.819 3565
-1668.03 863.876 3557
-1659.52 863.876 3557
-1651.02 863.876 3557
-1638.82 861.933 3549
-1630.33 861.933 3549
-1621.84 861.933 3549
-1610.17 860.233 3542
-1598.09 858.29 3534
-1589.63 858.29 3534
-1581.18 858.29 3534
-1572.73 858.29 3534
-1567.82 860.233 3542
-1559.35 860.233 3542
-1550.88 860.233 3542
-1542.41 860.233 3542
-1533.94 860.233 3542
-1528.49 861.933 3549
-1520 861.933 3549
-1511.51 861.933 3549
-1503.03 861.933 3549
-1497.91 863.876 3557
-1489.4 863.876 3557
-1480.9 863.876 3557
-1472.39 863.876 3557
-1460.59 861.933 3549
-1452.11 861.933 3549
-1443.62 861.933 3549
-1444.43 867.519 3572
-1442.32 871.405 3588
-1433.74 871.405 3588
-1425.16 871.405 3588
-1419.35 873.105 3595
-1420.17 878.934 3619
-1417.76 882.819 3635
-1409.06 882.819 3635
-1403.07 884.52 3642
-1400.48 888.405 3658
-1398.2 892.534 3675
-1389.42 892.534 3675
-1399.04 904.435 3724
-1390.13 904.435 3724
-1381.23 904.435 3724
-1372.32 904.435 3724
-1363.42 904.435 3724
-1351.6 902.492 3716
-1342.71 902.492 3716
-1327.73 898.363 3699
-1318.88 898.363 3699
-1310.04 898.363 3699
-1301.19 898.363 3699
-1289.55 896.42 3691
-1269.27 888.405 3658
-1255.01 884.52 3642
-1241.17 880.877 3627
-1232.5 880.877 3627
-1223.82 880.877 3627
-1212.47 878.934 3619
-1203.82 878.934 3619
-1195.16 878.934 3619
-1186.51 878.934 3619
-1177.85 878.934 3619
-1161.45 873.105 3595
-1152.85 873.105 3595
-1144.25 873.105 3595
-1133.44 871.405 3588
-518.743 421.13 1734
-514.596 421.13 1734
-510.45 421.13 1734
-506.303 421.13 1734
-501.577 420.645 1732
-497.436 420.645 1732
-493.009 420.402 1731
-488.305 419.916 1729
-484.73 420.402 1731
-480.591 420.402 1731
-476.452 420.402 1731
-471.767 419.916 1729
-467.091 419.43 1727
-462.961 419.43 1727
-458.3 418.945 1725
-453.649 418.459 1723
-449.268 418.216 1722
-444.633 417.73 1720
-440.52 417.73 1720
-435.392 416.759 1716
-430.534 416.03 1713
-425.442 415.059 1709
-421.355 415.059 1709
-416.536 414.33 1706
-411.49 413.359 1702
-406.701 412.63 1699
-402.639 412.63 1699
-397.403 411.416 1694
-392.423 410.444 1690
-387.233 409.23 1685
-383.203 409.23 1685
-378.049 408.016 1680
-373.364 407.287 1677
-369.353 407.287 1677
-365.343 407.287 1677
-360.471 406.316 1673
-355.831 405.587 1670
-351.416 405.101 1668
-347.428 405.101 1668
-342.821 404.373 1665
-338.433 403.887 1663
-334.456 403.887 1663
-330.479 403.887 1663
-326.503 403.887 1663
-322.526 403.887 1663
-319.315 404.858 1667
-315.518 405.101 1668
-311.53 405.101 1668
-307.541 405.101 1668
-303.916 405.587 1670
-300.282 406.073 1672
-296.461 406.316 1673
-292.46 406.316 1673
-288.459 406.316 1673
-284.459 406.316 1673
-281.129 407.287 1677
-277.118 407.287 1677
-273.108 407.287 1677
-269.579 408.016 1680
-265.878 408.501 1682
-261.856 408.501 1682
-258.294 409.23 1685
-254.264 409.23 1685
-250.532 409.716 1687
-246.498 409.716 1687
-242.751 410.201 1689
-239.136 410.93 1692
-235.507 411.659 1695
-231.454 411.659 1695
-227.937 412.63 1699
-224.138 413.116 1701
-220.2 413.359 1702
-216.13 413.359 1702
-212.558 414.33 1706
-208.845 415.059 1709
-204.998 415.544 1711
-200.906 415.544 1711
-196.815 415.544 1711
-193.287 416.759 1716
-189.624 417.73 1720
-185.511 417.73 1720
-181.925 418.945 1725
-178.007 419.43 1727
-173.877 419.43 1727
-169.747 419.43 1727
-362.796 993.081 4089
-353.018 993.081 4089
-343.24 993.081 4089
-333.462 993.081 4089
-322.892 990.652 4079
-313.138 990.652 4079
-299.74 978.752 4030
-285.927 964.665 3972
-275.803 962.48 3963
-266.326 962.48 3963
-256.849 962.48 3963
-247.373 962.48 3963
-237.896 962.48 3963
-228.419 962.48 3963
-218.942 962.48 3963
-210.47 967.094 3982
-201.402 969.28 3991
-191.858 969.28 3991
-182.315 969.28 3991
-172.381 967.094 3982
-162.45 964.665 3972
-152.22 960.051 3953
-142.767 960.051 3953
-131.46 946.693 3898
-120.164 931.393 3835
-110.502 927.264 3818
-101.372 927.264 3818
-90.768 912.449 3757
-81.6097 910.506 3749
-72.1603 904.435 3724
-63.2551 904.435 3724
-53.8682 896.42 3691
-44.444 884.52 3642
-35.5877 880.877 3627
-26.9144 880.877 3627
-18.1205 875.048 3603
-9.46502 871.405 3588
-0.881075 867.519 3572
7.66066 867.519 3572
16.2024 867.519 3572
24.6956 865.819 3565
33.1461 863.876 3557
41.652 863.876 3557
50.1578 863.876 3557
58.4163 860.233 3542
66.8863 860.233 3542
75.1861 858.29 3534
83.6369 858.29 3534
92.0878 858.29 3534
100.539 858.29 3534
108.774 856.59 3527
117.208 856.59 3527
125.642 856.59 3527
134.076 856.59 3527
142.51 856.59 3527
150.944 856.59 3527
159.378 856.59 3527
167.813 856.59 3527
175.897 854.89 3520
184.314 854.89 3520
192.732 854.89 3520
201.149 854.89 3520
209.566 854.89 3520
217.984 854.89 3520
226.851 856.59 3527
235.286 856.59 3527
244.203 858.29 3534
252.654 858.29 3534
261.105 858.29 3534
269.556 858.29 3534
278.007 858.29 3534
287.106 860.233 3542
296.828 863.876 3557
305.334 863.876 3557
313.84 863.876 3557
323.07 865.819 3565
331.595 865.819 3565
340.12 865.819 3565
350.895 871.405 3588
359.475 871.405 3588
368.055 871.405 3588
376.635 871.405 3588
384.356 869.462 3580
390.392 863.876 3557
398.898 863.876 3557
403.968 856.59 3527
410.648 852.947 3512
418.211 851.247 3505
425.619 849.304 3497
433.982 849.304 3497
436.019 837.161 3447
442.458 833.76 3433
448.829 830.36 3419
457.005 830.36 3419
456.745 815.303 3357
462.004 810.445 3337
468.012 807.045 3323
475.958 807.045 3323
483.031 805.588 3317
490.963 805.588 3317
497.842 803.888 3310
505.757 803.888 3310
513.672 803.888 3310
520.485 802.188 3303
528.383 802.188 3303
537.418 803.888 3310
545.333 803.888 3310
553.248 803.888 3310
561.164 803.888 3310
569.079 803.888 3310
579.26 807.045 3323
587.207 807.045 3323
596.407 808.745 3330
605.64 810.445 3337
614.723 811.902 3343
622.717 811.902 3343
632.032 813.602 3350
640.043 813.602 3350
648.054 813.602 3350
654.694 811.902 3343
661.498 810.445 3337
669.478 810.445 3337
677.458 810.445 3337
685.438 810.445 3337
693.418 810.445 3337
701.397 810.445 3337
709.377 810.445 3337
717.357 810.445 3337
725.337 810.445 3337
733.317 810.445 3337
739.741 808.745 3330
747.704 808.745 3330
755.667 808.745 3330
762.025 807.045 3323
769.971 807.045 3323
777.918 807.045 3323
785.864 807.045 3323
792.377 805.588 3317
800.309 805.588 3317
809.703 807.045 3323
817.649 807.045 3323
825.596 807.045 3323
835.298 808.745 3330
843.261 808.745 3330
851.224 808.745 3330
866.153 815.303 3357
881.212 821.86 3384
896.662 828.66 3412
904.821 828.66 3412
912.981 828.66 3412
932.478 838.861 3454
946.73 844.204 3476
955.042 844.204 3476
973.331 852.947 3512
990.116 860.233 3542
1002.81 863.876 3557
1011.32 863.876 3557
1024.13 867.519 3572
1041.63 875.048 3603
1057.24 880.877 3627
1068.27 882.819 3635
1076.96 882.819 3635
1097.6 892.534 3675
1108.79 894.477 3683
1117.6 894.477 3683
1126.41 894.477 3683
1135.22 894.477 3683
1144.02 894.477 3683
1152.83 894.477 3683
1161.64 894.477 3683
1170.45 894.477 3683
1179.25 894.477 3683
1188.06 894.477 3683
1196.87 894.477 3683
1203.05 892.534 3675
1211.84 892.534 3675
1220.63 892.534 3675
1226.74 890.591 3667
1235.51 890.591 3667
1241.23 888.405 3658
1249.97 888.405 3658
1258.72 888.405 3658
1264.7 886.462 3650
1273.43 886.462 3650
1282.15 886.462 3650
1288.05 884.52 3642
1296.76 884.52 3642
1305.47 884.52 3642
1314.18 884.52 3642
1322.89 884.52 3642
1329.04 882.819 3635
1337.73 882.819 3635
1343.46 880.877 3627
1352.13 880.877 3627
1357.81 878.934 3619
1363.44 876.991 3611
1369.03 875.048 3603
1377.65 875.048 3603
1383.19 873.105 3595
1389.07 871.405 3588
1394.54 869.462 3580
1403.1 869.462 3580
1405.74 865.819 3565
1411.1 863.876 3557
1413.62 860.233 3542
1416.06 856.59 3527
1424.5 856.59 3527
1417.9 847.604 3490
1420.52 844.204 3476
1425.55 842.261 3468
1433.84 842.261 3468
1436.31 838.861 3454
1441.64 837.161 3447
1449.89 837.161 3447
1467.01 842.261 3468
1475.31 842.261 3468
1490.02 845.904 3483
1517.27 856.59 3527
1542.14 865.819 3565
1550.67 865.819 3565
1562.26 867.519 3572
1580.91 873.105 3595
1607.19 882.819 3635
1615.89 882.819 3635
1634.86 888.405 3658
1662.03 898.363 3699
1724.63 927.264 3818
1733.76 927.264 3818
1767.08 940.136 3871
1788.73 946.693 3898
1810.5 953.251 3925
1819.89 953.251 3925
1842.33 960.051 3953
1856.46 962.48 3963
1865.94 962.48 3963
1875.42 962.48 3963
1880.14 960.051 3953
1880.98 955.679 3935
1885.59 953.251 3925
1894.98 953.251 3925
1873.8 937.95 3862
1865.48 929.207 3826
1866.3 925.078 3809
1875.41 925.078 3809
1871.65 918.764 3783
1859.32 908.32 3740
1856.27 902.492 3716
1865.16 902.492 3716
1861.44 896.42 3691
1853.54 888.405 3658
1846.51 880.877 3627
1847 876.991 3611
1855.63 876.991 3611
1864.27 876.991 3611
1872.9 876.991 3611
1881.54 876.991 3611
1890.17 876.991 3611
1894.6 875.048 3603
1907.44 876.991 3611
1936.77 886.462 3650
1971.62 898.363 3699
1980.46 898.363 3699
1998.45 902.492 3716
2025.16 910.506 3749
2052.58 918.764 3783
2061.62 918.764 3783
2104.06 933.578 3844
2147.89 948.879 3907
2162.2 951.065 3916
2171.56 951.065 3916
2191.51 955.679 3935
2200.92 955.679 3935
2220.44 960.051 3953
2229.89 960.051 3953
2239.34 960.051 3953
2243.68 957.865 3944
2253.11 957.865 3944
2267.7 960.051 3953
2277.15 960.051 3953
2292.39 962.48 3963
2318.13 969.28 3991
2327.68 969.28 3991
2337.22 969.28 3991
2346.76 969.28 3991
2345.09 964.665 3972
2365.85 969.28 3991
2375.39 969.28 3991
2390.91 971.709 4001
2400.48 971.709 4001
2415.47 973.894 4010
2425.06 973.894 4010
2440.72 976.323 4020
2456.43 978.752 4030
2471.57 980.938 4039
2487.37 983.366 4049
2497.06 983.366 4049
2506.74 983.366 4049
2516.42 983.366 4049
2526.1 983.366 4049
2529.52 980.938 4039
2539.18 980.938 4039
2543.16 978.752 4030
2552.8 978.752 4030
2562.44 978.752 4030
2565.69 976.323 4020
2563.13 971.709 4001
2572.7 971.709 4001
2575.81 969.28 3991
2573.05 964.665 3972
2576.69 962.48 3963
2573.77 957.865 3944
2583.2 957.865 3944
2586.72 955.679 3935
2583.59 951.065 3916
2575.08 944.508 3889
2584.38 944.508 3889
2587.68 942.322 3880
2578.88 935.764 3853
2569.96 929.207 3826
2579.11 929.207 3826
2570.67 922.892 3800
2579.76 922.892 3800
2594.98 925.078 3809
2604.08 925.078 3809
2637.2 933.578 3844
2646.4 933.578 3844
2655.59 933.578 3844
2569.81 900.306 3707
2578.67 900.306 3707
535.043 175.35 722
536.77 175.35 722
538.496 175.35 722
539.475 175.107 721
541.199 175.107 721
542.923 175.107 721
544.647 175.107 721
546.371 175.107 721
547.335 174.864 720
549.057 174.864 720
550.014 174.621 719
-2365.97 775.028 3160
-2358.41 775.028 3160
-2346.39 773.556 3154
-2334.4 772.085 3148
-2326.87 772.085 3148
-2319.35 772.085 3148
-2311.82 772.085 3148
-2299.9 770.613 3142
-2292.38 770.613 3142
-2306.69 777.971 3172
-2299.1 777.971 3172
-2295.85 779.442 3178
-2305.53 785.329 3202
-2311.51 789.989 3221
-2303.81 789.989 3221
-2318.2 797.592 3252
-2333.16 805.44 3284
-2352.92 815.005 3323
-2344.98 815.005 3323
-2399.62 836.834 3412
-2425.81 848.852 3461
-2417.53 848.852 3461
-2434.32 857.681 3497
-2431.5 859.643 3505
-2423.12 859.643 3505
-2414.74 859.643 3505
-2406.36 859.643 3505
-2397.98 859.643 3505
-2389.6 859.643 3505
-2381.22 859.643 3505
-2372.83 859.643 3505
-2364.45 859.643 3505
-2356.07 859.643 3505
-2347.69 859.643 3505
-2339.31 859.643 3505
-2340.9 863.322 3520
-2337.12 865.039 3527
-2328.69 865.039 3527
-2324.86 866.756 3534
-2321.65 868.718 3542
-2313.18 868.718 3542
-2304.71 868.718 3542
-2291.06 866.756 3534
-2282.61 866.756 3534
-2279.3 868.718 3542
-2280.45 872.397 3557
-2271.94 872.397 3557
-2263.44 872.397 3557
-2264.44 876.076 3572
-2260.95 878.038 3580
-2252.39 878.038 3580
-2248.84 880 3588
-2244.63 881.717 3595
-2241.01 883.679 3603
-2232.4 883.679 3603
-2223.78 883.679 3603
-2220.08 885.641 3611
-2211.45 885.641 3611
-2202.81 885.641 3611
-2194.18 885.641 3611
-2190.39 887.603 3619
-2186.56 889.565 3627
-2177.88 889.565 3627
-2182.96 895.206 3650
-2179 897.168 3658
-2170.25 897.168 3658
-2161.51 897.168 3658
-2152.76 897.168 3658
-2139.32 895.206 3650
-2130.59 895.206 3650
-2113.15 891.527 3635
-2099.82 889.565 3627
-2095.76 891.527 3635
-2087.07 891.527 3635
-2078.38 891.527 3635
-2065.13 889.565 3627
-2056.46 889.565 3627
-2047.78 889.565 3627
-2039.11 889.565 3627
-2025.96 887.603 3619
-2017.3 887.603 3619
-2013.09 889.565 3627
-2004.42 889.565 3627
-1995.74 889.565 3627
-1987.07 889.565 3627
-1978.4 889.565 3627
-1969.72 889.565 3627
-1961.05 889.565 3627
-1952.38 889.565 3627
-1947.99 891.527 3635
-1939.3 891.527 3635
-1938.57 895.206 3650
-1929.84 895.206 3650
-1921.12 895.206 3650
-1912.39 895.206 3650
-1903.66 895.206 3650
-1890.78 893.244 3642
-1882.07 893.244 3642
-1865.64 889.565 3627
-1856.97 889.565 3627
-1848.3 889.565 3627
-1839.62 889.565 3627
-1830.95 889.565 3627
-1822.28 889.565 3627
-1809.6 887.603 3619
-1800.95 887.603 3619
-1788.33 885.641 3611
-1771.81 881.717 3595
-1763.22 881.717 3595
-1754.62 881.717 3595
-1742.62 880 3588
-1734.04 880 3588
-1717.77 876.076 3572
-1709.23 876.076 3572
-1700.69 876.076 3572
-1688.83 874.359 3565
-1680.3 874.359 3565
-1668.03 872.397 3557
-1659.52 872.397 3557
-1651.02 872.397 3557
-1638.82 870.435 3549
-1630.33 870.435 3549
-1621.84 870.435 3549
-1610.17 868.718 3542
-1598.09 866.756 3534
-1589.63 866.756 3534
-1581.18 866.756 3534
-1572.73 866.756 3534
-1567.82 868.718 3542
-1559.35 868.718 3542
-1550.88 868.718 3542
-1542.41 868.718 3542
-1533.94 868.718 3542
-1528.49 870.435 3549
-1520 870.435 3549
-1511.51 870.435 3549
-1503.03 870.435 3549
-1497.91 872.397 3557
-1489.4 872.397 3557
-1480.9 872.397 3557
-1472.39 872.397 3557
-1460.59 870.435 3549
-1452.11 870.435 3549
-1443.62 870.435 3549
-1444.43 876.076 3572
-1439.11 878.038 3580
-1433.74 880 3588
-1425.16 880 3588
-1419.35 881.717 3595
-1420.17 887.603 3619
-1417.76 891.527 3635
-1409.06 891.527 3635
-1403.07 893.244 3642
-1400.48 897.168 3658
-1398.2 901.338 3675
-1389.42 901.338 3675
-1399.04 913.355 3724
-1390.13 913.355 3724
-1381.23 913.355 3724
-1372.32 913.355 3724
-1363.42 913.355 3724
-1351.6 911.393 3716
-1342.71 911.393 3716
-1327.73 907.224 3699
-1318.88 907.224 3699
-1310.04 907.224 3699
-1301.19 907.224 3699
-1289.55 905.262 3691
-1269.27 897.168 3658
-1255.01 893.244 3642
-1241.17 889.565 3627
-1232.5 889.565 3627
-1223.82 889.565 3627
-1212.47 887.603 3619
-1203.82 887.603 3619
-1195.16 887.603 3619
-1186.51 887.603 3619
-1177.85 887.603 3619
-1161.45 881.717 3595
-1152.85 881.717 3595
-1144.25 881.717 3595
-1133.44 880 3588
-1122.36 878.038 3580
-1113.8 878.038 3580
-520.538 426.756 1740
-516.377 426.756 1740
-512.216 426.756 1740
-506.887 425.775 1736
-502.157 425.284 1734
-498.01 425.284 1734
-493.009 424.548 1731
-488.87 424.548 1731
-485.01 424.794 1732
-480.869 424.794 1732
-476.727 424.794 1732
-472.312 424.548 1731
-467.632 424.058 1729
-463.498 424.058 1729
-458.832 423.567 1727
-454.175 423.077 1725
-449.528 422.586 1723
-445.15 422.341 1722
-441.032 422.341 1722
-435.899 421.36 1718
-430.534 420.134 1713
-425.94 419.643 1711
-421.849 419.643 1711
-417.269 419.153 1709
-412.457 418.417 1706
-407.18 417.191 1701
-403.113 417.191 1701
-397.637 415.719 1695
-392.888 414.983 1692
-388.152 414.247 1689
-384.113 414.247 1689
-378.724 412.776 1683
-374.032 412.04 1680
-369.574 411.55 1678
-365.561 411.55 1678
-361.333 411.304 1677
-355.831 409.587 1670
-351.416 409.097 1668
-347.428 409.097 1668
-343.233 408.852 1667
-338.84 408.361 1665
-334.858 408.361 1665
-330.479 407.871 1663
-326.895 408.361 1665
-322.914 408.361 1665
-319.507 409.097 1668
-315.518 409.097 1668
-311.53 409.097 1668
-307.541 409.097 1668
-304.28 410.078 1672
-300.461 410.323 1673
-296.461 410.323 1673
-292.46 410.323 1673
-288.459 410.323 1673
-285.139 411.304 1677
-281.129 411.304 1677
-277.118 411.304 1677
-273.597 412.04 1680
-269.9 412.531 1682
-266.352 413.266 1685
-262.323 413.266 1685
-258.6 413.757 1687
-255.019 414.493 1690
-250.978 414.493 1690
-246.936 414.493 1690
-243.182 414.983 1692
-239.56 415.719 1695
-236.063 416.7 1699
-232 416.7 1699
-228.608 417.926 1704
-224.797 418.417 1706
-220.976 418.907 1708
-216.892 418.907 1708
-212.932 419.153 1709
-209.578 420.624 1715
-205.597 420.869 1716
-201.494 420.869 1716
-197.39 420.869 1716
-193.512 421.36 1718
-189.845 422.341 1722
-185.727 422.341 1722
-181.925 423.077 1725
-178.007 423.567 1727
-173.877 423.567 1727
-169.747 423.567 1727
-362.796 1002.88 4089
-353.018 1002.88 4089
-343.24 1002.88 4089
-333.462 1002.88 4089
-322.892 1000.42 4079
-313.138 1000.42 4079
-299.74 988.406 4030
-285.927 974.18 3972
-275.803 971.973 3963
-266.326 971.973 3963
-256.849 971.973 3963
-247.373 971.973 3963
-237.896 971.973 3963
-228.419 971.973 3963
-218.942 971.973 3963
-210.47 976.633 3982
-201.402 978.84 3991
-191.858 978.84 3991
-182.315 978.84 3991
-172.381 976.633 3982
-162.45 974.18 3972
-152.22 969.52 3953
-142.767 969.52 3953
-131.46 956.031 3898
-120.164 940.579 3835
-110.502 936.41 3818
-101.372 936.41 3818
-90.768 921.449 3757
-81.6097 919.487 3749
-72.1603 913.355 3724
-63.2551 913.355 3724
-53.8682 905.262 3691
-44.444 893.244 3642
-35.5877 889.565 3627
-26.9144 889.565 3627
-18.1205 883.679 3603
-9.46502 880 3588
-0.883048 878.038 3580
7.66066 876.076 3572
16.2024 876.076 3572
24.6956 874.359 3565
33.2206 874.359 3565
41.652 872.397 3557
50.1578 872.397 3557
58.5317 870.435 3549
66.8863 868.718 3542
75.1861 866.756 3534
83.6369 866.756 3534
92.0878 866.756 3534
100.539 866.756 3534
108.99 866.756 3534
117.44 866.756 3534
125.891 866.756 3534
134.342 866.756 3534
142.793 866.756 3534
151.244 866.756 3534
159.378 865.039 3527
167.813 865.039 3527
176.247 865.039 3527
184.681 865.039 3527
193.115 865.039 3527
201.549 865.039 3527
209.983 865.039 3527
218.417 865.039 3527
226.851 865.039 3527
235.286 865.039 3527
244.203 866.756 3534
252.654 866.756 3534
261.105 866.756 3534
269.556 866.756 3534
278.007 866.756 3534
287.106 868.718 3542
296.828 872.397 3557
305.334 872.397 3557
314.545 874.359 3565
323.07 874.359 3565
331.595 874.359 3565
340.12 874.359 3565
350.895 880 3588
359.475 880 3588
368.055 880 3588
376.635 880 3588
384.356 878.038 3580
390.392 872.397 3557
398.898 872.397 3557
403.968 865.039 3527
410.648 861.36 3512
418.211 859.643 3505
423.915 854.247 3483
432.244 854.247 3483
436.019 845.418 3447
441.556 840.267 3426
448.829 838.551 3419
457.005 838.551 3419
457.562 824.816 3363
464.773 823.344 3357
468.998 816.722 3330
476.961 816.722 3330
483.905 815.005 3323
490.963 813.534 3317
497.842 811.817 3310
505.757 811.817 3310
513.672 811.817 3310
521.588 811.817 3310
528.383 810.1 3303
537.418 811.817 3310
545.333 811.817 3310
553.248 811.817 3310
561.164 811.817 3310
569.079 811.817 3310
579.26 815.005 3323
587.207 815.005 3323
596.407 816.722 3330
605.64 818.439 3337
614.723 819.911 3343
622.717 819.911 3343
632.032 821.627 3350
640.043 821.627 3350
648.054 821.627 3350
654.694 819.911 3343
661.498 818.439 3337
669.478 818.439 3337
677.458 818.439 3337
685.438 818.439 3337
693.418 818.439 3337
701.397 818.439 3337
709.377 818.439 3337
717.357 818.439 3337
725.337 818.439 3337
733.317 818.439 3337
741.296 818.439 3337
749.276 818.439 3337
755.667 816.722 3330
762.025 815.005 3323
769.971 815.005 3323
777.918 815.005 3323
785.864 815.005 3323
792.377 813.534 3317
800.309 813.534 3317
808.241 813.534 3317
816.173 813.534 3317
824.105 813.534 3317
835.298 816.722 3330
843.261 816.722 3330
851.224 816.722 3330
867.701 824.816 3363
881.212 829.966 3384
896.662 836.834 3412
904.821 836.834 3412
912.981 836.834 3412
932.478 847.135 3454
946.73 852.53 3476
955.042 852.53 3476
973.331 861.36 3512
990.116 868.718 3542
1002.81 872.397 3557
1011.32 872.397 3557
1024.13 876.076 3572
1041.63 883.679 3603
1057.24 889.565 3627
1068.27 891.527 3635
1076.96 891.527 3635
1097.6 901.338 3675
1108.79 903.3 3683
1117.6 903.3 3683
1126.41 903.3 3683
1135.22 903.3 3683
1144.02 903.3 3683
1152.83 903.3 3683
1161.64 903.3 3683
1170.45 903.3 3683
1179.25 903.3 3683
1188.06 903.3 3683
1196.87 903.3 3683
1205.67 903.3 3683
1211.84 901.338 3675
1220.63 901.338 3675
1229.42 901.338 3675
1235.51 899.375 3667
1241.23 897.168 3658
1249.97 897.168 3658
1255.97 895.206 3650
1264.7 895.206 3650
1273.43 895.206 3650
1282.15 895.206 3650
1290.88 895.206 3650
1296.76 893.244 3642
1305.47 893.244 3642
1314.18 893.244 3642
1322.89 893.244 3642
1329.04 891.527 3635
1334.79 889.565 3627
1343.46 889.565 3627
1352.13 889.565 3627
1354.8 885.641 3611
1363.44 885.641 3611
1365.99 881.717 3595
1374.59 881.717 3595
1383.19 881.717 3595
1389.07 880 3588
1394.54 878.038 3580
1403.1 878.038 3580
1402.59 872.397 3557
1407.92 870.435 3549
1410.42 866.756 3534
1413.25 863.322 3520
1421.67 863.322 3520
1415.06 854.247 3483
1420.52 852.53 3476
1425.55 850.568 3468
1433.84 850.568 3468
1436.31 847.135 3454
1444.57 847.135 3454
1449.89 845.418 3447
1467.01 850.568 3468
1475.31 850.568 3468
1490.02 854.247 3483
1517.27 865.039 3527
1542.14 874.359 3565
1550.67 874.359 3565
1569.25 880 3588
1584.43 883.679 3603
1607.19 891.527 3635
1615.89 891.527 3635
1642.46 901.338 3675
1669.67 911.393 3716
1744.5 947.202 3862
1753.74 947.202 3862
1775.3 953.824 3889
1796.99 960.446 3916
1810.5 962.653 3925
1819.89 962.653 3925
1846.99 971.973 3963
1856.46 971.973 3963
1865.94 971.973 3963
1875.42 971.973 3963
1880.14 969.52 3953
1880.98 965.106 3935
1885.59 962.653 3925
1894.98 962.653 3925
1882.53 951.616 3880
1869.87 940.579 3835
1870.71 936.41 3818
1879.84 936.41 3818
1876.1 930.033 3792
1863.79 919.487 3749
1856.27 911.393 3716
1865.16 911.393 3716
1861.44 905.262 3691
1853.54 897.168 3658
1846.51 889.565 3627
1847 885.641 3611
1855.63 885.641 3611
1864.27 885.641 3611
1872.9 885.641 3611
1877.37 883.679 3603
1885.99 883.679 3603
1890.39 881.717 3595
1903.22 883.679 3603
1936.77 895.206 3650
1967.35 905.262 3691
1976.18 905.262 3691
1993.61 909.186 3707
2020.3 917.28 3740
2052.58 927.826 3783
2061.62 927.826 3783
2104.06 942.787 3844
2147.89 958.238 3907
2162.2 960.446 3916
2171.56 960.446 3916
2191.51 965.106 3935
2216.58 971.973 3963
2226.05 971.973 3963
2235.53 971.973 3963
2245.01 971.973 3963
2248.8 969.52 3953
2263.96 971.973 3963
2273.44 971.973 3963
2282.92 971.973 3963
2297.6 974.18 3972
2323.94 981.293 4001
2333.51 981.293 4001
2343.08 981.293 4001
2352.64 981.293 4001
2356.31 978.84 3991
2371.78 981.293 4001
2381.35 981.293 4001
2390.91 981.293 4001
2400.48 981.293 4001
2415.47 983.5 4010
2425.06 983.5 4010
2446.79 988.406 4030
2456.43 988.406 4030
2471.57 990.613 4039
2487.37 993.066 4049
2497.06 993.066 4049
2506.74 993.066 4049
2516.42 993.066 4049
2526.1 993.066 4049
2529.52 990.613 4039
2533.52 988.406 4030
2543.16 988.406 4030
2552.8 988.406 4030
2556.08 985.953 4020
2565.69 985.953 4020
2568.9 983.5 4010
2578.49 983.5 4010
2575.81 978.84 3991
2579.53 976.633 3982
2576.69 971.973 3963
2579.65 969.52 3953
2589.1 969.52 3953
2592.63 967.313 3944
2596.13 965.106 3935
2587 958.238 3907
2596.34 958.238 3907
2593.68 953.824 3889
2596.95 951.616 3880
2582.05 942.787 3844
2591.24 942.787 3844
2582.85 936.41 3818
2579.76 931.995 3800
2588.84 931.995 3800
2597.93 931.995 3800
2607.02 931.995 3800
2616.1 931.995 3800
2607.23 925.619 3774
2569.81 909.186 3707
2578.67 909.186 3707
2559.62 899.375 3667
535.283 176.589 720
537.005 176.589 720
539.475 176.834 721
541.199 176.834 721
542.923 176.834 721
544.647 176.834 721
546.371 176.834 721
547.335 176.589 720
549.057 176.589 720
550.014 176.343 719
-2365.97 782.597 3160
-2358.41 782.597 3160
-2346.39 781.112 3154
-2334.4 779.626 3148
-2322.44 778.14 3142
-2314.93 778.14 3142
-2307.41 778.14 3142
-2299.9 778.14 3142
-2292.38 778.14 3142
-2306.69 785.569 3172
-2299.1 785.569 3172
-2295.85 787.055 3178
-2301.21 791.513 3196
-2306.49 795.971 3214
-2298.8 795.971 3214
-2313.93 803.896 3246
-2328.9 811.821 3278
-2334.51 816.527 3297
-2326.63 816.527 3297
-2379.93 838.073 3384
-2416 853.675 3447
-2407.75 853.675 3447
-2414.13 858.876 3468
-2421.1 864.324 3490
-2417.59 866.058 3497
-2409.23 866.058 3497
-2400.87 866.058 3497
-2392.51 866.058 3497
-2384.14 866.058 3497
-2375.78 866.058 3497
-2357.94 862.591 3483
-2349.61 862.591 3483
-2341.28 862.591 3483
-2332.95 862.591 3483
-2324.62 862.591 3483
-2325.61 866.058 3497
-2322.54 868.039 3505
-2318.79 869.773 3512
-2310.39 869.773 3512
-2301.99 869.773 3512
-2293.59 869.773 3512
-2285.19 869.773 3512
-2276.79 869.773 3512
-2268.4 869.773 3512
-2269.65 873.488 3527
-2275.32 878.936 3549
-2266.83 878.936 3549
-2263.44 880.917 3557
-2260 882.899 3565
-2255.9 884.632 3572
-2247.36 884.632 3572
-2243.83 886.614 3580
-2240.26 888.595 3588
-2236.04 890.328 3595
-2227.44 890.328 3595
-2223.78 892.31 3603
-2220.08 894.291 3611
-2211.45 894.291 3611
-2202.81 894.291 3611
-2194.18 894.291 3611
-2190.39 896.272 3619
-2186.56 898.254 3627
-2177.88 898.254 3627
-2182.96 903.95 3650
-2174.24 903.95 3650
-2165.51 903.95 3650
-2156.78 903.95 3650
-2148.05 903.95 3650
-2139.32 903.95 3650
-2130.59 903.95 3650
-2113.15 900.235 3635
-2099.82 898.254 3627
-2091.15 898.254 3627
-2082.48 898.254 3627
-2073.8 898.254 3627
-2065.13 898.254 3627
-2056.46 898.254 3627
-2047.78 898.254 3627
-2039.11 898.254 3627
-2025.96 896.272 3619
-2017.3 896.272 3619
-2008.65 896.272 3619
-2000 896.272 3619
-1991.34 896.272 3619
-1982.69 896.272 3619
-1974.03 896.272 3619
-1965.38 896.272 3619
-1956.73 896.272 3619
-1952.38 898.254 3627
-1947.99 900.235 3635
-1939.3 900.235 3635
-1934.32 901.968 3642
-1934.07 905.931 3658
-1930.06 908.16 3667
-1921.3 908.16 3667
-1912.53 908.16 3667
-1894.93 903.95 3650
-1886.2 903.95 3650
-1877.48 903.95 3650
-1864.65 901.968 3642
-1852.38 900.235 3635
-1847.23 901.968 3642
-1838.52 901.968 3642
-1829.81 901.968 3642
-1817.61 900.235 3635
-1808.91 900.235 3635
-1792.3 896.272 3619
-1779.7 894.291 3611
-1771.06 894.291 3611
-1762.43 894.291 3611
-1749.91 892.31 3603
-1737.43 890.328 3595
-1721.62 886.614 3580
-1713.06 886.614 3580
-1704.5 886.614 3580
-1692.14 884.632 3572
-1680.3 882.899 3565
-1671.78 882.899 3565
-1663.25 882.899 3565
-1654.73 882.899 3565
-1646.2 882.899 3565
-1630.33 878.936 3549
-1621.84 878.936 3549
-1613.35 878.936 3549
-1601.7 877.203 3542
-1593.23 877.203 3542
-1584.76 877.203 3542
-1572.73 875.221 3534
-1567.82 877.203 3542
-1559.35 877.203 3542
-1550.88 877.203 3542
-1542.41 877.203 3542
-1533.94 877.203 3542
-1525.47 877.203 3542
-1520 878.936 3549
-1511.51 878.936 3549
-1503.03 878.936 3549
-1494.54 878.936 3549
-1486.05 878.936 3549
-1477.57 878.936 3549
-1469.08 878.936 3549
-1457.71 877.203 3542
-1449.24 877.203 3542
-1440.77 877.203 3542
-1441.6 882.899 3565
-1435.89 884.632 3572
-1430.55 886.614 3580
-1421.99 886.614 3580
-1416.58 888.595 3588
-1413.89 892.31 3603
-1411.52 896.272 3619
-1402.86 896.272 3619
-1403.07 901.968 3642
-1397.42 903.95 3650
-1398.2 910.141 3675
-1389.42 910.141 3675
-1383.63 912.122 3683
-1387.15 920.295 3716
-1378.26 920.295 3716
-1369.37 920.295 3716
-1357.19 918.066 3707
-1342.51 914.104 3691
-1333.68 914.104 3691
-1324.86 914.104 3691
-1316.03 914.104 3691
-1301.54 910.141 3675
-1292.75 910.141 3675
-1281.17 908.16 3667
-1266.5 903.95 3650
-1249.84 898.254 3627
-1235.7 894.291 3611
-1227.06 894.291 3611
-1215.73 892.31 3603
-1209.79 894.291 3611
-1201.16 894.291 3611
-1192.52 894.291 3611
-1183.89 894.291 3611
-1170.04 890.328 3595
-1159.18 888.595 3588
-1150.6 888.595 3588
-1142.02 888.595 3588
-1133.44 888.595 3588
-1122.36 886.614 3580
-1113.8 886.614 3580
-520.538 430.924 1740
-516.377 430.924 1740
-512.216 430.924 1740
-506.887 429.933 1736
-502.157 429.438 1734
-498.01 429.438 1734
-493.009 428.695 1731
-488.87 428.695 1731
-485.01 428.943 1732
-480.869 428.943 1732
-476.727 428.943 1732
-472.312 428.695 1731
-467.632 428.2 1729
-463.498 428.2 1729
-458.832 427.704 1727
-454.175 427.209 1725
-449.528 426.714 1723
-445.15 426.466 1722
-441.032 426.466 1722
-435.899 425.475 1718
-430.534 424.237 1713
-425.94 423.742 1711
-421.849 423.742 1711
-417.269 423.247 1709
-412.457 422.504 1706
-407.18 421.265 1701
-403.113 421.265 1701
-397.637 419.779 1695
-392.888 419.036 1692
-388.152 418.293 1689
-384.113 418.293 1689
-378.724 416.807 1683
-374.032 416.064 1680
-369.574 415.569 1678
-365.561 415.569 1678
-361.333 415.322 1677
-355.831 413.588 1670
-351.416 413.093 1668
-347.428 413.093 1668
-343.233 412.845 1667
-338.84 412.35 1665
-334.858 412.35 1665
-330.479 411.854 1663
-326.895 412.35 1665
-322.914 412.35 1665
-319.507 413.093 1668
-315.518 413.093 1668
-311.53 413.093 1668
-307.541 413.093 1668
-304.28 414.083 1672
-300.461 414.331 1673
-296.461 414.331 1673
-292.46 414.331 1673
-288.459 414.331 1673
-285.139 415.322 1677
-281.129 415.322 1677
-277.118 415.322 1677
-273.597 416.064 1680
-269.9 416.56 1682
-266.352 417.303 1685
-262.323 417.303 1685
-258.6 417.798 1687
-255.019 418.541 1690
-250.978 418.541 1690
-246.936 418.541 1690
-243.182 419.036 1692
-239.56 419.779 1695
-236.063 420.77 1699
-232 420.77 1699
-228.608 422.008 1704
-224.797 422.504 1706
-220.976 422.999 1708
-216.892 422.999 1708
-212.932 423.247 1709
-209.578 424.733 1715
-205.597 424.98 1716
-201.494 424.98 1716
-197.39 424.98 1716
-193.512 425.475 1718
-189.845 426.466 1722
-185.727 426.466 1722
-181.925 427.209 1725
-178.007 427.704 1727
-173.877 427.704 1727
-169.747 427.704 1727
-362.796 1012.67 4089
-353.018 1012.67 4089
-343.24 1012.67 4089
-333.462 1012.67 4089
-321.309 1005.24 4059
-311.603 1005.24 4059
-299.74 998.059 4030
-285.927 983.695 3972
-275.803 981.466 3963
-266.326 981.466 3963
-256.849 981.466 3963
-247.373 981.466 3963
-237.296 978.99 3953
-227.843 978.99 3953
-218.39 978.99 3953
-208.937 978.99 3953
-200.443 983.695 3972
-190.945 983.695 3972
-181.447 983.695 3972
-171.948 983.695 3972
-161.673 978.99 3953
-151.142 972.055 3925
-141.756 972.055 3925
-131.156 963.14 3889
-119.882 947.537 3826
-110.241 943.327 3809
-101.133 943.327 3809
-90.768 930.449 3757
-81.6097 928.468 3749
-72.1603 922.276 3724
-63.2551 922.276 3724
-53.8682 914.104 3691
-44.444 901.968 3642
-35.5877 898.254 3627
-26.9144 898.254 3627
-18.1607 894.291 3611
-9.46502 888.595 3588
-0.885022 888.595 3588
7.67782 886.614 3580
16.2387 886.614 3580
24.7441 884.632 3572
33.2206 882.899 3565
41.652 880.917 3557
50.1578 880.917 3557
58.5317 878.936 3549
67.0185 878.936 3549
75.3563 877.203 3542
83.8263 877.203 3542
92.2963 877.203 3542
100.539 875.221 3534
108.99 875.221 3534
117.44 875.221 3534
125.891 875.221 3534
134.342 875.221 3534
142.793 875.221 3534
151.244 875.221 3534
159.695 875.221 3534
168.146 875.221 3534
176.596 875.221 3534
185.047 875.221 3534
193.498 875.221 3534
201.549 873.488 3527
209.983 873.488 3527
218.417 873.488 3527
226.851 873.488 3527
235.286 873.488 3527
244.203 875.221 3534
252.654 875.221 3534
261.105 875.221 3534
269.556 875.221 3534
278.007 875.221 3534
287.106 877.203 3542
296.828 880.917 3557
305.334 880.917 3557
314.545 882.899 3565
323.07 882.899 3565
331.595 882.899 3565
340.12 882.899 3565
350.895 888.595 3588
359.475 888.595 3588
368.055 888.595 3588
376.635 888.595 3588
384.356 886.614 3580
390.392 880.917 3557
398.898 880.917 3557
403.968 873.488 3527
410.648 869.773 3512
418.211 868.039 3505
423.915 862.591 3483
432.244 862.591 3483
436.019 853.675 3447
441.556 848.474 3426
448.829 846.741 3419
457.005 846.741 3419
457.562 832.872 3363
464.773 831.386 3357
468.998 824.699 3330
476.961 824.699 3330
483.905 822.966 3323
491.851 822.966 3323
498.895 821.48 3317
506.827 821.48 3317
514.759 821.48 3317
521.588 819.746 3310
529.503 819.746 3310
537.418 819.746 3310
545.333 819.746 3310
553.248 819.746 3310
561.164 819.746 3310
570.282 821.48 3317
580.48 824.699 3330
588.444 824.699 3330
597.66 826.433 3337
606.729 827.919 3343
616.01 829.652 3350
624.021 829.652 3350
632.032 829.652 3350
640.043 829.652 3350
648.054 829.652 3350
654.694 827.919 3343
662.688 827.919 3343
670.682 827.919 3343
678.676 827.919 3343
686.67 827.919 3343
693.418 826.433 3337
701.397 826.433 3337
709.377 826.433 3337
717.357 826.433 3337
725.337 826.433 3337
733.317 826.433 3337
741.296 826.433 3337
749.276 826.433 3337
755.667 824.699 3330
763.63 824.699 3330
769.971 822.966 3323
777.918 822.966 3323
785.864 822.966 3323
792.377 821.48 3317
800.309 821.48 3317
808.241 821.48 3317
816.173 821.48 3317
824.105 821.48 3317
835.298 824.699 3330
843.261 824.699 3330
851.224 824.699 3330
867.701 832.872 3363
881.212 838.073 3384
896.662 845.007 3412
904.821 845.007 3412
912.981 845.007 3412
932.478 855.409 3454
946.73 860.857 3476
955.042 860.857 3476
973.331 869.773 3512
990.116 877.203 3542
1002.81 880.917 3557
1011.32 880.917 3557
1024.13 884.632 3572
1041.63 892.31 3603
1057.24 898.254 3627
1068.27 900.235 3635
1076.96 900.235 3635
1097.6 910.141 3675
1108.79 912.122 3683
1117.6 912.122 3683
1126.41 912.122 3683
1135.22 912.122 3683
1144.02 912.122 3683
1152.83 912.122 3683
1161.64 912.122 3683
1170.45 912.122 3683
1179.25 912.122 3683
1188.06 912.122 3683
1196.87 912.122 3683
1205.67 912.122 3683
1211.84 910.141 3675
1220.63 910.141 3675
1229.42 910.141 3675
1235.51 908.16 3667
1241.23 905.931 3658
1249.97 905.931 3658
1255.97 903.95 3650
1264.7 903.95 3650
1273.43 903.95 3650
1282.15 903.95 3650
1290.88 903.95 3650
1296.76 901.968 3642
1305.47 901.968 3642
1314.18 901.968 3642
1322.89 901.968 3642
1329.04 900.235 3635
1337.73 900.235 3635
1343.46 898.254 3627
1352.13 898.254 3627
1357.81 896.272 3619
1363.44 894.291 3611
1365.99 890.328 3595
1374.59 890.328 3595
1383.19 890.328 3595
1389.07 888.595 3588
1394.54 886.614 3580
1403.1 886.614 3580
1402.59 880.917 3557
1407.92 878.936 3549
1413.62 877.203 3542
1413.25 871.754 3520
1421.67 871.754 3520
1415.06 862.591 3483
1420.52 860.857 3476
1425.55 858.876 3468
1433.84 858.876 3468
1436.31 855.409 3454
1444.57 855.409 3454
1449.89 853.675 3447
1467.01 858.876 3468
1475.31 858.876 3468
1490.02 862.591 3483
1520.28 875.221 3534
1545.17 884.632 3572
1553.71 884.632 3572
1569.25 888.595 3588
1587.95 894.291 3611
1610.29 901.968 3642
1619 901.968 3642
1642.46 910.141 3675
1673.26 922.276 3724
1744.5 956.453 3862
1753.74 956.453 3862
1779.41 965.369 3898
1801.12 972.055 3925
1823.42 978.99 3953
1832.87 978.99 3953
1851.18 983.695 3972
1869.58 988.401 3991
1879.12 988.401 3991
1888.67 988.401 3991
1884.89 981.466 3963
1889.59 978.99 3953
1890.39 974.532 3935
1899.8 974.532 3935
1886.9 963.14 3889
1874.25 951.995 3844
1870.71 945.556 3818
1879.84 945.556 3818
1876.1 939.117 3792
1863.79 928.468 3749
1856.27 920.295 3716
1865.16 920.295 3716
1861.44 914.104 3691
1853.54 905.931 3658
1846.51 898.254 3627
1842.91 892.31 3603
1851.52 892.31 3603
1860.14 892.31 3603
1868.75 892.31 3603
1869.55 888.595 3588
1878.13 888.595 3588
1886.71 888.595 3588
1898.99 890.328 3595
1928.81 900.235 3635
1958.83 910.141 3675
1967.61 910.141 3675
1989.31 916.085 3699
2011.66 922.276 3724
2043.35 932.678 3766
2052.36 932.678 3766
2089.83 945.556 3818
2142.94 965.369 3898
2162.2 969.827 3916
2171.56 969.827 3916
2191.51 974.532 3935
2216.58 981.466 3963
2226.05 981.466 3963
2235.53 981.466 3963
2245.01 981.466 3963
2248.8 978.99 3953
2263.96 981.466 3963
2273.44 981.466 3963
2282.92 981.466 3963
2297.6 983.695 3972
2323.94 990.877 4001
2333.51 990.877 4001
2343.08 990.877 4001
2352.64 990.877 4001
2356.31 988.401 3991
2371.78 990.877 4001
2381.35 990.877 4001
2390.91 990.877 4001
2400.48 990.877 4001
2415.47 993.106 4010
2425.06 993.106 4010
2446.79 998.059 4030
2456.43 998.059 4030
2471.57 1000.29 4039
2487.37 1002.76 4049
2497.06 1002.76 4049
2506.74 1002.76 4049
2516.42 1002.76 4049
2526.1 1002.76 4049
2529.52 1000.29 4039
2533.52 998.059 4030
2543.16 998.059 4030
2552.8 998.059 4030
2556.08 995.583 4020
2565.69 995.583 4020
2568.9 993.106 4010
2578.49 993.106 4010
2582.27 990.877 4001
2585.36 988.401 3991
2576.69 981.466 3963
2579.65 978.99 3953
2589.1 978.99 3953
2598.55 978.99 3953
2596.13 974.532 3935
2598.92 972.055 3925
2608.3 972.055 3925
2605.68 967.598 3907
2609 965.369 3898
2588.1 954.224 3853
2597.31 954.224 3853
2594.35 949.766 3835
2597.41 947.537 3826
2601.11 945.556 3818
2610.24 945.556 3818
2613.19 943.327 3809
2604.4 936.888 3783
2583.74 926.239 3740
2569.81 918.066 3707
2578.67 918.066 3707
2559.62 908.16 3667
2562.08 905.931 3658
535.283 178.313 720
537.005 178.313 720
539.475 178.561 721
541.199 178.561 721
542.923 178.561 721
543.892 178.313 720
545.613 178.313 720
546.575 178.066 719
548.294 178.066 719
550.014 178.066 719
-2361.48 788.667 3154
-2353.94 788.667 3154
-2341.93 787.167 3148
-2329.95 785.666 3142
-2318 784.166 3136
-2310.5 784.166 3136
-2303.01 784.166 3136
-2291.11 782.666 3130
-2288.01 784.166 3136
-2297.96 790.167 3160
-2290.4 790.167 3160
-2291.52 793.168 3172
-2296.89 797.669 3190
-2302.18 802.17 3208
-2294.51 802.17 3208
-2308.94 809.922 3239
-2310.43 813.172 3252
-2325.31 821.174 3284
-2317.46 821.174 3284
