ply
format ascii 1.0
comment File generated
element vertex 2245
property float x
property float y
property float z
end_header
-1978.3 980.793 3611
-1969.67 980.793 3611
-1961.03 980.793 3611
-1952.4 980.793 3611
-1948.07 982.966 3619
-1939.42 982.966 3619
-1930.76 982.966 3619
-1922.11 982.966 3619
-1913.45 982.966 3619
-1909.01 985.139 3627
-1900.34 985.139 3627
-1891.66 985.139 3627
-1882.99 985.139 3627
-1874.32 985.139 3627
-1865.64 985.139 3627
-1852.88 982.966 3619
-1840.14 980.793 3611
-1835.57 982.966 3619
-1826.91 982.966 3619
-1818.26 982.966 3619
-1809.6 982.966 3619
-1800.95 982.966 3619
-1792.3 982.966 3619
-1783.64 982.966 3619
-1774.99 982.966 3619
-1766.33 982.966 3619
-1757.68 982.966 3619
-1745.16 980.793 3611
-1732.68 978.62 3603
-1724.06 978.62 3603
-1711.64 976.447 3595
-1699.72 974.546 3588
-1680.3 968.299 3565
-1664.28 963.953 3549
-1655.79 963.953 3549
-1644.05 962.052 3542
-1635.58 962.052 3542
-1623.44 959.879 3534
-1614.99 959.879 3534
-1606.54 959.879 3534
-1591.75 956.076 3520
-1583.34 956.076 3520
-1574.92 956.076 3520
-1566.5 956.076 3520
-1551.45 952.002 3505
-1543.06 952.002 3505
-1534.68 952.002 3505
-1522.82 949.829 3497
-1514.45 949.829 3497
-1509.54 952.002 3505
-1501.16 952.002 3505
-1492.77 952.002 3505
-1484.39 952.002 3505
-1482.33 956.076 3520
-1483.12 962.052 3542
-1474.65 962.052 3542
-1466.18 962.052 3542
-1451.54 957.977 3527
-1443.11 957.977 3527
-1434.67 957.977 3527
-1429.07 959.879 3534
-1420.62 959.879 3534
-1415.36 962.052 3542
-1406.89 962.052 3542
-1398.42 962.052 3542
-1389.95 962.052 3542
-1381.48 962.052 3542
-1373.01 962.052 3542
-1364.54 962.052 3542
-1358.75 963.953 3549
-1356.35 968.299 3565
-1347.83 968.299 3565
-1339.3 968.299 3565
-1330.78 968.299 3565
-1322.25 968.299 3565
-1307.83 963.953 3549
-1296.78 962.052 3542
-1288.31 962.052 3542
-1279.84 962.052 3542
-1265.99 957.977 3527
-1257.55 957.977 3527
-1249.12 957.977 3527
-1240.69 957.977 3527
-1232.25 957.977 3527
-1221.39 956.076 3520
-1210.22 953.903 3512
-1199.42 952.002 3505
-1191.04 952.002 3505
-1179.96 949.829 3497
-1164.56 944.125 3476
-1146.6 936.248 3447
-1138.36 936.248 3447
-1127.82 934.347 3440
-1119.6 934.347 3440
-1111.37 934.347 3440
-1103.14 934.347 3440
-586.608 500.582 1843
-580.306 498.952 1837
-575.913 498.952 1837
-572.142 499.495 1839
-567.745 499.495 1839
-563.347 499.495 1839
-558.95 499.495 1839
-552.14 497.323 1831
-547.761 497.323 1831
-541.602 495.693 1825
-536.649 495.15 1823
-529.954 492.977 1815
-521.27 488.903 1800
-516.965 488.903 1800
-509.813 486.186 1790
-501.296 482.112 1775
-494.811 479.939 1767
-490.586 479.939 1767
-482.782 476.408 1754
-475.041 472.877 1741
-470.607 472.606 1740
-466.446 472.606 1740
-460.16 470.433 1732
-453.649 467.988 1723
-448.746 467.174 1720
-444.116 466.63 1718
-440.007 466.63 1718
-435.138 465.815 1715
-431.037 465.815 1715
-425.94 464.729 1711
-421.849 464.729 1711
-417.757 464.729 1711
-413.666 464.729 1711
-409.574 464.729 1711
-405.482 464.729 1711
-400.922 464.186 1709
-396.835 464.186 1709
-392.748 464.186 1709
-388.662 464.186 1709
-384.575 464.186 1709
-380.488 464.186 1709
-375.741 463.371 1706
-371.661 463.371 1706
-367.581 463.371 1706
-363.076 462.828 1704
-359.001 462.828 1704
-354.926 462.828 1704
-350.44 462.285 1702
-346.166 462.013 1701
-342.099 462.013 1701
-338.031 462.013 1701
-333.571 461.47 1699
-329.12 460.926 1697
-325.062 460.926 1697
-321.004 460.926 1697
-316.572 460.383 1695
-312.519 460.383 1695
-307.92 459.568 1692
-303.874 459.568 1692
-299.828 459.568 1692
-295.782 459.568 1692
-292.08 460.112 1694
-288.199 460.383 1695
-284.481 460.926 1697
-280.423 460.926 1697
-276.691 461.47 1699
-272.628 461.47 1699
-268.882 462.013 1701
-264.814 462.013 1701
-260.9 462.285 1702
-257.735 463.914 1708
-253.799 464.186 1709
-249.712 464.186 1709
-246.201 465.272 1713
-242.528 466.087 1716
-238.703 466.63 1718
-234.595 466.63 1718
-231.157 467.988 1723
-227.827 469.618 1729
-224.081 470.433 1732
-219.939 470.433 1732
-216.047 470.976 1734
-212.389 472.063 1738
-208.233 472.063 1738
-204.077 472.063 1738
-200.151 472.606 1740
-196.103 472.877 1741
-191.939 472.877 1741
-187.776 472.877 1741
-183.824 473.421 1743
-179.862 473.964 1745
-175.689 473.964 1745
-171.516 473.964 1745
-167.343 473.964 1745
-164.012 476.408 1754
-159.818 476.408 1754
-155.623 476.408 1754
-151.429 476.408 1754
-304.924 1078.84 3972
-295.426 1078.84 3972
-285.927 1078.84 3972
-276.429 1078.84 3972
-266.931 1078.84 3972
-255.035 1068.8 3935
-244.439 1063.63 3916
-234.534 1061.19 3907
-225.191 1061.19 3907
-215.351 1058.75 3898
-205.554 1056.3 3889
-196.255 1056.3 3889
-186.955 1056.3 3889
-177.655 1056.3 3889
-167.966 1053.86 3880
-157.951 1048.97 3862
-148.369 1046.52 3853
-139.156 1046.52 3853
-129.335 1041.63 3835
-119.632 1037.02 3818
-109.228 1025.07 3774
-100.203 1025.07 3774
-90.3572 1015.83 3740
-81.0655 1011.49 3724
-72.0052 1009.31 3716
-63.1192 1009.31 3716
-53.8682 1002.52 3691
-44.6392 993.559 3658
-35.7348 989.213 3642
-27.0257 989.213 3642
-18.2412 985.139 3627
-9.52569 980.793 3611
-0.888721 978.62 3603
7.70999 976.447 3595
16.3067 976.447 3595
24.7995 972.373 3580
33.2859 970.2 3572
41.7456 968.299 3565
50.2706 968.299 3565
58.7956 968.299 3565
67.1695 966.126 3557
75.6754 966.126 3557
84.1813 966.126 3557
92.2963 962.052 3542
100.766 962.052 3542
109.236 962.052 3542
117.706 962.052 3542
126.176 962.052 3542
134.342 959.879 3534
142.793 959.879 3534
151.244 959.879 3534
159.695 959.879 3534
168.146 959.879 3534
176.247 957.977 3527
184.681 957.977 3527
193.115 957.977 3527
201.149 956.076 3520
209.566 956.076 3520
218.417 957.977 3527
226.851 957.977 3527
235.286 957.977 3527
243.72 957.977 3527
252.154 957.977 3527
261.105 959.879 3534
269.556 959.879 3534
279.187 963.953 3549
288.97 968.299 3565
298.08 970.2 3572
306.621 970.2 3572
315.163 970.2 3572
324.43 972.373 3580
333.735 974.546 3588
342.315 974.546 3588
351.579 976.447 3595
360.978 978.62 3603
369.593 978.62 3603
378.209 978.62 3603
385.966 976.447 3595
393.795 974.546 3588
402.375 974.546 3588
406.488 963.953 3549
412.402 957.977 3527
418.211 952.002 3505
423.915 946.026 3483
432.244 946.026 3483
438.676 941.952 3468
443.36 934.347 3440
447.91 926.742 3412
456.069 926.742 3412
460.419 919.137 3384
466.573 915.334 3370
469.984 906.371 3337
477.964 906.371 3337
483.905 902.568 3323
490.963 900.939 3317
498.895 900.939 3317
506.827 900.939 3317
514.759 900.939 3317
522.691 900.939 3317
530.623 900.939 3317
538.555 900.939 3317
546.487 900.939 3317
554.419 900.939 3317
562.35 900.939 3317
570.282 900.939 3317
578.214 900.939 3317
586.146 900.939 3317
594.078 900.939 3317
603.099 902.568 3323
611.045 902.568 3323
618.992 902.568 3323
626.938 902.568 3323
634.884 902.568 3323
642.831 902.568 3323
649.602 900.939 3317
658.723 902.568 3323
666.67 902.568 3323
674.616 902.568 3323
682.562 902.568 3323
690.508 902.568 3323
698.455 902.568 3323
706.401 902.568 3323
715.852 904.47 3330
723.815 904.47 3330
731.778 904.47 3330
739.741 904.47 3330
747.704 904.47 3330
755.667 904.47 3330
763.63 904.47 3330
771.593 904.47 3330
779.556 904.47 3330
785.864 902.568 3323
793.81 902.568 3323
801.757 902.568 3323
813.114 906.371 3337
821.094 906.371 3337
829.074 906.371 3337
840.315 909.902 3350
850.098 911.803 3357
858.126 911.803 3357
874.926 921.038 3391
886.68 924.841 3405
902.181 932.446 3433
910.39 932.446 3433
924.219 938.15 3454
940.308 946.026 3483
956.535 953.903 3512
964.933 953.903 3512
983.586 963.953 3549
994.309 966.126 3557
1009.3 972.373 3580
1017.86 972.373 3580
1028.71 974.546 3588
1043.94 980.793 3611
1057.24 985.139 3627
1070.32 989.213 3642
1079.03 989.213 3642
1095.21 996.003 3667
1108.79 1000.35 3683
1117.6 1000.35 3683
1126.41 1000.35 3683
1135.22 1000.35 3683
1144.02 1000.35 3683
1152.83 1000.35 3683
1161.64 1000.35 3683
1170.45 1000.35 3683
1179.25 1000.35 3683
1188.06 1000.35 3683
1196.87 1000.35 3683
1203.05 998.176 3675
1211.84 998.176 3675
1220.63 998.176 3675
1229.42 998.176 3675
1238.21 998.176 3675
1246.99 998.176 3675
1255.78 998.176 3675
1264.57 998.176 3675
1270.59 996.003 3667
1279.36 996.003 3667
1288.12 996.003 3667
1293.71 993.559 3658
1296.76 989.213 3642
1305.47 989.213 3642
1317.07 991.386 3650
1325.79 991.386 3650
1334.52 991.386 3650
1340.31 989.213 3642
1349.02 989.213 3642
1357.73 989.213 3642
1360.81 985.139 3627
1369.48 985.139 3627
1372.07 980.793 3611
1380.71 980.793 3611
1386.27 978.62 3603
1391.78 976.447 3595
1394.54 972.373 3580
1403.1 972.373 3580
1408.51 970.2 3572
1411.1 966.126 3557
1416.41 963.953 3549
1422.09 962.052 3542
1430.56 962.052 3542
1430.09 956.076 3520
1435.24 953.903 3512
1443.63 953.903 3512
1452.03 953.903 3512
1457.52 952.002 3505
1459.63 947.928 3490
1467.97 947.928 3490
1476.32 947.928 3490
1484.66 947.928 3490
1499.43 952.002 3505
1523.73 962.052 3542
1538.68 966.126 3557
1547.19 966.126 3557
1562.26 970.2 3572
1580.91 976.447 3595
1621.34 996.003 3667
1630.11 996.003 3667
1653.18 1004.69 3699
1680.45 1015.83 3740
1764.83 1061.19 3907
1774.17 1061.19 3907
1796.3 1068.8 3935
1818.56 1076.4 3963
1863.09 1097.04 4039
1872.75 1097.04 4039
1887.07 1099.76 4049
1906.12 1105.19 4069
1915.85 1105.19 4069
1925.58 1105.19 4069
1935.31 1105.19 4069
1945.04 1105.19 4069
1945.16 1099.76 4049
1954.84 1099.76 4049
1941.24 1086.72 4001
1918.62 1068.8 3935
1909.9 1058.75 3898
1919.23 1058.75 3898
1906.28 1046.52 3853
1876.22 1025.07 3774
1835.79 998.176 3675
1844.58 998.176 3675
1821.09 980.793 3611
1821.62 976.447 3595
1806.8 963.953 3549
1811.71 962.052 3542
1820.18 962.052 3542
1824.52 959.879 3534
1832.97 959.879 3534
1841.42 959.879 3534
1849.87 959.879 3534
1858.32 959.879 3534
1874.69 963.953 3549
1895.38 970.2 3572
1920.45 978.62 3603
1929.07 978.62 3603
1954.89 987.312 3635
1963.58 987.312 3635
1984.75 993.559 3658
2020.21 1006.87 3707
2029.07 1006.87 3707
2123.15 1048.97 3862
2162.2 1063.63 3916
2171.56 1063.63 3916
2217.68 1081.56 3982
2259.09 1097.04 4039
2268.74 1097.04 4039
2278.4 1097.04 4039
2288.06 1097.04 4039
2303.41 1099.76 4049
2324.52 1105.19 4069
2334.25 1105.19 4069
2343.98 1105.19 4069
2342.14 1099.76 4049
2346.01 1097.04 4039
2361.5 1099.76 4049
2371.19 1099.76 4049
2380.87 1099.76 4049
2390.55 1099.76 4049
2406.16 1102.48 4059
2415.87 1102.48 4059
2437.53 1107.91 4079
2447.28 1107.91 4079
2463.06 1110.62 4089
2472.84 1110.62 4089
2482.61 1110.62 4089
2492.39 1110.62 4089
2502.17 1110.62 4089
2511.95 1110.62 4089
2509.39 1105.19 4069
2512.93 1102.48 4059
2522.64 1102.48 4059
2532.34 1102.48 4059
2542.05 1102.48 4059
2545.47 1099.76 4049
2561.46 1102.48 4059
2577.5 1105.19 4069
2587.23 1105.19 4069
2596.96 1105.19 4069
2600.29 1102.48 4059
2609.99 1102.48 4059
2600.98 1094.6 4030
2610.62 1094.6 4030
2620.26 1094.6 4030
2629.89 1094.6 4030
2632.98 1091.88 4020
2636.02 1089.17 4010
2627.14 1081.56 3982
2636.66 1081.56 3982
2646.18 1081.56 3982
2643.03 1076.4 3963
2652.51 1076.4 3963
2668.03 1078.84 3972
2684.27 1081.56 3982
2693.79 1081.56 3982
2703.31 1081.56 3982
2699.89 1076.4 3963
2709.37 1076.4 3963
2705.81 1071.24 3944
2702.16 1066.08 3925
2655.59 1044.08 3844
2634.28 1032.13 3800
2643.37 1032.13 3800
2616.85 1018.28 3749
2619.52 1015.83 3740
543.534 194.203 715
545.244 194.203 715
546.954 194.203 715
-2365.97 865.865 3160
-2358.41 865.865 3160
-2346.39 864.221 3154
-2329.95 860.933 3142
-2318 859.289 3136
-2310.5 859.289 3136
-2298.6 857.645 3130
-2286.72 856.001 3124
-2279.25 856.001 3124
-2276.14 857.645 3130
-2268.66 857.645 3130
-2265.51 859.289 3136
-2266.65 862.577 3148
-2267.73 865.865 3160
-2260.18 865.865 3160
-2261.18 869.154 3172
-2270.64 875.73 3196
-2275.74 880.662 3214
-2268.06 880.662 3214
-2282.88 889.43 3246
-2301.75 899.842 3284
-2307.17 905.049 3303
-2299.27 905.049 3303
-2323.98 917.927 3350
-2334.63 925.325 3377
-2331.38 927.243 3384
-2323.29 927.243 3384
-2319.98 929.161 3391
-2311.88 929.161 3391
-2308.52 931.079 3398
-2300.4 931.079 3398
-2292.27 931.079 3398
-2293.56 934.915 3412
-2290.09 936.833 3419
-2281.91 936.833 3419
-2283.04 940.67 3433
-2284.11 944.506 3447
-2295.02 952.452 3476
-2286.7 952.452 3476
-2278.39 952.452 3476
-2270.08 952.452 3476
-2261.77 952.452 3476
-2253.46 952.452 3476
-2249.66 954.37 3483
-2250.34 958.206 3497
-2247.11 960.398 3505
-2238.73 960.398 3505
-2234.8 962.316 3512
-2231.48 964.508 3520
-2223.06 964.508 3520
-2214.64 964.508 3520
-2220.01 970.536 3542
-2215.91 972.455 3549
-2217.38 976.839 3565
-2208.85 976.839 3565
-2204.65 978.757 3572
-2205.94 983.141 3588
-2201.65 985.059 3595
-2193.05 985.059 3595
-2184.46 985.059 3595
-2175.86 985.059 3595
-2167.26 985.059 3595
-2158.67 985.059 3595
-2154.85 987.251 3603
-2146.24 987.251 3603
-2147.12 991.635 3619
-2138.46 991.635 3619
-2129.81 991.635 3619
-2121.15 991.635 3619
-2112.5 991.635 3619
-2103.85 991.635 3619
-2099.82 993.827 3627
-2091.15 993.827 3627
-2082.48 993.827 3627
-2073.8 993.827 3627
-2065.13 993.827 3627
-2056.46 993.827 3627
-2047.78 993.827 3627
-2039.11 993.827 3627
-2025.96 991.635 3619
-2017.3 991.635 3619
-2008.65 991.635 3619
-2000 991.635 3619
-1986.94 989.443 3611
-1978.3 989.443 3611
-1969.67 989.443 3611
-1961.03 989.443 3611
-1952.4 989.443 3611
-1943.76 989.443 3611
-1935.13 989.443 3611
-1926.49 989.443 3611
-1922.11 991.635 3619
-1913.45 991.635 3619
-1909.01 993.827 3627
-1900.34 993.827 3627
-1891.66 993.827 3627
-1882.99 993.827 3627
-1874.32 993.827 3627
-1865.64 993.827 3627
-1852.88 991.635 3619
-1844.22 991.635 3619
-1839.62 993.827 3627
-1830.95 993.827 3627
-1822.28 993.827 3627
-1813.61 993.827 3627
-1804.93 993.827 3627
-1792.3 991.635 3619
-1787.59 993.827 3627
-1778.91 993.827 3627
-1770.24 993.827 3627
-1761.57 993.827 3627
-1749.03 991.635 3619
-1736.52 989.443 3611
-1727.89 989.443 3611
-1711.64 985.059 3595
-1699.72 983.141 3588
-1680.3 976.839 3565
-1664.28 972.455 3549
-1655.79 972.455 3549
-1644.05 970.536 3542
-1635.58 970.536 3542
-1623.44 968.344 3534
-1614.99 968.344 3534
-1606.54 968.344 3534
-1591.75 964.508 3520
-1583.34 964.508 3520
-1574.92 964.508 3520
-1566.5 964.508 3520
-1551.45 960.398 3505
-1543.06 960.398 3505
-1534.68 960.398 3505
-1522.82 958.206 3497
-1514.45 958.206 3497
-1509.54 960.398 3505
-1501.16 960.398 3505
-1492.77 960.398 3505
-1484.39 960.398 3505
-1482.33 964.508 3520
-1483.12 970.536 3542
-1474.65 970.536 3542
-1466.18 970.536 3542
-1451.54 966.426 3527
-1443.11 966.426 3527
-1434.67 966.426 3527
-1429.07 968.344 3534
-1420.62 968.344 3534
-1415.36 970.536 3542
-1406.89 970.536 3542
-1398.42 970.536 3542
-1389.95 970.536 3542
-1381.48 970.536 3542
-1373.01 970.536 3542
-1364.54 970.536 3542
-1358.75 972.455 3549
-1356.35 976.839 3565
-1347.83 976.839 3565
-1339.3 976.839 3565
-1330.78 976.839 3565
-1322.25 976.839 3565
-1307.83 972.455 3549
-1296.78 970.536 3542
-1288.31 970.536 3542
-1279.84 970.536 3542
-1265.99 966.426 3527
-1257.55 966.426 3527
-1249.12 966.426 3527
-1240.69 966.426 3527
-1232.25 966.426 3527
-1221.39 964.508 3520
-1210.22 962.316 3512
-1199.42 960.398 3505
-1191.04 960.398 3505
-1179.96 958.206 3497
-1164.56 952.452 3476
-1153.59 950.26 3468
-1145.29 950.26 3468
-1134.71 948.342 3461
-1121.87 944.506 3447
-1111.37 942.588 3440
-1103.14 942.588 3440
-1094.92 942.588 3440
-580.306 503.353 1837
-575.913 503.353 1837
-572.142 503.901 1839
-567.745 503.901 1839
-563.347 503.901 1839
-558.95 503.901 1839
-552.14 501.709 1831
-547.761 501.709 1831
-541.602 500.065 1825
-536.649 499.517 1823
-529.954 497.325 1815
-521.849 493.762 1802
-517.54 493.762 1802
-510.383 491.022 1792
-502.426 487.46 1779
-495.932 485.268 1771
-491.697 485.268 1771
-483.333 481.158 1756
-475.041 477.048 1741
-470.878 477.048 1741
-466.714 477.048 1741
-460.16 474.582 1732
-453.649 472.116 1723
-449.268 471.842 1722
-444.633 471.294 1720
-440.52 471.294 1720
-435.138 469.924 1715
-431.037 469.924 1715
-425.94 468.828 1711
-421.849 468.828 1711
-417.757 468.828 1711
-413.666 468.828 1711
-409.574 468.828 1711
-405.482 468.828 1711
-401.391 468.828 1711
-397.299 468.828 1711
-393.208 468.828 1711
-389.116 468.828 1711
-385.025 468.828 1711
-380.488 468.28 1709
-376.401 468.28 1709
-372.315 468.28 1709
-367.581 467.458 1706
-363.076 466.91 1704
-359.001 466.91 1704
-354.926 466.91 1704
-350.851 466.91 1704
-346.37 466.362 1702
-342.099 466.088 1701
-338.031 466.088 1701
-333.963 466.088 1701
-329.508 465.54 1699
-325.062 464.992 1697
-321.004 464.992 1697
-316.572 464.444 1695
-312.519 464.444 1695
-308.284 464.17 1694
-303.874 463.622 1692
-300.182 464.17 1694
-296.131 464.17 1694
-292.08 464.17 1694
-288.199 464.444 1695
-284.481 464.992 1697
-280.423 464.992 1697
-276.691 465.54 1699
-272.949 466.088 1701
-269.04 466.362 1702
-264.97 466.362 1702
-261.206 466.91 1704
-257.735 468.006 1708
-253.799 468.28 1709
-249.712 468.28 1709
-246.201 469.376 1713
-242.528 470.198 1716
-238.703 470.746 1718
-234.595 470.746 1718
-231.425 472.664 1725
-227.827 473.76 1729
-224.081 474.582 1732
-219.939 474.582 1732
-216.296 475.678 1736
-212.389 476.226 1738
-208.233 476.226 1738
-204.077 476.226 1738
-200.266 477.048 1741
-196.103 477.048 1741
-192.38 478.144 1745
-188.208 478.144 1745
-184.035 478.144 1745
-180.274 479.24 1749
-176.293 479.788 1751
-172.106 479.788 1751
-168.59 481.706 1758
-164.854 483.076 1763
-162.733 489.378 1786
-158.463 489.378 1786
-154.192 489.378 1786
-306.383 1093.57 3991
-296.839 1093.57 3991
-287.295 1093.57 3991
-277.751 1093.57 3991
-268.208 1093.57 3991
-257.433 1088.36 3972
-245.001 1075.48 3925
-235.074 1073.02 3916
-225.71 1073.02 3916
-215.351 1068.08 3898
-205.554 1065.62 3889
-196.709 1068.08 3898
-187.387 1068.08 3898
-178.066 1068.08 3898
-168.745 1068.08 3898
-158.687 1063.15 3880
-148.716 1058.22 3862
-139.481 1058.22 3862
-129.942 1055.75 3853
-120.164 1050.82 3835
-109.228 1034.11 3774
-100.203 1034.11 3774
-90.3572 1024.79 3740
-81.0655 1020.41 3724
-72.0052 1018.21 3716
-63.1192 1018.21 3716
-53.8682 1011.36 3691
-44.6392 1002.32 3658
-35.8133 1000.13 3650
-27.0851 1000.13 3650
-18.2814 996.019 3635
-9.52569 989.443 3611
-0.888721 987.251 3603
7.72714 987.251 3603
16.343 987.251 3603
24.855 983.141 3588
33.2859 978.757 3572
41.8276 978.757 3572
50.3693 978.757 3572
58.7956 976.839 3565
67.3206 976.839 3565
75.8456 976.839 3565
84.3706 976.839 3565
92.2963 970.536 3542
100.766 970.536 3542
109.236 970.536 3542
117.706 970.536 3542
126.176 970.536 3542
134.342 968.344 3534
142.793 968.344 3534
151.244 968.344 3534
159.695 968.344 3534
168.146 968.344 3534
176.247 966.426 3527
184.314 964.508 3520
192.732 964.508 3520
201.149 964.508 3520
209.566 964.508 3520
218.417 966.426 3527
226.851 966.426 3527
235.286 966.426 3527
243.72 966.426 3527
252.154 966.426 3527
261.105 968.344 3534
269.556 968.344 3534
279.187 972.455 3549
288.97 976.839 3565
298.08 978.757 3572
306.621 978.757 3572
315.163 978.757 3572
324.43 980.949 3580
333.735 983.141 3588
342.315 983.141 3588
351.579 985.059 3595
360.978 987.251 3603
369.593 987.251 3603
378.209 987.251 3603
385.966 985.059 3595
393.795 983.141 3588
402.375 983.141 3588
406.488 972.455 3549
411.584 964.508 3520
418.211 960.398 3505
423.915 954.37 3483
432.244 954.37 3483
437.79 948.342 3461
443.36 942.588 3440
447.91 934.915 3412
456.069 934.915 3412
459.467 925.325 3377
466.573 923.407 3370
469.984 914.365 3337
477.964 914.365 3337
483.905 910.529 3323
490.963 908.885 3317
498.895 908.885 3317
506.827 908.885 3317
514.759 908.885 3317
522.691 908.885 3317
530.623 908.885 3317
537.418 906.967 3310
546.487 908.885 3317
554.419 908.885 3317
562.35 908.885 3317
570.282 908.885 3317
578.214 908.885 3317
586.146 908.885 3317
594.078 908.885 3317
603.099 910.529 3323
611.045 910.529 3323
618.992 910.529 3323
625.806 908.885 3317
633.738 908.885 3317
641.67 908.885 3317
649.602 908.885 3317
658.723 910.529 3323
666.67 910.529 3323
674.616 910.529 3323
682.562 910.529 3323
690.508 910.529 3323
698.455 910.529 3323
707.889 912.447 3330
717.357 914.365 3337
725.337 914.365 3337
733.317 914.365 3337
739.741 912.447 3330
747.704 912.447 3330
755.667 912.447 3330
763.63 912.447 3330
771.593 912.447 3330
779.556 912.447 3330
787.52 912.447 3330
793.81 910.529 3323
801.757 910.529 3323
813.114 914.365 3337
821.094 914.365 3337
829.074 914.365 3337
840.315 917.927 3350
850.098 919.845 3357
858.126 919.845 3357
874.926 929.161 3391
886.68 932.997 3405
902.181 940.67 3433
910.39 940.67 3433
924.219 946.424 3454
940.308 954.37 3483
954.628 960.398 3505
963.01 960.398 3505
979.429 968.344 3534
994.309 974.647 3557
1007.04 978.757 3572
1015.59 978.757 3572
1028.71 983.141 3588
1041.63 987.251 3603
1054.91 991.635 3619
1068.27 996.019 3635
1076.96 996.019 3635
1095.21 1004.79 3667
1108.79 1009.17 3683
1117.6 1009.17 3683
1126.41 1009.17 3683
1135.22 1009.17 3683
1144.02 1009.17 3683
1152.83 1009.17 3683
1159.11 1006.98 3675
1170.45 1009.17 3683
1179.25 1009.17 3683
1188.06 1009.17 3683
1194.27 1006.98 3675
1203.05 1006.98 3675
1211.84 1006.98 3675
1220.63 1006.98 3675
1226.74 1004.79 3667
1235.51 1004.79 3667
1244.28 1004.79 3667
1253.05 1004.79 3667
1261.82 1004.79 3667
1270.59 1004.79 3667
1276.22 1002.32 3658
1284.96 1002.32 3658
1293.71 1002.32 3658
1296.76 997.937 3642
1305.47 997.937 3642
1317.07 1000.13 3650
1325.79 1000.13 3650
1334.52 1000.13 3650
1343.25 1000.13 3650
1349.02 997.937 3642
1357.73 997.937 3642
1366.43 997.937 3642
1369.48 993.827 3627
1375.11 991.635 3619
1383.77 991.635 3619
1389.34 989.443 3611
1391.78 985.059 3595
1397.65 983.141 3588
1406.23 983.141 3588
1411.66 980.949 3580
1417.05 978.757 3572
1419.6 974.647 3557
1424.9 972.455 3549
1433.38 972.455 3549
1432.93 966.426 3527
1438.5 964.508 3520
1443.63 962.316 3512
1452.03 962.316 3512
1457.52 960.398 3505
1459.63 956.288 3490
1467.97 956.288 3490
1476.32 956.288 3490
1484.66 956.288 3490
1499.43 960.398 3505
1520.28 968.344 3534
1535.22 972.455 3549
1543.71 972.455 3549
1559.19 976.839 3565
1577.83 983.141 3588
1621.34 1004.79 3667
1630.11 1004.79 3667
1653.18 1013.56 3699
1680.45 1024.79 3740
1752.63 1063.15 3880
1761.91 1063.15 3880
1783.52 1070.55 3907
1809.84 1080.69 3944
1849.71 1098.77 4010
1859.3 1098.77 4010
1887.07 1109.46 4049
1906.12 1114.94 4069
1915.85 1114.94 4069
1925.58 1114.94 4069
1935.31 1114.94 4069
1945.04 1114.94 4069
1945.16 1109.46 4049
1954.84 1109.46 4049
1936.38 1093.57 3991
1918.62 1078.22 3935
1892.27 1058.22 3862
1901.5 1058.22 3862
1892.93 1048.35 3826
1863.79 1027.26 3749
1823.31 1000.13 3650
1804.43 985.059 3595
1813.02 985.059 3595
1798.31 972.455 3549
1799.16 968.344 3534
1804.03 966.426 3527
1816.06 968.344 3534
1824.52 968.344 3534
1832.97 968.344 3534
1826.31 960.398 3505
1838.35 962.316 3512
1846.75 962.316 3512
1866.77 968.344 3534
1883.18 972.455 3549
1903.93 978.757 3572
1924.78 985.059 3595
1933.38 985.059 3595
1946.3 987.251 3603
1954.91 987.251 3603
1993.5 1002.32 3658
2002.25 1002.32 3658
2113.25 1053.29 3844
2147.29 1065.62 3889
2156.59 1065.62 3889
2217.68 1091.1 3982
2259.09 1106.72 4039
2268.74 1106.72 4039
2278.4 1106.72 4039
2288.06 1106.72 4039
2314.79 1114.94 4069
2324.52 1114.94 4069
2334.25 1114.94 4069
2343.98 1114.94 4069
2353.71 1114.94 4069
2346.01 1106.72 4039
2361.5 1109.46 4049
2371.19 1109.46 4049
2380.87 1109.46 4049
2390.55 1109.46 4049
2406.16 1112.2 4059
2415.87 1112.2 4059
2437.53 1117.68 4079
2447.28 1117.68 4079
2457.03 1117.68 4079
2466.79 1117.68 4079
2476.54 1117.68 4079
2492.39 1120.42 4089
2502.17 1120.42 4089
2511.95 1120.42 4089
2509.39 1114.94 4069
2512.93 1112.2 4059
2516.42 1109.46 4049
2526.1 1109.46 4049
2529.52 1106.72 4039
2539.18 1106.72 4039
2548.84 1106.72 4039
2564.83 1109.46 4049
2574.52 1109.46 4049
2584.2 1109.46 4049
2593.88 1109.46 4049
2603.56 1109.46 4049
2594.53 1101.51 4020
2597.66 1098.77 4010
2607.25 1098.77 4010
2616.84 1098.77 4010
2626.43 1098.77 4010
2617.61 1091.1 3982
2627.14 1091.1 3982
2636.66 1091.1 3982
2646.18 1091.1 3982
2643.03 1085.89 3963
2652.51 1085.89 3963
2668.03 1088.36 3972
2677.53 1088.36 3972
2687.03 1088.36 3972
2690.42 1085.89 3963
2686.95 1080.69 3944
2696.38 1080.69 3944
2692.77 1075.48 3925
2646.4 1053.29 3844
2649.37 1050.82 3835
2634.28 1041.23 3800
2643.37 1041.23 3800
2616.85 1027.26 3749
543.534 195.916 715
545.244 195.916 715
546.954 195.916 715
-2370.46 875.094 3166
-2362.89 875.094 3166
-2346.39 871.777 3154
-2334.4 870.118 3148
-2318 866.802 3136
-2310.5 866.802 3136
-2298.6 865.143 3130
-2291.11 865.143 3130
-2283.63 865.143 3130
-2280.51 866.802 3136
-2273.01 866.802 3136
-2274.18 870.118 3148
-2275.29 873.435 3160
-2276.35 876.752 3172
-2268.76 876.752 3172
-2265.45 878.41 3178
-2283.43 888.361 3214
-2284.95 891.954 3227
-2277.23 891.954 3227
-2287.1 898.864 3252
-2305.96 909.368 3290
-2316.95 916.831 3317
-2309.02 916.831 3317
-2342.71 933.415 3377
-2339.47 935.35 3384
-2336.2 937.284 3391
-2328.09 937.284 3391
-2329.56 941.154 3405
-2321.42 941.154 3405
-2313.28 941.154 3405
-2305.14 941.154 3405
-2296.99 941.154 3405
-2298.26 945.024 3419
-2294.77 946.959 3426
-2286.58 946.959 3426
-2283.04 948.893 3433
-2284.11 952.763 3447
-2289.73 958.568 3468
-2281.44 958.568 3468
-2278.39 960.779 3476
-2274.65 962.714 3483
-2266.32 962.714 3483
-2257.99 962.714 3483
-2249.66 962.714 3483
-2255.49 968.794 3505
-2251.6 970.729 3512
-2243.2 970.729 3512
-2234.8 970.729 3512
-2231.48 972.94 3520
-2223.06 972.94 3520
-2214.64 972.94 3520
-2220.01 979.021 3542
-2215.91 980.956 3549
-2217.38 985.379 3565
-2208.85 985.379 3565
-2204.65 987.313 3572
-2205.94 991.736 3588
-2201.65 993.671 3595
-2193.05 993.671 3595
-2184.46 993.671 3595
-2175.86 993.671 3595
-2167.26 993.671 3595
-2158.67 993.671 3595
-2154.85 995.882 3603
-2146.24 995.882 3603
-2147.12 1000.3 3619
-2138.46 1000.3 3619
-2129.81 1000.3 3619
-2121.15 1000.3 3619
-2112.5 1000.3 3619
-2103.85 1000.3 3619
-2099.82 1002.52 3627
-2091.15 1002.52 3627
-2082.48 1002.52 3627
-2073.8 1002.52 3627
-2065.13 1002.52 3627
-2056.46 1002.52 3627
-2047.78 1002.52 3627
-2039.11 1002.52 3627
-2025.96 1000.3 3619
-2012.84 998.093 3611
-2004.21 998.093 3611
-1995.57 998.093 3611
-1986.94 998.093 3611
-1978.3 998.093 3611
-1969.67 998.093 3611
-1961.03 998.093 3611
-1948.07 995.882 3603
-1943.76 998.093 3611
-1935.13 998.093 3611
-1926.49 998.093 3611
-1922.11 1000.3 3619
-1913.45 1000.3 3619
-1909.01 1002.52 3627
-1900.34 1002.52 3627
-1891.66 1002.52 3627
-1882.99 1002.52 3627
-1874.32 1002.52 3627
-1865.64 1002.52 3627
-1848.78 998.093 3611
-1844.22 1000.3 3619
-1839.62 1002.52 3627
-1830.95 1002.52 3627
-1822.28 1002.52 3627
-1813.61 1002.52 3627
-1804.93 1002.52 3627
-1792.3 1000.3 3619
-1787.59 1002.52 3627
-1778.91 1002.52 3627
-1770.24 1002.52 3627
-1761.57 1002.52 3627
-1749.03 1000.3 3619
-1736.52 998.093 3611
-1727.89 998.093 3611
-1711.64 993.671 3595
-1699.72 991.736 3588
-1676.53 983.167 3557
-1664.28 980.956 3549
-1655.79 980.956 3549
-1644.05 979.021 3542
-1631.89 976.81 3534
-1617.01 972.94 3520
-1608.59 972.94 3520
-1596.54 970.729 3512
-1588.14 970.729 3512
-1576.59 968.794 3505
-1568.21 968.794 3505
-1556.27 966.583 3497
-1547.9 966.583 3497
-1539.54 966.583 3497
-1531.18 966.583 3497
-1516.72 962.714 3483
-1508.39 962.714 3483
-1497.05 960.779 3476
-1488.74 960.779 3476
-1480.42 960.779 3476
-1481.01 966.583 3497
-1476.01 968.794 3505
-1473.91 972.94 3520
-1465.49 972.94 3520
-1457.08 972.94 3520
-1451.54 974.875 3527
-1443.11 974.875 3527
-1434.67 974.875 3527
-1426.24 974.875 3527
-1417.8 974.875 3527
-1412.17 976.81 3534
-1403.72 976.81 3534
-1395.26 976.81 3534
-1386.81 976.81 3534
-1378.36 976.81 3534
-1369.91 976.81 3534
-1361.46 976.81 3534
-1353.01 976.81 3534
-1353.31 983.167 3557
-1344.8 983.167 3557
-1336.3 983.167 3557
-1327.79 983.167 3557
-1319.29 983.167 3557
-1305.25 979.021 3542
-1296.78 979.021 3542
-1288.31 979.021 3542
-1279.84 979.021 3542
-1265.99 974.875 3527
-1257.55 974.875 3527
-1249.12 974.875 3527
-1238.22 972.94 3520
-1229.81 972.94 3520
-1221.39 972.94 3520
-1210.22 970.729 3512
-1196.68 966.583 3497
-1188.32 966.583 3497
-1179.96 966.583 3497
-1164.56 960.779 3476
-1153.59 958.568 3468
-1145.29 958.568 3468
-1134.71 956.633 3461
-1121.87 952.763 3447
-1111.37 950.828 3440
-1103.14 950.828 3440
-1094.92 950.828 3440
-579.674 507.201 1835
-575.286 507.201 1835
-571.52 507.753 1837
-567.127 507.753 1837
-562.735 507.753 1837
-558.342 507.753 1837
-552.14 506.095 1831
-547.761 506.095 1831
-541.602 504.436 1825
-536.649 503.884 1823
-529.37 501.12 1813
-521.849 498.079 1802
-517.54 498.079 1802
-510.383 495.315 1792
-502.426 491.722 1779
-495.932 489.511 1771
-491.697 489.511 1771
-483.333 485.365 1756
-475.041 481.219 1741
-470.878 481.219 1741
-466.714 481.219 1741
-460.16 478.731 1732
-453.649 476.243 1723
-449.268 475.967 1722
-444.633 475.414 1720
-440.52 475.414 1720
-435.138 474.032 1715
-431.037 474.032 1715
-425.94 472.926 1711
-421.849 472.926 1711
-417.757 472.926 1711
-413.666 472.926 1711
-409.574 472.926 1711
-405.482 472.926 1711
-401.391 472.926 1711
-397.299 472.926 1711
-393.208 472.926 1711
-389.116 472.926 1711
-385.025 472.926 1711
-380.488 472.374 1709
-376.401 472.374 1709
-372.315 472.374 1709
-367.581 471.544 1706
-363.076 470.992 1704
-359.001 470.992 1704
-354.926 470.992 1704
-350.851 470.992 1704
-346.37 470.439 1702
-342.099 470.162 1701
-338.031 470.162 1701
-333.963 470.162 1701
-329.508 469.61 1699
-325.062 469.057 1697
-321.004 469.057 1697
-316.572 468.504 1695
-312.519 468.504 1695
-308.284 468.228 1694
-303.874 467.675 1692
-300.182 468.228 1694
-296.131 468.228 1694
-292.08 468.228 1694
-288.199 468.504 1695
-284.481 469.057 1697
-280.423 469.057 1697
-276.691 469.61 1699
-272.949 470.162 1701
-269.04 470.439 1702
-264.97 470.439 1702
-261.206 470.992 1704
-257.735 472.097 1708
-253.799 472.374 1709
-249.712 472.374 1709
-246.201 473.479 1713
-242.528 474.308 1716
-238.703 474.861 1718
-234.595 474.861 1718
-231.425 476.796 1725
-227.827 477.902 1729
-224.081 478.731 1732
-219.939 478.731 1732
-216.296 479.837 1736
-212.389 480.389 1738
-208.233 480.389 1738
-204.077 480.389 1738
-200.266 481.219 1741
-196.328 481.771 1743
-192.38 482.324 1745
-188.208 482.324 1745
-184.457 483.43 1749
-180.48 483.983 1751
-176.797 485.365 1756
-172.597 485.365 1756
-169.07 487.299 1763
-167.004 493.657 1786
-162.733 493.657 1786
-158.463 493.657 1786
-154.192 493.657 1786
-307.15 1105.89 4001
-297.583 1105.89 4001
-288.015 1105.89 4001
-277.751 1103.13 3991
-268.208 1103.13 3991
-258.081 1100.64 3982
-245.625 1087.65 3935
-235.615 1084.88 3925
-226.229 1084.88 3925
-215.849 1079.91 3907
-205.554 1074.93 3889
-196.709 1077.42 3898
-187.387 1077.42 3898
-178.066 1077.42 3898
-168.745 1077.42 3898
-158.687 1072.45 3880
-148.716 1067.47 3862
-139.481 1067.47 3862
-129.942 1064.98 3853
-120.164 1060.01 3835
-109.228 1043.15 3774
-100.203 1043.15 3774
-90.3572 1033.75 3740
-81.0655 1029.33 3724
-72.0052 1027.12 3716
-63.1192 1027.12 3716
-53.8682 1020.21 3691
-44.6392 1011.08 3658
-35.8133 1008.87 3650
-27.0851 1008.87 3650
-18.2814 1004.73 3635
-9.52569 998.093 3611
-0.890695 998.093 3611
7.72714 995.882 3603
16.343 995.882 3603
24.855 991.736 3588
33.3604 989.525 3580
41.8276 987.313 3572
50.3693 987.313 3572
58.7956 985.379 3565
67.3206 985.379 3565
75.8456 985.379 3565
84.3706 985.379 3565
92.2963 979.021 3542
100.766 979.021 3542
109.236 979.021 3542
117.706 979.021 3542
126.176 979.021 3542
134.342 976.81 3534
143.116 979.021 3542
151.586 979.021 3542
160.056 979.021 3542
168.146 976.81 3534
176.247 974.875 3527
184.681 974.875 3527
193.115 974.875 3527
201.149 972.94 3520
209.566 972.94 3520
218.417 974.875 3527
226.851 974.875 3527
235.286 974.875 3527
243.72 974.875 3527
252.154 974.875 3527
261.105 976.81 3534
269.556 976.81 3534
279.187 980.956 3549
288.97 985.379 3565
298.08 987.313 3572
306.621 987.313 3572
315.163 987.313 3572
324.43 989.525 3580
333.735 991.736 3588
342.315 991.736 3588
351.579 993.671 3595
360.978 995.882 3603
369.593 995.882 3603
378.209 995.882 3603
385.966 993.671 3595
393.795 991.736 3588
402.375 991.736 3588
406.488 980.956 3549
411.584 972.94 3520
418.211 968.794 3505
423.915 962.714 3483
432.244 962.714 3483
437.79 956.633 3461
443.36 950.828 3440
447.91 943.089 3412
456.069 943.089 3412
459.467 933.415 3377
466.573 931.48 3370
469.984 922.359 3337
477.964 922.359 3337
483.905 918.489 3323
490.963 916.831 3317
498.895 916.831 3317
506.827 916.831 3317
514.759 916.831 3317
522.691 916.831 3317
530.623 916.831 3317
537.418 914.896 3310
546.487 916.831 3317
554.419 916.831 3317
562.35 916.831 3317
570.282 916.831 3317
578.214 916.831 3317
586.146 916.831 3317
594.078 916.831 3317
603.099 918.489 3323
611.045 918.489 3323
618.992 918.489 3323
625.806 916.831 3317
633.738 916.831 3317
641.67 916.831 3317
649.602 916.831 3317
658.723 918.489 3323
666.67 918.489 3323
674.616 918.489 3323
682.562 918.489 3323
690.508 918.489 3323
699.926 920.424 3330
709.377 922.359 3337
717.357 922.359 3337
725.337 922.359 3337
733.317 922.359 3337
739.741 920.424 3330
747.704 920.424 3330
755.667 920.424 3330
763.63 920.424 3330
771.593 920.424 3330
779.556 920.424 3330
787.52 920.424 3330
793.81 918.489 3323
803.446 920.424 3330
813.114 922.359 3337
821.094 922.359 3337
829.074 922.359 3337
840.315 925.952 3350
850.098 927.887 3357
858.126 927.887 3357
873.12 935.35 3384
883.035 937.284 3391
898.502 945.024 3419
906.678 945.024 3419
920.473 950.828 3440
936.258 958.568 3468
950.543 964.648 3490
958.889 964.648 3490
975.549 972.94 3520
987.88 976.81 3534
1005.07 985.379 3565
1013.6 985.379 3565
1026.42 989.525 3580
1041.63 995.882 3603
1054.91 1000.3 3619
1068.27 1004.73 3635
1076.96 1004.73 3635
1095.21 1013.57 3667
1108.79 1017.99 3683
1120.03 1020.21 3691
1128.86 1020.21 3691
1137.68 1020.21 3691
1144.02 1017.99 3683
1152.83 1017.99 3683
1161.64 1017.99 3683
1170.45 1017.99 3683
1179.25 1017.99 3683
1188.06 1017.99 3683
1194.27 1015.78 3675
1203.05 1015.78 3675
1211.84 1015.78 3675
1220.63 1015.78 3675
1226.74 1013.57 3667
1235.51 1013.57 3667
1244.28 1013.57 3667
1253.05 1013.57 3667
1261.82 1013.57 3667
1270.59 1013.57 3667
1276.22 1011.08 3658
1284.96 1011.08 3658
1293.71 1011.08 3658
1296.76 1006.66 3642
1305.47 1006.66 3642
1317.07 1008.87 3650
1325.79 1008.87 3650
1334.52 1008.87 3650
1343.25 1008.87 3650
1349.02 1006.66 3642
1357.73 1006.66 3642
1366.43 1006.66 3642
1372.5 1004.73 3635
1378.15 1002.52 3627
1386.83 1002.52 3627
1389.34 998.093 3611
1397.98 998.093 3611
1400.38 993.671 3595
1408.98 993.671 3595
1414.81 991.736 3588
1420.22 989.525 3580
1425.59 987.313 3572
1428.11 983.167 3557
1436.61 983.167 3557
1435.78 976.81 3534
1441.37 974.875 3527
1446.92 972.94 3520
1455.34 972.94 3520
1460.43 970.729 3512
1462.56 966.583 3497
1467.97 964.648 3490
1476.32 964.648 3490
1484.66 964.648 3490
1499.43 968.794 3505
1520.28 976.81 3534
1535.22 980.956 3549
1543.71 980.956 3549
1555.7 983.167 3557
1574.32 989.525 3580
1617.36 1011.08 3658
1626.11 1011.08 3658
1649.61 1020.21 3691
1673.26 1029.33 3724
1736.37 1062.5 3844
1745.56 1062.5 3844
1771.19 1072.45 3880
1792.86 1079.91 3907
1845.56 1105.89 4001
1855.13 1105.89 4001
1887.07 1119.16 4049
1896.75 1119.16 4049
1915.85 1124.69 4069
1925.58 1124.69 4069
1935.31 1124.69 4069
1945.04 1124.69 4069
1945.16 1119.16 4049
1954.84 1119.16 4049
1936.38 1103.13 3991
1918.62 1087.65 3935
1892.27 1067.47 3862
1901.5 1067.47 3862
1876.1 1048.12 3792
1847.39 1027.12 3716
1803.82 998.093 3611
1796.9 989.525 3580
1805.46 989.525 3580
1790.71 976.81 3534
1780.33 966.583 3497
1792.78 968.794 3505
1801.16 968.794 3505
1809.54 968.794 3505
1817.92 968.794 3505
1811.2 960.779 3476
1830.5 966.583 3497
1838.86 966.583 3497
1855.15 970.729 3512
1875.22 976.81 3534
1891.67 980.956 3549
1908.72 985.379 3565
1917.24 985.379 3565
1925.77 985.379 3565
1934.29 985.379 3565
1963.53 995.882 3603
1972.14 995.882 3603
2089.06 1050.33 3800
2142.32 1072.45 3880
2151.6 1072.45 3880
2201.53 1092.62 3953
2248.46 1111.14 4020
2268.74 1116.39 4039
2278.4 1116.39 4039
2288.06 1116.39 4039
2314.79 1124.69 4069
2324.52 1124.69 4069
2334.25 1124.69 4069
2343.98 1124.69 4069
2353.71 1124.69 4069
2346.01 1116.39 4039
2361.5 1119.16 4049
2371.19 1119.16 4049
2380.87 1119.16 4049
2390.55 1119.16 4049
2406.16 1121.92 4059
2415.87 1121.92 4059
2437.53 1127.45 4079
2447.28 1127.45 4079
2457.03 1127.45 4079
2466.79 1127.45 4079
2470.47 1124.69 4069
2480.2 1124.69 4069
2489.93 1124.69 4069
2499.66 1124.69 4069
2503.22 1121.92 4059
2500.55 1116.39 4039
2510.21 1116.39 4039
2519.87 1116.39 4039
2529.52 1116.39 4039
2520.95 1108.38 4010
2548.84 1116.39 4039
2558.5 1116.39 4039
2568.16 1116.39 4039
2577.82 1116.39 4039
2581.71 1113.91 4030
2591.35 1113.91 4030
2594.53 1111.14 4020
2597.66 1108.38 4010
2601.4 1105.89 4001
2610.97 1105.89 4001
2608.09 1100.64 3982
2611.04 1097.87 3972
2608 1092.62 3953
2624.08 1095.39 3963
2633.55 1095.39 3963
2643.03 1095.39 3963
2652.51 1095.39 3963
2661.98 1095.39 3963
2671.46 1095.39 3963
2662 1087.65 3935
2664.62 1084.88 3925
2674 1084.88 3925
2683.39 1084.88 3925
2661.9 1072.45 3880
2646.4 1062.5 3844
2649.37 1060.01 3835
543.534 197.629 715
545.244 197.629 715
546.954 197.629 715
-2370.46 882.678 3166
-2362.89 882.678 3166
-2346.39 879.332 3154
-2334.4 877.659 3148
-2318 874.314 3136
-2310.5 874.314 3136
-2298.6 872.641 3130
-2291.11 872.641 3130
-2288.01 874.314 3136
-2284.87 875.987 3142
-2277.36 875.987 3142
-2278.51 879.332 3154
-2275.29 881.005 3160
-2280.65 886.023 3178
-2273.05 886.023 3178
-2274.01 889.369 3190
-2288.4 898.012 3221
-2293.45 903.03 3239
-2285.7 903.03 3239
-2287.1 906.655 3252
-2310.86 919.201 3297
-2316.95 924.776 3317
-2309.02 924.776 3317
-2347.56 943.456 3384
-2344.31 945.408 3391
-2341.02 947.359 3398
-2332.9 947.359 3398
-2329.56 949.311 3405
-2321.42 949.311 3405
-2313.28 949.311 3405
-2305.14 949.311 3405
-2296.99 949.311 3405
-2298.26 953.214 3419
-2294.77 955.166 3426
-2286.58 955.166 3426
-2283.04 957.117 3433
-2284.11 961.02 3447
-2289.73 966.875 3468
-2281.44 966.875 3468
-2282.98 971.057 3483
-2274.65 971.057 3483
-2266.32 971.057 3483
-2257.99 971.057 3483
-2254.19 973.009 3490
-2260 979.142 3512
-2251.6 979.142 3512
-2243.2 979.142 3512
-2234.8 979.142 3512
-2231.48 981.373 3520
-2227.48 983.324 3527
-2219.05 983.324 3527
-2224.4 989.458 3549
-2220.91 991.688 3557
-2217.38 993.919 3565
-2208.85 993.919 3565
-2204.65 995.87 3572
-2205.94 1000.33 3588
-2197.36 1000.33 3588
-2188.78 1000.33 3588
-2180.2 1000.33 3588
-2171.62 1000.33 3588
-2167.26 1002.28 3595
-2158.67 1002.28 3595
-2150.07 1002.28 3595
-2146.24 1004.51 3603
-2142.37 1006.74 3611
-2133.73 1006.74 3611
-2129.81 1008.97 3619
-2121.15 1008.97 3619
-2112.5 1008.97 3619
-2103.85 1008.97 3619
-2099.82 1011.2 3627
-2091.15 1011.2 3627
-2082.48 1011.2 3627
-2069.23 1008.97 3619
-2060.57 1008.97 3619
-2051.92 1008.97 3619
-2043.27 1008.97 3619
-2034.61 1008.97 3619
-2021.48 1006.74 3611
-2012.84 1006.74 3611
-2004.21 1006.74 3611
-1995.57 1006.74 3611
-1986.94 1006.74 3611
-1978.3 1006.74 3611
-1969.67 1006.74 3611
-1956.69 1004.51 3603
-1943.75 1002.28 3595
-1939.46 1004.51 3603
-1930.84 1004.51 3603
-1922.23 1004.51 3603
-1917.86 1006.74 3611
-1909.22 1006.74 3611
-1904.8 1008.97 3619
-1896.15 1008.97 3619
-1887.49 1008.97 3619
-1878.84 1008.97 3619
-1870.18 1008.97 3619
-1861.53 1008.97 3619
-1848.78 1006.74 3611
-1848.3 1011.2 3627
-1843.68 1013.43 3635
-1834.99 1013.43 3635
-1826.3 1013.43 3635
-1817.61 1013.43 3635
-1808.91 1013.43 3635
-1796.26 1011.2 3627
-1791.53 1013.43 3635
-1782.84 1013.43 3635
-1774.14 1013.43 3635
-1761.57 1011.2 3627
-1752.89 1011.2 3627
-1736.52 1006.74 3611
-1727.89 1006.74 3611
-1715.45 1004.51 3603
-1703.04 1002.28 3595
-1672.76 989.458 3549
-1660.99 987.506 3542
-1652.52 987.506 3542
-1640.34 985.276 3534
-1628.66 983.324 3527
-1613.33 979.142 3512
-1604.93 979.142 3512
-1596.54 979.142 3512
-1578.19 973.009 3490
-1569.84 973.009 3490
-1561.5 973.009 3490
-1553.15 973.009 3490
-1541.71 971.057 3483
-1533.38 971.057 3483
-1525.05 971.057 3483
-1513.67 969.106 3476
-1505.36 969.106 3476
-1497.05 969.106 3476
-1488.74 969.106 3476
-1480.42 969.106 3476
-1472.11 969.106 3476
-1472.64 974.96 3497
-1470.56 979.142 3512
-1462.16 979.142 3512
-1453.76 979.142 3512
-1448.66 981.373 3520
-1440.24 981.373 3520
-1431.82 981.373 3520
-1426.24 983.324 3527
-1417.8 983.324 3527
-1409.37 983.324 3527
-1400.93 983.324 3527
-1392.5 983.324 3527
-1386.81 985.276 3534
-1378.36 985.276 3534
-1369.91 985.276 3534
-1361.46 985.276 3534
-1353.01 985.276 3534
-1350.27 989.458 3549
-1341.78 989.458 3549
-1333.29 989.458 3549
-1324.81 989.458 3549
-1316.32 989.458 3549
-1305.25 987.506 3542
-1293.85 985.276 3534
-1282.86 983.324 3527
-1271.89 981.373 3520
-1263.48 981.373 3520
-1255.06 981.373 3520
-1246.64 981.373 3520
-1238.22 981.373 3520
-1229.81 981.373 3520
-1216.18 977.191 3505
-1207.8 977.191 3505
-1194.29 973.009 3490
-1185.94 973.009 3490
-1177.6 973.009 3490
-1164.56 969.106 3476
-1153.59 966.875 3468
-1145.29 966.875 3468
-1134.71 964.924 3461
-1124.15 962.972 3454
-1111.37 959.069 3440
-1103.14 959.069 3440
-1094.92 959.069 3440
-579.674 511.596 1835
-575.286 511.596 1835
-571.52 512.154 1837
-567.127 512.154 1837
-562.735 512.154 1837
-558.342 512.154 1837
-553.346 511.596 1835
-548.958 511.596 1835
-542.196 509.366 1827
-536.649 508.251 1823
-529.37 505.463 1813
-521.849 502.396 1802
-517.54 502.396 1802
-510.383 499.608 1792
-502.426 495.984 1779
-495.932 493.753 1771
-491.697 493.753 1771
-483.333 489.571 1756
-475.041 485.389 1741
-470.878 485.389 1741
-466.714 485.389 1741
-460.16 482.88 1732
-453.649 480.371 1723
-449.268 480.092 1722
-444.633 479.534 1720
-440.52 479.534 1720
-435.138 478.14 1715
-431.037 478.14 1715
-425.94 477.025 1711
-421.849 477.025 1711
-417.757 477.025 1711
-413.666 477.025 1711
-409.574 477.025 1711
-405.482 477.025 1711
-401.391 477.025 1711
-397.299 477.025 1711
-393.208 477.025 1711
-389.116 477.025 1711
-385.025 477.025 1711
-380.933 477.025 1711
-376.401 476.468 1709
-372.315 476.468 1709
-367.581 475.631 1706
-363.502 475.631 1706
-359.001 475.074 1704
-354.926 475.074 1704
-350.851 475.074 1704
-346.37 474.516 1702
-342.099 474.237 1701
-338.031 474.237 1701
-333.963 474.237 1701
-329.896 474.237 1701
-325.445 473.68 1699
-321.382 473.68 1699
-316.946 473.122 1697
-312.519 472.564 1695
-308.466 472.564 1695
-304.233 472.286 1694
-300.182 472.286 1694
-296.131 472.286 1694
-292.08 472.286 1694
-288.199 472.564 1695
-284.817 473.68 1699
-280.754 473.68 1699
-276.691 473.68 1699
-272.949 474.237 1701
-269.04 474.516 1702
-264.97 474.516 1702
-261.206 475.074 1704
-257.735 476.189 1708
-253.799 476.468 1709
-249.712 476.468 1709
-246.201 477.583 1713
-242.528 478.419 1716
-238.703 478.977 1718
-234.595 478.977 1718
-231.425 480.928 1725
-227.827 482.044 1729
-224.081 482.88 1732
-219.939 482.88 1732
-216.296 483.995 1736
-212.389 484.553 1738
-208.233 484.553 1738
-204.077 484.553 1738
-200.266 485.389 1741
-196.328 485.947 1743
-192.38 486.504 1745
-188.208 486.504 1745
-184.457 487.62 1749
-180.48 488.177 1751
-176.797 489.571 1756
-172.597 489.571 1756
-169.07 491.523 1763
-167.004 497.935 1786
-162.733 497.935 1786
-158.463 497.935 1786
-154.192 497.935 1786
-307.15 1115.47 4001
-297.583 1115.47 4001
-288.015 1115.47 4001
-277.751 1112.69 3991
-268.208 1112.69 3991
-258.081 1110.18 3982
-245.625 1097.07 3935
-235.615 1094.29 3925
-226.229 1094.29 3925
-215.849 1089.27 3907
-205.554 1084.25 3889
-196.709 1086.76 3898
-187.387 1086.76 3898
-178.066 1086.76 3898
-168.745 1086.76 3898
-158.687 1081.74 3880
-148.716 1076.72 3862
-139.481 1076.72 3862
-129.942 1074.21 3853
-120.164 1069.19 3835
-109.228 1052.19 3774
-100.203 1052.19 3774
-90.3572 1042.71 3740
-81.0655 1038.25 3724
-72.0052 1036.02 3716
-63.1192 1036.02 3716
-53.8682 1029.05 3691
-44.6392 1019.85 3658
-35.8133 1017.62 3650
-27.0851 1017.62 3650
-18.2814 1013.43 3635
-9.52569 1006.74 3611
-0.890695 1006.74 3611
7.72714 1004.51 3603
16.343 1004.51 3603
24.855 1000.33 3588
33.3604 998.101 3580
41.8276 995.87 3572
50.3693 995.87 3572
58.7956 993.919 3565
67.3206 993.919 3565
75.8456 993.919 3565
84.3706 993.919 3565
92.2963 987.506 3542
100.766 987.506 3542
109.236 987.506 3542
117.706 987.506 3542
126.176 987.506 3542
134.342 985.276 3534
143.116 987.506 3542
151.586 987.506 3542
160.056 987.506 3542
168.146 985.276 3534
176.247 983.324 3527
184.681 983.324 3527
193.115 983.324 3527
201.149 981.373 3520
209.566 981.373 3520
218.417 983.324 3527
226.851 983.324 3527
235.286 983.324 3527
243.72 983.324 3527
252.154 983.324 3527
261.105 985.276 3534
269.556 985.276 3534
279.187 989.458 3549
288.97 993.919 3565
297.495 993.919 3565
306.02 993.919 3565
315.163 995.87 3572
323.705 995.87 3572
332.991 998.101 3580
341.552 998.101 3580
350.895 1000.33 3588
360.176 1002.28 3595
368.773 1002.28 3595
377.37 1002.28 3595
385.215 1000.33 3588
392.039 995.87 3572
400.58 995.87 3572
404.77 985.276 3534
409.83 977.191 3505
416.422 973.009 3490
422.09 966.875 3468
430.383 966.875 3468
436.019 961.02 3447
441.556 955.166 3426
446.991 949.311 3405
455.134 949.311 3405
459.467 941.504 3377
464.773 935.928 3357
469.984 930.352 3337
477.964 930.352 3337
483.905 926.449 3323
490.963 924.776 3317
498.895 924.776 3317
506.827 924.776 3317
514.759 924.776 3317
522.691 924.776 3317
530.623 924.776 3317
537.418 922.825 3310
546.487 924.776 3317
554.419 924.776 3317
562.35 924.776 3317
570.282 924.776 3317
578.214 924.776 3317
586.146 924.776 3317
594.078 924.776 3317
602.01 924.776 3317
609.942 924.776 3317
617.874 924.776 3317
625.806 924.776 3317
633.738 924.776 3317
641.67 924.776 3317
649.602 924.776 3317
658.723 926.449 3323
666.67 926.449 3323
674.616 926.449 3323
682.562 926.449 3323
690.508 926.449 3323
701.397 930.352 3337
709.377 930.352 3337
718.647 932.025 3343
726.641 932.025 3343
734.635 932.025 3343
741.296 930.352 3337
749.276 930.352 3337
755.667 928.401 3330
763.63 928.401 3330
771.593 928.401 3330
779.556 928.401 3330
787.52 928.401 3330
795.483 928.401 3330
805.135 930.352 3337
813.114 930.352 3337
821.094 930.352 3337
829.074 930.352 3337
838.559 932.025 3343
850.098 935.928 3357
858.126 935.928 3357
873.12 943.456 3384
883.035 945.408 3391
898.502 953.214 3419
906.678 953.214 3419
920.473 959.069 3440
936.258 966.875 3468
950.543 973.009 3490
958.889 973.009 3490
975.549 981.373 3520
987.88 985.276 3534
1005.07 993.919 3565
1013.6 993.919 3565
1026.42 998.101 3580
1041.63 1004.51 3603
1054.91 1008.97 3619
1068.27 1013.43 3635
1076.96 1013.43 3635
1095.21 1022.36 3667
1108.79 1026.82 3683
1120.03 1029.05 3691
1128.86 1029.05 3691
1137.68 1029.05 3691
1146.51 1029.05 3691
1155.33 1029.05 3691
1164.16 1029.05 3691
1170.45 1026.82 3683
1179.25 1026.82 3683
1188.06 1026.82 3683
1196.87 1026.82 3683
1205.67 1026.82 3683
1211.84 1024.59 3675
1220.63 1024.59 3675
1229.42 1024.59 3675
1238.21 1024.59 3675
1244.28 1022.36 3667
1253.05 1022.36 3667
1261.82 1022.36 3667
1270.59 1022.36 3667
1276.22 1019.85 3658
1284.96 1019.85 3658
1293.71 1019.85 3658
1296.76 1015.39 3642
1308.34 1017.62 3650
1317.07 1017.62 3650
1325.79 1017.62 3650
1334.52 1017.62 3650
1343.25 1017.62 3650
1351.98 1017.62 3650
1360.71 1017.62 3650
1366.43 1015.39 3642
1372.5 1013.43 3635
1378.15 1011.2 3627
1386.83 1011.2 3627
1392.42 1008.97 3619
1397.98 1006.74 3611
1403.5 1004.51 3603
1412.11 1004.51 3603
1414.81 1000.33 3588
1420.22 998.101 3580
1425.59 995.87 3572
1431.32 993.919 3565
1439.84 993.919 3565
1439.03 987.506 3542
1444.23 985.276 3534
1449.8 983.324 3527
1458.23 983.324 3527
1460.43 979.142 3512
1462.56 974.96 3497
1467.97 973.009 3490
1476.32 973.009 3490
1484.66 973.009 3490
1499.43 977.191 3505
1520.28 985.276 3534
1535.22 989.458 3549
1543.71 989.458 3549
1555.7 991.688 3557
1574.32 998.101 3580
1617.36 1019.85 3658
1626.11 1019.85 3658
1649.61 1029.05 3691
1673.26 1038.25 3724
1736.37 1071.7 3844
1745.56 1071.7 3844
1771.19 1081.74 3880
1792.86 1089.27 3907
1845.56 1115.47 4001
1855.13 1115.47 4001
1887.07 1128.86 4049
1896.75 1128.86 4049
1915.85 1134.43 4069
1925.58 1134.43 4069
1935.31 1134.43 4069
1945.04 1134.43 4069
1945.16 1128.86 4049
1954.84 1128.86 4049
