ply
format ascii 1.0
comment File generated
element vertex 2136
property float x
property float y
property float z
end_header
291.618 -690.008 4079
301.372 -690.008 4079
309.6 -686.625 4059
319.307 -686.625 4059
329.013 -686.625 4059
336.299 -681.719 4030
341.816 -673.599 3982
346.309 -663.957 3925
355.695 -663.957 3925
365.081 -663.957 3925
366.739 -650.255 3844
371.628 -642.812 3800
377.308 -637.061 3766
388.058 -639.936 3783
397.104 -639.936 3783
406.15 -639.936 3783
415.197 -639.936 3783
424.243 -639.936 3783
433.289 -639.936 3783
441.283 -638.414 3774
450.308 -638.414 3774
460.428 -639.936 3783
469.474 -639.936 3783
479.659 -641.459 3792
494.269 -648.733 3835
506.984 -653.3 3862
516.219 -653.3 3862
525.455 -653.3 3862
534.69 -653.3 3862
546.46 -656.345 3880
555.738 -656.345 3880
565.017 -656.345 3880
1749.26 -691.7 4089
1759.04 -691.7 4089
1768.82 -691.7 4089
1756.85 -683.242 4039
1745.51 -675.122 3991
1751.1 -673.599 3982
1760.62 -673.599 3982
1757.25 -668.694 3953
1788.16 -676.814 4001
1801.77 -678.336 4010
1811.36 -678.336 4010
1820.94 -678.336 4010
1830.53 -678.336 4010
1840.12 -678.336 4010
1849.71 -678.336 4010
1859.3 -678.336 4010
1855.84 -673.599 3982
1847.56 -667.171 3944
1835.33 -659.39 3898
1844.66 -659.39 3898
1849.7 -657.867 3889
1859 -657.867 3889
-2458.92 -610.029 3658
-2450.17 -610.029 3658
-2441.42 -610.029 3658
-2432.68 -610.029 3658
-2423.93 -610.029 3658
-2404.62 -607.36 3642
-2380.78 -603.525 3619
-2372.12 -603.525 3619
-2378.49 -607.36 3642
-2374.99 -608.694 3650
-2366.26 -608.694 3650
-2357.53 -608.694 3650
-2348.8 -608.694 3650
-2340.07 -608.694 3650
-2316.65 -604.859 3627
-2302.89 -603.525 3619
-2264.44 -595.687 3572
-2255.9 -595.687 3572
-530.71 -280.166 1680
-527.633 -280.666 1683
-523.608 -280.666 1683
-520.201 -281 1685
-516.172 -281 1685
-512.143 -281 1685
-508.113 -281 1685
-503.186 -280.5 1682
-497.977 -279.833 1678
-493.965 -279.833 1678
-489.952 -279.833 1678
-485.939 -279.833 1678
-481.639 -279.666 1677
-477.629 -279.666 1677
-473.619 -279.666 1677
-469.609 -279.666 1677
-465.599 -279.666 1677
-461.588 -279.666 1677
-457.578 -279.666 1677
-453.027 -279.332 1675
-447.681 -278.499 1670
-443.688 -278.499 1670
-438.904 -277.998 1667
-434.396 -277.665 1665
-428.605 -276.497 1658
-424.64 -276.497 1658
-420.422 -276.331 1657
-415.203 -275.497 1652
-409.261 -274.163 1644
-405.33 -274.163 1644
-400.91 -273.829 1642
-393.841 -271.661 1629
-388.509 -270.661 1623
-383.443 -269.827 1618
-379.574 -269.827 1618
-374.544 -268.993 1613
-369.767 -268.326 1609
-364.555 -267.325 1603
-360.722 -267.325 1603
-355.998 -266.658 1599
-351.293 -265.991 1595
-346.826 -265.491 1592
-343.019 -265.491 1592
-337.933 -264.49 1586
-332.455 -263.156 1578
-327.849 -262.489 1574
-324.085 -262.489 1574
-319.303 -261.655 1569
-314.948 -261.155 1566
-311.203 -261.155 1566
-307.458 -261.155 1566
-303.714 -261.155 1566
-299.969 -261.155 1566
-296.224 -261.155 1566
-292.479 -261.155 1566
-289.103 -261.488 1568
-285.354 -261.488 1568
-282.143 -261.989 1571
-278.918 -262.489 1574
-275.154 -262.489 1574
-271.39 -262.489 1574
-267.796 -262.656 1575
-264.533 -263.156 1578
-261.255 -263.656 1581
-257.474 -263.656 1581
-254.656 -264.657 1587
-251.177 -264.991 1589
-247.845 -265.491 1592
-244.038 -265.491 1592
-240.684 -265.991 1595
-237.315 -266.491 1598
-233.64 -266.658 1599
-229.816 -266.658 1599
-226.699 -267.492 1604
-223.28 -267.992 1607
-220.12 -268.826 1612
-216.265 -268.826 1612
-213.069 -269.66 1617
-209.72 -270.327 1621
-206.733 -271.494 1628
-202.84 -271.494 1628
-199.68 -272.495 1634
-196.372 -273.329 1639
-193.744 -275.163 1650
-189.798 -275.163 1650
-186.754 -276.497 1658
-183.891 -278.165 1668
-180.334 -278.832 1672
-176.336 -278.832 1672
-172.853 -279.666 1677
-169.447 -280.666 1683
-165.619 -281 1685
-161.589 -281 1685
-158.028 -281.834 1690
-154.624 -283.001 1697
-151.187 -284.169 1704
-147.112 -284.169 1704
-143.206 -284.502 1706
-139.371 -285.002 1709
-135.442 -285.336 1711
-131.351 -285.336 1711
-128.3 -287.671 1725
-124.463 -288.338 1729
-120.816 -289.505 1736
-116.665 -289.505 1736
-112.513 -289.505 1736
-202.865 -670.398 4020
-193.252 -670.398 4020
-183.639 -670.398 4020
-172.771 -665.561 3991
-163.227 -665.561 3991
-152.22 -659.224 3953
-142.767 -659.224 3953
-132.708 -656.223 3935
-122.984 -654.555 3925
-113.888 -656.223 3935
-104.956 -659.224 3953
-95.5033 -659.224 3953
-86.0504 -659.224 3953
-76.7914 -660.892 3963
-67.3147 -660.892 3963
-57.8379 -660.892 3963
-48.2392 -659.224 3953
-38.7863 -659.224 3953
-29.3335 -659.224 3953
-19.7902 -656.223 3935
-10.259 -648.551 3889
-0.954827 -645.55 3871
8.30191 -645.55 3871
17.477 -642.548 3853
26.6283 -641.047 3844
35.9044 -642.548 3853
45.8558 -653.054 3916
56.4187 -667.229 4001
65.9863 -667.229 4001
75.5539 -667.229 4001
85.1215 -667.229 4001
94.6891 -667.229 4001
103.996 -665.561 3991
272.109 -680.237 4079
281.863 -680.237 4079
291.618 -680.237 4079
301.372 -680.237 4079
309.6 -676.902 4059
319.307 -676.902 4059
329.013 -676.902 4059
336.299 -672.065 4030
341.816 -664.061 3982
346.309 -654.555 3925
355.695 -654.555 3925
365.081 -654.555 3925
366.739 -641.047 3844
371.628 -633.709 3800
377.308 -628.039 3766
388.058 -630.874 3783
397.104 -630.874 3783
406.15 -630.874 3783
415.197 -630.874 3783
424.243 -630.874 3783
433.289 -630.874 3783
441.283 -629.373 3774
449.353 -628.039 3766
459.333 -629.373 3774
468.358 -629.373 3774
479.659 -632.375 3792
492.078 -636.711 3818
504.621 -641.047 3844
513.813 -641.047 3844
523.005 -641.047 3844
533.444 -642.548 3853
542.657 -642.548 3853
551.871 -642.548 3853
561.085 -642.548 3853
1727.87 -673.566 4039
1737.53 -673.566 4039
1747.19 -673.566 4039
1744.23 -668.73 4010
1745.51 -665.561 3991
1751.1 -664.061 3982
1760.62 -664.061 3982
1757.25 -659.224 3953
1788.16 -667.229 4001
1801.77 -668.73 4010
1811.36 -668.73 4010
1820.94 -668.73 4010
1830.53 -668.73 4010
1840.12 -668.73 4010
1849.71 -668.73 4010
1859.3 -668.73 4010
1864.7 -667.229 4001
1860.68 -662.393 3972
1856.99 -657.724 3944
1866.42 -657.724 3944
1871.58 -656.223 3935
1876.2 -654.555 3925
1885.59 -654.555 3925
1894.98 -654.555 3925
-2453.54 -599.951 3650
-2444.81 -599.951 3650
-2436.08 -599.951 3650
-2427.36 -599.951 3650
-2418.63 -599.951 3650
-2404.62 -598.636 3642
-2380.78 -594.855 3619
-2372.12 -594.855 3619
-2373.92 -597.485 3635
-2380.19 -601.266 3658
-2371.44 -601.266 3658
-2362.7 -601.266 3658
-2353.95 -601.266 3658
-2345.2 -601.266 3658
-2336.45 -601.266 3658
-2302.89 -594.855 3619
-2284.09 -592.225 3603
-2275.48 -592.225 3603
-1154.85 -566.584 3447
-1146.6 -566.584 3447
-1138.36 -566.584 3447
-1130.12 -566.584 3447
-531.342 -276.47 1682
-527.633 -276.635 1683
-523.608 -276.635 1683
-519.584 -276.635 1683
-515.559 -276.635 1683
-511.535 -276.635 1683
-507.51 -276.635 1683
-503.186 -276.47 1682
-497.977 -275.813 1678
-493.965 -275.813 1678
-489.952 -275.813 1678
-485.939 -275.813 1678
-481.927 -275.813 1678
-477.914 -275.813 1678
-473.901 -275.813 1678
-469.889 -275.813 1678
-465.599 -275.649 1677
-461.588 -275.649 1677
-457.578 -275.649 1677
-453.027 -275.32 1675
-447.681 -274.498 1670
-443.688 -274.498 1670
-438.904 -274.005 1667
-434.396 -273.676 1665
-428.605 -272.526 1658
-424.64 -272.526 1658
-420.422 -272.361 1657
-415.203 -271.539 1652
-409.261 -270.224 1644
-405.33 -270.224 1644
-400.91 -269.896 1642
-393.841 -267.759 1629
-388.509 -266.773 1623
-383.206 -265.786 1617
-379.339 -265.786 1617
-374.311 -264.965 1612
-369.078 -263.978 1606
-363.645 -262.828 1599
-359.822 -262.828 1599
-355.33 -262.335 1596
-350.853 -261.842 1593
-345.736 -260.855 1587
-341.941 -260.855 1587
-336.868 -259.869 1581
-331.823 -258.883 1575
-327.224 -258.225 1571
-323.467 -258.225 1571
-319.1 -257.732 1568
-314.747 -257.239 1565
-311.004 -257.239 1565
-307.262 -257.239 1565
-303.52 -257.239 1565
-299.777 -257.239 1565
-296.224 -257.404 1566
-292.479 -257.404 1566
-289.103 -257.732 1568
-285.354 -257.732 1568
-282.143 -258.225 1571
-278.918 -258.719 1574
-275.154 -258.719 1574
-271.39 -258.719 1574
-268.136 -259.212 1577
-264.533 -259.376 1578
-261.585 -260.198 1583
-257.8 -260.198 1583
-254.656 -260.855 1587
-251.177 -261.184 1589
-247.845 -261.677 1592
-244.038 -261.677 1592
-240.684 -262.17 1595
-237.463 -262.828 1599
-233.932 -263.156 1601
-230.103 -263.156 1601
-226.982 -263.978 1606
-223.558 -264.471 1609
-220.12 -264.965 1612
-216.265 -264.965 1612
-213.069 -265.786 1617
-209.72 -266.444 1621
-206.733 -267.594 1628
-202.84 -267.594 1628
-199.68 -268.581 1634
-196.491 -269.567 1640
-193.744 -271.211 1650
-189.798 -271.211 1650
-186.754 -272.526 1658
-184.112 -274.498 1670
-180.334 -274.827 1672
-176.336 -274.827 1672
-173.471 -276.635 1683
-169.648 -276.964 1685
-166.012 -277.621 1689
-161.973 -277.621 1689
-158.215 -278.114 1692
-154.989 -279.594 1701
-151.542 -280.744 1708
-147.458 -280.744 1708
-143.373 -280.744 1708
-139.697 -281.566 1713
-135.759 -281.895 1715
-131.658 -281.895 1715
-128.449 -283.867 1727
-124.679 -284.689 1732
-121.442 -286.826 1745
-117.269 -286.826 1745
-113.097 -286.826 1745
-201.402 -656.001 3991
-191.858 -656.001 3991
-182.315 -656.001 3991
-172.771 -656.001 3991
-162.859 -654.522 3982
-152.22 -649.755 3953
-142.767 -649.755 3953
-132.708 -646.796 3935
-122.984 -645.153 3925
-114.409 -649.755 3953
-105.965 -656.001 3991
-96.4213 -656.001 3991
-86.8776 -656.001 3991
-77.334 -656.001 3991
-67.7903 -656.001 3991
-58.2466 -656.001 3991
-48.3612 -651.399 3963
-38.8845 -651.399 3963
-29.4077 -651.399 3963
-19.8807 -649.755 3953
-10.3065 -642.194 3907
-0.957047 -637.756 3880
8.32121 -637.756 3880
17.477 -633.318 3853
26.6283 -631.839 3844
35.9044 -633.318 3853
45.8558 -643.673 3916
56.4187 -657.645 4001
65.9863 -657.645 4001
75.5539 -657.645 4001
85.1215 -657.645 4001
94.6891 -657.645 4001
103.996 -656.001 3991
272.109 -670.466 4079
281.863 -670.466 4079
291.618 -670.466 4079
301.372 -670.466 4079
309.6 -667.178 4059
319.307 -667.178 4059
329.013 -667.178 4059
336.299 -662.411 4030
341.816 -654.522 3982
346.309 -645.153 3925
355.695 -645.153 3925
365.081 -645.153 3925
366.739 -631.839 3844
371.628 -624.606 3800
377.308 -619.018 3766
388.058 -621.812 3783
397.104 -621.812 3783
406.15 -621.812 3783
415.197 -621.812 3783
424.243 -621.812 3783
433.289 -621.812 3783
441.283 -620.333 3774
449.353 -619.018 3766
458.359 -619.018 3766
467.365 -619.018 3766
478.521 -621.812 3783
488.727 -623.291 3792
501.208 -627.565 3818
510.338 -627.565 3818
519.468 -627.565 3818
528.598 -627.565 3818
542.657 -633.318 3853
551.871 -633.318 3853
561.085 -633.318 3853
1700.52 -660.768 4020
1710.13 -660.768 4020
1719.74 -660.768 4020
1725.05 -659.124 4010
1734.64 -659.124 4010
1735.97 -656.001 3991
1745.51 -656.001 3991
1751.1 -654.522 3982
1760.62 -654.522 3982
1757.25 -649.755 3953
1779.66 -654.522 3982
1801.77 -659.124 4010
1811.36 -659.124 4010
1820.94 -659.124 4010
1830.53 -659.124 4010
1840.12 -659.124 4010
1849.71 -659.124 4010
1855.13 -657.645 4001
1864.7 -657.645 4001
1860.68 -652.878 3972
1865.94 -651.399 3963
1875.42 -651.399 3963
1875.86 -648.276 3944
1885.29 -648.276 3944
1890.39 -646.796 3935
1899.8 -646.796 3935
-2436.08 -591.207 3650
-2427.36 -591.207 3650
-2418.63 -591.207 3650
-2400 -588.778 3635
-2380.78 -586.186 3619
-2372.12 -586.186 3619
-2363.47 -586.186 3619
-2380.19 -592.503 3658
-2371.44 -592.503 3658
-2362.7 -592.503 3658
-2353.95 -592.503 3658
-2345.2 -592.503 3658
-2336.45 -592.503 3658
-2307.98 -587.482 3627
-2284.09 -583.594 3603
-2275.48 -583.594 3603
-1154.85 -558.326 3447
-1146.6 -558.326 3447
-1138.36 -558.326 3447
-1130.12 -558.326 3447
-535.364 -272.441 1682
-531.342 -272.441 1682
-527.633 -272.603 1683
-523.608 -272.603 1683
-519.584 -272.603 1683
-515.559 -272.603 1683
-511.535 -272.603 1683
-507.51 -272.603 1683
-503.186 -272.441 1682
-497.977 -271.793 1678
-493.965 -271.793 1678
-489.952 -271.793 1678
-485.939 -271.793 1678
-481.927 -271.793 1678
-477.914 -271.793 1678
-473.901 -271.793 1678
-469.889 -271.793 1678
-465.599 -271.631 1677
-461.588 -271.631 1677
-457.578 -271.631 1677
-453.027 -271.307 1675
-447.681 -270.498 1670
-443.688 -270.498 1670
-438.904 -270.012 1667
-434.396 -269.688 1665
-428.605 -268.554 1658
-424.64 -268.554 1658
-420.422 -268.392 1657
-415.203 -267.582 1652
-409.261 -266.286 1644
-405.33 -266.286 1644
-400.422 -265.638 1640
-393.841 -263.857 1629
-388.509 -262.885 1623
-383.206 -261.913 1617
-379.339 -261.913 1617
-374.311 -261.103 1612
-369.078 -260.131 1606
-363.645 -258.997 1599
-359.822 -258.997 1599
-355.33 -258.511 1596
-350.853 -258.025 1593
-345.736 -257.054 1587
-341.941 -257.054 1587
-336.655 -255.92 1580
-331.823 -255.11 1575
-327.224 -254.462 1571
-323.467 -254.462 1571
-318.693 -253.652 1566
-314.747 -253.49 1565
-311.004 -253.49 1565
-307.458 -253.652 1566
-303.714 -253.652 1566
-299.969 -253.652 1566
-296.602 -253.976 1568
-292.853 -253.976 1568
-289.288 -254.138 1569
-285.536 -254.138 1569
-282.143 -254.462 1571
-278.918 -254.948 1574
-275.329 -255.11 1575
-271.562 -255.11 1575
-268.136 -255.434 1577
-264.868 -255.92 1580
-261.751 -256.568 1584
-257.963 -256.568 1584
-254.656 -257.054 1587
-251.336 -257.54 1590
-248 -258.025 1593
-244.191 -258.025 1593
-240.834 -258.511 1596
-237.463 -258.997 1599
-233.932 -259.321 1601
-230.103 -259.321 1601
-227.123 -260.293 1607
-223.697 -260.779 1610
-220.257 -261.265 1613
-216.399 -261.265 1613
-213.465 -262.399 1620
-210.367 -263.371 1626
-207.241 -264.342 1632
-203.338 -264.342 1632
-200.291 -265.476 1639
-196.971 -266.286 1644
-193.744 -267.258 1650
-189.798 -267.258 1650
-186.979 -268.878 1660
-184.332 -270.821 1672
-180.658 -271.307 1675
-176.652 -271.307 1675
-173.677 -272.927 1685
-170.051 -273.575 1689
-166.11 -273.737 1690
-162.069 -273.737 1690
-158.402 -274.385 1694
-155.262 -276.005 1704
-151.542 -276.653 1708
-147.458 -276.653 1708
-143.625 -277.138 1711
-139.697 -277.462 1713
-135.838 -277.948 1716
-131.735 -277.948 1716
-128.821 -280.54 1732
-125.615 -282.646 1745
-121.721 -283.294 1749
-117.538 -283.294 1749
-113.81 -284.427 1756
-109.61 -284.427 1756
-105.411 -284.427 1756
-201.402 -646.44 3991
-191.858 -646.44 3991
-182.315 -646.44 3991
-172.771 -646.44 3991
-163.227 -646.44 3991
-152.952 -643.363 3972
-143.454 -643.363 3972
-133.011 -638.828 3944
-123.58 -638.828 3944
-115.509 -646.44 3991
-106.469 -649.518 4010
-96.8804 -649.518 4010
-87.2912 -649.518 4010
-77.7021 -649.518 4010
-68.113 -649.518 4010
-58.5239 -649.518 4010
-48.7029 -646.44 3991
-39.0709 -644.983 3982
-29.5487 -644.983 3982
-19.8807 -640.285 3953
-10.354 -635.75 3925
-0.959267 -629.919 3889
8.34051 -629.919 3889
17.477 -624.088 3853
26.6283 -622.63 3844
35.9044 -624.088 3853
45.8558 -634.292 3916
55.8829 -641.905 3963
65.3596 -641.905 3963
75.0063 -643.363 3972
84.5046 -643.363 3972
94.0028 -643.363 3972
103.501 -643.363 3972
271.442 -659.075 4069
281.172 -659.075 4069
290.903 -659.075 4069
300.633 -659.075 4069
309.6 -657.455 4059
319.307 -657.455 4059
329.013 -657.455 4059
336.299 -652.758 4030
337.781 -637.37 3935
343.927 -631.377 3898
353.248 -631.377 3898
362.569 -631.377 3898
364.258 -618.419 3818
369.965 -612.75 3783
377.308 -609.996 3766
387.135 -611.292 3774
396.159 -611.292 3774
406.15 -612.75 3783
415.197 -612.75 3783
424.243 -612.75 3783
433.289 -612.75 3783
440.348 -609.996 3766
448.28 -608.538 3757
457.264 -608.538 3757
467.365 -609.996 3766
476.37 -609.996 3766
486.407 -611.292 3774
497.795 -614.208 3792
506.863 -614.208 3792
515.93 -614.208 3792
524.998 -614.208 3792
536.46 -616.961 3809
545.569 -616.961 3809
554.677 -616.961 3809
1700.52 -651.138 4020
1710.13 -651.138 4020
1719.74 -651.138 4020
1721.18 -648.06 4001
1730.75 -648.06 4001
1735.97 -646.44 3991
1737.2 -643.363 3972
1742.74 -641.905 3963
1752.22 -641.905 3963
1757.25 -640.285 3953
1779.66 -644.983 3982
1801.77 -649.518 4010
1811.36 -649.518 4010
1820.94 -649.518 4010
1830.53 -649.518 4010
1840.12 -649.518 4010
1849.71 -649.518 4010
1855.13 -648.06 4001
1864.7 -648.06 4001
1860.68 -643.363 3972
1865.94 -641.905 3963
1875.42 -641.905 3963
1875.86 -638.828 3944
1885.29 -638.828 3944
1894.72 -638.828 3944
1904.15 -638.828 3944
3079.07 -662.314 4089
3088.85 -662.314 4089
3098.63 -662.314 4089
3100.81 -660.694 4079
3102.93 -659.075 4069
3112.66 -659.075 4069
-2436.08 -582.464 3650
-2427.36 -582.464 3650
-2418.63 -582.464 3650
-2400 -580.07 3635
-2380.78 -577.517 3619
-2372.12 -577.517 3619
-2363.47 -577.517 3619
-2380.19 -583.74 3658
-2371.44 -583.74 3658
-2362.7 -583.74 3658
-2353.95 -583.74 3658
-2345.2 -583.74 3658
-2336.45 -583.74 3658
-2307.98 -578.793 3627
-2284.09 -574.963 3603
-2275.48 -574.963 3603
-1154.68 -542.25 3398
-1146.55 -542.25 3398
-1154.85 -550.069 3447
-1146.6 -550.069 3447
-1138.36 -550.069 3447
-1130.12 -550.069 3447
-535.364 -268.412 1682
-531.342 -268.412 1682
-527.633 -268.572 1683
-523.608 -268.572 1683
-519.584 -268.572 1683
-515.559 -268.572 1683
-511.535 -268.572 1683
-507.51 -268.572 1683
-503.186 -268.412 1682
-497.977 -267.774 1678
-493.965 -267.774 1678
-489.952 -267.774 1678
-485.939 -267.774 1678
-481.927 -267.774 1678
-477.914 -267.774 1678
-473.901 -267.774 1678
-469.889 -267.774 1678
-465.599 -267.614 1677
-461.588 -267.614 1677
-457.578 -267.614 1677
-453.027 -267.295 1675
-447.681 -266.497 1670
-443.688 -266.497 1670
-438.904 -266.018 1667
-434.396 -265.699 1665
-428.605 -264.582 1658
-424.64 -264.582 1658
-420.422 -264.423 1657
-415.203 -263.625 1652
-409.261 -262.348 1644
-405.33 -262.348 1644
-400.422 -261.71 1640
-393.841 -259.954 1629
-388.509 -258.997 1623
-383.443 -258.199 1618
-379.574 -258.199 1618
-374.311 -257.241 1612
-369.078 -256.284 1606
-363.645 -255.167 1599
-359.822 -255.167 1599
-355.33 -254.688 1596
-350.853 -254.209 1593
-345.736 -253.252 1587
-341.941 -253.252 1587
-336.655 -252.135 1580
-331.823 -251.337 1575
-327.224 -250.699 1571
-323.467 -250.699 1571
-318.693 -249.901 1566
-314.948 -249.901 1566
-311.203 -249.901 1566
-307.851 -250.22 1568
-304.101 -250.22 1568
-300.352 -250.22 1568
-296.602 -250.22 1568
-293.039 -250.38 1569
-289.288 -250.38 1569
-285.536 -250.38 1569
-282.322 -250.858 1572
-278.918 -251.177 1574
-275.678 -251.656 1577
-271.907 -251.656 1577
-268.306 -251.816 1578
-264.868 -252.135 1580
-261.751 -252.773 1584
-257.963 -252.773 1584
-254.656 -253.252 1587
-251.336 -253.731 1590
-248 -254.209 1593
-244.191 -254.209 1593
-240.834 -254.688 1596
-237.76 -255.486 1601
-234.224 -255.805 1603
-230.391 -255.805 1603
-227.406 -256.763 1609
-223.975 -257.241 1612
-220.53 -257.72 1615
-216.668 -257.72 1615
-213.596 -258.678 1621
-210.626 -259.795 1628
-207.749 -261.071 1636
-203.836 -261.071 1636
-200.658 -262.029 1642
-197.33 -262.827 1647
-194.331 -264.103 1655
-190.373 -264.103 1655
-187.767 -266.018 1667
-184.332 -266.816 1672
-180.873 -267.614 1677
-176.863 -267.614 1677
-173.884 -269.21 1687
-170.051 -269.529 1689
-166.307 -270.008 1692
-162.261 -270.008 1692
-158.495 -270.487 1695
-155.262 -271.923 1704
-151.542 -272.561 1708
-147.458 -272.561 1708
-143.793 -273.359 1713
-139.697 -273.359 1713
-135.996 -274.157 1718
-131.888 -274.157 1718
-128.821 -276.391 1732
-125.615 -278.465 1745
-121.721 -279.104 1749
-117.538 -279.104 1749
-113.81 -280.221 1756
-109.61 -280.221 1756
-105.411 -280.221 1756
-202.865 -641.508 4020
-193.252 -641.508 4020
-184.096 -643.104 4030
-174.459 -643.104 4030
-164.822 -643.104 4030
-154.069 -638.476 4001
-144.501 -638.476 4001
-133.955 -633.848 3972
-124.457 -633.848 3972
-116.059 -639.912 4010
-106.735 -641.508 4020
-97.122 -641.508 4020
-87.5089 -641.508 4020
-77.8959 -641.508 4020
-68.2829 -641.508 4020
-58.6698 -641.508 4020
-48.9347 -639.912 4010
-39.1592 -636.88 3991
-29.6155 -636.88 3991
-19.9763 -633.848 3972
-10.4041 -629.38 3944
-0.961487 -622.039 3898
8.35981 -622.039 3898
17.477 -614.858 3853
26.6283 -613.422 3844
35.9044 -614.858 3853
45.8558 -624.912 3916
55.8829 -632.412 3963
65.3596 -632.412 3963
75.0063 -633.848 3972
84.5046 -633.848 3972
94.0028 -633.848 3972
103.501 -633.848 3972
271.442 -649.327 4069
281.172 -649.327 4069
290.903 -649.327 4069
300.633 -649.327 4069
309.6 -647.731 4059
319.307 -647.731 4059
329.013 -647.731 4059
336.299 -643.104 4030
337.781 -627.944 3935
343.927 -622.039 3898
353.248 -622.039 3898
362.569 -622.039 3898
364.258 -609.273 3818
369.965 -603.688 3783
377.308 -600.975 3766
387.135 -602.251 3774
396.159 -602.251 3774
406.15 -603.688 3783
415.197 -603.688 3783
424.243 -603.688 3783
433.289 -603.688 3783
440.348 -600.975 3766
448.28 -599.539 3757
457.264 -599.539 3757
467.365 -600.975 3766
476.37 -600.975 3766
486.407 -602.251 3774
497.795 -605.124 3792
506.863 -605.124 3792
515.93 -605.124 3792
524.998 -605.124 3792
536.46 -607.837 3809
548.004 -610.549 3826
557.153 -610.549 3826
566.302 -610.549 3826
1700.52 -641.508 4020
1710.13 -641.508 4020
1719.74 -641.508 4020
1721.18 -638.476 4001
1730.75 -638.476 4001
1735.97 -636.88 3991
1737.2 -633.848 3972
1742.74 -632.412 3963
1752.22 -632.412 3963
1757.25 -630.816 3953
1775.19 -633.848 3972
1789.19 -635.444 3982
1802.77 -636.88 3991
1812.32 -636.88 3991
1826.43 -638.476 4001
1835.99 -638.476 4001
1845.56 -638.476 4001
1855.13 -638.476 4001
1864.7 -638.476 4001
1860.68 -633.848 3972
1865.94 -632.412 3963
1875.42 -632.412 3963
1875.86 -629.38 3944
1885.29 -629.38 3944
1894.72 -629.38 3944
1904.15 -629.38 3944
3079.07 -652.519 4089
3088.85 -652.519 4089
3098.63 -652.519 4089
3100.81 -650.923 4079
3102.93 -649.327 4069
3112.66 -649.327 4069
-2362.7 -574.977 3658
-2353.95 -574.977 3658
-2345.2 -574.977 3658
-2331.34 -573.72 3650
-2307.98 -570.105 3627
-2284.09 -566.332 3603
-2275.48 -566.332 3603
-1154.68 -534.11 3398
-1146.55 -534.11 3398
-1154.85 -541.812 3447
-1146.6 -541.812 3447
-1138.36 -541.812 3447
-1130.12 -541.812 3447
-535.364 -264.383 1682
-531.342 -264.383 1682
-527.633 -264.54 1683
-523.608 -264.54 1683
-519.584 -264.54 1683
-515.559 -264.54 1683
-511.535 -264.54 1683
-507.51 -264.54 1683
-502.588 -264.068 1680
-497.977 -263.754 1678
-493.965 -263.754 1678
-489.952 -263.754 1678
-485.939 -263.754 1678
-481.927 -263.754 1678
-477.914 -263.754 1678
-473.901 -263.754 1678
-469.889 -263.754 1678
-465.599 -263.597 1677
-461.588 -263.597 1677
-457.578 -263.597 1677
-452.486 -262.968 1673
-447.681 -262.497 1670
-443.688 -262.497 1670
-438.904 -262.025 1667
-434.396 -261.711 1665
-428.605 -260.61 1658
-424.64 -260.61 1658
-420.422 -260.453 1657
-414.7 -259.353 1650
-408.763 -258.095 1642
-404.837 -258.095 1642
-400.178 -257.624 1639
-393.841 -256.052 1629
-388.509 -255.109 1623
-383.443 -254.323 1618
-379.574 -254.323 1618
-374.311 -253.38 1612
-369.078 -252.437 1606
-363.645 -251.337 1599
-359.822 -251.337 1599
-355.33 -250.865 1596
-350.853 -250.393 1593
-345.518 -249.293 1586
-341.726 -249.293 1586
-336.655 -248.35 1580
-331.823 -247.564 1575
-327.224 -246.935 1571
-323.467 -246.935 1571
-318.693 -246.149 1566
-314.948 -246.149 1566
-311.203 -246.149 1566
-307.851 -246.464 1568
-304.101 -246.464 1568
-300.352 -246.464 1568
-296.602 -246.464 1568
-293.039 -246.621 1569
-289.288 -246.621 1569
-285.536 -246.621 1569
-282.322 -247.093 1572
-278.918 -247.407 1574
-275.678 -247.878 1577
-271.907 -247.878 1577
-268.306 -248.036 1578
-264.868 -248.35 1580
-261.751 -248.979 1584
-257.963 -248.979 1584
-254.656 -249.45 1587
-251.336 -249.922 1590
-248 -250.393 1593
-244.191 -250.393 1593
-240.834 -250.865 1596
-237.76 -251.651 1601
-234.224 -251.965 1603
-230.391 -251.965 1603
-227.406 -252.908 1609
-223.975 -253.38 1612
-220.53 -253.851 1615
-216.668 -253.851 1615
-213.596 -254.795 1621
-210.626 -255.895 1628
-207.749 -257.152 1636
-203.836 -257.152 1636
-200.658 -258.095 1642
-197.33 -258.881 1647
-194.331 -260.139 1655
-190.373 -260.139 1655
-187.767 -262.025 1667
-184.332 -262.811 1672
-180.873 -263.597 1677
-176.863 -263.597 1677
-173.884 -265.169 1687
-170.051 -265.483 1689
-166.307 -265.955 1692
-162.261 -265.955 1692
-158.495 -266.426 1695
-155.262 -267.841 1704
-151.542 -268.47 1708
-147.458 -268.47 1708
-143.793 -269.255 1713
-139.697 -269.255 1713
-135.996 -270.041 1718
-131.888 -270.041 1718
-128.821 -272.242 1732
-125.615 -274.285 1745
-121.721 -274.914 1749
-117.538 -274.914 1749
-113.81 -276.014 1756
-109.61 -276.014 1756
-105.411 -276.014 1756
-202.865 -631.878 4020
-193.252 -631.878 4020
-184.096 -633.45 4030
-174.459 -633.45 4030
-164.822 -633.45 4030
-154.069 -628.891 4001
-144.501 -628.891 4001
-133.955 -624.333 3972
-124.457 -624.333 3972
-116.059 -630.306 4010
-106.735 -631.878 4020
-97.122 -631.878 4020
-87.5089 -631.878 4020
-77.8959 -631.878 4020
-68.2829 -631.878 4020
-58.6698 -631.878 4020
-48.9347 -630.306 4010
-39.1592 -627.32 3991
-29.6155 -627.32 3991
-19.9763 -624.333 3972
-10.4041 -619.932 3944
-0.961487 -612.701 3898
8.35981 -612.701 3898
17.477 -605.628 3853
26.6283 -604.214 3844
35.7366 -602.799 3835
45.2235 -607.043 3862
55.8829 -622.918 3963
65.3596 -622.918 3963
75.0063 -624.333 3972
84.5046 -624.333 3972
94.0028 -624.333 3972
103.501 -624.333 3972
269.441 -634.864 4039
279.099 -634.864 4039
288.758 -634.864 4039
298.416 -634.864 4039
307.388 -633.45 4030
317.025 -633.45 4030
326.662 -633.45 4030
333.045 -627.32 3991
333.833 -611.287 3889
341.544 -608.458 3871
350.801 -608.458 3871
360.058 -608.458 3871
364.258 -600.127 3818
369.965 -594.625 3783
375.605 -589.281 3749
386.314 -591.953 3766
395.32 -591.953 3766
404.325 -591.953 3766
413.331 -591.953 3766
422.337 -591.953 3766
431.342 -591.953 3766
438.36 -589.281 3749
447.325 -589.281 3749
456.29 -589.281 3749
464.138 -587.867 3740
473.082 -587.867 3740
484.216 -590.539 3757
495.432 -593.211 3774
505.66 -594.625 3783
514.706 -594.625 3783
524.998 -596.04 3792
536.46 -598.712 3809
548.004 -601.384 3826
557.153 -601.384 3826
566.302 -601.384 3826
1700.52 -631.878 4020
1710.13 -631.878 4020
1719.74 -631.878 4020
1721.18 -628.891 4001
1730.75 -628.891 4001
1727.7 -624.333 3972
1737.2 -624.333 3972
1742.74 -622.918 3963
1752.22 -622.918 3963
1757.25 -621.347 3953
1775.19 -624.333 3972
1784.69 -624.333 3972
1798.71 -625.905 3982
1808.23 -625.905 3982
1817.75 -625.905 3982
1831.4 -627.32 3991
1840.95 -627.32 3991
1850.49 -627.32 3991
1860.04 -627.32 3991
1851.78 -621.347 3953
1861.23 -621.347 3953
1870.68 -621.347 3953
1875.86 -619.932 3944
1885.29 -619.932 3944
1894.72 -619.932 3944
1904.15 -619.932 3944
3025.09 -639.58 4069
3034.82 -639.58 4069
3044.55 -639.58 4069
3039.27 -636.436 4049
3079.07 -642.724 4089
3088.85 -642.724 4089
3098.63 -642.724 4089
3100.81 -641.152 4079
3102.93 -639.58 4069
3112.66 -639.58 4069
-2347.84 -562.655 3635
-2339.15 -562.655 3635
-2330.46 -562.655 3635
-2321.76 -562.655 3635
-2302.89 -560.178 3619
-2284.09 -557.701 3603
-2275.48 -557.701 3603
-2257.42 -555.38 3588
-1139.54 -515.444 3330
-1154.68 -525.97 3398
-1146.55 -525.97 3398
-1138.43 -525.97 3398
-1130.3 -525.97 3398
-1122.18 -525.97 3398
-1107.17 -522.719 3377
-1062.64 -505.383 3265
-535.364 -260.353 1682
-531.342 -260.353 1682
-527.319 -260.353 1682
-523.297 -260.353 1682
-519.584 -260.508 1683
-515.559 -260.508 1683
-511.535 -260.508 1683
-506.605 -260.044 1680
-502.588 -260.044 1680
-497.977 -259.734 1678
-493.965 -259.734 1678
-489.952 -259.734 1678
-485.939 -259.734 1678
-481.927 -259.734 1678
-477.914 -259.734 1678
-473.901 -259.734 1678
-469.609 -259.58 1677
-465.599 -259.58 1677
-461.588 -259.58 1677
-457.032 -259.27 1675
-452.486 -258.96 1673
-447.681 -258.496 1670
-443.688 -258.496 1670
-438.904 -258.032 1667
-434.396 -257.722 1665
-428.605 -256.639 1658
-424.64 -256.639 1658
-420.422 -256.484 1657
-414.7 -255.4 1650
-408.763 -254.162 1642
-404.837 -254.162 1642
-400.178 -253.698 1639
-393.841 -252.15 1629
-388.03 -250.911 1621
-383.443 -250.447 1618
-379.574 -250.447 1618
-374.311 -249.518 1612
-369.078 -248.59 1606
-363.645 -247.506 1599
-359.822 -247.506 1599
-355.33 -247.042 1596
-350.633 -246.423 1592
-345.518 -245.494 1586
-341.726 -245.494 1586
-336.655 -244.565 1580
-331.823 -243.791 1575
-326.807 -242.862 1569
-323.055 -242.862 1569
-318.693 -242.398 1566
-314.948 -242.398 1566
-311.601 -242.708 1568
-307.851 -242.708 1568
-304.101 -242.708 1568
-300.352 -242.708 1568
-296.791 -242.862 1569
-293.413 -243.172 1571
-289.841 -243.327 1572
-286.082 -243.327 1572
-282.322 -243.327 1572
-279.095 -243.791 1575
-275.678 -244.101 1577
-271.907 -244.101 1577
-268.306 -244.256 1578
-265.035 -244.72 1581
-261.751 -245.184 1584
-257.963 -245.184 1584
-254.977 -245.958 1589
-251.652 -246.423 1592
-248.467 -247.042 1596
-244.651 -247.042 1596
-241.136 -247.351 1598
-238.057 -248.125 1603
-234.37 -248.28 1604
-230.535 -248.28 1604
-227.406 -249.054 1609
-224.114 -249.673 1613
-220.803 -250.292 1617
-216.936 -250.292 1617
-213.596 -250.911 1621
-210.626 -251.995 1628
-207.749 -253.233 1636
-203.836 -253.233 1636
-200.902 -254.472 1644
-197.33 -254.936 1647
-194.566 -256.484 1657
-190.603 -256.484 1657
-187.767 -258.032 1667
-184.663 -259.27 1675
-180.873 -259.58 1677
-176.863 -259.58 1677
-174.09 -261.437 1689
-170.152 -261.592 1690
-166.503 -262.211 1694
-162.453 -262.211 1694
-158.869 -262.985 1699
-155.444 -264.068 1706
-151.808 -264.842 1711
-147.717 -264.842 1711
-143.793 -265.152 1713
-140.105 -265.926 1718
-136.155 -266.235 1720
-132.042 -266.235 1720
-128.821 -268.093 1732
-125.327 -269.486 1741
-121.721 -270.724 1749
-117.538 -270.724 1749
-113.55 -271.189 1752
-109.361 -271.189 1752
-105.171 -271.189 1752
-204.329 -626.737 4049
-194.646 -626.737 4049
-184.964 -626.737 4049
-175.282 -626.737 4049
-165.599 -626.737 4049
-154.8 -622.248 4020
-145.187 -622.248 4020
-134.293 -616.366 3982
-125.366 -619.307 4001
-116.348 -622.248 4020
-107.001 -623.796 4030
-97.3636 -623.796 4030
-87.7266 -623.796 4030
-78.0897 -623.796 4030
-68.4527 -623.796 4030
-58.8158 -623.796 4030
-49.0568 -622.248 4020
-39.2573 -619.307 4001
-29.6897 -619.307 4001
-20.0718 -617.759 3991
-10.4543 -613.425 3963
-0.963707 -604.757 3907
8.37912 -604.757 3907
17.5586 -599.185 3871
26.6283 -595.005 3844
35.8205 -595.005 3844
45.3288 -599.185 3871
56.0098 -614.818 3972
65.508 -614.818 3972
75.0063 -614.818 3972
84.5046 -614.818 3972
94.0028 -614.818 3972
103.267 -613.425 3963
266.239 -617.759 3991
275.783 -617.759 3991
285.326 -617.759 3991
294.87 -617.759 3991
304.414 -617.759 3991
313.957 -617.759 3991
323.501 -617.759 3991
332.294 -616.366 3982
330.742 -596.398 3853
339.956 -596.398 3853
345.998 -590.981 3818
355.128 -590.981 3818
361.778 -586.956 3792
368.303 -582.932 3766
375.605 -580.3 3749
386.314 -582.932 3766
395.32 -582.932 3766
404.325 -582.932 3766
413.331 -582.932 3766
422.337 -582.932 3766
430.311 -581.539 3757
438.36 -580.3 3749
445.297 -577.669 3732
454.221 -577.669 3732
464.138 -578.907 3740
473.082 -578.907 3740
484.216 -581.539 3757
494.382 -582.932 3766
505.66 -585.563 3783
514.706 -585.563 3783
524.998 -586.956 3792
536.46 -589.588 3809
548.004 -592.219 3826
557.153 -592.219 3826
566.302 -592.219 3826
1704.75 -623.796 4030
1714.38 -623.796 4030
1724.02 -623.796 4030
1721.18 -619.307 4001
1730.75 -619.307 4001
1732.05 -616.366 3982
1741.57 -616.366 3982
1746.7 -614.818 3972
1756.2 -614.818 3972
1753.25 -610.484 3944
1762.68 -610.484 3944
1784.69 -614.818 3972
1794.19 -614.818 3972
1803.69 -614.818 3972
1813.19 -614.818 3972
1827.27 -616.366 3982
1836.8 -616.366 3982
1846.32 -616.366 3982
1855.84 -616.366 3982
1843.35 -609.091 3935
1856.99 -610.484 3944
1866.42 -610.484 3944
1875.86 -610.484 3944
1885.29 -610.484 3944
1894.72 -610.484 3944
1904.15 -610.484 3944
2971.49 -626.737 4049
2995.9 -629.833 4069
3005.63 -629.833 4069
3015.36 -629.833 4069
3025.09 -629.833 4069
3034.82 -629.833 4069
3044.55 -629.833 4069
3039.27 -626.737 4049
3041.42 -625.189 4039
3051.08 -625.189 4039
3060.74 -625.189 4039
3070.4 -625.189 4039
3087.68 -626.737 4049
3097.36 -626.737 4049
-2378.84 -561.262 3683
-2370.04 -561.262 3683
-2361.23 -561.262 3683
-2352.42 -561.262 3683
-2317.53 -555.014 3642
-2294.24 -551.509 3619
-2285.58 -551.509 3619
-2271.89 -550.289 3611
-2258.25 -549.07 3603
-1215.93 -509.448 3343
-1207.94 -509.448 3343
-1199.94 -509.448 3343
-1191.95 -509.448 3343
-1176.87 -506.4 3323
-1161.89 -503.353 3303
-1163.43 -507.467 3330
-1155.46 -507.467 3330
-1147.5 -507.467 3330
-1139.54 -507.467 3330
-1145.17 -513.563 3370
-1137.11 -513.563 3370
-1129.05 -513.563 3370
-1116.67 -511.582 3357
-1108.64 -511.582 3357
-1100.61 -511.582 3357
-1062.64 -497.562 3265
-538.745 -256.019 1680
-534.727 -256.019 1680
-530.71 -256.019 1680
-525.752 -255.562 1677
-521.742 -255.562 1677
-518.658 -256.019 1680
-514.64 -256.019 1680
-510.623 -256.019 1680
-506.605 -256.019 1680
-502.588 -256.019 1680
-498.571 -256.019 1680
-494.553 -256.019 1680
-490.536 -256.019 1680
-485.939 -255.715 1678
-481.927 -255.715 1678
-477.914 -255.715 1678
-473.901 -255.715 1678
-469.889 -255.715 1678
-465.599 -255.562 1677
-461.588 -255.562 1677
-457.578 -255.562 1677
-453.027 -255.257 1675
-447.145 -254.191 1668
-443.156 -254.191 1668
-438.904 -254.038 1667
-433.875 -253.429 1663
-428.605 -252.667 1658
-424.64 -252.667 1658
-419.407 -251.905 1653
-414.7 -251.448 1650
-408.763 -250.229 1642
-404.837 -250.229 1642
-399.689 -249.467 1637
-393.841 -248.247 1629
-388.03 -247.028 1621
-382.258 -245.809 1613
-378.401 -245.809 1613
-373.847 -245.352 1610
-369.078 -244.742 1606
-362.963 -243.218 1596
-359.147 -243.218 1596
-354.662 -242.761 1593
-349.972 -242.152 1589
-344.429 -240.933 1581
-340.648 -240.933 1581
-336.016 -240.323 1577
-331.612 -239.866 1574
-326.599 -238.951 1568
-322.849 -238.951 1568
-318.693 -238.647 1566
-314.948 -238.647 1566
-311.601 -238.951 1568
-307.851 -238.951 1568
-304.295 -239.104 1569
-300.543 -239.104 1569
-296.791 -239.104 1569
-293.413 -239.409 1571
-289.841 -239.561 1572
-286.082 -239.561 1572
-282.682 -239.866 1574
-279.095 -240.018 1575
-275.853 -240.475 1578
-272.08 -240.475 1578
-268.306 -240.475 1578
-265.371 -241.237 1583
-262.081 -241.695 1586
-258.288 -241.695 1586
-254.977 -242.152 1589
-251.81 -242.761 1593
-248.467 -243.218 1596
-244.651 -243.218 1596
-241.136 -243.523 1598
-238.057 -244.285 1603
-234.37 -244.438 1604
-230.535 -244.438 1604
-227.547 -245.352 1610
-224.114 -245.809 1613
-220.803 -246.419 1617
-216.936 -246.419 1617
-213.596 -247.028 1621
-210.626 -248.095 1628
-207.749 -249.314 1636
-203.836 -249.314 1636
-200.902 -250.533 1644
-197.33 -250.991 1647
-194.566 -252.514 1657
-190.603 -252.514 1657
-187.767 -254.038 1667
-184.884 -255.562 1677
-180.981 -255.715 1678
-176.969 -255.715 1678
-174.09 -257.391 1689
-170.554 -258.153 1694
-166.798 -258.61 1697
-162.74 -258.61 1697
-159.337 -259.677 1704
-155.718 -260.439 1709
-152.163 -261.353 1715
-148.062 -261.353 1715
-144.045 -261.506 1716
-140.105 -261.81 1718
-136.313 -262.42 1722
-132.195 -262.42 1722
-128.747 -263.791 1731
-125.111 -264.858 1738
-121.303 -265.62 1743
-117.135 -265.62 1743
-113.097 -265.925 1745
-108.924 -265.925 1745
-104.751 -265.925 1745
-100.578 -265.925 1745
-204.329 -617.037 4049
-194.646 -617.037 4049
-184.964 -617.037 4049
-175.282 -617.037 4049
-165.599 -617.037 4049
-154.8 -612.618 4020
-145.187 -612.618 4020
-134.293 -606.827 3982
-125.366 -609.723 4001
-116.348 -612.618 4020
-107.001 -614.142 4030
-97.3636 -614.142 4030
-87.7266 -614.142 4030
-78.0897 -614.142 4030
-68.4527 -614.142 4030
-58.8158 -614.142 4030
-49.0568 -612.618 4020
-39.2573 -609.723 4001
-29.6897 -609.723 4001
-20.0718 -608.199 3991
-10.4543 -603.932 3963
-0.968146 -598.141 3925
8.41772 -598.141 3925
17.5586 -589.911 3871
26.753 -588.54 3862
35.8205 -585.797 3844
45.3288 -589.911 3871
56.0098 -605.303 3972
65.508 -605.303 3972
75.0063 -605.303 3972
84.5046 -605.303 3972
94.0028 -605.303 3972
103.267 -603.932 3963
110.126 -589.911 3871
265.639 -606.827 3982
275.161 -606.827 3982
284.683 -606.827 3982
294.205 -606.827 3982
303.727 -606.827 3982
312.463 -605.303 3972
321.961 -605.303 3972
327.537 -598.141 3925
326.966 -580.463 3809
336.074 -580.463 3809
345.182 -580.463 3809
354.291 -580.463 3809
360.919 -576.501 3783
368.303 -573.91 3766
375.605 -571.32 3749
384.57 -571.32 3749
393.535 -571.32 3749
402.5 -571.32 3749
411.465 -571.32 3749
420.43 -571.32 3749
429.395 -571.32 3749
436.372 -568.729 3732
443.388 -566.291 3716
452.274 -566.291 3716
463.145 -568.729 3732
472.07 -568.729 3732
482.025 -569.948 3740
493.2 -572.539 3757
505.66 -576.501 3783
514.706 -576.501 3783
524.998 -577.872 3792
534.066 -577.872 3792
543.134 -577.872 3792
552.202 -577.872 3792
561.27 -577.872 3792
1704.75 -614.142 4030
1714.38 -614.142 4030
1724.02 -614.142 4030
1729.36 -612.618 4020
1738.97 -612.618 4020
1735.97 -608.199 3991
1741.57 -606.827 3982
1746.7 -605.303 3972
1756.2 -605.303 3972
1753.25 -601.036 3944
1762.68 -601.036 3944
1784.69 -605.303 3972
1794.19 -605.303 3972
1803.69 -605.303 3972
1813.19 -605.303 3972
1827.27 -606.827 3982
1836.8 -606.827 3982
1846.32 -606.827 3982
1855.84 -606.827 3982
1851.78 -602.408 3953
1861.23 -602.408 3953
1870.68 -602.408 3953
1880.14 -602.408 3953
1889.59 -602.408 3953
1881.27 -596.769 3916
1890.63 -596.769 3916
2971.49 -617.037 4049
2995.9 -620.085 4069
3005.63 -620.085 4069
3015.36 -620.085 4069
3025.09 -620.085 4069
3034.82 -620.085 4069
3044.55 -620.085 4069
3039.27 -617.037 4049
3041.42 -615.513 4039
3051.08 -615.513 4039
3060.74 -615.513 4039
3070.4 -615.513 4039
3087.68 -617.037 4049
3097.36 -617.037 4049
-2452.48 -567.439 3783
-2443.43 -567.439 3783
-2434.39 -567.439 3783
-2414.44 -564.889 3766
-2362.64 -554.839 3699
-2338.52 -551.239 3675
-2313.89 -547.489 3650
-2305.16 -547.489 3650
-2276.93 -542.839 3619
-2258.25 -540.439 3603
-1215.93 -501.44 3343
-1207.94 -501.44 3343
-1199.94 -501.44 3343
-1191.95 -501.44 3343
-1176.87 -498.44 3323
-1161.89 -495.44 3303
-1163.43 -499.49 3330
-1155.46 -499.49 3330
-1147.5 -499.49 3330
-1139.54 -499.49 3330
-1145.17 -505.49 3370
-1137.11 -505.49 3370
-1129.05 -505.49 3370
-1116.67 -503.54 3357
-1108.64 -503.54 3357
-1100.61 -503.54 3357
-1062.64 -489.74 3265
-538.745 -251.995 1680
-534.727 -251.995 1680
-530.71 -251.995 1680
-526.065 -251.695 1678
-521.742 -251.545 1677
-518.658 -251.995 1680
-514.64 -251.995 1680
-510.623 -251.995 1680
-506.605 -251.995 1680
-502.588 -251.995 1680
-498.571 -251.995 1680
-494.553 -251.995 1680
-490.536 -251.995 1680
-486.518 -251.995 1680
-482.501 -251.995 1680
-478.484 -251.995 1680
-473.901 -251.695 1678
-469.889 -251.695 1678
-465.876 -251.695 1678
-461.864 -251.695 1678
-457.578 -251.545 1677
-453.027 -251.245 1675
-447.681 -250.495 1670
-443.688 -250.495 1670
-438.904 -250.045 1667
-433.875 -249.445 1663
-428.605 -248.695 1658
-424.64 -248.695 1658
-419.407 -247.945 1653
-414.7 -247.495 1650
-408.763 -246.295 1642
-404.837 -246.295 1642
-399.689 -245.545 1637
-393.841 -244.345 1629
-388.03 -243.145 1621
-382.258 -241.945 1613
-378.401 -241.945 1613
-373.847 -241.495 1610
-369.078 -240.895 1606
-362.963 -239.395 1596
-359.147 -239.395 1596
-354.662 -238.945 1593
-349.972 -238.345 1589
-344.429 -237.145 1581
-340.648 -237.145 1581
-336.016 -236.545 1577
-331.612 -236.095 1574
-326.599 -235.195 1568
-322.849 -235.195 1568
-318.693 -234.895 1566
-314.948 -234.895 1566
-311.601 -235.195 1568
-307.851 -235.195 1568
-304.295 -235.345 1569
-300.543 -235.345 1569
-297.17 -235.645 1571
-293.413 -235.645 1571
-289.841 -235.795 1572
-286.082 -235.795 1572
-282.682 -236.095 1574
-279.095 -236.245 1575
-275.853 -236.695 1578
-272.08 -236.695 1578
-268.306 -236.695 1578
-265.371 -237.445 1583
-262.081 -237.895 1586
-258.288 -237.895 1586
-255.138 -238.495 1590
-251.81 -238.945 1593
-248.779 -239.695 1598
-244.958 -239.695 1598
-241.589 -240.145 1601
-238.057 -240.445 1603
-234.663 -240.895 1606
-230.822 -240.895 1606
-227.547 -241.495 1610
-224.114 -241.945 1613
-220.803 -242.545 1617
-216.936 -242.545 1617
-213.596 -243.145 1621
-210.626 -244.195 1628
-207.749 -245.395 1636
-203.836 -245.395 1636
-200.902 -246.595 1644
-197.33 -247.045 1647
-194.918 -248.995 1660
-190.948 -248.995 1660
-187.767 -250.045 1667
-184.884 -251.545 1677
-180.981 -251.695 1678
-176.969 -251.695 1678
-174.399 -253.795 1692
-170.655 -254.245 1695
-167.191 -255.145 1701
-163.124 -255.145 1701
-159.711 -256.195 1708
-156.082 -256.945 1713
-152.163 -257.245 1715
-148.062 -257.245 1715
-144.213 -257.695 1718
-140.268 -257.995 1720
-136.392 -258.445 1723
-132.272 -258.445 1723
-128.821 -259.795 1732
-125.255 -260.995 1740
-121.442 -261.745 1745
-117.269 -261.745 1745
-113.55 -262.795 1752
-110.672 -265.945 1773
-106.432 -265.945 1773
-102.192 -265.945 1773
-204.329 -607.338 4049
-194.646 -607.338 4049
-184.964 -607.338 4049
-175.282 -607.338 4049
-165.599 -607.338 4049
-154.8 -602.988 4020
-145.187 -602.988 4020
-134.293 -597.288 3982
-125.648 -601.488 4010
-116.348 -602.988 4020
-107.001 -604.488 4030
-97.3636 -604.488 4030
-87.7266 -604.488 4030
-78.0897 -604.488 4030
-68.4527 -604.488 4030
-58.8158 -604.488 4030
-49.0568 -602.988 4020
-39.2573 -600.138 4001
-29.6897 -600.138 4001
-20.0718 -598.638 3991
-10.4543 -594.438 3963
-0.968146 -588.738 3925
8.41772 -588.738 3925
17.6403 -583.338 3889
26.8154 -580.638 3871
35.9044 -577.939 3853
45.3288 -580.638 3871
56.0098 -595.788 3972
65.508 -595.788 3972
75.0063 -595.788 3972
84.5046 -595.788 3972
94.0028 -595.788 3972
103.267 -594.438 3963
110.126 -580.638 3871
117.995 -573.889 3826
127.144 -573.889 3826
136.293 -573.889 3826
143.808 -567.439 3783
152.854 -567.439 3783
161.9 -567.439 3783
265.639 -597.288 3982
275.161 -597.288 3982
284.683 -597.288 3982
294.205 -597.288 3982
303.727 -597.288 3982
312.463 -595.788 3972
321.961 -595.788 3972
327.537 -588.738 3925
326.966 -571.339 3809
336.074 -571.339 3809
345.182 -571.339 3809
354.291 -571.339 3809
360.919 -567.439 3783
368.303 -564.889 3766
375.605 -562.339 3749
384.57 -562.339 3749
393.535 -562.339 3749
402.5 -562.339 3749
411.465 -562.339 3749
420.43 -562.339 3749
429.395 -562.339 3749
436.372 -559.789 3732
443.388 -557.389 3716
452.274 -557.389 3716
463.145 -559.789 3732
472.07 -559.789 3732
482.025 -560.989 3740
493.2 -563.539 3757
505.66 -567.439 3783
514.706 -567.439 3783
524.998 -568.789 3792
534.066 -568.789 3792
543.134 -568.789 3792
552.202 -568.789 3792
561.27 -568.789 3792
1704.75 -604.488 4030
1714.38 -604.488 4030
1724.02 -604.488 4030
1729.36 -602.988 4020
1738.97 -602.988 4020
1735.97 -598.638 3991
1741.57 -597.288 3982
1746.7 -595.788 3972
1756.2 -595.788 3972
1753.25 -591.588 3944
1762.68 -591.588 3944
1784.69 -595.788 3972
1794.19 -595.788 3972
1803.69 -595.788 3972
1813.19 -595.788 3972
1827.27 -597.288 3982
1836.8 -597.288 3982
1846.32 -597.288 3982
1855.84 -597.288 3982
1851.78 -592.938 3953
1861.23 -592.938 3953
1879.67 -595.788 3972
1889.17 -595.788 3972
1898.67 -595.788 3972
1881.27 -587.388 3916
1890.63 -587.388 3916
2971.49 -607.338 4049
2995.9 -610.338 4069
3005.63 -610.338 4069
3015.36 -610.338 4069
3025.09 -610.338 4069
3034.82 -610.338 4069
3029.59 -607.338 4049
3025.01 -604.488 4030
3034.65 -604.488 4030
3044.28 -604.488 4030
3046.34 -602.988 4020
3055.95 -602.988 4020
3073.19 -604.488 4030
3082.83 -604.488 4030
-2452.48 -558.377 3783
-2443.43 -558.377 3783
-2434.39 -558.377 3783
-2414.44 -555.867 3766
-2362.64 -545.978 3699
-2338.52 -542.436 3675
-2313.89 -538.746 3650
-2305.16 -538.746 3650
-2276.93 -534.17 3619
-2258.25 -531.808 3603
-1215.93 -493.432 3343
-1207.94 -493.432 3343
-1199.94 -493.432 3343
-1191.95 -493.432 3343
-1176.87 -490.48 3323
-1161.89 -487.528 3303
-1163.43 -491.513 3330
-1155.46 -491.513 3330
-1147.5 -491.513 3330
-1139.54 -491.513 3330
-1131.57 -491.513 3330
-1114.5 -487.528 3303
-1095.88 -482.805 3271
-1088.06 -482.805 3271
-1080.24 -482.805 3271
-1066.19 -480 3252
-1058.41 -480 3252
-538.745 -247.971 1680
-534.727 -247.971 1680
-530.71 -247.971 1680
-526.065 -247.675 1678
-521.742 -247.528 1677
-518.658 -247.971 1680
-514.64 -247.971 1680
-510.623 -247.971 1680
-506.605 -247.971 1680
-502.588 -247.971 1680
-498.571 -247.971 1680
-494.553 -247.971 1680
-490.536 -247.971 1680
-486.518 -247.971 1680
-482.501 -247.971 1680
-478.484 -247.971 1680
-473.901 -247.675 1678
-469.889 -247.675 1678
-465.876 -247.675 1678
-461.864 -247.675 1678
-457.578 -247.528 1677
-453.027 -247.233 1675
-447.681 -246.495 1670
-443.688 -246.495 1670
-438.378 -245.757 1665
-433.614 -245.314 1662
-428.347 -244.576 1657
-424.384 -244.576 1657
-419.153 -243.838 1652
-413.444 -242.805 1645
-408.016 -241.919 1639
-404.097 -241.919 1639
-398.468 -240.886 1632
-392.39 -239.557 1623
-387.312 -238.819 1618
-382.021 -237.934 1612
-378.166 -237.934 1612
-372.918 -237.048 1606
-367.929 -236.31 1601
-362.281 -235.129 1593
-358.471 -235.129 1593
-353.772 -234.539 1589
-349.531 -234.244 1587
-344.211 -233.21 1580
-340.433 -233.21 1580
-335.589 -232.472 1575
-331.191 -232.03 1572
-326.182 -231.144 1566
-322.437 -231.144 1566
-318.693 -231.144 1566
-314.948 -231.144 1566
-311.601 -231.439 1568
-307.851 -231.439 1568
-304.295 -231.587 1569
-300.543 -231.587 1569
-297.17 -231.882 1571
-293.413 -231.882 1571
-289.841 -232.03 1572
-286.082 -232.03 1572
-282.682 -232.325 1574
-279.095 -232.472 1575
-275.853 -232.915 1578
-272.08 -232.915 1578
-268.306 -232.915 1578
-265.371 -233.653 1583
-262.081 -234.096 1586
-258.288 -234.096 1586
-255.138 -234.686 1590
-251.81 -235.129 1593
-248.779 -235.867 1598
-244.958 -235.867 1598
-241.589 -236.31 1601
-238.057 -236.605 1603
-234.663 -237.048 1606
-230.822 -237.048 1606
-227.547 -237.638 1610
-224.114 -238.081 1613
-220.803 -238.672 1617
-216.936 -238.672 1617
-213.596 -239.262 1621
-210.626 -240.295 1628
-207.749 -241.476 1636
-203.836 -241.476 1636
-200.658 -242.362 1642
-197.33 -243.1 1647
-194.918 -245.019 1660
-190.948 -245.019 1660
-187.767 -246.052 1667
-184.884 -247.528 1677
-180.981 -247.675 1678
-176.969 -247.675 1678
-174.399 -249.742 1692
-170.655 -250.185 1695
-167.191 -251.07 1701
-163.124 -251.07 1701
-159.711 -252.103 1708
-156.082 -252.841 1713
-152.163 -253.137 1715
-148.062 -253.137 1715
-144.213 -253.579 1718
-140.268 -253.875 1720
-136.392 -254.317 1723
-132.272 -254.317 1723
-128.821 -255.646 1732
-125.255 -256.827 1740
-121.442 -257.565 1745
-117.269 -257.565 1745
-113.55 -258.598 1752
-110.672 -261.697 1773
-106.432 -261.697 1773
-102.192 -261.697 1773
-194.646 -597.639 4049
-184.964 -597.639 4049
-175.282 -597.639 4049
-165.599 -597.639 4049
-154.8 -593.358 4020
-145.187 -593.358 4020
-134.293 -587.749 3982
-125.648 -591.882 4010
-116.348 -593.358 4020
-107.001 -594.834 4030
-97.3636 -594.834 4030
-87.7266 -594.834 4030
-78.0897 -594.834 4030
-68.4527 -594.834 4030
-58.8158 -594.834 4030
-48.9347 -591.882 4010
-39.2573 -590.554 4001
-29.6897 -590.554 4001
-19.9763 -586.273 3972
-10.4543 -584.945 3963
-0.968146 -579.336 3925
8.41772 -579.336 3925
17.6403 -574.022 3889
26.8154 -571.365 3871
35.9044 -568.709 3853
45.3288 -571.365 3871
55.7419 -583.469 3953
65.1947 -583.469 3953
74.6475 -583.469 3953
84.1003 -583.469 3953
93.5532 -583.469 3953
102.771 -582.14 3944
110.126 -571.365 3871
117.995 -564.723 3826
127.144 -564.723 3826
136.293 -564.723 3826
143.808 -558.377 3783
152.854 -558.377 3783
161.9 -558.377 3783
264.971 -586.273 3972
274.47 -586.273 3972
283.968 -586.273 3972
289.994 -579.336 3925
299.38 -579.336 3925
308.057 -578.008 3916
317.422 -578.008 3916
326.786 -578.008 3916
326.193 -560.886 3800
335.28 -560.886 3800
343.642 -559.705 3792
352.71 -559.705 3792
360.06 -557.048 3774
367.422 -554.539 3757
374.703 -552.03 3740
383.647 -552.03 3740
392.59 -552.03 3740
401.534 -552.03 3740
410.477 -552.03 3740
419.421 -552.03 3740
425.615 -548.487 3716
433.449 -547.159 3707
441.359 -545.978 3699
450.205 -545.978 3699
458.057 -544.797 3691
466.883 -544.797 3691
477.772 -547.159 3707
487.818 -548.487 3716
497.773 -549.668 3724
506.679 -549.668 3724
523.752 -558.377 3783
534.066 -559.705 3792
543.134 -559.705 3792
552.202 -559.705 3792
561.27 -559.705 3792
1704.75 -594.834 4030
1714.38 -594.834 4030
1724.02 -594.834 4030
1729.36 -593.358 4020
1738.97 -593.358 4020
1735.97 -589.078 3991
1741.57 -587.749 3982
1746.7 -586.273 3972
1756.2 -586.273 3972
1749.25 -580.812 3935
1762.68 -582.14 3944
1780.65 -584.945 3963
1794.19 -586.273 3972
1803.69 -586.273 3972
1813.19 -586.273 3972
1827.27 -587.749 3982
1836.8 -587.749 3982
