ply
format ascii 1.0
comment File generated
element vertex 2134
property float x
property float y
property float z
end_header
369.452 -985.902 3972
374.466 -974.236 3925
382.092 -969.768 3907
391.435 -969.768 3907
400.778 -969.768 3907
410.12 -969.768 3907
420.43 -972.002 3916
429.794 -972.002 3916
439.158 -972.002 3916
447.492 -969.768 3907
454.73 -965.3 3889
461.882 -960.832 3871
471.139 -960.832 3871
480.395 -960.832 3871
489.652 -960.832 3871
498.909 -960.832 3871
510.529 -965.3 3889
522.234 -969.768 3907
531.577 -969.768 3907
540.92 -969.768 3907
550.263 -969.768 3907
559.606 -969.768 3907
568.948 -969.768 3907
1703.49 -988.384 3982
1713.01 -988.384 3982
1722.53 -988.384 3982
1715.52 -978.952 3944
1712.71 -972.002 3916
1710.2 -965.3 3889
1723.48 -967.534 3898
1732.8 -967.534 3898
1754.19 -974.236 3925
1763.57 -974.236 3925
1772.96 -974.236 3925
1782.35 -974.236 3925
1791.73 -974.236 3925
1796.99 -972.002 3916
1806.35 -972.002 3916
1815.72 -972.002 3916
1812.5 -965.3 3889
1813.37 -960.832 3871
1781.19 -938.989 3783
1790.23 -938.989 3783
1767.41 -922.359 3716
1729.93 -898.282 3619
3017.66 -1007.5 4059
3027.36 -1007.5 4059
3037.07 -1007.5 4059
3046.78 -1007.5 4059
3056.48 -1007.5 4059
3073.74 -1009.98 4069
3083.47 -1009.98 4069
3093.2 -1009.98 4069
3087.68 -1005.01 4049
3097.36 -1005.01 4049
-2430.5 -876.339 3565
-2442.36 -883.714 3595
-2433.76 -883.714 3595
-2425.17 -883.714 3595
-2416.57 -883.714 3595
-2407.97 -883.714 3595
-2399.38 -883.714 3595
-2386.12 -881.993 3588
-2377.54 -881.993 3588
-2368.96 -881.993 3588
-2355.12 -880.026 3580
-2346.56 -880.026 3580
-2328.2 -876.339 3565
-2324.23 -878.06 3572
-2315.69 -878.06 3572
-2312.32 -880.026 3580
-2308.9 -881.993 3588
-2300.32 -881.993 3588
-2291.74 -881.993 3588
-2283.16 -881.993 3588
-2274.58 -881.993 3588
-2266 -881.993 3588
-2247.36 -878.06 3572
-2206.22 -865.277 3520
-497.68 -412.236 1677
-493.67 -412.236 1677
-489.66 -412.236 1677
-485.071 -411.744 1675
-480.203 -411.007 1672
-476.205 -411.007 1672
-471.642 -410.515 1670
-465.688 -408.794 1663
-460.879 -408.057 1660
-456.909 -408.057 1660
-452.94 -408.057 1660
-448.97 -408.057 1660
-445.001 -408.057 1660
-441.031 -408.057 1660
-435.218 -406.336 1653
-429.961 -405.107 1648
-425.245 -404.37 1645
-421.311 -404.37 1645
-416.109 -403.141 1640
-410.679 -401.666 1634
-406.025 -400.928 1631
-401.631 -400.437 1629
-397.736 -400.437 1629
-393.115 -399.699 1626
-387.791 -398.224 1620
-382.732 -396.995 1615
-378.87 -396.995 1615
-373.847 -395.766 1610
-369.307 -395.029 1607
-364.555 -394.045 1603
-360.722 -394.045 1603
-355.775 -392.816 1598
-351.293 -392.079 1595
-346.826 -391.341 1592
-343.019 -391.341 1592
-337.933 -389.866 1586
-333.087 -388.637 1581
-329.307 -388.637 1581
-325.526 -388.637 1581
-321.542 -388.391 1580
-317.16 -387.654 1577
-312.793 -386.917 1574
-308.44 -386.179 1571
-304.683 -386.179 1571
-300.352 -385.442 1568
-296.035 -384.704 1565
-292.106 -384.458 1564
-288.366 -384.458 1564
-284.626 -384.458 1564
-280.886 -384.458 1564
-277.323 -384.704 1565
-274.28 -385.687 1569
-270.528 -385.687 1569
-267.116 -386.179 1571
-263.359 -386.179 1571
-260.098 -386.917 1574
-256.334 -386.917 1574
-253.052 -387.654 1577
-249.281 -387.654 1577
-245.665 -387.9 1578
-241.892 -387.9 1578
-238.571 -388.637 1581
-235.087 -389.129 1583
-232.179 -390.604 1589
-228.379 -390.604 1589
-225.003 -391.341 1592
-221.752 -392.325 1596
-218.208 -392.816 1598
-214.387 -392.816 1598
-211.225 -394.045 1603
-207.78 -394.783 1606
-204.701 -396.258 1612
-200.846 -396.258 1612
-197.602 -397.487 1617
-194.455 -398.962 1623
-191.278 -400.437 1629
-187.383 -400.437 1629
-184.276 -402.157 1636
-180.804 -403.141 1640
-177.961 -405.599 1650
-174.016 -405.599 1650
-170.585 -406.828 1655
-167.131 -408.057 1660
-163.456 -408.794 1663
-159.48 -408.794 1663
-155.97 -410.023 1668
-152.437 -411.252 1673
-148.792 -412.236 1677
-144.781 -412.236 1677
-141.778 -415.186 1689
-137.984 -415.923 1692
-133.938 -415.923 1692
-129.892 -415.923 1692
-227.091 -929.927 3783
-219.024 -934.106 3800
-210.932 -938.531 3818
-201.802 -938.531 3818
-193.53 -942.71 3835
-185.224 -947.134 3853
-177.244 -953.771 3880
-167.966 -953.771 3880
-158.687 -953.771 3880
-149.409 -953.771 3880
-140.131 -953.771 3880
-129.942 -947.134 3853
-120.446 -944.922 3844
-111.254 -944.922 3844
-102.062 -944.922 3844
-92.2417 -938.531 3818
-84.0695 -949.347 3862
-76.4232 -969.504 3944
-67.4675 -976.387 3972
-57.9693 -976.387 3972
-48.471 -976.387 3972
-38.9728 -976.387 3972
-29.4745 -976.387 3972
-19.9763 -976.387 3972
-10.4279 -971.716 3953
-0.970613 -967.291 3935
8.43916 -967.291 3935
17.7628 -962.621 3916
27.1271 -962.621 3916
36.4914 -962.621 3916
331.445 -1005.15 4089
341.223 -1005.15 4089
351.001 -1005.15 4089
353.014 -983.515 4001
359.954 -976.387 3972
369.452 -976.387 3972
374.466 -964.833 3925
382.092 -960.409 3907
391.435 -960.409 3907
400.778 -960.409 3907
410.12 -960.409 3907
420.43 -962.621 3916
429.794 -962.621 3916
439.158 -962.621 3916
447.492 -960.409 3907
454.73 -955.984 3889
461.882 -951.559 3871
471.139 -951.559 3871
480.395 -951.559 3871
487.375 -947.134 3853
498.909 -951.559 3871
508.166 -951.559 3871
521.031 -958.196 3898
530.353 -958.196 3898
540.92 -960.409 3907
550.263 -960.409 3907
559.606 -960.409 3907
568.948 -960.409 3907
1707.34 -981.057 3991
1716.88 -981.057 3991
1726.42 -981.057 3991
1735.97 -981.057 3991
1716.65 -964.833 3925
1714.16 -958.196 3898
1731.44 -962.621 3916
1740.8 -962.621 3916
1775.19 -976.387 3972
1797.72 -983.515 4001
1807.29 -983.515 4001
1816.86 -983.515 4001
1821.86 -981.057 3991
1831.4 -981.057 3991
1840.95 -981.057 3991
1832.87 -971.716 3953
1825.08 -962.621 3916
1817.58 -953.771 3880
1785.43 -932.14 3792
1794.49 -932.14 3792
1767.41 -913.457 3716
1748.58 -899.2 3658
1738.59 -889.613 3619
1747.24 -889.613 3619
2988.66 -988.186 4020
2998.28 -988.186 4020
3007.89 -988.186 4020
3025.01 -990.644 4030
3034.65 -990.644 4030
3058.64 -995.315 4049
3068.32 -995.315 4049
3078 -995.315 4049
3065.57 -988.186 4020
3075.18 -988.186 4020
-2430.5 -867.799 3565
-2442.36 -875.102 3595
-2433.76 -875.102 3595
-2425.17 -875.102 3595
-2416.57 -875.102 3595
-2407.97 -875.102 3595
-2399.38 -875.102 3595
-2386.12 -873.398 3588
-2377.54 -873.398 3588
-2368.96 -873.398 3588
-2355.12 -871.45 3580
-2346.56 -871.45 3580
-2328.2 -867.799 3565
-2319.68 -867.799 3565
-2311.15 -867.799 3565
-2307.15 -869.503 3572
-2303.76 -871.45 3580
-2300.32 -873.398 3588
-2291.74 -873.398 3588
-2283.16 -873.398 3588
-2264.44 -869.503 3572
-2255.9 -869.503 3572
-2237.92 -865.852 3557
-2206.22 -856.845 3520
-498.571 -408.949 1680
-494.553 -408.949 1680
-490.536 -408.949 1680
-485.939 -408.462 1678
-481.065 -407.732 1675
-477.06 -407.732 1675
-471.642 -406.515 1670
-466.249 -405.297 1665
-461.712 -404.811 1663
-457.735 -404.811 1663
-452.94 -404.08 1660
-448.97 -404.08 1660
-445.001 -404.08 1660
-441.031 -404.08 1660
-435.218 -402.376 1653
-429.961 -401.159 1648
-425.245 -400.429 1645
-421.311 -400.429 1645
-415.855 -398.968 1639
-410.679 -397.751 1634
-406.025 -397.021 1631
-401.385 -396.291 1628
-397.492 -396.291 1628
-392.632 -395.317 1624
-387.312 -393.857 1618
-382.258 -392.639 1613
-378.401 -392.639 1613
-373.15 -391.179 1607
-369.078 -390.936 1606
-364.1 -389.718 1601
-360.272 -389.718 1601
-355.33 -388.501 1596
-351.293 -388.258 1595
-346.39 -387.041 1590
-342.588 -387.041 1590
-337.507 -385.58 1584
-333.087 -384.85 1581
-329.307 -384.85 1581
-325.526 -384.85 1581
-321.135 -384.12 1578
-317.16 -383.876 1577
-312.793 -383.146 1574
-308.047 -381.929 1569
-304.295 -381.929 1569
-299.969 -381.199 1566
-296.035 -380.955 1565
-292.106 -380.712 1564
-288.366 -380.712 1564
-284.626 -380.712 1564
-281.065 -380.955 1565
-277.5 -381.199 1566
-274.28 -381.929 1569
-270.528 -381.929 1569
-267.116 -382.416 1571
-263.359 -382.416 1571
-260.098 -383.146 1574
-256.334 -383.146 1574
-253.052 -383.876 1577
-249.281 -383.876 1577
-245.665 -384.12 1578
-241.892 -384.12 1578
-238.571 -384.85 1581
-234.79 -384.85 1581
-232.179 -386.797 1589
-228.379 -386.797 1589
-225.003 -387.528 1592
-221.752 -388.501 1596
-218.208 -388.988 1598
-214.387 -388.988 1598
-211.356 -390.449 1604
-207.909 -391.179 1607
-204.828 -392.639 1613
-200.971 -392.639 1613
-197.725 -393.857 1618
-194.455 -395.074 1623
-191.278 -396.534 1629
-187.383 -396.534 1629
-184.276 -398.238 1636
-181.025 -399.699 1642
-177.961 -401.646 1650
-174.016 -401.646 1650
-170.895 -403.593 1658
-167.433 -404.811 1663
-163.85 -405.784 1667
-159.863 -405.784 1667
-156.345 -407.001 1672
-152.62 -407.732 1675
-148.88 -408.462 1678
-144.868 -408.462 1678
-142.03 -411.87 1692
-137.984 -411.87 1692
-133.938 -411.87 1692
-129.892 -411.87 1692
-219.024 -925.003 3800
-210.932 -929.385 3818
-201.802 -929.385 3818
-193.53 -933.523 3835
-185.224 -937.904 3853
-177.244 -944.477 3880
-167.966 -944.477 3880
-158.687 -944.477 3880
-149.409 -944.477 3880
-140.131 -944.477 3880
-129.942 -937.904 3853
-120.164 -933.523 3835
-110.502 -929.385 3818
-101.372 -929.385 3818
-92.0243 -927.194 3809
-84.0695 -940.095 3862
-76.0551 -955.431 3925
-67.1448 -962.247 3953
-57.692 -962.247 3953
-48.2392 -962.247 3953
-38.7863 -962.247 3953
-29.3335 -962.247 3953
-19.8807 -962.247 3953
-10.4279 -962.247 3953
-0.970613 -957.865 3935
8.43916 -957.865 3935
17.7628 -953.24 3916
27.1271 -953.24 3916
36.4914 -953.24 3916
331.445 -995.352 4089
341.223 -995.352 4089
351.001 -995.352 4089
353.014 -973.931 4001
359.954 -966.872 3972
369.452 -966.872 3972
374.466 -955.431 3925
382.092 -951.049 3907
391.435 -951.049 3907
400.778 -951.049 3907
410.12 -951.049 3907
420.43 -953.24 3916
429.794 -953.24 3916
439.158 -953.24 3916
447.492 -951.049 3907
454.73 -946.668 3889
461.882 -942.286 3871
471.139 -942.286 3871
480.395 -942.286 3871
487.375 -937.904 3853
496.589 -937.904 3853
505.803 -937.904 3853
517.422 -942.286 3871
526.679 -942.286 3871
540.92 -951.049 3907
552.798 -955.431 3925
562.184 -955.431 3925
571.57 -955.431 3925
1707.34 -971.497 3991
1716.88 -971.497 3991
1726.42 -971.497 3991
1735.97 -971.497 3991
1724.95 -960.056 3944
1722.07 -953.24 3916
1756.2 -966.872 3972
1765.7 -966.872 3972
1783.69 -971.497 3991
1797.72 -973.931 4001
1807.29 -973.931 4001
1816.86 -973.931 4001
1821.86 -971.497 3991
1831.4 -971.497 3991
1840.95 -971.497 3991
1841.68 -966.872 3972
1838.13 -960.056 3944
1817.58 -944.477 3880
1785.43 -923.056 3792
1794.49 -923.056 3792
1771.22 -906.503 3724
1760.53 -896.523 3683
1738.59 -880.944 3619
1747.24 -880.944 3619
2974.54 -973.931 4001
2984.11 -973.931 4001
2993.67 -973.931 4001
3003.24 -973.931 4001
3027.12 -978.556 4020
3036.73 -978.556 4020
3046.34 -978.556 4020
3055.95 -978.556 4020
3051.08 -973.931 4001
3060.65 -973.931 4001
-2442.36 -866.49 3595
-2433.76 -866.49 3595
-2425.17 -866.49 3595
-2421.95 -868.418 3603
-2413.33 -868.418 3603
-2404.72 -868.418 3603
-2390.78 -866.49 3595
-2377.54 -864.803 3588
-2368.96 -864.803 3588
-2360.38 -864.803 3588
-2346.56 -862.874 3580
-2332.77 -860.946 3572
-2324.23 -860.946 3572
-2315.69 -860.946 3572
-2307.15 -860.946 3572
-2303.76 -862.874 3580
-2295.19 -862.874 3580
-2286.63 -862.874 3580
-2272.98 -860.946 3572
-2254.93 -857.331 3557
-2246.43 -857.331 3557
-2219.05 -850.1 3527
-2206.22 -848.413 3520
-503.486 -405.647 1683
-499.461 -405.647 1683
-495.436 -405.647 1683
-491.12 -405.406 1682
-486.518 -404.924 1680
-481.639 -404.201 1677
-477.629 -404.201 1677
-472.207 -402.996 1672
-467.089 -402.032 1668
-461.712 -400.827 1663
-457.735 -400.827 1663
-453.758 -400.827 1663
-449.781 -400.827 1663
-445.537 -400.586 1662
-441.562 -400.586 1662
-435.218 -398.417 1653
-430.483 -397.694 1650
-424.986 -396.247 1644
-421.055 -396.247 1644
-415.855 -395.042 1639
-410.679 -393.837 1634
-406.025 -393.114 1631
-401.385 -392.391 1628
-397.492 -392.391 1628
-392.632 -391.427 1624
-387.312 -389.981 1618
-382.258 -388.776 1613
-378.401 -388.776 1613
-373.15 -387.329 1607
-369.078 -387.088 1606
-364.1 -385.883 1601
-360.272 -385.883 1601
-355.33 -384.678 1596
-350.853 -383.955 1593
-346.39 -383.232 1590
-342.588 -383.232 1590
-337.507 -381.786 1584
-333.509 -381.545 1583
-329.307 -381.063 1581
-325.526 -381.063 1581
-321.135 -380.34 1578
-316.758 -379.617 1575
-312.793 -379.375 1574
-308.047 -378.17 1569
-304.295 -378.17 1569
-299.969 -377.447 1566
-296.035 -377.206 1565
-292.106 -376.965 1564
-288.366 -376.965 1564
-284.626 -376.965 1564
-281.065 -377.206 1565
-277.5 -377.447 1566
-274.28 -378.17 1569
-270.528 -378.17 1569
-267.116 -378.652 1571
-263.359 -378.652 1571
-259.768 -378.893 1572
-256.008 -378.893 1572
-252.731 -379.617 1575
-249.281 -380.099 1577
-245.665 -380.34 1578
-241.892 -380.34 1578
-238.571 -381.063 1581
-235.087 -381.545 1583
-232.179 -382.991 1589
-228.379 -382.991 1589
-225.003 -383.714 1592
-221.752 -384.678 1596
-218.345 -385.401 1599
-214.521 -385.401 1599
-211.62 -387.088 1606
-208.168 -387.811 1609
-204.828 -388.776 1613
-200.971 -388.776 1613
-197.969 -390.463 1620
-194.574 -391.427 1624
-191.513 -393.114 1631
-187.613 -393.114 1631
-184.388 -394.56 1637
-181.025 -395.765 1642
-177.961 -397.694 1650
-174.016 -397.694 1650
-170.895 -399.622 1658
-167.433 -400.827 1663
-163.85 -401.791 1667
-159.863 -401.791 1667
-156.345 -402.996 1672
-152.62 -403.719 1675
-148.88 -404.442 1678
-144.868 -404.442 1678
-142.03 -407.817 1692
-137.984 -407.817 1692
-133.938 -407.817 1692
-129.892 -407.817 1692
-209.495 -913.972 3792
-200.427 -913.972 3792
-191.763 -915.9 3800
-184.359 -924.336 3835
-176.011 -928.675 3853
-166.797 -928.675 3853
-157.583 -928.675 3853
-147.676 -924.336 3835
-138.506 -924.336 3835
-129.031 -922.167 3826
-119.068 -915.9 3800
-109.749 -913.972 3792
-100.681 -913.972 3792
-90.9854 -907.705 3766
-82.9158 -918.069 3809
-73.8073 -918.069 3809
-66.6692 -946.029 3925
-57.2833 -946.029 3925
-47.8975 -946.029 3925
-38.698 -950.608 3944
-29.2667 -950.608 3944
-19.8354 -950.608 3944
-10.3303 -943.859 3916
-0.963707 -941.69 3907
8.37912 -941.69 3907
17.7628 -943.859 3916
27.1271 -943.859 3916
36.4914 -943.859 3916
124.851 -905.536 3757
133.835 -905.536 3757
142.819 -905.536 3757
151.803 -905.536 3757
160.788 -905.536 3757
325.041 -966.516 4010
334.63 -966.516 4010
344.219 -966.516 4010
353.014 -964.346 4001
356.601 -948.439 3935
366.011 -948.439 3935
373.608 -943.859 3916
382.092 -941.69 3907
391.435 -941.69 3907
400.778 -941.69 3907
410.12 -941.69 3907
419.463 -941.69 3907
428.806 -941.69 3907
438.149 -941.69 3907
445.43 -937.352 3889
454.73 -937.352 3889
461.882 -933.013 3871
471.139 -933.013 3871
480.395 -933.013 3871
487.375 -928.675 3853
496.589 -928.675 3853
505.803 -928.675 3853
517.422 -933.013 3871
526.679 -933.013 3871
540.92 -941.69 3907
552.798 -946.029 3925
562.184 -946.029 3925
571.57 -946.029 3925
1704.75 -971.336 4030
1714.38 -971.336 4030
1724.02 -971.336 4030
1721.18 -964.346 4001
1730.75 -964.346 4001
1735.97 -961.936 3991
1728.89 -952.777 3953
1726.03 -946.029 3925
1756.2 -957.357 3972
1765.7 -957.357 3972
1783.69 -961.936 3991
1797.72 -964.346 4001
1807.29 -964.346 4001
1816.86 -964.346 4001
1821.86 -961.936 3991
1831.4 -961.936 3991
1840.95 -961.936 3991
1841.68 -957.357 3972
1838.13 -950.608 3944
1817.58 -935.182 3880
1785.43 -913.972 3792
1794.49 -913.972 3792
1771.22 -897.582 3724
1768.17 -891.557 3699
1738.59 -872.274 3619
1747.24 -872.274 3619
2974.54 -964.346 4001
2984.11 -964.346 4001
2993.67 -964.346 4001
3003.24 -964.346 4001
3027.12 -968.926 4020
3036.73 -968.926 4020
3046.34 -968.926 4020
3055.95 -968.926 4020
3051.08 -964.346 4001
3060.65 -964.346 4001
-2453.23 -861.696 3611
-2444.59 -861.696 3611
-2435.96 -861.696 3611
-2427.32 -861.696 3611
-2418.69 -861.696 3611
-2404.72 -859.787 3603
-2390.78 -857.878 3595
-2377.54 -856.208 3588
-2368.96 -856.208 3588
-2360.38 -856.208 3588
-2346.56 -854.298 3580
-2338 -854.298 3580
-2329.44 -854.298 3580
-2320.88 -854.298 3580
-2312.32 -854.298 3580
-2308.9 -856.208 3588
-2300.32 -856.208 3588
-2291.74 -856.208 3588
-2278.07 -854.298 3580
-2249.86 -846.901 3549
-2241.37 -846.901 3549
-2219.05 -841.651 3527
-2206.22 -839.981 3520
-503.486 -401.616 1683
-499.461 -401.616 1683
-495.436 -401.616 1683
-491.12 -401.377 1682
-486.518 -400.9 1680
-481.639 -400.184 1677
-477.629 -400.184 1677
-472.207 -398.991 1672
-467.089 -398.036 1668
-462.822 -397.798 1667
-458.836 -397.798 1667
-453.758 -396.843 1663
-449.781 -396.843 1663
-445.805 -396.843 1663
-441.828 -396.843 1663
-435.218 -394.457 1653
-430.483 -393.741 1650
-424.986 -392.309 1644
-421.055 -392.309 1644
-415.855 -391.116 1639
-410.679 -389.923 1634
-406.025 -389.207 1631
-401.385 -388.491 1628
-397.492 -388.491 1628
-392.632 -387.536 1624
-387.312 -386.105 1618
-382.258 -384.912 1613
-378.401 -384.912 1613
-373.615 -383.957 1609
-369.078 -383.241 1606
-364.1 -382.048 1601
-360.272 -382.048 1601
-355.33 -380.855 1596
-350.853 -380.139 1593
-346.39 -379.423 1590
-342.588 -379.423 1590
-337.507 -377.991 1584
-333.509 -377.753 1583
-329.307 -377.275 1581
-325.526 -377.275 1581
-321.135 -376.559 1578
-316.758 -375.844 1575
-312.793 -375.605 1574
-308.047 -374.412 1569
-304.295 -374.412 1569
-299.969 -373.696 1566
-296.035 -373.457 1565
-292.106 -373.219 1564
-288.366 -373.219 1564
-284.626 -373.219 1564
-281.065 -373.457 1565
-277.5 -373.696 1566
-274.28 -374.412 1569
-270.528 -374.412 1569
-267.116 -374.889 1571
-263.359 -374.889 1571
-259.768 -375.128 1572
-256.008 -375.128 1572
-252.731 -375.844 1575
-249.281 -376.321 1577
-245.665 -376.559 1578
-241.892 -376.559 1578
-238.571 -377.275 1581
-235.087 -377.753 1583
-232.179 -379.184 1589
-228.379 -379.184 1589
-225.003 -379.9 1592
-222.03 -381.332 1598
-218.618 -382.048 1601
-214.79 -382.048 1601
-211.752 -383.48 1607
-208.168 -383.957 1609
-204.828 -384.912 1613
-200.971 -384.912 1613
-197.969 -386.582 1620
-194.574 -387.536 1624
-191.513 -389.207 1631
-187.613 -389.207 1631
-184.388 -390.639 1637
-181.025 -391.832 1642
-177.961 -393.741 1650
-174.016 -393.741 1650
-170.895 -395.65 1658
-167.433 -396.843 1663
-163.85 -397.798 1667
-159.863 -397.798 1667
-156.345 -398.991 1672
-152.62 -399.707 1675
-148.88 -400.423 1678
-144.868 -400.423 1678
-142.03 -403.763 1692
-137.984 -403.763 1692
-133.938 -403.763 1692
-129.892 -403.763 1692
-209.495 -904.888 3792
-200.427 -904.888 3792
-191.763 -906.797 3800
-184.359 -915.149 3835
-176.011 -919.445 3853
-166.797 -919.445 3853
-157.583 -919.445 3853
-147.676 -915.149 3835
-138.506 -915.149 3835
-129.031 -913.002 3826
-119.068 -906.797 3800
-109.749 -904.888 3792
-100.681 -904.888 3792
-90.9854 -898.684 3766
-82.9158 -908.945 3809
-73.8073 -908.945 3809
-66.6692 -936.626 3925
-57.2833 -936.626 3925
-47.8975 -936.626 3925
-38.698 -941.16 3944
-29.2667 -941.16 3944
-19.8354 -941.16 3944
-10.3303 -934.478 3916
-0.963707 -932.331 3907
8.37912 -932.331 3907
17.7628 -934.478 3916
27.1271 -934.478 3916
36.4914 -934.478 3916
44.8019 -913.002 3826
53.951 -913.002 3826
124.851 -896.536 3757
133.835 -896.536 3757
142.819 -896.536 3757
151.803 -896.536 3757
160.788 -896.536 3757
325.041 -956.91 4010
334.63 -956.91 4010
344.219 -956.91 4010
353.014 -954.762 4001
356.601 -939.012 3935
366.011 -939.012 3935
373.608 -934.478 3916
382.092 -932.331 3907
391.435 -932.331 3907
400.778 -932.331 3907
410.12 -932.331 3907
419.463 -932.331 3907
428.806 -932.331 3907
438.149 -932.331 3907
445.43 -928.035 3889
454.73 -928.035 3889
461.882 -923.74 3871
471.139 -923.74 3871
480.395 -923.74 3871
487.375 -919.445 3853
496.589 -919.445 3853
505.803 -919.445 3853
517.422 -923.74 3871
526.679 -923.74 3871
540.92 -932.331 3907
552.798 -936.626 3925
562.184 -936.626 3925
571.57 -936.626 3925
1704.75 -961.682 4030
1714.38 -961.682 4030
1724.02 -961.682 4030
1721.18 -954.762 4001
1730.75 -954.762 4001
1735.97 -952.376 3991
1728.89 -943.308 3953
1726.03 -936.626 3925
1756.2 -947.842 3972
1765.7 -947.842 3972
1783.69 -952.376 3991
1797.72 -954.762 4001
1807.29 -954.762 4001
1816.86 -954.762 4001
1821.86 -952.376 3991
1831.4 -952.376 3991
1840.95 -952.376 3991
1841.68 -947.842 3972
1838.13 -941.16 3944
1817.58 -925.888 3880
1785.43 -904.888 3792
1794.49 -904.888 3792
1771.22 -888.661 3724
1768.17 -882.696 3699
2925.47 -939.012 3935
2941.59 -941.16 3944
2951.02 -941.16 3944
2974.72 -945.694 3963
2998.5 -950.228 3982
3022.38 -954.762 4001
3031.94 -954.762 4001
3041.51 -954.762 4001
3036.59 -950.228 3982
3046.11 -950.228 3982
-2453.23 -853.046 3611
-2444.59 -853.046 3611
-2435.96 -853.046 3611
-2427.32 -853.046 3611
-2418.69 -853.046 3611
-2404.72 -851.156 3603
-2390.78 -849.266 3595
-2377.54 -847.612 3588
-2368.96 -847.612 3588
-2360.38 -847.612 3588
-2346.56 -845.723 3580
-2338 -845.723 3580
-2329.44 -845.723 3580
-2320.88 -845.723 3580
-2312.32 -845.723 3580
-2308.9 -847.612 3588
-2300.32 -847.612 3588
-2291.74 -847.612 3588
-2278.07 -845.723 3580
-2249.86 -838.399 3549
-2241.37 -838.399 3549
-2219.05 -833.202 3527
-2206.22 -831.548 3520
-503.486 -397.584 1683
-499.461 -397.584 1683
-495.436 -397.584 1683
-491.12 -397.348 1682
-486.518 -396.875 1680
-481.639 -396.167 1677
-477.629 -396.167 1677
-472.207 -394.986 1672
-467.089 -394.041 1668
-462.822 -393.804 1667
-458.836 -393.804 1667
-453.758 -392.859 1663
-449.781 -392.859 1663
-445.805 -392.859 1663
-441.828 -392.859 1663
-435.218 -390.497 1653
-430.483 -389.788 1650
-424.986 -388.371 1644
-421.055 -388.371 1644
-415.855 -387.19 1639
-410.679 -386.009 1634
-406.025 -385.3 1631
-401.385 -384.591 1628
-397.492 -384.591 1628
-392.632 -383.646 1624
-387.312 -382.229 1618
-382.258 -381.048 1613
-378.401 -381.048 1613
-373.615 -380.103 1609
-369.078 -379.394 1606
-364.1 -378.213 1601
-360.272 -378.213 1601
-355.33 -377.032 1596
-350.853 -376.323 1593
-346.39 -375.614 1590
-342.588 -375.614 1590
-337.507 -374.197 1584
-333.509 -373.961 1583
-329.307 -373.488 1581
-325.526 -373.488 1581
-321.135 -372.779 1578
-316.758 -372.071 1575
-312.793 -371.834 1574
-308.047 -370.653 1569
-304.295 -370.653 1569
-299.969 -369.945 1566
-296.035 -369.708 1565
-292.106 -369.472 1564
-288.366 -369.472 1564
-284.626 -369.472 1564
-281.065 -369.708 1565
-277.5 -369.945 1566
-274.28 -370.653 1569
-270.528 -370.653 1569
-267.116 -371.126 1571
-263.359 -371.126 1571
-259.768 -371.362 1572
-256.008 -371.362 1572
-252.731 -372.071 1575
-248.964 -372.071 1575
-245.51 -372.543 1577
-241.738 -372.543 1577
-238.571 -373.488 1581
-235.087 -373.961 1583
-232.179 -375.378 1589
-228.379 -375.378 1589
-225.003 -376.087 1592
-222.03 -377.504 1598
-218.618 -378.213 1601
-214.79 -378.213 1601
-211.752 -379.63 1607
-208.168 -380.103 1609
-204.828 -381.048 1613
-200.971 -381.048 1613
-197.969 -382.701 1620
-194.574 -383.646 1624
-191.513 -385.3 1631
-187.613 -385.3 1631
-184.388 -386.717 1637
-181.025 -387.898 1642
-177.961 -389.788 1650
-174.016 -389.788 1650
-170.895 -391.678 1658
-167.433 -392.859 1663
-163.85 -393.804 1667
-159.863 -393.804 1667
-156.345 -394.986 1672
-152.62 -395.694 1675
-148.88 -396.403 1678
-144.868 -396.403 1678
-142.03 -399.71 1692
-137.984 -399.71 1692
-133.938 -399.71 1692
-129.892 -399.71 1692
-208.998 -893.678 3783
-199.952 -893.678 3783
-190.905 -893.678 3783
-181.859 -893.678 3783
-174.001 -899.82 3809
-164.892 -899.82 3809
-155.784 -899.82 3809
-146.329 -897.694 3800
-137.242 -897.694 3800
-127.885 -895.804 3792
-117.72 -887.536 3757
-108.505 -885.646 3749
-99.9911 -889.662 3766
-90.9854 -889.662 3766
-82.7199 -897.694 3800
-73.8073 -899.82 3809
-65.4462 -910.215 3853
-56.2325 -910.215 3853
-47.0188 -910.215 3853
-37.9818 -914.467 3871
-28.725 -914.467 3871
-19.4683 -914.467 3871
-10.2116 -914.467 3871
-0.954827 -914.467 3871
8.32121 -916.593 3880
17.5995 -916.593 3880
26.8777 -916.593 3880
36.156 -916.593 3880
44.8019 -903.836 3826
53.951 -903.836 3826
124.851 -887.536 3757
133.835 -887.536 3757
142.819 -887.536 3757
151.803 -887.536 3757
160.788 -887.536 3757
321.961 -938.327 3972
331.459 -938.327 3972
340.957 -938.327 3972
349.662 -936.201 3963
353.248 -920.845 3898
362.569 -920.845 3898
368.456 -912.341 3862
376.811 -910.215 3853
386.025 -910.215 3853
395.238 -910.215 3853
404.452 -910.215 3853
413.666 -910.215 3853
422.879 -910.215 3853
432.093 -910.215 3853
441.307 -910.215 3853
450.52 -910.215 3853
457.586 -905.963 3835
466.757 -905.963 3835
473.818 -901.947 3818
482.948 -901.947 3818
496.589 -910.215 3853
505.803 -910.215 3853
517.422 -914.467 3871
526.679 -914.467 3871
535.936 -914.467 3871
541.39 -908.089 3844
550.582 -908.089 3844
1690.9 -949.666 4020
1704.75 -952.028 4030
1714.38 -952.028 4030
1724.02 -952.028 4030
1725.05 -947.304 4010
1734.64 -947.304 4010
1735.97 -942.815 3991
1737.2 -938.327 3972
1738.34 -933.838 3953
1752.22 -936.201 3963
1761.7 -936.201 3963
1783.69 -942.815 3991
1797.72 -945.178 4001
1807.29 -945.178 4001
1816.86 -945.178 4001
1821.86 -942.815 3991
1827.27 -940.689 3982
1836.8 -940.689 3982
1832.87 -933.838 3953
1833.94 -929.586 3935
1817.58 -916.593 3880
1785.43 -895.804 3792
1794.49 -895.804 3792
1775.02 -881.63 3732
1776.3 -877.851 3716
2918.04 -927.224 3925
2934.88 -929.586 3935
2944.29 -929.586 3935
2960.46 -931.712 3944
2998.5 -940.689 3982
3022.38 -945.178 4001
3031.94 -945.178 4001
3041.51 -945.178 4001
3036.59 -940.689 3982
3046.11 -940.689 3982
-2453.23 -844.396 3611
-2444.59 -844.396 3611
-2435.96 -844.396 3611
-2427.32 -844.396 3611
-2418.69 -844.396 3611
-2404.72 -842.525 3603
-2390.78 -840.654 3595
-2377.54 -839.017 3588
-2368.96 -839.017 3588
-2355.12 -837.147 3580
-2346.56 -837.147 3580
-2338 -837.147 3580
-2329.44 -837.147 3580
-2320.88 -837.147 3580
-2312.32 -837.147 3580
-2308.9 -839.017 3588
-2300.32 -839.017 3588
-2291.74 -839.017 3588
-2278.07 -837.147 3580
-2249.86 -829.898 3549
-2241.37 -829.898 3549
-2219.05 -824.753 3527
-503.486 -393.552 1683
-499.461 -393.552 1683
-495.436 -393.552 1683
-490.536 -392.851 1680
-486.518 -392.851 1680
-481.639 -392.149 1677
-477.629 -392.149 1677
-472.489 -391.214 1673
-467.649 -390.513 1670
-463.1 -390.045 1668
-459.111 -390.045 1668
-454.304 -389.343 1665
-450.322 -389.343 1665
-445.805 -388.876 1663
-441.828 -388.876 1663
-435.745 -387.005 1655
-430.483 -385.836 1650
-424.986 -384.433 1644
-421.055 -384.433 1644
-415.855 -383.263 1639
-410.679 -382.094 1634
-405.527 -380.925 1629
-400.892 -380.224 1626
-397.003 -380.224 1626
-392.632 -379.756 1624
-387.073 -378.119 1617
-382.021 -376.95 1612
-378.166 -376.95 1612
-373.615 -376.248 1609
-369.078 -375.547 1606
-364.1 -374.378 1601
-360.272 -374.378 1601
-355.33 -373.208 1596
-350.853 -372.507 1593
-346.172 -371.572 1589
-342.372 -371.572 1589
-337.507 -370.402 1584
-333.509 -370.168 1583
-329.307 -369.701 1581
-325.526 -369.701 1581
-321.135 -368.999 1578
-316.758 -368.298 1575
-312.793 -368.064 1574
-307.851 -366.661 1568
-304.101 -366.661 1568
-299.969 -366.193 1566
-296.035 -365.959 1565
-292.106 -365.725 1564
-288.366 -365.725 1564
-284.626 -365.725 1564
-281.065 -365.959 1565
-277.5 -366.193 1566
-274.105 -366.661 1568
-270.355 -366.661 1568
-266.776 -366.895 1569
-263.359 -367.362 1571
-259.768 -367.596 1572
-256.008 -367.596 1572
-252.731 -368.298 1575
-248.964 -368.298 1575
-245.51 -368.765 1577
-241.738 -368.765 1577
-238.571 -369.701 1581
-235.087 -370.168 1583
-232.179 -371.572 1589
-228.379 -371.572 1589
-225.003 -372.273 1592
-222.03 -373.676 1598
-218.618 -374.378 1601
-214.79 -374.378 1601
-211.752 -375.781 1607
-208.297 -376.482 1610
-204.828 -377.184 1613
-200.971 -377.184 1613
-197.969 -378.821 1620
-194.574 -379.756 1624
-191.513 -381.393 1631
-187.613 -381.393 1631
-184.388 -382.796 1637
-181.245 -384.433 1644
-177.961 -385.836 1650
-174.016 -385.836 1650
-170.791 -387.473 1657
-167.131 -388.174 1660
-163.85 -389.811 1667
-159.863 -389.811 1667
-156.158 -390.513 1670
-152.437 -391.214 1673
-149.235 -393.319 1682
-145.213 -393.319 1682
-141.862 -395.189 1690
-138.147 -396.125 1694
-134.096 -396.125 1694
-130.046 -396.125 1694
-208.501 -882.512 3774
-199.476 -882.512 3774
-190.451 -882.512 3774
-181.426 -882.512 3774
-172.402 -882.512 3774
-163.377 -882.512 3774
-154.352 -882.512 3774
-145.019 -880.641 3766
-136.014 -880.641 3766
-126.704 -878.536 3757
-117.47 -876.666 3749
-107.781 -870.82 3724
-99.9911 -880.641 3766
-90.9854 -880.641 3766
-82.7199 -888.591 3800
-73.6329 -888.591 3800
-64.6988 -890.696 3809
-55.5904 -890.696 3809
-46.4819 -890.696 3809
-37.2851 -888.591 3800
-28.1982 -888.591 3800
-19.1565 -890.696 3809
-10.048 -890.696 3809
-0.941754 -892.8 3818
8.244 -898.88 3844
17.4362 -898.88 3844
26.6283 -898.88 3844
35.8205 -898.88 3844
44.8019 -894.671 3826
53.951 -894.671 3826
61.6818 -874.561 3740
70.6253 -874.561 3740
113.831 -863.103 3691
124.851 -878.536 3757
133.835 -878.536 3757
142.819 -878.536 3757
151.803 -878.536 3757
160.788 -878.536 3757
169.772 -878.536 3757
315.963 -911.508 3898
325.284 -911.508 3898
334.605 -911.508 3898
343.927 -911.508 3898
349.985 -903.089 3862
359.221 -903.089 3862
366.739 -898.88 3844
374.17 -894.671 3826
383.32 -894.671 3826
393.392 -896.776 3835
402.563 -896.776 3835
411.733 -896.776 3835
420.904 -896.776 3835
430.074 -896.776 3835
439.245 -896.776 3835
448.416 -896.776 3835
455.558 -892.8 3818
464.688 -892.8 3818
473.818 -892.8 3818
481.81 -890.696 3809
489.758 -888.591 3800
503.44 -896.776 3835
517.422 -905.194 3871
526.679 -905.194 3871
535.936 -905.194 3871
541.39 -898.88 3844
550.582 -898.88 3844
1690.9 -940.036 4020
1708.55 -944.479 4039
1718.21 -944.479 4039
1727.87 -944.479 4039
1737.53 -944.479 4039
1747.19 -944.479 4039
1756.85 -944.479 4039
1745.51 -933.255 3991
1746.7 -928.812 3972
1764.6 -933.255 3991
1774.14 -933.255 3991
1792.18 -937.698 4010
1801.77 -937.698 4010
1811.36 -937.698 4010
1820.94 -937.698 4010
1830.53 -937.698 4010
1831.4 -933.255 3991
1840.95 -933.255 3991
1850.49 -933.255 3991
1842.33 -924.369 3953
1843.35 -920.16 3935
1826.86 -907.299 3880
1836.14 -907.299 3880
1775.02 -872.69 3732
1780.12 -870.82 3724
2904.65 -913.612 3907
2927.42 -917.821 3925
2936.81 -917.821 3925
2953.7 -920.16 3935
2998.5 -931.15 3982
3008.02 -931.15 3982
3017.55 -931.15 3982
3027.07 -931.15 3982
3036.59 -931.15 3982
3046.11 -931.15 3982
-2425.17 -832.042 3595
-2416.57 -832.042 3595
-2407.97 -832.042 3595
-2399.38 -832.042 3595
-2386.12 -830.422 3588
-2372.24 -828.571 3580
-2363.68 -828.571 3580
-2355.12 -828.571 3580
-2346.56 -828.571 3580
-2338 -828.571 3580
-2329.44 -828.571 3580
-2320.88 -828.571 3580
-2312.32 -828.571 3580
-2308.9 -830.422 3588
-2300.32 -830.422 3588
-2291.74 -830.422 3588
-2278.07 -828.571 3580
-2249.86 -821.396 3549
-2241.37 -821.396 3549
-2219.05 -816.304 3527
-503.186 -389.289 1682
-499.164 -389.289 1682
-495.142 -389.289 1682
-490.536 -388.826 1680
-485.65 -388.132 1677
-481.639 -388.132 1677
-477.629 -388.132 1677
-472.489 -387.206 1673
-467.649 -386.512 1670
-463.1 -386.049 1668
-459.111 -386.049 1668
-454.85 -385.818 1667
-450.322 -385.355 1665
-445.805 -384.892 1663
-441.828 -384.892 1663
-436.272 -383.503 1657
-430.483 -381.883 1650
-424.469 -380.032 1642
-420.543 -380.032 1642
-415.855 -379.337 1639
-410.679 -378.18 1634
-406.025 -377.486 1631
-400.892 -376.328 1626
-397.003 -376.328 1626
-392.632 -375.866 1624
-387.312 -374.477 1618
-382.258 -373.32 1613
-378.401 -373.32 1613
-374.311 -373.088 1612
-369.307 -371.931 1607
-364.1 -370.542 1601
-360.272 -370.542 1601
-355.33 -369.385 1596
-350.853 -368.691 1593
-346.39 -367.996 1590
-342.588 -367.996 1590
-337.507 -366.608 1584
-333.719 -366.608 1584
-329.307 -365.913 1581
-325.526 -365.913 1581
-321.135 -365.219 1578
-316.758 -364.525 1575
-312.992 -364.525 1575
-307.851 -362.905 1568
-304.101 -362.905 1568
-300.352 -362.905 1568
-295.846 -361.979 1564
-292.106 -361.979 1564
-288.366 -361.979 1564
-284.626 -361.979 1564
-281.065 -362.21 1565
-277.5 -362.442 1566
-274.105 -362.905 1568
-270.355 -362.905 1568
-266.776 -363.136 1569
-263.359 -363.599 1571
-259.768 -363.83 1572
-256.008 -363.83 1572
-252.731 -364.525 1575
-248.964 -364.525 1575
-245.51 -364.988 1577
-241.738 -364.988 1577
-238.571 -365.913 1581
-235.087 -366.376 1583
-232.179 -367.765 1589
-228.379 -367.765 1589
-225.003 -368.459 1592
-222.03 -369.848 1598
-218.891 -371.005 1603
-215.058 -371.005 1603
-211.752 -371.931 1607
-208.297 -372.625 1610
-204.828 -373.32 1613
-200.971 -373.32 1613
-197.969 -374.94 1620
-194.574 -375.866 1624
-191.161 -376.791 1628
-187.268 -376.791 1628
-184.388 -378.874 1637
-181.245 -380.494 1644
-177.961 -381.883 1650
-174.016 -381.883 1650
-170.791 -383.503 1657
-167.131 -384.198 1660
-163.653 -385.355 1665
-159.671 -385.355 1665
-156.158 -386.512 1670
-152.437 -387.206 1673
-149.235 -389.289 1682
-145.213 -389.289 1682
-142.03 -391.604 1692
-138.147 -392.067 1694
-134.096 -392.067 1694
-130.046 -392.067 1694
-207.562 -869.536 3757
-198.577 -869.536 3757
-189.593 -869.536 3757
-179.792 -865.602 3740
-171.26 -867.685 3749
-162.295 -867.685 3749
-153.33 -867.685 3749
-144.365 -867.685 3749
-135.4 -867.685 3749
-126.435 -867.685 3749
-116.686 -861.899 3724
-107.55 -860.047 3716
-99.9911 -871.619 3766
-90.9854 -871.619 3766
-82.7199 -879.488 3800
-73.6329 -879.488 3800
-64.546 -879.488 3800
-55.459 -879.488 3800
-46.1646 -875.554 3783
-37.03 -873.471 3774
-28.0052 -873.471 3774
-19.1112 -879.488 3800
-10.0243 -879.488 3800
-0.941754 -883.654 3818
8.244 -889.672 3844
17.4362 -889.672 3844
26.6283 -889.672 3844
35.8205 -889.672 3844
44.8019 -885.506 3826
53.951 -885.506 3826
62.391 -875.554 3783
70.9463 -869.536 3757
79.2283 -861.899 3724
88.1336 -861.899 3724
96.8303 -860.047 3716
105.716 -860.047 3716
114.602 -860.047 3716
123.489 -860.047 3716
132.054 -857.964 3707
142.819 -869.536 3757
152.49 -873.471 3774
161.515 -873.471 3774
170.54 -873.471 3774
319.691 -912.816 3944
329.123 -912.816 3944
338.554 -912.816 3944
346.309 -908.419 3925
350.801 -895.921 3871
360.058 -895.921 3871
366.739 -889.672 3844
375.931 -889.672 3844
385.123 -889.672 3844
394.315 -889.672 3844
403.507 -889.672 3844
412.699 -889.672 3844
420.904 -887.589 3835
430.074 -887.589 3835
439.245 -887.589 3835
446.428 -883.654 3818
454.484 -881.571 3809
463.593 -881.571 3809
472.701 -881.571 3809
480.671 -879.488 3800
489.758 -879.488 3800
503.44 -887.589 3835
517.422 -895.921 3871
526.679 -895.921 3871
535.936 -895.921 3871
540.122 -887.589 3835
549.293 -887.589 3835
1690.9 -930.406 4020
1708.55 -934.804 4039
1718.21 -934.804 4039
1749.26 -946.376 4089
1759.04 -946.376 4089
1768.82 -946.376 4089
1769.9 -941.747 4069
1775.25 -939.433 4059
1755.05 -923.694 3991
1769.02 -926.009 4001
1778.59 -926.009 4001
1792.18 -928.092 4010
1801.77 -928.092 4010
1811.36 -928.092 4010
1820.94 -928.092 4010
1835.1 -930.406 4020
1849.3 -932.721 4030
1858.94 -932.721 4030
1868.57 -932.721 4030
1873.55 -930.406 4020
1856.46 -917.214 3963
1848.05 -908.419 3925
1857.43 -908.419 3925
1858.26 -904.253 3907
1780.12 -861.899 3724
2904.65 -904.253 3907
2927.42 -908.419 3925
2936.81 -908.419 3925
2960.46 -912.816 3944
3005.28 -923.694 3991
3014.82 -923.694 3991
3024.37 -923.694 3991
3033.91 -923.694 3991
3036.59 -921.611 3982
3046.11 -921.611 3982
-2409.65 -818.162 3572
-2401.11 -818.162 3572
-2392.57 -818.162 3572
-2384.03 -818.162 3572
-2365.51 -814.727 3557
-2357 -814.727 3557
-2348.5 -814.727 3557
-2339.99 -814.727 3557
-2331.48 -814.727 3557
-2322.98 -814.727 3557
-2319.68 -816.559 3565
-2311.15 -816.559 3565
-2312.32 -819.995 3580
-2303.76 -819.995 3580
-2295.19 -819.995 3580
-2286.63 -819.995 3580
-2278.07 -819.995 3580
-2245.42 -811.291 3542
-2236.95 -811.291 3542
-2219.05 -807.855 3527
-503.186 -385.26 1682
-499.164 -385.26 1682
-495.142 -385.26 1682
-490.536 -384.802 1680
-485.65 -384.115 1677
-481.639 -384.115 1677
-477.629 -384.115 1677
-472.489 -383.199 1673
-467.649 -382.512 1670
-463.1 -382.053 1668
-459.111 -382.053 1668
-454.85 -381.824 1667
-450.322 -381.366 1665
-446.341 -381.366 1665
-442.359 -381.366 1665
-436.272 -379.534 1657
-431.005 -378.389 1652
-424.469 -376.098 1642
-420.543 -376.098 1642
-416.616 -376.098 1642
-410.679 -374.266 1634
-406.274 -373.808 1632
-400.892 -372.433 1626
-397.003 -372.433 1626
-393.115 -372.433 1626
-387.312 -370.601 1618
-382.258 -369.456 1613
-378.401 -369.456 1613
-374.311 -369.227 1612
-369.307 -368.081 1607
-364.1 -366.707 1601
-360.272 -366.707 1601
-355.33 -365.562 1596
-350.853 -364.875 1593
-346.39 -364.188 1590
-342.588 -364.188 1590
-337.507 -362.813 1584
-333.719 -362.813 1584
-329.307 -362.126 1581
-325.526 -362.126 1581
-321.135 -361.439 1578
-316.758 -360.752 1575
-312.992 -360.752 1575
-307.851 -359.149 1568
-304.101 -359.149 1568
-300.352 -359.149 1568
-295.846 -358.232 1564
-292.106 -358.232 1564
-288.366 -358.232 1564
-284.626 -358.232 1564
-281.065 -358.461 1565
-277.854 -359.149 1568
-274.105 -359.149 1568
-270.355 -359.149 1568
-266.776 -359.378 1569
-263.359 -359.836 1571
-259.768 -360.065 1572
-256.008 -360.065 1572
-252.731 -360.752 1575
-248.964 -360.752 1575
-245.51 -361.21 1577
-241.738 -361.21 1577
-238.571 -362.126 1581
-235.087 -362.584 1583
-232.179 -363.959 1589
-228.379 -363.959 1589
-225.003 -364.646 1592
-222.03 -366.02 1598
-218.891 -367.165 1603
-215.058 -367.165 1603
-211.752 -368.081 1607
-208.297 -368.769 1610
-204.828 -369.456 1613
-200.971 -369.456 1613
-197.969 -371.059 1620
-194.574 -371.975 1624
-191.161 -372.891 1628
-187.268 -372.891 1628
-184.388 -374.953 1637
-181.245 -376.556 1644
-177.961 -377.931 1650
-174.016 -377.931 1650
-170.791 -379.534 1657
-167.131 -380.221 1660
-163.653 -381.366 1665
-159.671 -381.366 1665
-156.158 -382.512 1670
-152.437 -383.199 1673
-149.501 -385.947 1685
-145.472 -385.947 1685
-142.03 -387.551 1692
-138.147 -388.009 1694
-134.096 -388.009 1694
-130.046 -388.009 1694
-207.562 -860.536 3757
-198.577 -860.536 3757
-189.593 -860.536 3757
-179.792 -856.643 3740
-171.26 -858.704 3749
-162.295 -858.704 3749
-153.33 -858.704 3749
-144.365 -858.704 3749
-135.4 -858.704 3749
-126.435 -858.704 3749
-116.686 -852.978 3724
-107.55 -851.145 3716
-99.9911 -862.598 3766
-90.9854 -862.598 3766
-82.7199 -870.385 3800
-73.6329 -870.385 3800
-64.546 -870.385 3800
-55.459 -870.385 3800
-46.1646 -866.492 3783
-37.03 -864.43 3774
-28.0052 -864.43 3774
-19.1112 -870.385 3800
-10.0243 -870.385 3800
-0.941754 -874.508 3818
8.244 -880.464 3844
17.4362 -880.464 3844
26.6283 -880.464 3844
35.8205 -880.464 3844
44.8019 -876.341 3826
53.951 -876.341 3826
62.391 -866.492 3783
71.1162 -862.598 3766
79.5687 -856.643 3740
88.5122 -856.643 3740
97.2472 -854.81 3732
106.172 -854.81 3732
115.096 -854.81 3732
124.02 -854.81 3732
132.66 -852.978 3724
143.161 -862.598 3766
152.49 -864.43 3774
161.515 -864.43 3774
170.54 -864.43 3774
179.184 -862.598 3766
318.52 -927.419 4049
328.202 -927.419 4049
337.885 -927.419 4049
342.588 -914.134 3991
347.985 -903.369 3944
353.248 -892.832 3898
362.569 -892.832 3898
370.173 -888.709 3880
380.332 -890.771 3889
389.631 -890.771 3889
398.931 -890.771 3889
405.397 -884.587 3862
414.632 -884.587 3862
422.879 -882.525 3853
432.093 -882.525 3853
439.245 -878.402 3835
446.428 -874.508 3818
454.484 -872.447 3809
463.593 -872.447 3809
472.701 -872.447 3809
480.671 -870.385 3800
489.758 -870.385 3800
503.44 -878.402 3835
517.422 -886.648 3871
526.679 -886.648 3871
535.936 -886.648 3871
540.122 -878.402 3835
549.293 -878.402 3835
1690.9 -920.776 4020
1708.55 -925.128 4039
1718.21 -925.128 4039
1749.26 -936.581 4089
1759.04 -936.581 4089
1768.82 -936.581 4089
1778.59 -936.581 4089
1775.25 -929.709 4059
1755.05 -914.134 3991
1769.02 -916.424 4001
1778.59 -916.424 4001
1792.18 -918.486 4010
1801.77 -918.486 4010
1811.36 -918.486 4010
1820.94 -918.486 4010
1835.1 -920.776 4020
1849.3 -923.067 4030
1858.94 -923.067 4030
1868.57 -923.067 4030
1873.55 -920.776 4020
1856.46 -907.72 3963
1848.05 -899.017 3925
1857.43 -899.017 3925
1858.26 -894.894 3907
1780.12 -852.978 3724
2897.96 -892.832 3898
2927.42 -899.017 3925
2936.81 -899.017 3925
2960.46 -903.369 3944
3005.28 -914.134 3991
3014.82 -914.134 3991
3024.37 -914.134 3991
3033.91 -914.134 3991
3028.96 -909.782 3972
3038.46 -909.782 3972
-2415.05 -811.419 3580
-2406.49 -811.419 3580
-2397.93 -811.419 3580
-2389.36 -811.419 3580
-2370.83 -808.019 3565
-2362.3 -808.019 3565
-2353.78 -808.019 3565
-2339.99 -806.206 3557
-2331.48 -806.206 3557
-2328.2 -808.019 3565
-2329.44 -811.419 3580
-2320.88 -811.419 3580
-2312.32 -811.419 3580
-2303.76 -811.419 3580
-2295.19 -811.419 3580
-2286.63 -811.419 3580
-2278.07 -811.419 3580
-2245.42 -802.806 3542
-2236.95 -802.806 3542
-2219.05 -799.406 3527
-502.588 -380.778 1680
-498.571 -380.778 1680
-494.553 -380.778 1680
-490.536 -380.778 1680
-485.65 -380.098 1677
-481.639 -380.098 1677
-477.629 -380.098 1677
-472.207 -378.964 1672
-467.089 -378.058 1668
-463.1 -378.058 1668
-459.111 -378.058 1668
-454.85 -377.831 1667
-450.322 -377.378 1665
-446.341 -377.378 1665
-442.359 -377.378 1665
-436.272 -375.565 1657
-431.005 -374.431 1652
-424.469 -372.165 1642
-420.543 -372.165 1642
-416.616 -372.165 1642
-410.679 -370.352 1634
-406.274 -369.898 1632
-400.892 -368.538 1626
-397.003 -368.538 1626
-393.115 -368.538 1626
-387.312 -366.725 1618
-382.258 -365.592 1613
-378.401 -365.592 1613
-374.311 -365.365 1612
-369.307 -364.232 1607
-364.1 -362.872 1601
-360.272 -362.872 1601
-355.33 -361.739 1596
-350.853 -361.059 1593
-346.39 -360.379 1590
-342.588 -360.379 1590
-337.507 -359.019 1584
-333.719 -359.019 1584
-329.307 -358.339 1581
-325.526 -358.339 1581
-321.135 -357.659 1578
-316.758 -356.979 1575
-312.992 -356.979 1575
-307.851 -355.392 1568
-304.101 -355.392 1568
-300.352 -355.392 1568
-295.846 -354.486 1564
-292.106 -354.486 1564
-288.366 -354.486 1564
-284.626 -354.486 1564
-281.065 -354.712 1565
-277.854 -355.392 1568
-274.105 -355.392 1568
-270.355 -355.392 1568
-266.776 -355.619 1569
-263.024 -355.619 1569
-259.768 -356.299 1572
-256.008 -356.299 1572
-252.731 -356.979 1575
-248.964 -356.979 1575
-245.51 -357.432 1577
-241.738 -357.432 1577
-238.571 -358.339 1581
-234.79 -358.339 1581
-232.179 -360.152 1589
-228.379 -360.152 1589
-225.003 -360.832 1592
-222.03 -362.192 1598
-218.891 -363.325 1603
-215.058 -363.325 1603
-211.752 -364.232 1607
-208.297 -364.912 1610
-204.828 -365.592 1613
-200.971 -365.592 1613
-197.725 -366.725 1618
-194.574 -368.085 1624
-191.161 -368.992 1628
-187.268 -368.992 1628
-184.388 -371.031 1637
-181.245 -372.618 1644
-177.961 -373.978 1650
-174.016 -373.978 1650
-170.791 -375.565 1657
-167.131 -376.245 1660
-163.653 -377.378 1665
-159.671 -377.378 1665
-156.158 -378.511 1670
-152.346 -378.964 1672
-149.501 -381.911 1685
-145.472 -381.911 1685
-142.03 -383.497 1692
-138.147 -383.951 1694
-134.096 -383.951 1694
-130.046 -383.951 1694
-187.524 -842.244 3716
-179.407 -845.87 3732
-170.849 -847.683 3740
-161.905 -847.683 3740
-152.962 -847.683 3740
-144.018 -847.683 3740
-135.075 -847.683 3740
-126.131 -847.683 3740
-116.686 -844.057 3724
-107.289 -840.204 3707
-99.0883 -845.87 3732
-90.164 -845.87 3732
-81.9798 -853.576 3766
-73.3035 -857.43 3783
-64.2572 -857.43 3783
-55.2109 -857.43 3783
-45.9572 -853.576 3766
-36.9515 -853.576 3766
-27.9459 -853.576 3766
-19.1112 -861.283 3800
-10.0243 -861.283 3800
-0.941754 -865.362 3818
8.244 -871.255 3844
17.4362 -871.255 3844
26.6283 -871.255 3844
35.8205 -871.255 3844
44.8019 -867.176 3826
53.951 -867.176 3826
62.391 -857.43 3783
71.1162 -853.576 3766
79.5687 -847.683 3740
88.5122 -847.683 3740
97.2472 -845.87 3732
106.172 -845.87 3732
115.096 -845.87 3732
124.02 -845.87 3732
132.66 -844.057 3724
143.161 -853.576 3766
152.49 -855.39 3774
161.515 -855.39 3774
170.54 -855.39 3774
179.184 -853.576 3766
318.52 -917.719 4049
328.202 -917.719 4049
337.885 -917.719 4049
342.588 -904.573 3991
347.985 -893.921 3944
353.248 -883.495 3898
362.569 -883.495 3898
370.173 -879.415 3880
380.332 -881.455 3889
389.631 -881.455 3889
398.931 -881.455 3889
405.397 -875.335 3862
414.632 -875.335 3862
422.879 -873.295 3853
432.093 -873.295 3853
439.245 -869.215 3835
446.428 -865.362 3818
454.484 -863.322 3809
463.593 -863.322 3809
472.701 -863.322 3809
480.671 -861.283 3800
489.758 -861.283 3800
503.44 -869.215 3835
517.422 -877.375 3871
526.679 -877.375 3871
535.936 -877.375 3871
540.122 -869.215 3835
549.293 -869.215 3835
1749.26 -926.785 4089
1759.04 -926.785 4089
1768.82 -926.785 4089
1778.59 -926.785 4089
1779.63 -922.252 4069
1780.56 -917.719 4049
1790.24 -917.719 4049
1778.59 -906.84 4001
1792.18 -908.88 4010
1806.26 -911.146 4020
1815.87 -911.146 4020
1825.49 -911.146 4020
1843.77 -915.453 4039
1853.43 -915.453 4039
1863.09 -915.453 4039
1872.75 -915.453 4039
1878.21 -913.413 4030
1883.16 -911.146 4020
1892.78 -911.146 4020
1866.42 -893.921 3944
1862.54 -887.574 3916
1867.6 -885.534 3907
2918.04 -889.614 3925
2934.88 -891.881 3935
2944.29 -891.881 3935
2967.21 -895.961 3953
3005.28 -904.573 3991
3014.82 -904.573 3991
3024.37 -904.573 3991
3033.91 -904.573 3991
3022.1 -898.227 3963
3031.58 -898.227 3963
-2415.05 -802.843 3580
-2406.49 -802.843 3580
-2397.93 -802.843 3580
-2389.36 -802.843 3580
-2370.83 -799.479 3565
-2362.3 -799.479 3565
-2353.78 -799.479 3565
-2339.99 -797.685 3557
-2331.48 -797.685 3557
-2328.2 -799.479 3565
-2329.44 -802.843 3580
-2320.88 -802.843 3580
-2312.32 -802.843 3580
-2303.76 -802.843 3580
-2295.19 -802.843 3580
-2286.63 -802.843 3580
-2278.07 -802.843 3580
-2240.35 -792.527 3534
-2231.9 -792.527 3534
-2214.64 -789.387 3520
-510.623 -376.753 1680
-506.605 -376.753 1680
-502.588 -376.753 1680
-498.571 -376.753 1680
-494.553 -376.753 1680
-490.536 -376.753 1680
-485.65 -376.08 1677
-481.639 -376.08 1677
-477.629 -376.08 1677
-472.207 -374.959 1672
-467.089 -374.062 1668
-462.822 -373.838 1667
-458.836 -373.838 1667
-454.85 -373.838 1667
-450.322 -373.389 1665
-446.341 -373.389 1665
-442.359 -373.389 1665
-436.272 -371.595 1657
-431.005 -370.474 1652
-424.469 -368.231 1642
-420.543 -368.231 1642
-416.616 -368.231 1642
-410.679 -366.437 1634
-406.274 -365.989 1632
-400.892 -364.643 1626
-397.003 -364.643 1626
-393.115 -364.643 1626
-387.312 -362.849 1618
-382.258 -361.728 1613
-378.401 -361.728 1613
-374.311 -361.504 1612
-369.307 -360.382 1607
-364.1 -359.037 1601
-360.272 -359.037 1601
-355.33 -357.915 1596
-350.853 -357.243 1593
-346.39 -356.57 1590
-342.588 -356.57 1590
-337.507 -355.224 1584
-333.087 -354.552 1581
-329.098 -354.327 1580
-325.32 -354.327 1580
-321.135 -353.879 1578
-316.758 -353.206 1575
-312.395 -352.533 1572
-307.851 -351.636 1568
-304.101 -351.636 1568
-299.969 -351.188 1566
-295.846 -350.739 1564
-292.106 -350.739 1564
-288.366 -350.739 1564
-284.626 -350.739 1564
-281.065 -350.963 1565
-277.854 -351.636 1568
-274.105 -351.636 1568
-270.355 -351.636 1568
-266.776 -351.861 1569
-263.024 -351.861 1569
-259.768 -352.533 1572
-256.008 -352.533 1572
-252.57 -352.982 1574
-248.964 -353.206 1575
-245.51 -353.655 1577
-241.738 -353.655 1577
-238.571 -354.552 1581
-234.79 -354.552 1581
-232.179 -356.346 1589
-228.379 -356.346 1589
-225.003 -357.018 1592
-222.03 -358.364 1598
-218.891 -359.485 1603
-215.058 -359.485 1603
-211.752 -360.382 1607
-208.297 -361.055 1610
-204.828 -361.728 1613
-200.971 -361.728 1613
-197.725 -362.849 1618
-194.574 -364.195 1624
-191.278 -365.316 1629
-187.383 -365.316 1629
-184.388 -367.11 1637
-181.245 -368.68 1644
-177.961 -370.025 1650
-174.016 -370.025 1650
-170.791 -371.595 1657
-167.131 -372.268 1660
-163.456 -372.941 1663
-159.48 -372.941 1663
-156.158 -374.511 1670
-152.346 -374.959 1672
-149.501 -377.874 1685
-145.472 -377.874 1685
-142.03 -379.444 1692
-138.147 -379.893 1694
-134.096 -379.893 1694
-130.046 -379.893 1694
-187.07 -831.324 3707
-178.638 -833.342 3716
-169.752 -833.342 3716
-160.866 -833.342 3716
-151.98 -833.342 3716
-143.094 -833.342 3716
-134.208 -833.342 3716
-125.322 -833.342 3716
-116.154 -831.324 3707
-106.826 -827.736 3691
-97.9997 -827.736 3691
-89.1734 -827.736 3691
-81.2396 -836.93 3732
-72.3153 -836.93 3732
-63.3909 -836.93 3732
-54.4666 -836.93 3732
-45.6399 -838.724 3740
-36.7847 -840.742 3749
-27.8197 -840.742 3749
-19.0257 -848.367 3783
-9.97942 -848.367 3783
-0.93312 -848.367 3783
8.18824 -856.216 3818
17.4362 -862.047 3844
26.6283 -862.047 3844
35.8205 -862.047 3844
44.2984 -848.367 3783
53.3447 -848.367 3783
62.391 -848.367 3783
71.4373 -848.367 3783
80.1219 -844.555 3766
