ply
format ascii 1.0
comment File generated
element vertex 2128
property float x
property float y
property float z
end_header
-321.615 -596.55 1722
-316.76 -595.165 1718
-312.105 -594.125 1715
-307.645 -593.432 1713
-303.549 -593.432 1713
-299.453 -593.432 1713
-294.667 -592.047 1709
-290.41 -591.7 1708
-286.326 -591.7 1708
-281.58 -590.315 1704
-276.365 -587.89 1697
-271.505 -586.157 1692
-267.459 -586.157 1692
-263.102 -585.465 1690
-258.294 -583.732 1685
-253.812 -582.693 1682
-249.79 -582.693 1682
-245.475 -582 1680
-241.17 -581.307 1678
-236.734 -580.268 1675
-232.728 -580.268 1675
-228.313 -579.229 1672
-224.047 -578.536 1670
-220.053 -578.536 1670
-215.801 -577.843 1668
-211.812 -577.843 1668
-207.824 -577.843 1668
-203.713 -577.497 1667
-199.487 -576.804 1665
-195.74 -577.497 1667
-191.754 -577.497 1667
-187.88 -577.843 1668
-184.112 -578.536 1670
-180.118 -578.536 1670
-176.125 -578.536 1670
-172.131 -578.536 1670
-168.138 -578.536 1670
-164.144 -578.536 1670
-160.151 -578.536 1670
-156.158 -578.536 1670
-152.346 -579.229 1672
-148.792 -580.961 1677
-144.781 -580.961 1677
-140.771 -580.961 1677
-136.761 -580.961 1677
-132.751 -580.961 1677
-128.741 -580.961 1677
-124.582 -580.268 1675
-120.432 -579.575 1673
-116.432 -579.575 1673
-112.028 -577.497 1667
362.569 -1350.38 3898
371.891 -1350.38 3898
381.212 -1350.38 3898
391.435 -1353.5 3907
400.778 -1353.5 3907
410.12 -1353.5 3907
418.497 -1350.38 3898
427.818 -1350.38 3898
439.158 -1356.61 3916
448.523 -1356.61 3916
460.108 -1363.2 3935
472.859 -1372.9 3963
484.648 -1379.48 3982
494.171 -1379.48 3982
503.693 -1379.48 3982
513.215 -1379.48 3982
522.737 -1379.48 3982
530.923 -1376.02 3972
540.421 -1376.02 3972
1775.25 -1406.15 4059
1784.96 -1406.15 4059
1794.66 -1406.15 4059
1804.37 -1406.15 4059
1788.16 -1386.06 4001
3110.56 -1413.08 4079
3120.31 -1413.08 4079
-2576.54 -1295.63 3766
-2585.26 -1304.57 3792
-2576.2 -1304.57 3792
-2567.13 -1304.57 3792
-2551.99 -1301.48 3783
-2542.94 -1301.48 3783
-2533.9 -1301.48 3783
-2524.85 -1301.48 3783
-2515.8 -1301.48 3783
-2512.72 -1304.57 3792
-2503.65 -1304.57 3792
-2494.59 -1304.57 3792
-2473.72 -1298.38 3774
-2481.68 -1307.33 3800
-2472.59 -1307.33 3800
-2463.5 -1307.33 3800
-2454.41 -1307.33 3800
-2445.33 -1307.33 3800
-2376.62 -1275.33 3707
-2336.45 -1258.47 3658
-402.307 -608.595 1769
-398.077 -608.595 1769
-393.846 -608.595 1769
-389.176 -607.907 1767
-384.95 -607.907 1767
-378.786 -604.81 1758
-373.729 -603.434 1754
-368.903 -602.402 1751
-364.716 -602.402 1751
-360.117 -601.714 1749
-354.713 -599.65 1743
-350.143 -598.962 1741
-345.98 -598.962 1741
-340.442 -596.554 1734
-335.326 -594.833 1729
-330.042 -592.769 1723
-324.976 -591.049 1718
-320.868 -591.049 1718
-316.391 -590.361 1716
-311.741 -589.329 1713
-306.927 -587.953 1709
-302.84 -587.953 1709
-298.753 -587.953 1709
-294.494 -587.609 1708
-289.73 -586.233 1704
-285.655 -586.233 1704
-281.084 -585.201 1701
-275.877 -582.792 1694
-271.184 -581.416 1690
-267.143 -581.416 1690
-262.946 -581.072 1689
-257.987 -579.008 1683
-253.51 -577.976 1680
-249.493 -577.976 1680
-245.183 -577.288 1678
-241.027 -576.944 1677
-236.31 -575.224 1672
-232.034 -574.536 1670
-228.04 -574.536 1670
-223.778 -573.847 1668
-219.79 -573.847 1668
-215.672 -573.503 1667
-211.685 -573.503 1667
-207.699 -573.503 1667
-203.224 -572.127 1663
-199.127 -571.783 1662
-195.505 -572.815 1665
-191.524 -572.815 1665
-187.542 -572.815 1665
-183.891 -573.847 1668
-180.118 -574.536 1670
-176.125 -574.536 1670
-172.131 -574.536 1670
-167.937 -573.847 1668
-163.948 -573.847 1668
-159.959 -573.847 1668
-155.69 -572.815 1665
-151.982 -573.847 1668
-148.171 -574.536 1670
-144.177 -574.536 1670
-140.603 -576.256 1675
-136.598 -576.256 1675
-132.592 -576.256 1675
-128.587 -576.256 1675
-124.358 -575.224 1672
-120.216 -574.536 1670
-116.223 -574.536 1670
-112.028 -573.503 1667
362.569 -1341.04 3898
371.891 -1341.04 3898
381.212 -1341.04 3898
390.533 -1341.04 3898
399.854 -1341.04 3898
409.176 -1341.04 3898
417.531 -1337.95 3889
429.794 -1347.23 3916
439.158 -1347.23 3916
448.523 -1347.23 3916
462.213 -1359.96 3953
473.933 -1366.5 3972
485.744 -1373.04 3991
495.287 -1373.04 3991
504.831 -1373.04 3991
514.375 -1373.04 3991
523.919 -1373.04 3991
533.462 -1373.04 3991
540.421 -1366.5 3972
1775.25 -1396.43 4059
1784.96 -1396.43 4059
1794.66 -1396.43 4059
1791.48 -1386.45 4030
1788.16 -1376.48 4001
1853.43 -1389.55 4039
1863.09 -1389.55 4039
1872.75 -1389.55 4039
3110.56 -1403.31 4079
3120.31 -1403.31 4079
-2576.54 -1286.61 3766
-2585.26 -1295.49 3792
-2576.2 -1295.49 3792
-2567.13 -1295.49 3792
-2551.99 -1292.42 3783
-2542.94 -1292.42 3783
-2533.9 -1292.42 3783
-2518.84 -1289.34 3774
-2509.82 -1289.34 3774
-2512.72 -1295.49 3792
-2503.65 -1295.49 3792
-2494.59 -1295.49 3792
-2473.72 -1289.34 3774
-2481.68 -1298.22 3800
-2472.59 -1298.22 3800
-2463.5 -1298.22 3800
-2454.41 -1298.22 3800
-2445.33 -1298.22 3800
-2376.62 -1266.45 3707
-2336.45 -1249.71 3658
-402.63 -598.549 1752
-400.942 -602.307 1763
-396.726 -602.307 1763
-392.511 -602.307 1763
-388.074 -601.966 1762
-383.861 -601.966 1762
-377.924 -599.233 1754
-373.09 -598.208 1751
-368.06 -596.841 1747
-363.883 -596.841 1747
-358.881 -595.475 1743
-354.103 -594.45 1740
-349.138 -593.083 1736
-344.986 -593.083 1736
-339.461 -590.692 1729
-334.55 -589.325 1725
-329.468 -587.617 1720
-324.598 -586.25 1716
-320.494 -586.25 1716
-315.838 -585.225 1713
-311.014 -583.859 1709
-306.747 -583.517 1708
-302.663 -583.517 1708
-298.579 -583.517 1708
-293.805 -582.151 1704
-289.22 -581.126 1701
-285.152 -581.126 1701
-280.093 -579.076 1695
-275.225 -577.368 1690
-271.024 -577.026 1689
-266.985 -577.026 1689
-262.323 -575.66 1685
-257.834 -574.635 1682
-253.208 -573.268 1678
-249.196 -573.268 1678
-245.037 -572.926 1677
-240.452 -571.56 1673
-236.027 -570.535 1670
-231.756 -569.852 1668
-227.767 -569.852 1668
-223.644 -569.51 1667
-219.658 -569.51 1667
-215.154 -568.144 1663
-211.177 -568.144 1663
-207.201 -568.144 1663
-202.613 -566.435 1658
-198.648 -566.435 1658
-194.918 -567.119 1660
-190.948 -567.119 1660
-187.204 -567.802 1662
-183.34 -568.144 1663
-179.579 -568.827 1665
-175.598 -568.827 1665
-171.616 -568.827 1665
-167.635 -568.827 1665
-163.653 -568.827 1665
-159.48 -568.144 1663
-155.503 -568.144 1663
-151.526 -568.144 1663
-147.993 -569.852 1668
-144.004 -569.852 1668
-140.016 -569.852 1668
-136.027 -569.852 1668
-132.038 -569.852 1668
-127.973 -569.51 1667
-123.987 -569.51 1667
-119.352 -566.435 1658
-115.388 -566.435 1658
-111.423 -566.435 1658
363.406 -1334.78 3907
372.749 -1334.78 3907
382.092 -1334.78 3907
391.435 -1334.78 3907
402.624 -1340.93 3925
412.01 -1340.93 3925
421.396 -1340.93 3925
429.794 -1337.85 3916
439.158 -1337.85 3916
448.523 -1337.85 3916
462.213 -1350.49 3953
473.933 -1356.99 3972
488.056 -1369.97 4010
497.645 -1369.97 4010
507.235 -1369.97 4010
516.824 -1369.97 4010
526.413 -1369.97 4010
534.799 -1366.89 4001
541.781 -1360.4 3982
1775.25 -1386.71 4059
1784.96 -1386.71 4059
1794.66 -1386.71 4059
1791.48 -1376.8 4030
1788.16 -1366.89 4001
1830.53 -1369.97 4010
1853.43 -1379.87 4039
1863.09 -1379.87 4039
1872.75 -1379.87 4039
1864.7 -1366.89 4001
3110.56 -1393.54 4079
3120.31 -1393.54 4079
-2582.02 -1280.3 3774
-2572.99 -1280.3 3774
-2563.97 -1280.3 3774
-2554.94 -1280.3 3774
-2551.99 -1283.35 3783
-2542.94 -1283.35 3783
-2533.9 -1283.35 3783
-2518.84 -1280.3 3774
-2509.82 -1280.3 3774
-2506.76 -1283.35 3783
-2497.71 -1283.35 3783
-2488.67 -1283.35 3783
-2473.72 -1280.3 3774
-2470.57 -1283.35 3783
-2461.53 -1283.35 3783
-2452.48 -1283.35 3783
-2443.43 -1283.35 3783
-2434.39 -1283.35 3783
-2361.23 -1249.43 3683
-2336.45 -1240.95 3658
-2287.62 -1219.58 3595
-402.63 -594.352 1752
-398.441 -594.352 1752
-394.251 -594.352 1752
-390.062 -594.352 1752
-385.872 -594.352 1752
-381.682 -594.352 1752
-376.415 -592.656 1747
-371.812 -591.978 1745
-366.796 -590.621 1741
-362.633 -590.621 1741
-358.264 -590.281 1740
-353.289 -588.924 1736
-348.333 -587.568 1732
-344.191 -587.568 1732
-339.068 -585.871 1727
-333.968 -584.175 1722
-328.701 -582.14 1716
-324.409 -581.8 1715
-320.308 -581.8 1715
-315.469 -580.443 1711
-310.832 -579.426 1708
-306.029 -578.069 1704
-301.954 -578.069 1704
-297.53 -577.39 1702
-293.287 -577.051 1701
-288.88 -576.373 1699
-284.817 -576.373 1699
-279.928 -574.676 1694
-275.063 -572.98 1689
-270.382 -571.623 1685
-266.352 -571.623 1685
-261.856 -570.605 1682
-257.221 -569.248 1678
-253.057 -568.909 1677
-249.047 -568.909 1677
-244.452 -567.552 1673
-240.02 -566.535 1670
-235.744 -565.856 1668
-231.339 -564.838 1665
-227.357 -564.838 1665
-223.107 -564.16 1663
-219.131 -564.16 1663
-214.507 -562.464 1658
-210.542 -562.464 1658
-206.453 -562.124 1657
-202.002 -560.767 1653
-197.929 -560.428 1652
-193.979 -560.428 1652
-190.028 -560.428 1652
-186.078 -560.428 1652
-182.127 -560.428 1652
-178.177 -560.428 1652
-174.227 -560.428 1652
-170.276 -560.428 1652
-166.326 -560.428 1652
-162.375 -560.428 1652
-158.233 -559.75 1650
-154.287 -559.75 1650
-150.159 -559.071 1648
-147.993 -565.856 1668
-144.004 -565.856 1668
-140.016 -565.856 1668
-136.027 -565.856 1668
-132.038 -565.856 1668
-127.973 -565.517 1667
-123.987 -565.517 1667
-119.352 -562.464 1658
-115.388 -562.464 1658
-111.423 -562.464 1658
352.432 -1319.31 3889
363.406 -1325.42 3907
372.749 -1325.42 3907
382.092 -1325.42 3907
392.336 -1328.47 3916
402.624 -1331.53 3925
412.01 -1331.53 3925
421.396 -1331.53 3925
429.794 -1328.47 3916
439.158 -1328.47 3916
448.523 -1328.47 3916
462.213 -1341.02 3953
473.933 -1347.47 3972
488.056 -1360.36 4010
497.645 -1360.36 4010
507.235 -1360.36 4010
516.824 -1360.36 4010
526.413 -1360.36 4010
534.799 -1357.31 4001
541.781 -1350.86 3982
1770.88 -1373.59 4049
1780.56 -1373.59 4049
1790.24 -1373.59 4049
1799.93 -1373.59 4049
1783.69 -1353.92 3991
1830.53 -1360.36 4010
1853.43 -1370.2 4039
1863.09 -1370.2 4039
1872.75 -1370.2 4039
1878.21 -1367.15 4030
1887.85 -1367.15 4030
1897.49 -1367.15 4030
3110.56 -1383.77 4079
3120.31 -1383.77 4079
-2585.55 -1268.56 3766
-2582.02 -1271.26 3774
-2572.99 -1271.26 3774
-2563.97 -1271.26 3774
-2554.94 -1271.26 3774
-2551.99 -1274.29 3783
-2542.94 -1274.29 3783
-2533.9 -1274.29 3783
-2513.5 -1268.56 3766
-2504.5 -1268.56 3766
-2495.49 -1268.56 3766
-2486.49 -1268.56 3766
-2477.48 -1268.56 3766
-2451.43 -1259.81 3740
-2442.49 -1259.81 3740
-2433.55 -1259.81 3740
-2424.6 -1259.81 3740
-2410.49 -1257.11 3732
-2370.04 -1240.61 3683
-2361.23 -1240.61 3683
-2321.76 -1224.44 3635
-2313.07 -1224.44 3635
-404.73 -587.124 1743
-402.63 -590.155 1752
-398.441 -590.155 1752
-394.251 -590.155 1752
-390.062 -590.155 1752
-385.872 -590.155 1752
-381.682 -590.155 1752
-376.415 -588.471 1747
-371.812 -587.798 1745
-366.796 -586.45 1741
-362.633 -586.45 1741
-358.264 -586.113 1740
-353.289 -584.766 1736
-348.333 -583.419 1732
-344.191 -583.419 1732
-339.068 -581.734 1727
-333.968 -580.05 1722
-328.701 -578.029 1716
-324.409 -577.692 1715
-320.308 -577.692 1715
-315.469 -576.345 1711
-310.832 -575.334 1708
-306.029 -573.987 1704
-301.954 -573.987 1704
-297.53 -573.313 1702
-293.287 -572.976 1701
-288.88 -572.303 1699
-284.817 -572.303 1699
-279.928 -570.618 1694
-275.063 -568.934 1689
-270.382 -567.587 1685
-266.352 -567.587 1685
-261.856 -566.576 1682
-257.221 -565.229 1678
-253.057 -564.892 1677
-249.047 -564.892 1677
-244.452 -563.545 1673
-240.02 -562.534 1670
-235.744 -561.86 1668
-231.339 -560.85 1665
-227.357 -560.85 1665
-223.107 -560.176 1663
-219.131 -560.176 1663
-214.507 -558.492 1658
-210.542 -558.492 1658
-206.453 -558.155 1657
-202.002 -556.808 1653
-197.929 -556.471 1652
-193.979 -556.471 1652
-190.028 -556.471 1652
-186.078 -556.471 1652
-182.127 -556.471 1652
-178.177 -556.471 1652
-174.227 -556.471 1652
-170.276 -556.471 1652
-166.326 -556.471 1652
-162.375 -556.471 1652
-158.233 -555.797 1650
-154.287 -555.797 1650
-150.159 -555.123 1648
-146.574 -556.471 1652
-142.623 -556.471 1652
-138.673 -556.471 1652
-134.722 -556.471 1652
-130.772 -556.471 1652
-126.668 -555.797 1650
-122.722 -555.797 1650
-118.561 -554.787 1647
-114.413 -553.776 1644
-110.482 -553.776 1644
-106.551 -553.776 1644
352.432 -1310 3889
363.406 -1316.06 3907
372.749 -1316.06 3907
382.092 -1316.06 3907
392.336 -1319.09 3916
402.624 -1322.12 3925
412.01 -1322.12 3925
421.396 -1322.12 3925
429.794 -1319.09 3916
439.158 -1319.09 3916
448.523 -1319.09 3916
462.213 -1331.56 3953
473.933 -1337.96 3972
488.056 -1350.76 4010
497.645 -1350.76 4010
507.235 -1350.76 4010
516.824 -1350.76 4010
526.413 -1350.76 4010
534.799 -1347.72 4001
541.781 -1341.32 3982
1770.88 -1363.89 4049
1780.56 -1363.89 4049
1790.24 -1363.89 4049
1799.93 -1363.89 4049
1783.69 -1344.36 3991
1830.53 -1350.76 4010
1840.12 -1350.76 4010
1849.71 -1350.76 4010
1859.3 -1350.76 4010
1878.21 -1357.49 4030
1887.85 -1357.49 4030
1897.49 -1357.49 4030
3118.19 -1377.37 4089
3127.96 -1377.37 4089
-2591.04 -1262.22 3774
-2582.02 -1262.22 3774
-2572.99 -1262.22 3774
-2563.97 -1262.22 3774
-2554.94 -1262.22 3774
-2551.99 -1265.23 3783
-2542.94 -1265.23 3783
-2533.9 -1265.23 3783
-2513.5 -1259.54 3766
-2504.5 -1259.54 3766
-2495.49 -1259.54 3766
-2486.49 -1259.54 3766
-2477.48 -1259.54 3766
-2451.43 -1250.85 3740
-2442.49 -1250.85 3740
-2433.55 -1250.85 3740
-2424.6 -1250.85 3740
-2410.49 -1248.17 3732
-2380.33 -1237.14 3699
-2371.49 -1237.14 3699
-2342.2 -1226.43 3667
-2317.53 -1218.07 3642
-404.73 -582.948 1743
-401.022 -583.617 1745
-397.304 -584.286 1747
-393.126 -584.286 1747
-388.948 -584.286 1747
-384.771 -584.286 1747
-380.593 -584.286 1747
-375.985 -583.617 1745
-370.959 -582.28 1741
-366.586 -581.945 1740
-362.425 -581.945 1740
-357.852 -581.276 1738
-352.475 -579.269 1732
-347.328 -577.597 1727
-343.198 -577.597 1727
-338.283 -576.259 1723
-333.193 -574.587 1718
-328.51 -573.584 1715
-323.652 -572.246 1711
-319.561 -572.246 1711
-314.916 -571.243 1708
-310.468 -570.574 1706
-305.49 -568.901 1701
-301.422 -568.901 1701
-297.005 -568.233 1699
-292.942 -568.233 1699
-288.199 -566.895 1695
-284.146 -566.895 1695
-279.101 -564.888 1689
-274.411 -563.55 1685
-269.579 -561.878 1680
-265.562 -561.878 1680
-261.078 -560.875 1677
-256.301 -559.202 1672
-252.303 -559.202 1672
-248.304 -559.202 1672
-243.722 -557.865 1668
-239.302 -556.861 1665
-235.038 -556.192 1663
-230.366 -554.52 1658
-226.401 -554.52 1658
-222.034 -553.517 1655
-218.077 -553.517 1655
-213.86 -552.848 1653
-209.907 -552.848 1653
-205.83 -552.513 1652
-201.391 -551.176 1648
-197.33 -550.841 1647
-193.392 -550.841 1647
-189.453 -550.841 1647
-185.289 -550.172 1645
-181.356 -550.172 1645
-177.638 -550.841 1647
-173.699 -550.841 1647
-169.761 -550.841 1647
-165.923 -551.176 1648
-161.982 -551.176 1648
-158.041 -551.176 1648
-154.007 -550.841 1647
-150.068 -550.841 1647
-146.219 -551.176 1648
-142.278 -551.176 1648
-138.337 -551.176 1648
-134.396 -551.176 1648
-130.455 -551.176 1648
-126.514 -551.176 1648
-122.499 -550.841 1647
-118.345 -549.838 1644
-114.413 -549.838 1644
-110.482 -549.838 1644
-106.551 -549.838 1644
354.064 -1306.7 3907
363.406 -1306.7 3907
372.749 -1306.7 3907
382.092 -1306.7 3907
392.336 -1309.71 3916
402.624 -1312.72 3925
412.01 -1312.72 3925
421.396 -1312.72 3925
429.794 -1309.71 3916
439.158 -1309.71 3916
448.523 -1309.71 3916
462.213 -1322.09 3953
473.933 -1328.44 3972
488.056 -1341.15 4010
497.645 -1341.15 4010
507.235 -1341.15 4010
516.824 -1341.15 4010
526.413 -1341.15 4010
533.462 -1334.79 3991
540.421 -1328.44 3972
1770.88 -1354.19 4049
1780.56 -1354.19 4049
1790.24 -1354.19 4049
1799.93 -1354.19 4049
1783.69 -1334.79 3991
1784.69 -1328.44 3972
1802.77 -1334.79 3991
1812.32 -1334.79 3991
1821.86 -1334.79 3991
1835.99 -1338.14 4001
1849.71 -1341.15 4010
1859.3 -1341.15 4010
1878.21 -1347.84 4030
1887.85 -1347.84 4030
1897.49 -1347.84 4030
3118.19 -1367.57 4089
3127.96 -1367.57 4089
-2591.04 -1253.18 3774
-2582.02 -1253.18 3774
-2572.99 -1253.18 3774
-2563.97 -1253.18 3774
-2554.94 -1253.18 3774
-2540.52 -1250.52 3766
-2531.52 -1250.52 3766
-2522.51 -1250.52 3766
-2496.15 -1241.89 3740
-2487.21 -1241.89 3740
-2495.49 -1250.52 3766
-2486.49 -1250.52 3766
-2477.48 -1250.52 3766
-2451.43 -1241.89 3740
-2442.49 -1241.89 3740
-2433.55 -1241.89 3740
-2424.6 -1241.89 3740
-2410.49 -1239.23 3732
-2380.33 -1228.27 3699
-2371.49 -1228.27 3699
-2342.2 -1217.65 3667
-2317.53 -1209.35 3642
-404.73 -578.773 1743
-400.562 -578.773 1743
-396.849 -579.437 1745
-392.676 -579.437 1745
-388.503 -579.437 1745
-384.33 -579.437 1745
-380.157 -579.437 1745
-375.123 -578.109 1741
-370.746 -577.777 1740
-366.164 -577.113 1738
-362.008 -577.113 1738
-357.028 -575.785 1734
-352.271 -574.788 1731
-346.925 -572.796 1725
-342.8 -572.796 1725
-337.694 -571.136 1720
-332.611 -569.476 1715
-328.127 -568.811 1713
-323.274 -567.483 1709
-319.187 -567.483 1709
-314.547 -566.487 1706
-309.558 -564.827 1701
-305.131 -564.163 1699
-301.068 -564.163 1699
-296.306 -562.834 1695
-292.253 -562.834 1695
-287.349 -561.174 1690
-283.308 -561.174 1690
-278.44 -559.514 1685
-273.597 -557.854 1680
-269.098 -556.857 1677
-265.088 -556.857 1677
-260.299 -555.197 1672
-255.994 -554.533 1670
-251.548 -553.537 1667
-247.562 -553.537 1667
-243.283 -552.873 1665
-239.014 -552.209 1663
-234.331 -550.548 1658
-229.949 -549.552 1655
-225.992 -549.552 1655
-221.632 -548.556 1652
-217.681 -548.556 1652
-213.213 -547.228 1648
-209.272 -547.228 1648
-205.332 -547.228 1648
-201.024 -546.232 1645
-197.09 -546.232 1645
-193.157 -546.232 1645
-189.108 -545.9 1644
-185.177 -545.9 1644
-181.245 -545.9 1644
-177.422 -546.232 1645
-173.488 -546.232 1645
-169.555 -546.232 1645
-165.822 -546.896 1647
-161.884 -546.896 1647
-157.945 -546.896 1647
-153.82 -546.232 1645
-149.886 -546.232 1645
-146.13 -546.896 1647
-142.191 -546.896 1647
-138.337 -547.228 1648
-134.396 -547.228 1648
-130.455 -547.228 1648
-126.514 -547.228 1648
-122.573 -547.228 1648
-118.345 -545.9 1644
-114.413 -545.9 1644
-110.684 -546.896 1647
-106.745 -546.896 1647
-102.807 -546.896 1647
349.662 -1315.94 3963
359.138 -1315.94 3963
368.615 -1315.94 3963
377.138 -1312.62 3953
386.591 -1312.62 3953
394.24 -1306.64 3935
403.65 -1306.64 3935
413.06 -1306.64 3935
422.469 -1306.64 3935
431.879 -1306.64 3935
441.289 -1306.64 3935
448.523 -1300.33 3916
457.887 -1300.33 3916
473.933 -1318.93 3972
486.961 -1328.55 4001
496.529 -1328.55 4001
506.096 -1328.55 4001
514.375 -1325.23 3991
523.919 -1325.23 3991
532.259 -1322.25 3982
536.611 -1309.63 3944
1770.88 -1344.49 4049
1780.56 -1344.49 4049
1790.24 -1344.49 4049
1799.93 -1344.49 4049
1783.69 -1325.23 3991
1784.69 -1318.93 3972
1802.77 -1325.23 3991
1812.32 -1325.23 3991
1821.86 -1325.23 3991
1835.99 -1328.55 4001
1845.56 -1328.55 4001
1863.94 -1334.86 4020
1878.21 -1338.18 4030
1887.85 -1338.18 4030
1897.49 -1338.18 4030
1902.39 -1334.86 4020
3118.19 -1357.78 4089
3127.96 -1357.78 4089
-2591.04 -1244.14 3774
-2582.02 -1244.14 3774
-2572.99 -1244.14 3774
-2552.42 -1238.53 3757
-2538.02 -1235.9 3749
-2529.05 -1235.9 3749
-2520.09 -1235.9 3749
-2511.12 -1235.9 3749
-2507.5 -1238.53 3757
-2504.5 -1241.5 3766
-2500.79 -1244.14 3774
-2491.77 -1244.14 3774
-2482.74 -1244.14 3774
-2473.72 -1244.14 3774
-2464.7 -1244.14 3774
-2450.47 -1241.5 3766
-2441.46 -1241.5 3766
-2426.64 -1238.53 3757
-2417.66 -1238.53 3757
-2382.39 -1225.02 3716
-2362.64 -1219.41 3699
-2333.43 -1208.86 3667
-409.748 -569.982 1729
-405.614 -569.982 1729
-404.266 -573.938 1741
-400.562 -574.598 1743
-396.394 -574.598 1743
-392.226 -574.598 1743
-388.058 -574.598 1743
-383.449 -573.938 1741
-379.286 -573.938 1741
-374.907 -573.609 1740
-370.32 -572.949 1738
-364.689 -570.642 1731
-360.55 -570.642 1731
-356.411 -570.642 1731
-351.05 -568.664 1725
-346.322 -567.675 1722
-342.204 -567.675 1722
-336.712 -565.367 1715
-332.223 -564.708 1713
-327.361 -563.389 1709
-322.706 -562.4 1706
-318.627 -562.4 1706
-313.625 -560.752 1701
-308.83 -559.433 1697
-304.413 -558.774 1695
-300.359 -558.774 1695
-296.131 -558.444 1694
-291.391 -557.126 1690
-287.179 -556.796 1689
-283.14 -556.796 1689
-278.11 -554.818 1683
-273.271 -553.17 1678
-268.777 -552.181 1675
-264.772 -552.181 1675
-259.988 -550.533 1670
-255.688 -549.873 1668
-251.246 -548.884 1665
-247.265 -548.884 1665
-242.991 -548.225 1663
-238.296 -546.577 1658
-233.907 -545.588 1655
-229.533 -544.599 1652
-225.582 -544.599 1652
-221.363 -543.939 1650
-217.154 -543.28 1648
-213.084 -542.95 1647
-209.145 -542.95 1647
-204.958 -542.291 1645
-200.902 -541.961 1644
-196.971 -541.961 1644
-193.039 -541.961 1644
-189.108 -541.961 1644
-184.951 -541.302 1642
-181.025 -541.302 1642
-177.314 -541.961 1644
-173.383 -541.961 1644
-169.452 -541.961 1644
-165.52 -541.961 1644
-161.589 -541.961 1644
-157.658 -541.961 1644
-153.82 -542.291 1645
-149.886 -542.291 1645
-146.13 -542.95 1647
-142.191 -542.95 1647
-138.337 -543.28 1648
-134.396 -543.28 1648
-130.455 -543.28 1648
-126.514 -543.28 1648
-122.573 -543.28 1648
-118.345 -541.961 1644
-114.413 -541.961 1644
-110.684 -542.95 1647
-106.745 -542.95 1647
-102.807 -542.95 1647
-98.8682 -542.95 1647
-94.9297 -542.95 1647
350.456 -1309.41 3972
359.954 -1309.41 3972
369.452 -1309.41 3972
378.951 -1309.41 3972
388.449 -1309.41 3972
397.947 -1309.41 3972
407.445 -1309.41 3972
416.944 -1309.41 3972
426.442 -1309.41 3972
434.952 -1306.44 3963
444.429 -1306.44 3963
450.699 -1297.21 3935
458.939 -1293.92 3925
473.933 -1309.41 3972
488.056 -1321.94 4010
497.645 -1321.94 4010
507.235 -1321.94 4010
516.824 -1321.94 4010
526.413 -1321.94 4010
532.259 -1312.71 3982
536.611 -1300.18 3944
1770.88 -1334.79 4049
1780.56 -1334.79 4049
1790.24 -1334.79 4049
1799.93 -1334.79 4049
1783.69 -1315.67 3991
1784.69 -1309.41 3972
1802.77 -1315.67 3991
1812.32 -1315.67 3991
1821.86 -1315.67 3991
1835.99 -1318.97 4001
1845.56 -1318.97 4001
1863.94 -1325.23 4020
1878.21 -1328.53 4030
1887.85 -1328.53 4030
1897.49 -1328.53 4030
1902.39 -1325.23 4020
-2573.88 -1226.92 3749
-2564.91 -1226.92 3749
-2555.95 -1226.92 3749
-2546.98 -1226.92 3749
-2531.93 -1223.97 3740
-2522.98 -1223.97 3740
-2514.04 -1223.97 3740
-2505.1 -1223.97 3740
-2507.5 -1229.53 3757
-2504.5 -1232.48 3766
-2506.76 -1238.04 3783
-2497.71 -1238.04 3783
-2488.67 -1238.04 3783
-2473.72 -1235.1 3774
-2464.7 -1235.1 3774
-2450.47 -1232.48 3766
-2441.46 -1232.48 3766
-2432.45 -1232.48 3766
-2423.45 -1232.48 3766
-2382.39 -1216.12 3716
-2362.64 -1210.55 3699
-2343.62 -1205.32 3683
-413.404 -565.186 1727
-409.748 -565.841 1729
-405.614 -565.841 1729
-404.266 -569.768 1741
-400.562 -570.422 1743
-396.394 -570.422 1743
-392.226 -570.422 1743
-388.058 -570.422 1743
-383.449 -569.768 1741
-379.286 -569.768 1741
-374.907 -569.441 1740
-370.32 -568.786 1738
-364.689 -566.495 1731
-360.55 -566.495 1731
-356.411 -566.495 1731
-351.05 -564.532 1725
-346.322 -563.55 1722
-342.204 -563.55 1722
-336.712 -561.259 1715
-332.223 -560.604 1713
-327.361 -559.295 1709
-322.706 -558.314 1706
-318.627 -558.314 1706
-313.625 -556.677 1701
-308.83 -555.368 1697
-304.413 -554.714 1695
-300.359 -554.714 1695
-296.131 -554.386 1694
-291.391 -553.077 1690
-287.179 -552.75 1689
-283.14 -552.75 1689
-278.11 -550.786 1683
-273.271 -549.15 1678
-268.777 -548.168 1675
-264.772 -548.168 1675
-259.988 -546.532 1670
-255.688 -545.878 1668
-251.246 -544.896 1665
-247.265 -544.896 1665
-242.991 -544.241 1663
-238.296 -542.605 1658
-233.907 -541.623 1655
-229.533 -540.641 1652
-225.582 -540.641 1652
-221.363 -539.987 1650
-217.154 -539.332 1648
-213.084 -539.005 1647
-209.145 -539.005 1647
-204.958 -538.35 1645
-200.902 -538.023 1644
-196.971 -538.023 1644
-193.039 -538.023 1644
-189.108 -538.023 1644
-184.951 -537.369 1642
-181.025 -537.369 1642
-177.314 -538.023 1644
-173.383 -538.023 1644
-169.452 -538.023 1644
-165.52 -538.023 1644
-161.589 -538.023 1644
-157.658 -538.023 1644
-153.82 -538.35 1645
-149.886 -538.35 1645
-146.13 -539.005 1647
-142.191 -539.005 1647
-138.337 -539.332 1648
-134.396 -539.332 1648
-130.455 -539.332 1648
-126.514 -539.332 1648
-122.573 -539.332 1648
-118.345 -538.023 1644
-114.413 -538.023 1644
-110.684 -539.005 1647
-106.745 -539.005 1647
-102.807 -539.005 1647
-98.8682 -539.005 1647
-94.9297 -539.005 1647
350.456 -1299.9 3972
359.954 -1299.9 3972
369.452 -1299.9 3972
378.951 -1299.9 3972
388.449 -1299.9 3972
397.947 -1299.9 3972
407.445 -1299.9 3972
416.944 -1299.9 3972
426.442 -1299.9 3972
434.952 -1296.95 3963
444.429 -1296.95 3963
450.699 -1287.79 3935
458.939 -1284.51 3925
473.933 -1299.9 3972
488.056 -1312.33 4010
497.645 -1312.33 4010
507.235 -1312.33 4010
516.824 -1312.33 4010
526.413 -1312.33 4010
528.383 -1293.68 3953
536.611 -1290.73 3944
1770.88 -1325.09 4049
1780.56 -1325.09 4049
1790.24 -1325.09 4049
1795.48 -1321.82 4039
1762.68 -1290.73 3944
1772.11 -1290.73 3944
1781.54 -1290.73 3944
1790.97 -1290.73 3944
1800.41 -1290.73 3944
1831.4 -1306.11 3991
1840.95 -1306.11 3991
1863.94 -1315.6 4020
1873.55 -1315.6 4020
1883.16 -1315.6 4020
1892.78 -1315.6 4020
1902.39 -1315.6 4020
-2557.24 -1201.69 3699
-2548.4 -1201.69 3699
-2573.88 -1217.93 3749
-2564.91 -1217.93 3749
-2555.95 -1217.93 3749
-2546.98 -1217.93 3749
-2531.93 -1215.01 3740
-2522.98 -1215.01 3740
-2514.04 -1215.01 3740
-2505.1 -1215.01 3740
-2507.5 -1220.53 3757
-2504.5 -1223.46 3766
-2506.76 -1228.98 3783
-2497.71 -1228.98 3783
-2488.67 -1228.98 3783
-2473.72 -1226.06 3774
-2464.7 -1226.06 3774
-2450.47 -1223.46 3766
-2441.46 -1223.46 3766
-2432.45 -1223.46 3766
-2423.45 -1223.46 3766
-2382.39 -1207.21 3716
-2362.64 -1201.69 3699
-2343.62 -1196.49 3683
-413.404 -561.049 1727
-409.748 -561.699 1729
-405.614 -561.699 1729
-401.944 -562.349 1731
-398.034 -562.673 1732
-394.347 -563.323 1734
-390.201 -563.323 1734
-386.054 -563.323 1734
-381.908 -563.323 1734
-377.761 -563.323 1734
-372.968 -562.349 1731
-368.403 -561.699 1729
-363.425 -560.399 1725
-359.3 -560.399 1725
-354.558 -559.425 1722
-350.033 -558.775 1720
-345.115 -557.476 1716
-341.012 -557.476 1716
-335.927 -555.851 1711
-331.253 -554.877 1708
-326.403 -553.577 1704
-321.95 -552.927 1702
-317.88 -552.927 1702
-312.888 -551.303 1697
-308.466 -550.653 1695
-303.515 -549.029 1690
-299.473 -549.029 1690
-295.257 -548.704 1689
-291.218 -548.704 1689
-286.499 -547.405 1685
-282.47 -547.405 1685
-277.614 -545.78 1680
-273.108 -544.806 1677
-268.456 -543.506 1673
-264.456 -543.506 1673
-259.677 -541.882 1668
-255.535 -541.557 1667
-250.945 -540.257 1663
-246.968 -540.257 1663
-242.553 -539.283 1660
-238.152 -538.308 1657
-233.483 -536.684 1652
-229.255 -536.034 1650
-225.309 -536.034 1650
-221.095 -535.384 1648
-217.022 -535.06 1647
-212.696 -534.085 1644
-208.765 -534.085 1644
-204.584 -533.435 1642
-200.658 -533.435 1642
-196.731 -533.435 1642
-192.804 -533.435 1642
-188.648 -532.785 1640
-184.726 -532.785 1640
-180.804 -532.785 1640
-176.883 -532.785 1640
-172.961 -532.785 1640
-169.039 -532.785 1640
-165.319 -533.435 1642
-161.392 -533.435 1642
-157.466 -533.435 1642
-153.726 -534.085 1644
-149.795 -534.085 1644
-145.952 -534.41 1645
-142.019 -534.41 1645
-138.253 -535.06 1647
-134.314 -535.06 1647
-130.376 -535.06 1647
-126.284 -534.41 1645
-122.276 -534.085 1644
-118.345 -534.085 1644
-114.413 -534.085 1644
-110.684 -535.06 1647
-106.745 -535.06 1647
-102.807 -535.06 1647
-98.8682 -535.06 1647
-94.9297 -535.06 1647
350.456 -1290.38 3972
359.954 -1290.38 3972
369.452 -1290.38 3972
378.951 -1290.38 3972
388.449 -1290.38 3972
397.947 -1290.38 3972
407.445 -1290.38 3972
416.944 -1290.38 3972
426.442 -1290.38 3972
435.94 -1290.38 3972
445.438 -1290.38 3972
451.73 -1281.28 3944
458.939 -1275.11 3925
473.933 -1290.38 3972
488.056 -1302.73 4010
497.645 -1302.73 4010
507.235 -1302.73 4010
516.824 -1302.73 4010
526.413 -1302.73 4010
528.383 -1284.21 3953
536.611 -1281.28 3944
1760.16 -1321.89 4069
1769.9 -1321.89 4069
1779.63 -1321.89 4069
1780.56 -1315.4 4049
1790.24 -1315.4 4049
1795.48 -1312.15 4039
1758.66 -1278.36 3935
1755.49 -1269.26 3907
1781.54 -1281.28 3944
1790.97 -1281.28 3944
1800.41 -1281.28 3944
1809.84 -1281.28 3944
1836.8 -1293.63 3982
1846.32 -1293.63 3982
1855.84 -1293.63 3982
1865.36 -1293.63 3982
1861.23 -1284.21 3953
1870.68 -1284.21 3953
1824.01 -1245.87 3835
-2557.24 -1192.83 3699
-2548.4 -1192.83 3699
-2562.21 -1203.47 3732
-2553.28 -1203.47 3732
-2544.36 -1203.47 3732
-2535.43 -1203.47 3732
-2521.09 -1200.89 3724
-2512.19 -1200.89 3724
-2503.28 -1200.89 3724
-2494.38 -1200.89 3724
-2507.5 -1211.53 3757
-2504.5 -1214.44 3766
-2506.76 -1219.92 3783
-2497.71 -1219.92 3783
-2488.67 -1219.92 3783
-2473.72 -1217.02 3774
-2464.7 -1217.02 3774
-2450.47 -1214.44 3766
-2441.46 -1214.44 3766
-2432.45 -1214.44 3766
-2423.45 -1214.44 3766
-2382.39 -1198.31 3716
-2362.64 -1192.83 3699
-2343.62 -1187.67 3683
-416.325 -555.3 1722
-413.404 -556.912 1727
-409.274 -556.912 1727
-405.144 -556.912 1727
-401.015 -556.912 1727
-396.885 -556.912 1727
-393.21 -557.557 1729
-389.075 -557.557 1729
-384.941 -557.557 1729
-380.806 -557.557 1729
-376.672 -557.557 1729
-372.537 -557.557 1729
-367.124 -555.622 1723
-362.372 -554.655 1720
-358.259 -554.655 1720
-354.146 -554.655 1720
-349.015 -553.042 1715
-344.11 -551.752 1711
-339.422 -550.785 1708
-335.338 -550.785 1708
-330.478 -549.495 1704
-326.02 -548.85 1702
-321.382 -547.883 1699
-317.319 -547.883 1699
-312.519 -546.593 1695
-307.556 -544.98 1690
-303.335 -544.658 1689
-299.296 -544.658 1689
-294.907 -544.013 1687
-290.529 -543.368 1685
-286.159 -542.723 1683
-282.135 -542.723 1683
-277.284 -541.111 1678
-272.783 -540.143 1675
-268.296 -539.176 1672
-264.297 -539.176 1672
-259.521 -537.564 1667
-254.921 -536.274 1663
-250.492 -535.306 1660
-246.522 -535.306 1660
-242.553 -535.306 1660
-237.577 -533.049 1653
-233.2 -532.082 1650
-228.977 -531.437 1648
-225.036 -531.437 1648
-220.693 -530.469 1645
-216.364 -529.502 1642
-212.437 -529.502 1642
-208.511 -529.502 1642
-204.335 -528.857 1640
-200.291 -528.534 1639
-196.132 -527.889 1637
-192.217 -527.889 1637
-188.303 -527.889 1637
-184.388 -527.889 1637
-180.474 -527.889 1637
-176.559 -527.889 1637
-172.645 -527.889 1637
-168.73 -527.889 1637
-165.017 -528.534 1639
-161.097 -528.534 1639
-157.178 -528.534 1639
-153.259 -528.534 1639
-149.613 -529.502 1642
-145.686 -529.502 1642
-141.76 -529.502 1642
-138.001 -530.147 1644
-134.07 -530.147 1644
-130.138 -530.147 1644
-126.054 -529.502 1642
-122.127 -529.502 1642
-118.201 -529.502 1642
-114.274 -529.502 1642
-110.348 -529.502 1642
-106.421 -529.502 1642
-102.807 -531.114 1647
-98.8682 -531.114 1647
-94.9297 -531.114 1647
350.456 -1280.87 3972
359.954 -1280.87 3972
369.452 -1280.87 3972
378.951 -1280.87 3972
388.449 -1280.87 3972
397.947 -1280.87 3972
407.445 -1280.87 3972
416.944 -1280.87 3972
426.442 -1280.87 3972
435.94 -1280.87 3972
445.438 -1280.87 3972
451.73 -1271.84 3944
458.939 -1265.71 3925
473.933 -1280.87 3972
484.648 -1284.09 3982
494.171 -1284.09 3982
503.693 -1284.09 3982
513.215 -1284.09 3982
522.737 -1284.09 3982
527.18 -1271.84 3944
532.802 -1262.81 3916
1760.16 -1312.15 4069
1769.9 -1312.15 4069
1779.63 -1312.15 4069
1789.36 -1312.15 4069
1799.09 -1312.15 4069
1791.48 -1299.57 4030
1766.7 -1274.74 3953
1755.49 -1259.9 3907
1764.83 -1259.9 3907
1770.09 -1257 3898
1779.41 -1257 3898
1801.12 -1265.71 3925
1810.5 -1265.71 3925
1819.89 -1265.71 3925
1829.28 -1265.71 3925
1838.66 -1265.71 3925
1831.1 -1254.1 3889
1840.4 -1254.1 3889
1824.01 -1236.69 3835
-2557.24 -1183.97 3699
-2548.4 -1183.97 3699
-2551.22 -1189.41 3716
-2542.34 -1189.41 3716
-2533.45 -1189.41 3716
-2524.56 -1189.41 3716
-2515.68 -1189.41 3716
-2506.79 -1189.41 3716
-2497.91 -1189.41 3716
-2489.02 -1189.41 3716
-2490.81 -1194.53 3732
-2481.89 -1194.53 3732
-2489.53 -1202.53 3757
-2480.55 -1202.53 3757
-2471.56 -1202.53 3757
-2462.58 -1202.53 3757
-2459.47 -1205.41 3766
-2450.47 -1205.41 3766
-2441.46 -1205.41 3766
-2415.66 -1197.09 3740
-2385.48 -1186.53 3707
-2376.62 -1186.53 3707
-2352.42 -1178.85 3683
-2327.71 -1170.85 3658
-424.561 -551.175 1722
-420.443 -551.175 1722
-417.534 -552.775 1727
-413.404 -552.775 1727
-409.274 -552.775 1727
-405.144 -552.775 1727
-401.015 -552.775 1727
-396.425 -552.135 1725
-392.755 -552.775 1727
-388.625 -552.775 1727
-384.496 -552.775 1727
-380.366 -552.775 1727
-376.236 -552.775 1727
-371.244 -551.495 1723
-366.485 -550.534 1720
-361.951 -549.894 1718
-357.842 -549.894 1718
-353.322 -549.254 1716
-348.608 -548.294 1713
-344.11 -547.654 1711
-339.025 -546.053 1706
-334.945 -546.053 1706
-330.09 -544.773 1702
-325.828 -544.453 1701
-320.626 -542.532 1695
-316.572 -542.532 1695
-312.335 -542.212 1694
-307.374 -540.612 1689
-302.976 -539.972 1687
-298.942 -539.972 1687
-294.558 -539.332 1685
-290.184 -538.692 1683
-285.649 -537.731 1680
-281.632 -537.731 1680
-276.788 -536.131 1675
-272.457 -535.491 1673
-267.975 -534.531 1670
-263.981 -534.531 1670
-259.209 -532.93 1665
-254.768 -531.97 1662
-250.492 -531.33 1660
-246.522 -531.33 1660
-242.114 -530.37 1657
-237.146 -528.129 1650
-232.918 -527.489 1648
-228.838 -527.169 1647
-224.899 -527.169 1647
-220.29 -525.568 1642
-216.364 -525.568 1642
-212.178 -524.928 1640
-208.257 -524.928 1640
-204.21 -524.608 1639
-200.047 -523.968 1637
-196.012 -523.648 1636
-192.1 -523.648 1636
-188.188 -523.648 1636
-184.276 -523.648 1636
-180.363 -523.648 1636
-176.451 -523.648 1636
-172.539 -523.648 1636
-168.627 -523.648 1636
-164.715 -523.648 1636
-160.803 -523.648 1636
-156.89 -523.648 1636
-153.259 -524.608 1639
-149.339 -524.608 1639
-145.686 -525.568 1642
-141.76 -525.568 1642
-137.833 -525.568 1642
-133.907 -525.568 1642
-129.98 -525.568 1642
-126.054 -525.568 1642
-121.978 -524.928 1640
-118.201 -525.568 1642
-114.274 -525.568 1642
-110.348 -525.568 1642
-106.421 -525.568 1642
-102.495 -525.568 1642
-98.568 -525.568 1642
-94.6415 -525.568 1642
350.456 -1271.35 3972
359.954 -1271.35 3972
369.452 -1271.35 3972
378.951 -1271.35 3972
388.449 -1271.35 3972
397.947 -1271.35 3972
407.445 -1271.35 3972
416.944 -1271.35 3972
426.442 -1271.35 3972
435.94 -1271.35 3972
445.438 -1271.35 3972
451.73 -1262.39 3944
458.939 -1256.31 3925
473.933 -1271.35 3972
484.648 -1274.55 3982
494.171 -1274.55 3982
503.693 -1274.55 3982
513.215 -1274.55 3982
522.737 -1274.55 3982
527.18 -1262.39 3944
532.802 -1253.43 3916
1760.16 -1302.4 4069
1769.9 -1302.4 4069
1779.63 -1302.4 4069
1789.36 -1302.4 4069
1799.09 -1302.4 4069
1808.82 -1302.4 4069
1766.7 -1265.27 3953
1763.57 -1256.31 3925
1772.96 -1256.31 3925
1770.09 -1247.66 3898
1779.41 -1247.66 3898
1801.12 -1256.31 3925
1810.5 -1256.31 3925
1819.89 -1256.31 3925
1829.28 -1256.31 3925
1838.66 -1256.31 3925
1831.1 -1244.78 3889
1840.4 -1244.78 3889
1824.01 -1227.5 3835
-2546.18 -1170.03 3683
-2537.37 -1170.03 3683
-2528.57 -1170.03 3683
-2525.23 -1172.57 3691
-2516.41 -1172.57 3691
-2507.58 -1172.57 3691
-2498.75 -1172.57 3691
-2479.13 -1167.48 3675
-2470.35 -1167.48 3675
-2461.56 -1167.48 3675
-2452.77 -1167.48 3675
-2449.3 -1170.03 3683
-2440.49 -1170.03 3683
-2431.69 -1170.03 3683
-2422.88 -1170.03 3683
-2414.07 -1170.03 3683
-2405.27 -1170.03 3683
-2396.46 -1170.03 3683
-2387.65 -1170.03 3683
-2368.51 -1164.94 3667
-2348.8 -1159.54 3650
-2340.07 -1159.54 3650
-2321.76 -1154.78 3635
-2297.8 -1147.15 3611
-425.793 -548.638 1727
-421.664 -548.638 1727
-417.534 -548.638 1727
-413.404 -548.638 1727
-409.274 -548.638 1727
-405.144 -548.638 1727
-401.015 -548.638 1727
-396.885 -548.638 1727
-392.755 -548.638 1727
-388.625 -548.638 1727
-384.496 -548.638 1727
-380.366 -548.638 1727
-376.236 -548.638 1727
-371.244 -547.367 1723
-366.485 -546.414 1720
-361.951 -545.779 1718
-357.842 -545.779 1718
-353.322 -545.143 1716
-348.608 -544.19 1713
-344.11 -543.555 1711
-339.025 -541.967 1706
-334.945 -541.967 1706
-330.09 -540.696 1702
-325.828 -540.378 1701
-320.626 -538.472 1695
-316.572 -538.472 1695
-312.335 -538.154 1694
-307.374 -536.566 1689
-302.976 -535.931 1687
-298.942 -535.931 1687
-294.558 -535.295 1685
-290.184 -534.66 1683
-285.649 -533.707 1680
-281.632 -533.707 1680
-276.788 -532.118 1675
-272.457 -531.483 1673
-267.975 -530.53 1670
-263.981 -530.53 1670
-259.209 -528.942 1665
-254.768 -527.989 1662
-250.492 -527.353 1660
-246.522 -527.353 1660
-242.114 -526.4 1657
-237.146 -524.176 1650
-232.918 -523.541 1648
-228.838 -523.223 1647
-224.899 -523.223 1647
-220.29 -521.635 1642
-216.364 -521.635 1642
-212.178 -521 1640
-208.257 -521 1640
-204.21 -520.682 1639
-200.047 -520.047 1637
-196.012 -519.729 1636
-192.1 -519.729 1636
-188.188 -519.729 1636
-184.276 -519.729 1636
-180.363 -519.729 1636
-176.451 -519.729 1636
-172.539 -519.729 1636
-168.627 -519.729 1636
-164.715 -519.729 1636
-160.803 -519.729 1636
-156.89 -519.729 1636
-153.259 -520.682 1639
-149.339 -520.682 1639
-145.686 -521.635 1642
-141.76 -521.635 1642
-137.833 -521.635 1642
-133.907 -521.635 1642
-129.98 -521.635 1642
-126.054 -521.635 1642
-121.978 -521 1640
-118.201 -521.635 1642
-114.274 -521.635 1642
-110.348 -521.635 1642
-106.421 -521.635 1642
-102.495 -521.635 1642
-98.568 -521.635 1642
-94.6415 -521.635 1642
347.985 -1252.94 3944
359.138 -1258.98 3963
368.615 -1258.98 3963
378.092 -1258.98 3963
385.71 -1252.94 3944
397.947 -1261.84 3972
407.445 -1261.84 3972
416.944 -1261.84 3972
426.442 -1261.84 3972
434.952 -1258.98 3963
444.429 -1258.98 3963
451.73 -1252.94 3944
457.887 -1244.05 3916
468.325 -1246.9 3925
484.648 -1265.01 3982
494.171 -1265.01 3982
503.693 -1265.01 3982
511.926 -1261.84 3972
521.424 -1261.84 3972
525.977 -1250.08 3935
530.353 -1238.33 3898
1779.63 -1292.65 4069
1789.36 -1292.65 4069
1799.09 -1292.65 4069
1808.82 -1292.65 4069
1766.7 -1255.8 3953
1763.57 -1246.9 3925
1772.96 -1246.9 3925
1770.09 -1238.33 3898
1779.41 -1238.33 3898
1788.73 -1238.33 3898
1798.05 -1238.33 3898
1807.37 -1238.33 3898
1804.11 -1229.75 3871
1813.37 -1229.75 3871
1801.43 -1215.45 3826
1810.58 -1215.45 3826
1807.37 -1207.19 3800
-2546.18 -1161.2 3683
-2537.37 -1161.2 3683
-2528.57 -1161.2 3683
-2525.23 -1163.72 3691
-2516.41 -1163.72 3691
-2507.58 -1163.72 3691
-2498.75 -1163.72 3691
-2479.13 -1158.68 3675
-2470.35 -1158.68 3675
-2461.56 -1158.68 3675
-2452.77 -1158.68 3675
-2449.3 -1161.2 3683
-2440.49 -1161.2 3683
-2431.69 -1161.2 3683
-2422.88 -1161.2 3683
-2414.07 -1161.2 3683
-2405.27 -1161.2 3683
-2396.46 -1161.2 3683
-2387.65 -1161.2 3683
-2368.51 -1156.16 3667
-2348.8 -1150.8 3650
-2340.07 -1150.8 3650
-2321.76 -1146.07 3635
-2297.8 -1138.5 3611
-425.793 -544.501 1727
-421.664 -544.501 1727
-417.534 -544.501 1727
-413.404 -544.501 1727
-409.274 -544.501 1727
-405.144 -544.501 1727
-401.015 -544.501 1727
-396.885 -544.501 1727
-392.755 -544.501 1727
-388.625 -544.501 1727
-384.496 -544.501 1727
-379.925 -543.87 1725
-375.8 -543.87 1725
-370.598 -542.294 1720
-366.059 -541.663 1718
-361.529 -541.033 1716
-357.426 -541.033 1716
-352.705 -540.087 1713
-348.201 -539.456 1711
-343.506 -538.51 1708
-338.23 -536.619 1702
-334.16 -536.619 1702
-329.896 -536.303 1701
-325.062 -535.042 1697
-320.436 -534.096 1694
-316.385 -534.096 1694
-311.413 -532.52 1689
-307.01 -531.889 1687
-302.257 -530.628 1683
-298.233 -530.628 1683
-294.033 -530.313 1682
-289.666 -529.682 1680
-285.309 -529.052 1678
-281.296 -529.052 1678
-276.458 -527.475 1673
-271.968 -526.53 1670
-267.654 -525.899 1668
-263.665 -525.899 1668
-258.898 -524.323 1663
-254.462 -523.377 1660
-250.039 -522.431 1657
-246.077 -522.431 1657
-241.822 -521.8 1655
-236.859 -519.593 1648
-232.776 -519.278 1647
-228.56 -518.647 1645
-224.626 -518.647 1645
-220.29 -517.701 1642
-216.1 -517.071 1640
-212.049 -516.756 1639
-208.13 -516.756 1639
-203.961 -516.125 1637
-199.924 -515.81 1636
-196.012 -515.81 1636
-192.1 -515.81 1636
-188.188 -515.81 1636
-184.05 -515.179 1634
-180.143 -515.179 1634
-176.236 -515.179 1634
-172.328 -515.179 1634
-168.421 -515.179 1634
-164.513 -515.179 1634
-160.803 -515.81 1636
-156.89 -515.81 1636
-153.072 -516.125 1637
-149.157 -516.125 1637
-145.42 -516.756 1639
-141.501 -516.756 1639
-137.665 -517.071 1640
-133.744 -517.071 1640
-129.822 -517.071 1640
-125.9 -517.071 1640
-121.904 -516.756 1639
-118.057 -517.071 1640
-114.274 -517.701 1642
-110.348 -517.701 1642
-106.421 -517.701 1642
-102.495 -517.701 1642
-98.568 -517.701 1642
-94.6415 -517.701 1642
347.191 -1240.65 3935
356.601 -1240.65 3935
366.011 -1240.65 3935
375.421 -1240.65 3935
383.852 -1237.5 3925
395.142 -1243.49 3944
405.496 -1246.33 3953
414.949 -1246.33 3953
424.402 -1246.33 3953
433.855 -1246.33 3953
443.308 -1246.33 3953
450.699 -1240.65 3935
455.782 -1228.99 3898
468.325 -1237.5 3925
484.648 -1255.47 3982
494.171 -1255.47 3982
503.693 -1255.47 3982
1789.36 -1282.9 4069
1799.09 -1282.9 4069
1808.82 -1282.9 4069
1766.7 -1246.33 3953
1763.57 -1237.5 3925
1772.96 -1237.5 3925
1782.35 -1237.5 3925
1791.73 -1237.5 3925
1788.73 -1228.99 3898
1798.05 -1228.99 3898
1807.37 -1228.99 3898
1804.11 -1220.48 3871
1813.37 -1220.48 3871
1797.67 -1203.77 3818
1806.8 -1203.77 3818
1803.56 -1195.57 3792
-2540.65 -1149.88 3675
-2531.86 -1149.88 3675
-2523.07 -1149.88 3675
-2519.76 -1152.38 3683
-2510.95 -1152.38 3683
-2502.14 -1152.38 3683
-2482.51 -1147.37 3667
-2473.74 -1147.37 3667
-2464.97 -1147.37 3667
-2456.2 -1147.37 3667
-2447.43 -1147.37 3667
-2438.66 -1147.37 3667
-2435.19 -1149.88 3675
-2431.69 -1152.38 3683
-2422.88 -1152.38 3683
-2414.07 -1152.38 3683
-2394.82 -1147.37 3667
-2386.05 -1147.37 3667
-2377.28 -1147.37 3667
-2357.53 -1142.05 3650
-2339.15 -1137.36 3635
-2330.46 -1137.36 3635
-2316.65 -1134.86 3627
-2292.71 -1127.35 3603
-425.793 -540.364 1727
-421.664 -540.364 1727
-417.534 -540.364 1727
-413.404 -540.364 1727
-409.274 -540.364 1727
-405.144 -540.364 1727
-401.015 -540.364 1727
-396.885 -540.364 1727
-392.755 -540.364 1727
-388.625 -540.364 1727
-384.496 -540.364 1727
-379.925 -539.738 1725
-375.8 -539.738 1725
-370.167 -537.548 1718
-365.633 -536.922 1716
-360.897 -535.983 1713
-356.801 -535.983 1713
-352.293 -535.358 1711
-347.591 -534.419 1708
-342.3 -532.542 1702
-338.031 -532.229 1701
-333.963 -532.229 1701
-329.12 -530.977 1697
-324.487 -530.038 1694
-319.68 -528.787 1690
-315.638 -528.787 1690
-311.044 -527.848 1687
-306.282 -526.597 1683
-302.078 -526.284 1682
-298.056 -526.284 1682
-293.334 -525.032 1678
-289.322 -525.032 1678
-284.799 -524.094 1675
-280.793 -524.094 1675
-276.292 -523.155 1672
-271.643 -521.903 1668
-267.173 -520.965 1665
-263.191 -520.965 1665
-258.742 -520.026 1662
-254.002 -518.461 1657
-249.737 -517.836 1655
-245.483 -517.21 1653
-241.53 -517.21 1653
-236.859 -515.645 1648
-232.494 -514.707 1645
-228.421 -514.394 1644
-224.49 -514.394 1644
-220.022 -513.142 1640
-216.1 -513.142 1640
-212.049 -512.829 1639
-208.13 -512.829 1639
-203.836 -511.891 1636
-199.68 -511.265 1634
-195.773 -511.265 1634
-191.865 -511.265 1634
-187.958 -511.265 1634
-183.825 -510.639 1632
-179.922 -510.639 1632
-176.02 -510.639 1632
-172.117 -510.639 1632
-168.215 -510.639 1632
-164.312 -510.639 1632
-160.606 -511.265 1634
-156.699 -511.265 1634
-152.978 -511.891 1636
-149.157 -512.204 1637
-145.243 -512.204 1637
-141.328 -512.204 1637
-137.581 -512.829 1639
-133.662 -512.829 1639
-129.743 -512.829 1639
-125.823 -512.829 1639
-121.681 -511.891 1636
-117.985 -512.829 1639
-114.274 -513.768 1642
-110.348 -513.768 1642
-106.421 -513.768 1642
-102.495 -513.768 1642
-98.568 -513.768 1642
-94.6415 -513.768 1642
-90.6045 -513.142 1640
343.927 -1219.65 3898
353.248 -1219.65 3898
362.569 -1219.65 3898
371.891 -1219.65 3898
381.212 -1219.65 3898
391.435 -1222.47 3907
404.573 -1234.04 3944
414.004 -1234.04 3944
424.402 -1236.86 3953
433.855 -1236.86 3953
443.308 -1236.86 3953
450.699 -1231.23 3935
454.73 -1216.84 3889
464.03 -1216.84 3889
473.329 -1216.84 3889
1798.15 -1279.41 4089
1807.93 -1279.41 4089
1817.71 -1279.41 4089
1762.68 -1234.04 3944
1763.57 -1228.1 3925
1785.61 -1236.86 3953
1795.06 -1236.86 3953
1804.51 -1236.86 3953
1809.84 -1234.04 3944
1819.27 -1234.04 3944
1815.72 -1225.28 3916
1804.11 -1211.2 3871
1809.15 -1208.39 3862
1797.67 -1194.62 3818
1806.8 -1194.62 3818
1803.56 -1186.49 3792
1812.63 -1186.49 3792
-2528.9 -1135.79 3658
-2520.15 -1135.79 3658
-2517.58 -1138.59 3667
-2508.81 -1138.59 3667
-2500.04 -1138.59 3667
-2491.27 -1138.59 3667
-2482.51 -1138.59 3667
-2462.27 -1133.31 3650
-2453.54 -1133.31 3650
-2450.17 -1135.79 3658
-2441.42 -1135.79 3658
-2432.68 -1135.79 3658
-2429.89 -1138.59 3667
-2421.12 -1138.59 3667
-2412.35 -1138.59 3667
-2403.59 -1138.59 3667
-2388.94 -1135.79 3658
-2380.19 -1135.79 3658
-2366.26 -1133.31 3650
-2352.36 -1130.83 3642
-2334 -1126.17 3627
-2325.33 -1126.17 3627
-2316.65 -1126.17 3627
-2292.71 -1118.72 3603
-429.425 -535.606 1725
-425.793 -536.227 1727
-421.664 -536.227 1727
-417.534 -536.227 1727
-413.404 -536.227 1727
-409.274 -536.227 1727
-405.144 -536.227 1727
-401.015 -536.227 1727
-396.425 -535.606 1725
-392.3 -535.606 1725
-388.175 -535.606 1725
-384.05 -535.606 1725
-379.925 -535.606 1725
-375.8 -535.606 1725
-370.167 -533.432 1718
-365.42 -532.501 1715
-360.476 -531.259 1711
-356.384 -531.259 1711
-351.881 -530.638 1709
-347.184 -529.706 1706
-342.3 -528.464 1702
-337.236 -526.912 1697
-333.178 -526.912 1697
-329.12 -526.912 1697
-323.721 -524.738 1690
-319.491 -524.428 1689
-315.452 -524.428 1689
-310.306 -522.565 1683
-306.1 -522.254 1682
-301.359 -521.013 1678
-297.347 -521.013 1678
-293.159 -520.702 1677
-288.804 -520.081 1675
-284.289 -519.15 1672
-280.291 -519.15 1672
-275.631 -517.908 1668
-271.48 -517.597 1667
-266.691 -516.045 1662
-262.717 -516.045 1662
-258.742 -516.045 1662
-254.002 -514.492 1657
-249.436 -513.25 1653
-245.334 -512.94 1652
-241.384 -512.94 1652
-236.427 -510.766 1645
-232.494 -510.766 1645
-228.421 -510.456 1644
-224.49 -510.456 1644
-220.022 -509.214 1640
-215.968 -508.903 1639
-211.79 -508.282 1637
-207.876 -508.282 1637
-203.587 -507.351 1634
-199.68 -507.351 1634
-195.773 -507.351 1634
-191.865 -507.351 1634
-187.728 -506.73 1632
-183.712 -506.419 1631
-179.592 -505.798 1629
-175.912 -506.419 1631
-172.012 -506.419 1631
-168.112 -506.419 1631
-164.211 -506.419 1631
-160.409 -506.73 1632
-156.507 -506.73 1632
-152.791 -507.351 1634
-149.066 -507.972 1636
-145.243 -508.282 1637
-141.328 -508.282 1637
-137.413 -508.282 1637
-133.417 -507.972 1636
-129.505 -507.972 1636
-125.593 -507.972 1636
-121.681 -507.972 1636
-117.841 -508.282 1637
-114.065 -508.903 1639
-110.213 -509.214 1640
-106.291 -509.214 1640
-102.495 -509.835 1642
-98.568 -509.835 1642
-94.7568 -510.456 1644
-90.8255 -510.456 1644
-86.8942 -510.456 1644
-82.9629 -510.456 1644
-79.0316 -510.456 1644
327.537 -1218.7 3925
336.923 -1218.7 3925
346.309 -1218.7 3925
355.695 -1218.7 3925
365.081 -1218.7 3925
372.749 -1213.11 3907
379.451 -1204.72 3880
389.631 -1207.52 3889
403.65 -1221.8 3935
413.06 -1221.8 3935
423.436 -1224.6 3944
432.867 -1224.6 3944
442.298 -1224.6 3944
450.699 -1221.8 3935
453.677 -1204.72 3880
462.956 -1204.72 3880
472.234 -1204.72 3880
481.512 -1204.72 3880
1798.15 -1269.62 4089
1807.93 -1269.62 4089
1817.71 -1269.62 4089
1766.7 -1227.39 3953
1763.57 -1218.7 3925
1785.61 -1227.39 3953
1795.06 -1227.39 3953
1804.51 -1227.39 3953
1809.84 -1224.6 3944
1819.27 -1224.6 3944
1815.72 -1215.9 3916
1808.3 -1204.72 3880
1809.15 -1199.14 3862
1797.67 -1185.47 3818
1806.8 -1185.47 3818
1803.56 -1177.4 3792
1812.63 -1177.4 3792
1817.37 -1174.61 3783
1826.42 -1174.61 3783
-2528.9 -1127.03 3658
-2520.15 -1127.03 3658
-2517.58 -1129.8 3667
-2508.81 -1129.8 3667
-2500.04 -1129.8 3667
-2491.27 -1129.8 3667
-2482.51 -1129.8 3667
-2462.27 -1124.57 3650
-2453.54 -1124.57 3650
-2450.17 -1127.03 3658
-2441.42 -1127.03 3658
-2432.68 -1127.03 3658
-2429.89 -1129.8 3667
-2421.12 -1129.8 3667
-2412.35 -1129.8 3667
-2397.69 -1127.03 3658
-2378.49 -1122.1 3642
-2369.78 -1122.1 3642
-2361.07 -1122.1 3642
-2342.67 -1117.48 3627
-2318.56 -1110.09 3603
-2309.94 -1110.09 3603
-2301.32 -1110.09 3603
-2292.71 -1110.09 3603
-433.55 -531.474 1725
-429.425 -531.474 1725
-425.793 -532.09 1727
-421.664 -532.09 1727
-417.534 -532.09 1727
-413.404 -532.09 1727
-409.274 -532.09 1727
-405.144 -532.09 1727
-401.015 -532.09 1727
-396.425 -531.474 1725
-392.3 -531.474 1725
-388.175 -531.474 1725
-384.05 -531.474 1725
-379.925 -531.474 1725
-375.8 -531.474 1725
-370.167 -529.317 1718
