ply
format ascii 1.0
comment File generated
element vertex 2153
property float x
property float y
property float z
end_header
-201.141 -228.22 1713
-197.39 -228.62 1716
-193.962 -229.419 1722
-189.955 -229.553 1723
-186.05 -229.819 1725
-181.925 -229.819 1725
-177.8 -229.819 1725
-173.675 -229.819 1725
-169.55 -229.819 1725
-165.425 -229.819 1725
-161.3 -229.819 1725
-157.175 -229.819 1725
-153.05 -229.819 1725
-148.925 -229.819 1725
-144.8 -229.819 1725
-140.675 -229.819 1725
-136.55 -229.819 1725
-132.425 -229.819 1725
-128.3 -229.819 1725
-123.959 -229.419 1722
-119.842 -229.419 1722
-115.724 -229.419 1722
-111.606 -229.419 1722
-107.363 -229.153 1720
-103.25 -229.153 1720
-99.1373 -229.153 1720
-95.0242 -229.153 1720
-90.9112 -229.153 1720
-86.7981 -229.153 1720
-82.6851 -229.153 1720
-78.572 -229.153 1720
-74.459 -229.153 1720
-70.346 -229.153 1720
-66.2329 -229.153 1720
-62.1199 -229.153 1720
-58.0068 -229.153 1720
-53.8938 -229.153 1720
-49.7229 -228.887 1718
-45.5615 -228.62 1716
-41.5064 -228.887 1718
-37.3981 -228.887 1718
-33.3673 -229.419 1722
-29.2495 -229.419 1722
-25.1755 -229.819 1725
-21.1603 -231.018 1734
-17.053 -231.551 1738
-12.897 -231.551 1738
-8.77607 -232.484 1745
-4.60325 -232.484 1745
-0.430424 -232.484 1745
3.7424 -232.484 1745
35.7366 -510.931 3835
45.0127 -512.13 3844
54.2048 -512.13 3844
63.397 -512.13 3844
72.5892 -512.13 3844
81.3984 -509.732 3826
90.5475 -509.732 3826
99.6967 -509.732 3826
108.846 -509.732 3826
118.55 -512.13 3844
127.742 -512.13 3844
136.934 -512.13 3844
145.784 -510.931 3835
154.268 -508.666 3818
163.398 -508.666 3818
171.353 -505.202 3792
179.184 -501.738 3766
187.34 -499.474 3749
196.305 -499.474 3749
205.27 -499.474 3749
214.235 -499.474 3749
223.2 -499.474 3749
232.165 -499.474 3749
241.13 -499.474 3749
249.495 -498.274 3740
257.885 -497.209 3732
266.238 -496.143 3724
275.143 -496.143 3724
283.438 -495.077 3716
292.324 -495.077 3716
299.832 -492.812 3699
308.678 -492.812 3699
317.523 -492.812 3699
327.074 -493.878 3707
336.755 -495.077 3716
345.641 -495.077 3716
354.527 -495.077 3716
363.413 -495.077 3716
372.299 -495.077 3716
381.185 -495.077 3716
389.126 -493.878 3707
397.991 -493.878 3707
406.855 -493.878 3707
415.72 -493.878 3707
424.585 -493.878 3707
433.449 -493.878 3707
442.314 -493.878 3707
453.247 -496.143 3724
464.138 -498.274 3740
473.082 -498.274 3740
482.025 -498.274 3740
490.969 -498.274 3740
499.912 -498.274 3740
507.767 -497.209 3732
516.691 -497.209 3732
530.404 -501.738 3766
540.556 -502.804 3774
549.581 -502.804 3774
562.454 -506.268 3800
594.553 -526.652 3953
611.34 -533.047 4001
620.907 -533.047 4001
631.893 -534.246 4010
641.482 -534.246 4010
651.071 -534.246 4010
660.661 -534.246 4010
663.898 -529.183 3972
673.396 -529.183 3972
686.161 -531.715 3991
695.705 -531.715 3991
705.249 -531.715 3991
714.792 -531.715 3991
726.151 -533.047 4001
735.719 -533.047 4001
748.825 -535.578 4020
758.438 -535.578 4020
768.052 -535.578 4020
777.665 -535.578 4020
787.278 -535.578 4020
785.591 -527.984 3963
795.068 -527.984 3963
806.372 -529.183 3972
815.87 -529.183 3972
825.369 -529.183 3972
830.873 -526.652 3953
840.326 -526.652 3953
849.779 -526.652 3953
1719.74 -535.578 4020
1733.66 -536.911 4030
1743.29 -536.911 4030
1752.93 -536.911 4030
1758.19 -535.578 4020
1759.45 -533.047 4001
1769.02 -533.047 4001
1770.14 -530.516 3982
1779.66 -530.516 3982
1793.23 -531.715 3991
1811.36 -534.246 4010
1820.94 -534.246 4010
1839.66 -536.911 4030
1853.43 -538.11 4039
1867.7 -539.442 4049
1877.38 -539.442 4049
1891.73 -540.774 4059
1901.43 -540.774 4059
1911.14 -540.774 4059
1920.85 -540.774 4059
1930.55 -540.774 4059
2464.16 -508.666 3818
2473.29 -508.666 3818
2511.03 -514.528 3862
2520.26 -514.528 3862
2529.5 -514.528 3862
2538.73 -514.528 3862
2462.2 -497.209 3732
2443.97 -491.746 3691
2452.8 -491.746 3691
3030.18 -544.771 4089
3039.96 -544.771 4089
3049.74 -544.771 4089
3052.04 -543.439 4079
3039.27 -539.442 4049
3048.95 -539.442 4049
3058.64 -539.442 4049
3068.32 -539.442 4049
3055.95 -535.578 4020
3065.57 -535.578 4020
3075.18 -535.578 4020
-2479.13 -480.811 3675
-2470.35 -480.811 3675
-2461.56 -480.811 3675
-2463.45 -482.904 3691
-2454.62 -482.904 3691
-2445.8 -482.904 3691
-2431.69 -481.858 3683
-2422.88 -481.858 3683
-656.41 -240.863 1841
-652.008 -240.863 1841
-647.605 -240.863 1841
-643.203 -240.863 1841
-638.801 -240.863 1841
-632.331 -240.078 1835
-626.574 -239.555 1831
-621.516 -239.293 1829
-617.142 -239.293 1829
-612.768 -239.293 1829
-607.064 -238.77 1825
-600.058 -237.723 1817
-595.713 -237.723 1817
-588.764 -236.677 1809
-581.531 -235.499 1800
-576.585 -235.238 1798
-569.739 -234.191 1790
-565.459 -234.191 1790
-557.103 -232.49 1777
-551.609 -231.967 1773
-544.899 -230.92 1765
-540.679 -230.92 1765
-532.507 -229.219 1752
-525.603 -228.042 1743
-519.939 -227.388 1738
-515.783 -227.388 1738
-510.45 -226.864 1734
-504.843 -226.21 1729
-500.129 -225.949 1727
-496 -225.949 1727
-491.3 -225.687 1725
-486.61 -225.425 1723
-482.21 -225.294 1722
-478.092 -225.294 1722
-473.975 -225.294 1722
-469.311 -225.033 1720
-464.116 -224.509 1716
-460.013 -224.509 1716
-455.909 -224.509 1716
-451.542 -224.379 1715
-446.919 -224.117 1713
-442.306 -223.855 1711
-438.215 -223.855 1711
-434.123 -223.855 1711
-429.278 -223.463 1708
-424.695 -223.201 1706
-420.616 -223.201 1706
-416.048 -222.939 1704
-411.973 -222.939 1704
-407.42 -222.678 1702
-403.35 -222.678 1702
-399.045 -222.547 1701
-394.513 -222.285 1699
-389.531 -221.762 1695
-385.478 -221.762 1695
-381.199 -221.631 1694
-376.258 -221.108 1690
-371.996 -220.977 1689
-367.958 -220.977 1689
-363.488 -220.715 1687
-359.027 -220.454 1685
-353.945 -219.799 1680
-349.302 -219.407 1677
-345.292 -219.407 1677
-341.282 -219.407 1677
-336.87 -219.145 1675
-332.864 -219.145 1675
-328.859 -219.145 1675
-324.853 -219.145 1675
-320.465 -218.884 1673
-316.275 -218.753 1672
-312.277 -218.753 1672
-308.278 -218.753 1672
-304.28 -218.753 1672
-299.923 -218.491 1670
-295.929 -218.491 1670
-291.936 -218.491 1670
-287.942 -218.491 1670
-283.949 -218.491 1670
-279.955 -218.491 1670
-275.962 -218.491 1670
-271.968 -218.491 1670
-268.456 -218.884 1673
-264.772 -219.145 1675
-260.766 -219.145 1675
-257.221 -219.538 1678
-253.51 -219.799 1680
-249.938 -220.192 1683
-245.913 -220.192 1683
-242.464 -220.715 1687
-238.712 -220.977 1689
-235.09 -221.369 1692
-231.044 -221.369 1692
-227.669 -222.024 1697
-223.874 -222.285 1699
-220.717 -223.201 1706
-216.638 -223.201 1706
-212.932 -223.594 1709
-209.09 -223.855 1711
-205.238 -224.117 1713
-201.141 -224.117 1713
-197.39 -224.509 1716
-193.962 -225.294 1722
-189.955 -225.425 1723
-186.05 -225.687 1725
-181.925 -225.687 1725
-177.8 -225.687 1725
-173.675 -225.687 1725
-169.55 -225.687 1725
-165.425 -225.687 1725
-161.3 -225.687 1725
-157.175 -225.687 1725
-153.05 -225.687 1725
-148.925 -225.687 1725
-144.8 -225.687 1725
-140.675 -225.687 1725
-136.55 -225.687 1725
-132.425 -225.687 1725
-128.3 -225.687 1725
-123.959 -225.294 1722
-119.842 -225.294 1722
-115.724 -225.294 1722
-111.606 -225.294 1722
-107.363 -225.033 1720
-103.25 -225.033 1720
-99.1373 -225.033 1720
-95.0242 -225.033 1720
-90.9112 -225.033 1720
-86.7981 -225.033 1720
-82.6851 -225.033 1720
-78.572 -225.033 1720
-74.459 -225.033 1720
-70.346 -225.033 1720
-66.2329 -225.033 1720
-62.1199 -225.033 1720
-58.0068 -225.033 1720
-53.8938 -225.033 1720
-49.7229 -224.771 1718
-45.5615 -224.509 1716
-41.5064 -224.771 1718
-37.3981 -224.771 1718
-33.3673 -225.294 1722
-29.2495 -225.294 1722
-25.1755 -225.687 1725
-21.1603 -226.864 1734
-17.053 -227.388 1738
-12.897 -227.388 1738
-8.77607 -228.304 1745
-4.60325 -228.304 1745
-0.430424 -228.304 1745
3.7424 -228.304 1745
16.9644 -489.315 3740
25.9079 -489.315 3740
35.7366 -501.744 3835
45.0127 -502.922 3844
54.2048 -502.922 3844
63.397 -502.922 3844
72.5892 -502.922 3844
81.3984 -500.567 3826
90.5475 -500.567 3826
99.6967 -500.567 3826
108.846 -500.567 3826
118.55 -502.922 3844
127.742 -502.922 3844
136.934 -502.922 3844
145.784 -501.744 3835
154.268 -499.52 3818
163.398 -499.52 3818
171.353 -496.119 3792
179.184 -492.717 3766
187.34 -490.493 3749
196.305 -490.493 3749
205.27 -490.493 3749
214.235 -490.493 3749
223.2 -490.493 3749
232.165 -490.493 3749
241.13 -490.493 3749
249.495 -489.315 3740
257.885 -488.269 3732
266.238 -487.222 3724
275.143 -487.222 3724
283.438 -486.175 3716
292.324 -486.175 3716
299.832 -483.951 3699
308.678 -483.951 3699
317.523 -483.951 3699
327.074 -484.998 3707
336.755 -486.175 3716
345.641 -486.175 3716
354.527 -486.175 3716
363.413 -486.175 3716
372.299 -486.175 3716
381.185 -486.175 3716
389.126 -484.998 3707
397.991 -484.998 3707
406.855 -484.998 3707
415.72 -484.998 3707
424.585 -484.998 3707
433.449 -484.998 3707
442.314 -484.998 3707
453.247 -487.222 3724
464.138 -489.315 3740
473.082 -489.315 3740
482.025 -489.315 3740
490.969 -489.315 3740
499.912 -489.315 3740
507.767 -488.269 3732
516.691 -488.269 3732
530.404 -492.717 3766
540.556 -493.764 3774
549.581 -493.764 3774
562.454 -497.165 3800
594.553 -517.183 3953
611.34 -523.463 4001
620.907 -523.463 4001
631.893 -524.64 4010
641.482 -524.64 4010
651.071 -524.64 4010
660.661 -524.64 4010
663.898 -519.669 3972
673.396 -519.669 3972
686.161 -522.154 3991
695.705 -522.154 3991
705.249 -522.154 3991
714.792 -522.154 3991
726.151 -523.463 4001
735.719 -523.463 4001
748.825 -525.948 4020
758.438 -525.948 4020
768.052 -525.948 4020
777.665 -525.948 4020
787.278 -525.948 4020
785.591 -518.491 3963
795.068 -518.491 3963
806.372 -519.669 3972
815.87 -519.669 3972
825.369 -519.669 3972
830.873 -517.183 3953
840.326 -517.183 3953
849.779 -517.183 3953
1724.02 -527.257 4030
1733.66 -527.257 4030
1743.29 -527.257 4030
1752.93 -527.257 4030
1758.19 -525.948 4020
1763.41 -524.64 4010
1773 -524.64 4010
1770.14 -520.977 3982
1783.69 -522.154 3991
1801.77 -524.64 4010
1820.39 -527.257 4030
1830.03 -527.257 4030
1843.77 -528.434 4039
1862.61 -531.051 4059
1872.31 -531.051 4059
1882.02 -531.051 4059
1891.73 -531.051 4059
1901.43 -531.051 4059
1911.14 -531.051 4059
1920.85 -531.051 4059
1930.55 -531.051 4059
2498.36 -506.454 3871
2507.62 -506.454 3871
2540.28 -511.164 3907
2549.63 -511.164 3907
2558.97 -511.164 3907
2568.31 -511.164 3907
2489.91 -493.764 3774
2460.53 -486.175 3716
2469.41 -486.175 3716
2456.29 -481.858 3683
2811.86 -502.922 3844
2821.05 -502.922 3844
3003.26 -533.668 4079
3013.02 -533.668 4079
3030.18 -534.976 4089
3039.96 -534.976 4089
3049.74 -534.976 4089
3052.04 -533.668 4079
3039.27 -529.743 4049
3048.95 -529.743 4049
3058.64 -529.743 4049
3068.32 -529.743 4049
3055.95 -525.948 4020
3065.57 -525.948 4020
3075.18 -525.948 4020
-2479.13 -472.008 3675
-2470.35 -472.008 3675
-2461.56 -472.008 3675
-2463.45 -474.063 3691
-2454.62 -474.063 3691
-2445.8 -474.063 3691
-2431.69 -473.035 3683
-2422.88 -473.035 3683
-2414.07 -473.035 3683
-2405.27 -473.035 3683
-2386.05 -470.98 3667
-2377.28 -470.98 3667
-656.41 -236.453 1841
-652.008 -236.453 1841
-647.605 -236.453 1841
-641.107 -235.683 1835
-636.719 -235.683 1835
-630.952 -235.169 1831
-625.889 -234.912 1829
-620.836 -234.655 1827
-616.467 -234.655 1827
-611.428 -234.398 1825
-605.068 -233.628 1819
-599.397 -233.114 1815
-595.057 -233.114 1815
-588.113 -232.086 1807
-581.531 -231.187 1800
-574.019 -229.903 1790
-569.102 -229.646 1788
-564.827 -229.646 1788
-557.103 -228.233 1777
-549.742 -226.949 1767
-544.282 -226.435 1763
-540.066 -226.435 1763
-532.507 -225.022 1752
-525 -223.61 1741
-519.939 -223.224 1738
-515.783 -223.224 1738
-509.861 -222.454 1732
-504.843 -222.068 1729
-500.129 -221.811 1727
-496 -221.811 1727
-491.3 -221.555 1725
-486.61 -221.298 1723
-482.21 -221.169 1722
-478.092 -221.169 1722
-473.975 -221.169 1722
-468.765 -220.656 1718
-464.116 -220.399 1716
-459.745 -220.27 1715
-455.643 -220.27 1715
-451.542 -220.27 1715
-446.919 -220.013 1713
-442.306 -219.756 1711
-438.215 -219.756 1711
-433.616 -219.5 1709
-428.775 -219.114 1706
-424.197 -218.857 1704
-420.123 -218.857 1704
-416.048 -218.857 1704
-411.49 -218.601 1702
-407.18 -218.472 1701
-403.113 -218.472 1701
-398.576 -218.215 1699
-394.049 -217.958 1697
-389.301 -217.573 1694
-385.25 -217.573 1694
-380.749 -217.316 1692
-376.035 -216.931 1689
-371.556 -216.674 1687
-367.522 -216.674 1687
-363.057 -216.417 1685
-358.388 -216.032 1682
-353.523 -215.518 1678
-349.302 -215.39 1677
-345.292 -215.39 1677
-340.875 -215.133 1675
-336.87 -215.133 1675
-332.864 -215.133 1675
-328.859 -215.133 1675
-324.853 -215.133 1675
-320.273 -214.747 1672
-316.275 -214.747 1672
-312.277 -214.747 1672
-308.278 -214.747 1672
-304.28 -214.747 1672
-299.923 -214.491 1670
-295.929 -214.491 1670
-291.936 -214.491 1670
-287.942 -214.491 1670
-283.949 -214.491 1670
-279.955 -214.491 1670
-275.962 -214.491 1670
-271.968 -214.491 1670
-268.456 -214.876 1673
-264.772 -215.133 1675
-260.766 -215.133 1675
-257.067 -215.39 1677
-253.51 -215.775 1680
-249.938 -216.16 1683
-245.913 -216.16 1683
-242.464 -216.674 1687
-238.712 -216.931 1689
-235.09 -217.316 1692
-231.044 -217.316 1692
-227.401 -217.701 1695
-223.874 -218.215 1699
-220.458 -218.857 1704
-216.384 -218.857 1704
-212.807 -219.371 1708
-208.845 -219.5 1709
-205.238 -220.013 1713
-201.141 -220.013 1713
-197.275 -220.27 1715
-193.962 -221.169 1722
-189.955 -221.298 1723
-186.05 -221.555 1725
-181.925 -221.555 1725
-177.8 -221.555 1725
-173.675 -221.555 1725
-169.55 -221.555 1725
-165.425 -221.555 1725
-161.3 -221.555 1725
-157.175 -221.555 1725
-153.05 -221.555 1725
-148.925 -221.555 1725
-144.8 -221.555 1725
-140.675 -221.555 1725
-136.55 -221.555 1725
-132.425 -221.555 1725
-128.3 -221.555 1725
-123.959 -221.169 1722
-119.842 -221.169 1722
-115.724 -221.169 1722
-111.606 -221.169 1722
-107.363 -220.912 1720
-103.25 -220.912 1720
-99.1373 -220.912 1720
-95.0242 -220.912 1720
-90.9112 -220.912 1720
-86.7981 -220.912 1720
-82.6851 -220.912 1720
-78.572 -220.912 1720
-74.459 -220.912 1720
-70.346 -220.912 1720
-66.2329 -220.912 1720
-62.1199 -220.912 1720
-58.0068 -220.912 1720
-53.8938 -220.912 1720
-49.665 -220.399 1716
-45.5615 -220.399 1716
-41.458 -220.399 1716
-37.3546 -220.399 1716
-33.2898 -220.656 1718
-29.1816 -220.656 1718
-25.1755 -221.555 1725
-21.1237 -222.325 1731
-17.0138 -222.711 1734
-12.8673 -222.711 1734
-8.74087 -223.224 1738
-4.58478 -223.224 1738
-0.428698 -223.224 1738
16.9644 -480.356 3740
25.9079 -480.356 3740
35.5782 -490.374 3818
44.7082 -490.374 3818
53.8382 -490.374 3818
62.8198 -489.218 3809
71.9283 -489.218 3809
80.8453 -488.062 3800
89.9322 -488.062 3800
98.8107 -487.035 3792
107.879 -487.035 3792
117.193 -488.062 3800
126.28 -488.062 3800
135.367 -488.062 3800
144.15 -487.035 3792
153.218 -487.035 3792
162.285 -487.035 3792
170.178 -483.695 3766
177.947 -480.356 3740
186.89 -480.356 3740
195.834 -480.356 3740
204.339 -479.329 3732
213.264 -479.329 3732
221.712 -478.301 3724
230.617 -478.301 3724
239.522 -478.301 3724
248.427 -478.301 3724
257.333 -478.301 3724
265.022 -476.118 3707
273.887 -476.118 3707
282.141 -475.09 3699
290.357 -474.063 3691
299.184 -474.063 3691
308.678 -475.09 3699
317.523 -475.09 3699
326.368 -475.09 3699
335.939 -476.118 3707
344.803 -476.118 3707
353.668 -476.118 3707
362.533 -476.118 3707
371.397 -476.118 3707
380.262 -476.118 3707
388.287 -475.09 3699
397.132 -475.09 3699
406.855 -476.118 3707
415.72 -476.118 3707
424.585 -476.118 3707
431.578 -474.063 3691
440.405 -474.063 3691
452.274 -477.274 3716
462.152 -478.301 3724
471.058 -478.301 3724
480.994 -479.329 3732
489.918 -479.329 3732
498.843 -479.329 3732
507.767 -479.329 3732
515.584 -478.301 3724
526.742 -480.356 3740
539.41 -483.695 3766
548.416 -483.695 3766
562.454 -488.062 3800
588.988 -502.961 3916
604.005 -507.713 3953
613.458 -507.713 3953
622.911 -507.713 3953
632.364 -507.713 3953
641.817 -507.713 3953
651.27 -507.713 3953
657.714 -505.401 3935
670.175 -507.713 3953
679.628 -507.713 3953
689.081 -507.713 3953
698.534 -507.713 3953
707.987 -507.713 3953
719.254 -508.998 3963
728.731 -508.998 3963
741.747 -511.438 3982
751.269 -511.438 3982
760.791 -511.438 3982
770.313 -511.438 3982
779.836 -511.438 3982
785.591 -508.998 3963
795.068 -508.998 3963
806.372 -510.154 3972
815.87 -510.154 3972
825.369 -510.154 3972
830.873 -507.713 3953
840.326 -507.713 3953
849.779 -507.713 3953
1724.02 -517.603 4030
1733.66 -517.603 4030
1743.29 -517.603 4030
1752.93 -517.603 4030
1758.19 -516.319 4020
1763.41 -515.034 4010
1773 -515.034 4010
1770.14 -511.438 3982
1783.69 -512.594 3991
1801.77 -515.034 4010
1820.39 -517.603 4030
1830.03 -517.603 4030
1843.77 -518.759 4039
1862.61 -521.328 4059
1872.31 -521.328 4059
1882.02 -521.328 4059
1891.73 -521.328 4059
1901.43 -521.328 4059
1911.14 -521.328 4059
1920.85 -521.328 4059
1930.55 -521.328 4059
2498.36 -497.181 3871
2507.62 -497.181 3871
2540.28 -501.805 3907
2549.63 -501.805 3907
2558.97 -501.805 3907
2568.31 -501.805 3907
2489.91 -484.723 3774
2460.53 -477.274 3716
2469.41 -477.274 3716
2456.29 -473.035 3683
2811.86 -493.714 3844
2821.05 -493.714 3844
3003.26 -523.896 4079
3013.02 -523.896 4079
3022.77 -523.896 4079
3032.53 -523.896 4079
3042.28 -523.896 4079
3052.04 -523.896 4079
3039.27 -520.043 4049
3048.95 -520.043 4049
3058.64 -520.043 4049
3068.32 -520.043 4049
3055.95 -516.319 4020
3065.57 -516.319 4020
3075.18 -516.319 4020
-2479.13 -463.204 3675
-2470.35 -463.204 3675
-2461.56 -463.204 3675
-2452.77 -463.204 3675
-2438.66 -462.196 3667
-2440.49 -464.212 3683
-2431.69 -464.212 3683
-2422.88 -464.212 3683
-2414.07 -464.212 3683
-2405.27 -464.212 3683
-2386.05 -462.196 3667
-2377.28 -462.196 3667
-656.41 -232.043 1841
-652.008 -232.043 1841
-647.605 -232.043 1841
-641.107 -231.287 1835
-636.719 -231.287 1835
-630.263 -230.531 1829
-625.205 -230.279 1827
-618.117 -229.27 1819
-613.768 -229.27 1819
-609.418 -229.27 1819
-604.403 -229.018 1817
-596.755 -227.758 1807
-592.434 -227.758 1807
-586.486 -227.128 1802
-580.885 -226.623 1798
-574.019 -225.615 1790
-567.829 -224.859 1784
-563.563 -224.859 1784
-556.476 -223.724 1775
-549.12 -222.464 1765
-543.356 -221.834 1760
-539.147 -221.834 1760
-530.987 -220.195 1747
-525 -219.439 1741
-519.939 -219.061 1738
-515.783 -219.061 1738
-510.45 -218.557 1734
-504.843 -217.927 1729
-500.129 -217.674 1727
-496 -217.674 1727
-491.3 -217.422 1725
-486.61 -217.17 1723
-482.49 -217.17 1723
-478.092 -217.044 1722
-473.975 -217.044 1722
-468.765 -216.54 1718
-464.116 -216.288 1716
-459.745 -216.162 1715
-455.643 -216.162 1715
-451.542 -216.162 1715
-446.919 -215.91 1713
-442.306 -215.658 1711
-438.215 -215.658 1711
-433.362 -215.28 1708
-428.272 -214.775 1704
-424.197 -214.775 1704
-420.123 -214.775 1704
-415.56 -214.523 1702
-411.49 -214.523 1702
-407.18 -214.397 1701
-403.113 -214.397 1701
-398.107 -213.893 1697
-393.584 -213.641 1695
-389.301 -213.515 1694
-385.25 -213.515 1694
-380.299 -213.011 1690
-376.035 -212.885 1689
-371.115 -212.381 1685
-367.086 -212.381 1685
-362.626 -212.129 1683
-357.962 -211.75 1680
-353.313 -211.372 1677
-349.302 -211.372 1677
-345.292 -211.372 1677
-340.468 -210.868 1673
-336.467 -210.868 1673
-332.467 -210.868 1673
-328.466 -210.868 1673
-324.465 -210.868 1673
-320.273 -210.742 1672
-316.275 -210.742 1672
-312.277 -210.742 1672
-308.278 -210.742 1672
-304.28 -210.742 1672
-299.923 -210.49 1670
-295.929 -210.49 1670
-291.936 -210.49 1670
-287.942 -210.49 1670
-283.949 -210.49 1670
-279.955 -210.49 1670
-275.962 -210.49 1670
-271.968 -210.49 1670
-268.296 -210.742 1672
-264.772 -211.12 1675
-260.766 -211.12 1675
-257.067 -211.372 1677
-253.51 -211.75 1680
-249.938 -212.129 1683
-245.913 -212.129 1683
-242.464 -212.633 1687
-238.712 -212.885 1689
-235.09 -213.263 1692
-231.044 -213.263 1692
-227.401 -213.641 1695
-223.874 -214.145 1699
-220.458 -214.775 1704
-216.384 -214.775 1704
-212.807 -215.28 1708
-208.845 -215.406 1709
-204.998 -215.658 1711
-200.906 -215.658 1711
-197.275 -216.162 1715
-193.962 -217.044 1722
-189.955 -217.17 1723
-186.05 -217.422 1725
-181.925 -217.422 1725
-177.8 -217.422 1725
-173.675 -217.422 1725
-169.55 -217.422 1725
-165.425 -217.422 1725
-161.3 -217.422 1725
-157.175 -217.422 1725
-153.05 -217.422 1725
-148.925 -217.422 1725
-144.8 -217.422 1725
-140.675 -217.422 1725
-136.55 -217.422 1725
-132.425 -217.422 1725
-128.3 -217.422 1725
-123.959 -217.044 1722
-119.842 -217.044 1722
-115.724 -217.044 1722
-111.606 -217.044 1722
-107.363 -216.792 1720
-103.25 -216.792 1720
-99.1373 -216.792 1720
-95.0242 -216.792 1720
-90.9112 -216.792 1720
-86.7981 -216.792 1720
-82.5889 -216.54 1718
-78.572 -216.792 1720
-74.459 -216.792 1720
-70.346 -216.792 1720
-66.2329 -216.792 1720
-62.1199 -216.792 1720
-58.0068 -216.792 1720
-53.8938 -216.792 1720
-49.665 -216.288 1716
-45.535 -216.162 1715
-41.3856 -215.91 1713
-37.3328 -216.162 1715
-33.2898 -216.54 1718
-29.1816 -216.54 1718
-25.1463 -217.17 1723
-21.0749 -217.674 1727
-16.9647 -217.927 1729
-12.8302 -217.927 1729
-8.6956 -217.927 1729
16.9644 -471.397 3740
25.9079 -471.397 3740
35.1682 -475.682 3774
44.193 -475.682 3774
53.2178 -475.682 3774
62.2425 -475.682 3774
71.2673 -475.682 3774
80.2921 -475.682 3774
89.3169 -475.682 3774
97.8987 -473.54 3757
106.883 -473.54 3757
116.391 -475.682 3774
125.416 -475.682 3774
134.441 -475.682 3774
143.466 -475.682 3774
152.167 -474.674 3766
161.173 -474.674 3766
169.772 -473.54 3757
177.947 -471.397 3740
186.89 -471.397 3740
195.834 -471.397 3740
203.463 -468.372 3716
212.349 -468.372 3716
221.235 -468.372 3716
230.122 -468.372 3716
239.008 -468.372 3716
247.894 -468.372 3716
256.158 -467.237 3707
264.451 -466.229 3699
273.296 -466.229 3699
281.531 -465.221 3691
290.357 -465.221 3691
299.184 -465.221 3691
308.01 -465.221 3691
316.15 -464.212 3683
325.663 -465.221 3691
334.489 -465.221 3691
343.315 -465.221 3691
352.142 -465.221 3691
360.968 -465.221 3691
369.794 -465.221 3691
378.62 -465.221 3691
386.607 -464.212 3683
395.414 -464.212 3683
405.099 -465.221 3691
413.926 -465.221 3691
422.752 -465.221 3691
431.578 -465.221 3691
440.405 -465.221 3691
451.178 -467.237 3707
461.16 -468.372 3716
470.046 -468.372 3716
479.963 -469.38 3724
488.868 -469.38 3724
497.773 -469.38 3724
506.679 -469.38 3724
516.691 -470.389 3732
526.742 -471.397 3740
539.41 -474.674 3766
548.416 -474.674 3766
562.454 -478.959 3800
588.988 -493.58 3916
604.005 -498.244 3953
613.458 -498.244 3953
624.487 -499.504 3963
633.964 -499.504 3963
643.44 -499.504 3963
651.27 -498.244 3953
657.714 -495.975 3935
667.124 -495.975 3935
678.081 -497.109 3944
687.512 -497.109 3944
696.943 -497.109 3944
706.375 -497.109 3944
715.806 -497.109 3944
725.237 -497.109 3944
734.669 -497.109 3944
744.1 -497.109 3944
753.531 -497.109 3944
762.962 -497.109 3944
774.156 -498.244 3953
785.591 -499.504 3963
795.068 -499.504 3963
806.372 -500.639 3972
815.87 -500.639 3972
825.369 -500.639 3972
830.873 -498.244 3953
840.326 -498.244 3953
849.779 -498.244 3953
1727.87 -509.083 4039
1737.53 -509.083 4039
1747.19 -509.083 4039
1756.85 -509.083 4039
1762.57 -507.949 4030
1772.21 -507.949 4030
1781.84 -507.949 4030
1787.03 -506.689 4020
1792.18 -505.428 4010
1810.75 -507.949 4030
1828.97 -510.344 4049
1838.65 -510.344 4049
1848.34 -510.344 4049
1867.2 -512.865 4069
1876.93 -512.865 4069
1886.66 -512.865 4069
1896.39 -512.865 4069
1906.12 -512.865 4069
1915.85 -512.865 4069
1916.11 -510.344 4049
1925.8 -510.344 4049
2532.34 -511.604 4059
2542.05 -511.604 4059
2558.04 -512.865 4069
2580.39 -515.385 4089
2590.17 -515.385 4089
2599.95 -515.385 4089
2609.73 -515.385 4089
2514.44 -494.715 3925
2523.83 -494.715 3925
2533.22 -494.715 3925
2507.62 -487.908 3871
2540.28 -492.446 3907
2561.37 -494.715 3925
2570.76 -494.715 3925
2580.14 -494.715 3925
2547.97 -486.774 3862
2498.93 -475.682 3774
2507.96 -475.682 3774
2478.3 -468.372 3716
2487.19 -468.372 3716
2490.03 -467.237 3707
2498.89 -467.237 3707
2486.11 -463.204 3675
2494.9 -463.204 3675
2476.43 -458.162 3635
2431.8 -448.331 3557
2440.31 -448.331 3557
2443.3 -447.323 3549
2768.04 -480.094 3809
2777.14 -480.094 3809
2811.86 -484.505 3844
2821.05 -484.505 3844
3003.26 -514.125 4079
3013.02 -514.125 4079
3022.77 -514.125 4079
3032.53 -514.125 4079
3042.28 -514.125 4079
3029.59 -510.344 4049
3039.27 -510.344 4049
3048.95 -510.344 4049
3058.64 -510.344 4049
3068.32 -510.344 4049
3055.95 -506.689 4020
3065.57 -506.689 4020
3075.18 -506.689 4020
-2416.54 -439.81 3557
-2408.04 -439.81 3557
-2441.36 -447.476 3619
-2443.46 -449.455 3635
-2434.76 -449.455 3635
-2426.07 -449.455 3635
-2417.38 -449.455 3635
-2440.49 -455.39 3683
-2431.69 -455.39 3683
-2422.88 -455.39 3683
-2414.07 -455.39 3683
-2405.27 -455.39 3683
-2386.05 -453.411 3667
-2377.28 -453.411 3667
-656.41 -227.633 1841
-652.008 -227.633 1841
-647.605 -227.633 1841
-640.408 -226.644 1833
-636.025 -226.644 1833
-629.574 -225.902 1827
-623.836 -225.407 1823
-618.797 -225.16 1821
-614.443 -225.16 1821
-609.418 -224.913 1819
-604.403 -224.666 1817
-597.416 -223.676 1809
-593.09 -223.676 1809
-587.462 -223.182 1805
-580.885 -222.316 1798
-575.302 -221.822 1794
-570.376 -221.574 1792
-566.09 -221.574 1792
-557.73 -219.967 1779
-550.987 -218.978 1771
-544.282 -217.989 1763
-540.066 -217.989 1763
-532.203 -216.505 1751
-525.603 -215.516 1743
-520.538 -215.145 1740
-516.377 -215.145 1740
-510.45 -214.403 1734
-504.843 -213.785 1729
-500.129 -213.537 1727
-496 -213.537 1727
-491.3 -213.29 1725
-486.61 -213.043 1723
-482.49 -213.043 1723
-478.092 -212.919 1722
-473.975 -212.919 1722
-468.765 -212.425 1718
-464.116 -212.177 1716
-459.745 -212.054 1715
-455.643 -212.054 1715
-451.016 -211.806 1713
-446.919 -211.806 1713
-442.306 -211.559 1711
-438.215 -211.559 1711
-433.362 -211.188 1708
-428.272 -210.694 1704
-424.197 -210.694 1704
-420.123 -210.694 1704
-415.56 -210.446 1702
-411.248 -210.323 1701
-407.18 -210.323 1701
-403.113 -210.323 1701
-398.107 -209.828 1697
-393.584 -209.581 1695
-388.841 -209.21 1692
-384.795 -209.21 1692
-380.299 -208.962 1690
-375.59 -208.592 1687
-371.115 -208.344 1685
-367.086 -208.344 1685
-362.626 -208.097 1683
-357.962 -207.726 1680
-353.313 -207.355 1677
-348.886 -207.108 1675
-344.88 -207.108 1675
-340.468 -206.86 1673
-336.467 -206.86 1673
-332.864 -207.108 1675
-328.859 -207.108 1675
-324.853 -207.108 1675
-320.465 -206.86 1673
-316.464 -206.86 1673
-312.463 -206.86 1673
-308.278 -206.737 1672
-304.28 -206.737 1672
-299.923 -206.49 1670
-295.929 -206.49 1670
-291.936 -206.49 1670
-287.942 -206.49 1670
-283.949 -206.49 1670
-279.955 -206.49 1670
-275.631 -206.242 1668
-271.643 -206.242 1668
-267.975 -206.49 1670
-264.772 -207.108 1675
-260.766 -207.108 1675
-256.761 -207.108 1675
-253.208 -207.479 1678
-249.79 -207.973 1682
-245.767 -207.973 1682
-242.176 -208.344 1685
-238.712 -208.839 1689
-235.09 -209.21 1692
-231.044 -209.21 1692
-227.401 -209.581 1695
-223.874 -210.075 1699
-220.458 -210.694 1704
-216.384 -210.694 1704
-212.807 -211.188 1708
-208.845 -211.312 1709
-204.998 -211.559 1711
-200.906 -211.559 1711
-197.275 -212.054 1715
-193.962 -212.919 1722
-189.955 -213.043 1723
-186.05 -213.29 1725
-181.925 -213.29 1725
-177.8 -213.29 1725
-173.675 -213.29 1725
-169.55 -213.29 1725
-165.425 -213.29 1725
-161.3 -213.29 1725
-157.175 -213.29 1725
-153.05 -213.29 1725
-148.925 -213.29 1725
-144.8 -213.29 1725
-140.675 -213.29 1725
-136.55 -213.29 1725
-132.425 -213.29 1725
-128.3 -213.29 1725
-123.959 -212.919 1722
-119.842 -212.919 1722
-115.724 -212.919 1722
-111.606 -212.919 1722
-107.363 -212.672 1720
-103.25 -212.672 1720
-99.1373 -212.672 1720
-95.0242 -212.672 1720
-90.8055 -212.425 1718
-86.6972 -212.425 1718
-82.5889 -212.425 1718
-78.4807 -212.425 1718
-74.459 -212.672 1720
-70.346 -212.672 1720
-66.2329 -212.672 1720
-62.1199 -212.672 1720
-57.9394 -212.425 1718
-53.8311 -212.425 1718
-49.665 -212.177 1716
-45.535 -212.054 1715
-41.3856 -211.806 1713
-37.3546 -212.177 1716
-33.2898 -212.425 1718
-29.1816 -212.425 1718
-25.1463 -213.043 1723
-21.0505 -213.29 1725
-16.9451 -213.537 1727
-12.8153 -213.537 1727
-8.68554 -213.537 1727
16.9644 -462.438 3740
25.9079 -462.438 3740
34.8514 -462.438 3740
43.7949 -462.438 3740
52.8652 -463.55 3749
61.8302 -463.55 3749
70.7952 -463.55 3749
79.7602 -463.55 3749
88.7252 -463.55 3749
97.6902 -463.55 3749
106.655 -463.55 3749
115.62 -463.55 3749
124.585 -463.55 3749
133.55 -463.55 3749
142.515 -463.55 3749
151.48 -463.55 3749
160.445 -463.55 3749
169.003 -462.438 3740
177.566 -461.448 3732
186.491 -461.448 3732
195.415 -461.448 3732
203.463 -459.47 3716
212.349 -459.47 3716
221.235 -459.47 3716
230.122 -459.47 3716
239.008 -459.47 3716
247.894 -459.47 3716
256.78 -459.47 3716
265.022 -458.357 3707
273.887 -458.357 3707
282.141 -457.368 3699
290.357 -456.379 3691
299.184 -456.379 3691
308.01 -456.379 3691
316.15 -455.39 3683
324.957 -455.39 3683
333.764 -455.39 3683
342.571 -455.39 3683
351.378 -455.39 3683
360.968 -456.379 3691
369.794 -456.379 3691
378.62 -456.379 3691
385.767 -454.401 3675
395.414 -455.39 3683
404.221 -455.39 3683
413.029 -455.39 3683
421.836 -455.39 3683
430.643 -455.39 3683
439.45 -455.39 3683
450.205 -457.368 3699
460.043 -458.357 3707
468.907 -458.357 3707
478.932 -459.47 3716
487.818 -459.47 3716
497.773 -460.459 3724
506.679 -460.459 3724
516.691 -461.448 3732
526.742 -462.438 3740
539.41 -465.652 3766
548.416 -465.652 3766
561.27 -468.867 3792
590.341 -485.312 3925
604.005 -488.774 3953
613.458 -488.774 3953
624.487 -490.011 3963
633.964 -490.011 3963
643.44 -490.011 3963
652.917 -490.011 3963
657.714 -486.549 3935
668.649 -487.662 3944
678.081 -487.662 3944
687.512 -487.662 3944
696.943 -487.662 3944
706.375 -487.662 3944
717.439 -488.774 3953
726.892 -488.774 3953
736.345 -488.774 3953
744.1 -487.662 3944
753.531 -487.662 3944
762.962 -487.662 3944
772.394 -487.662 3944
781.825 -487.662 3944
791.256 -487.662 3944
1727.87 -499.408 4039
1746.13 -501.881 4059
1755.84 -501.881 4059
1765.55 -501.881 4059
1775.25 -501.881 4059
1780.56 -500.644 4049
1790.24 -500.644 4049
1791.48 -498.295 4030
1809.61 -500.644 4049
1819.29 -500.644 4049
1828.97 -500.644 4049
1838.65 -500.644 4049
1852.9 -501.881 4059
1867.2 -503.117 4069
1876.93 -503.117 4069
1886.66 -503.117 4069
1901.05 -504.354 4079
1910.8 -504.354 4079
1920.56 -504.354 4079
1925.58 -503.117 4069
1935.31 -503.117 4069
2516.42 -500.644 4049
2532.34 -501.881 4059
2542.05 -501.881 4059
2564.33 -504.354 4079
2580.39 -505.59 4089
2590.17 -505.59 4089
2599.95 -505.59 4089
2609.73 -505.59 4089
2520.85 -486.549 3935
2530.26 -486.549 3935
2539.67 -486.549 3935
2519.28 -480.861 3889
2558.49 -486.549 3935
2567.9 -486.549 3935
2577.31 -486.549 3935
2586.72 -486.549 3935
2553.9 -478.635 3871
2528.07 -472.082 3818
2537.2 -472.082 3818
2511.65 -465.652 3766
2497.9 -461.448 3732
2496.07 -459.47 3716
2504.96 -459.47 3716
2502.34 -457.368 3699
2494.9 -454.401 3675
2503.68 -454.401 3675
2485.13 -449.455 3635
2493.82 -449.455 3635
2464.65 -442.654 3580
2768.04 -470.969 3809
2777.14 -470.969 3809
2811.86 -475.297 3844
2821.05 -475.297 3844
2981.18 -500.644 4049
2990.86 -500.644 4049
3000.54 -500.644 4049
3010.22 -500.644 4049
3019.91 -500.644 4049
3007.89 -497.059 4020
3010 -495.822 4010
3012.81 -494.709 4001
3022.38 -494.709 4001
3031.94 -494.709 4001
3041.51 -494.709 4001
3051.08 -494.709 4001
3060.65 -494.709 4001
-2378.14 -421.468 3476
-2384.14 -424.014 3497
-2416.54 -431.29 3557
-2408.04 -431.29 3557
-2415.05 -434.078 3580
-2427.32 -437.837 3611
-2418.69 -437.837 3611
-2410.05 -437.837 3611
-2417.38 -440.747 3635
-2440.49 -446.567 3683
-2431.69 -446.567 3683
-2422.88 -446.567 3683
-2414.07 -446.567 3683
-2405.27 -446.567 3683
-2386.05 -444.627 3667
-2371.44 -443.536 3658
-2332.34 -437.837 3611
-656.41 -223.223 1841
-652.008 -223.223 1841
-647.605 -223.223 1841
-640.408 -222.253 1833
-636.025 -222.253 1833
-629.574 -221.525 1827
-623.836 -221.04 1823
-618.797 -220.798 1821
-614.443 -220.798 1821
-609.418 -220.555 1819
-604.403 -220.313 1817
-597.416 -219.343 1809
-593.09 -219.343 1809
-587.462 -218.858 1805
-580.885 -218.009 1798
-575.302 -217.524 1794
-570.376 -217.282 1792
-566.09 -217.282 1792
-557.73 -215.705 1779
-551.609 -214.978 1773
-544.899 -214.008 1765
-540.679 -214.008 1765
-532.203 -212.31 1751
-525.603 -211.34 1743
-520.538 -210.977 1740
-516.377 -210.977 1740
-510.45 -210.249 1734
-504.843 -209.643 1729
-500.129 -209.4 1727
-496 -209.4 1727
-491.3 -209.158 1725
-486.61 -208.915 1723
-482.49 -208.915 1723
-478.092 -208.794 1722
-473.975 -208.794 1722
-468.765 -208.309 1718
-464.116 -208.067 1716
-459.745 -207.945 1715
-455.643 -207.945 1715
-451.016 -207.703 1713
-446.919 -207.703 1713
-442.306 -207.46 1711
-438.215 -207.46 1711
-433.362 -207.097 1708
-428.272 -206.612 1704
-424.197 -206.612 1704
-420.123 -206.612 1704
-415.56 -206.369 1702
-411.248 -206.248 1701
-407.18 -206.248 1701
-403.113 -206.248 1701
-398.107 -205.763 1697
-393.584 -205.52 1695
-388.841 -205.157 1692
-384.795 -205.157 1692
-380.299 -204.914 1690
-375.59 -204.55 1687
-371.115 -204.308 1685
-367.086 -204.308 1685
-362.626 -204.065 1683
-357.962 -203.702 1680
-353.313 -203.338 1677
-348.886 -203.095 1675
-344.88 -203.095 1675
-340.468 -202.853 1673
-336.467 -202.853 1673
-332.864 -203.095 1675
-328.859 -203.095 1675
-324.853 -203.095 1675
-320.465 -202.853 1673
-316.464 -202.853 1673
-312.463 -202.853 1673
-308.278 -202.732 1672
-304.28 -202.732 1672
-299.923 -202.489 1670
-295.929 -202.489 1670
-291.936 -202.489 1670
-287.942 -202.489 1670
-283.949 -202.489 1670
-279.955 -202.489 1670
-275.631 -202.247 1668
-271.643 -202.247 1668
-267.975 -202.489 1670
-264.772 -203.095 1675
-260.766 -203.095 1675
-256.761 -203.095 1675
-253.208 -203.459 1678
-249.79 -203.944 1682
-245.767 -203.944 1682
-242.176 -204.308 1685
-238.712 -204.793 1689
-235.09 -205.157 1692
-231.044 -205.157 1692
-227.401 -205.52 1695
-223.874 -206.005 1699
-220.458 -206.612 1704
-216.384 -206.612 1704
-212.807 -207.097 1708
-208.845 -207.218 1709
-204.998 -207.46 1711
-200.906 -207.46 1711
-197.275 -207.945 1715
-193.962 -208.794 1722
-189.955 -208.915 1723
-186.05 -209.158 1725
-181.925 -209.158 1725
-177.8 -209.158 1725
-173.675 -209.158 1725
-169.55 -209.158 1725
-165.425 -209.158 1725
-161.3 -209.158 1725
-157.175 -209.158 1725
-153.05 -209.158 1725
-148.925 -209.158 1725
-144.8 -209.158 1725
-140.675 -209.158 1725
-136.55 -209.158 1725
-132.425 -209.158 1725
-128.3 -209.158 1725
-123.959 -208.794 1722
-119.842 -208.794 1722
-115.724 -208.794 1722
-111.606 -208.794 1722
-107.363 -208.552 1720
-103.25 -208.552 1720
-99.1373 -208.552 1720
-95.0242 -208.552 1720
-90.8055 -208.309 1718
-86.6972 -208.309 1718
-82.5889 -208.309 1718
-78.4807 -208.309 1718
-74.459 -208.552 1720
-70.346 -208.552 1720
-66.2329 -208.552 1720
-62.1199 -208.552 1720
-57.9394 -208.309 1718
-53.8311 -208.309 1718
-49.665 -208.067 1716
-45.535 -207.945 1715
-41.4339 -207.945 1715
-37.3546 -208.067 1716
-33.3286 -208.552 1720
-29.2155 -208.552 1720
-25.1463 -208.915 1723
-21.0505 -209.158 1725
-16.9451 -209.4 1727
-12.8153 -209.4 1727
-8.68554 -209.4 1727
7.98665 -451.538 3724
16.9644 -453.478 3740
25.9079 -453.478 3740
34.8514 -453.478 3740
43.7949 -453.478 3740
52.8652 -454.57 3749
61.8302 -454.57 3749
70.7952 -454.57 3749
79.7602 -454.57 3749
88.7252 -454.57 3749
97.6902 -454.57 3749
106.655 -454.57 3749
115.62 -454.57 3749
124.585 -454.57 3749
133.55 -454.57 3749
142.515 -454.57 3749
151.48 -454.57 3749
160.445 -454.57 3749
169.003 -453.478 3740
177.566 -452.508 3732
186.491 -452.508 3732
195.415 -452.508 3732
203.463 -450.568 3716
212.349 -450.568 3716
221.235 -450.568 3716
230.122 -450.568 3716
239.008 -450.568 3716
247.894 -450.568 3716
256.78 -450.568 3716
265.022 -449.477 3707
273.887 -449.477 3707
282.141 -448.507 3699
290.357 -447.537 3691
299.184 -447.537 3691
308.01 -447.537 3691
316.15 -446.567 3683
324.957 -446.567 3683
333.764 -446.567 3683
342.571 -446.567 3683
351.378 -446.567 3683
360.968 -447.537 3691
369.794 -447.537 3691
378.62 -447.537 3691
385.767 -445.597 3675
395.414 -446.567 3683
404.221 -446.567 3683
413.029 -446.567 3683
421.836 -446.567 3683
430.643 -446.567 3683
439.45 -446.567 3683
450.205 -448.507 3699
460.043 -449.477 3707
468.907 -449.477 3707
478.932 -450.568 3716
487.818 -450.568 3716
497.773 -451.538 3724
506.679 -451.538 3724
516.691 -452.508 3732
526.742 -453.478 3740
539.41 -456.631 3766
548.416 -456.631 3766
561.27 -459.784 3792
590.341 -475.91 3925
604.005 -479.305 3953
613.458 -479.305 3953
624.487 -480.517 3963
633.964 -480.517 3963
643.44 -480.517 3963
652.917 -480.517 3963
657.714 -477.122 3935
668.649 -478.214 3944
678.081 -478.214 3944
687.512 -478.214 3944
698.534 -479.305 3953
707.987 -479.305 3953
720.888 -481.609 3972
730.386 -481.609 3972
739.884 -481.609 3972
749.382 -481.609 3972
758.881 -481.609 3972
768.379 -481.609 3972
772.394 -478.214 3944
781.825 -478.214 3944
791.256 -478.214 3944
1727.87 -489.732 4039
1759.04 -495.795 4089
1768.82 -495.795 4089
1778.59 -495.795 4089
1788.37 -495.795 4089
1789.36 -493.37 4069
1799.09 -493.37 4069
1804.37 -492.158 4059
1809.61 -490.945 4049
1819.29 -490.945 4049
1833.49 -492.158 4059
1843.2 -492.158 4059
1852.9 -492.158 4059
1867.2 -493.37 4069
1876.93 -493.37 4069
1886.66 -493.37 4069
1901.05 -494.583 4079
1910.8 -494.583 4079
1920.56 -494.583 4079
1925.58 -493.37 4069
1935.31 -493.37 4069
2500.55 -489.732 4039
2516.42 -490.945 4049
2532.34 -492.158 4059
2542.05 -492.158 4059
2564.33 -494.583 4079
2580.39 -495.795 4089
2590.17 -495.795 4089
2599.95 -495.795 4089
2609.73 -495.795 4089
2526.62 -478.214 3944
2536.05 -478.214 3944
2545.48 -478.214 3944
2519.28 -471.545 3889
2558.49 -477.122 3935
2567.9 -477.122 3935
2577.31 -477.122 3935
2586.72 -477.122 3935
2559.84 -470.454 3880
2557.2 -468.271 3862
2566.44 -468.271 3862
2516.98 -457.601 3774
2520.65 -456.631 3766
2512.19 -453.478 3740
2521.14 -453.478 3740
2519.26 -451.538 3724
2505.76 -447.537 3691
2503.68 -445.597 3675
2485.13 -440.747 3635
2493.82 -440.747 3635
2491.5 -438.807 3619
2473.21 -434.078 3580
2768.04 -461.845 3809
2777.14 -461.845 3809
2811.86 -466.089 3844
2821.05 -466.089 3844
2981.18 -490.945 4049
2990.86 -490.945 4049
3000.54 -490.945 4049
3010.22 -490.945 4049
3019.91 -490.945 4049
3007.89 -487.429 4020
3010 -486.216 4010
3012.81 -485.125 4001
3022.38 -485.125 4001
3031.94 -485.125 4001
3041.51 -485.125 4001
3051.08 -485.125 4001
3060.65 -485.125 4001
-2378.14 -413.141 3476
-2384.14 -415.637 3497
-2416.54 -422.769 3557
-2408.04 -422.769 3557
-2415.05 -425.502 3580
-2427.32 -429.187 3611
-2418.69 -429.187 3611
-2410.05 -429.187 3611
-2417.38 -432.039 3635
-2440.49 -437.744 3683
-2431.69 -437.744 3683
-2422.88 -437.744 3683
-2414.07 -437.744 3683
-2405.27 -437.744 3683
-2386.05 -435.843 3667
-2371.44 -434.773 3658
-2342.67 -431.089 3627
-1230.04 -384.26 3233
-1222.31 -384.26 3233
-1214.58 -384.26 3233
-1206.85 -384.26 3233
-1189.84 -381.288 3208
-1182.17 -381.288 3208
-656.41 -218.813 1841
-652.008 -218.813 1841
-647.605 -218.813 1841
-640.408 -217.862 1833
-636.025 -217.862 1833
-629.574 -217.149 1827
-623.836 -216.673 1823
-618.797 -216.436 1821
-614.443 -216.436 1821
-609.418 -216.198 1819
-604.403 -215.96 1817
-597.416 -215.009 1809
-593.09 -215.009 1809
-587.462 -214.534 1805
-580.885 -213.702 1798
-575.302 -213.227 1794
-570.376 -212.989 1792
-566.09 -212.989 1792
-557.73 -211.444 1779
-551.609 -210.731 1773
-544.899 -209.78 1765
-540.679 -209.78 1765
-532.203 -208.116 1751
-525.603 -207.165 1743
-520.538 -206.808 1740
-516.377 -206.808 1740
-510.45 -206.095 1734
-504.843 -205.501 1729
-500.129 -205.263 1727
-496 -205.263 1727
-491.3 -205.026 1725
-486.61 -204.788 1723
-482.21 -204.669 1722
-477.537 -204.431 1720
-473.424 -204.431 1720
-468.765 -204.194 1718
-463.846 -203.837 1715
-459.208 -203.599 1713
-455.112 -203.599 1713
-451.016 -203.599 1713
-446.398 -203.362 1711
-442.306 -203.362 1711
-438.215 -203.362 1711
-433.616 -203.124 1709
-428.775 -202.767 1706
-424.197 -202.53 1704
-420.123 -202.53 1704
-415.56 -202.292 1702
-411.248 -202.173 1701
-406.223 -201.698 1697
-402.165 -201.698 1697
-397.637 -201.46 1695
-393.352 -201.341 1694
-388.841 -201.103 1692
-384.795 -201.103 1692
-380.074 -200.747 1689
-375.59 -200.509 1687
-371.115 -200.271 1685
-367.086 -200.271 1685
-362.626 -200.034 1683
-357.536 -199.439 1678
-353.313 -199.321 1677
-348.886 -199.083 1675
-344.88 -199.083 1675
-340.468 -198.845 1673
-336.467 -198.845 1673
-332.864 -199.083 1675
-328.859 -199.083 1675
-324.853 -199.083 1675
-320.465 -198.845 1673
-316.464 -198.845 1673
-312.463 -198.845 1673
-307.91 -198.489 1670
-303.916 -198.489 1670
-299.923 -198.489 1670
-295.929 -198.489 1670
-291.936 -198.489 1670
-287.942 -198.489 1670
-283.609 -198.251 1668
-279.62 -198.251 1668
-275.631 -198.251 1668
-271.643 -198.251 1668
-267.975 -198.489 1670
-264.297 -198.726 1672
-260.299 -198.726 1672
-256.761 -199.083 1675
-253.057 -199.321 1677
-249.493 -199.677 1680
-245.475 -199.677 1680
-242.176 -200.271 1685
-238.43 -200.509 1687
-235.09 -201.103 1692
-231.044 -201.103 1692
-227.266 -201.341 1694
-223.611 -201.698 1697
-220.458 -202.53 1704
-216.384 -202.53 1704
-212.558 -202.767 1706
-208.845 -203.124 1709
-204.998 -203.362 1711
-200.906 -203.362 1711
-197.275 -203.837 1715
-193.962 -204.669 1722
-189.955 -204.788 1723
-186.05 -205.026 1725
-181.925 -205.026 1725
-177.8 -205.026 1725
-173.675 -205.026 1725
-169.55 -205.026 1725
-165.425 -205.026 1725
-161.3 -205.026 1725
-157.175 -205.026 1725
-153.05 -205.026 1725
-148.925 -205.026 1725
-144.8 -205.026 1725
-140.675 -205.026 1725
-136.55 -205.026 1725
-132.425 -205.026 1725
-128.152 -204.788 1723
-123.959 -204.669 1722
-119.842 -204.669 1722
-115.589 -204.431 1720
-111.476 -204.431 1720
-107.363 -204.431 1720
-103.25 -204.431 1720
-99.022 -204.194 1718
-94.9137 -204.194 1718
-90.8055 -204.194 1718
-86.6972 -204.194 1718
-82.4928 -203.956 1716
-78.4807 -204.194 1718
-74.3724 -204.194 1718
-70.2642 -204.194 1718
-66.1559 -204.194 1718
-62.0476 -204.194 1718
-57.9394 -204.194 1718
-53.8311 -204.194 1718
-49.636 -203.837 1715
-45.535 -203.837 1715
-41.4339 -203.837 1715
-37.3546 -203.956 1716
-33.3286 -204.431 1720
-29.2155 -204.431 1720
-25.1463 -204.788 1723
-21.0505 -205.026 1725
-16.9451 -205.263 1727
-12.8153 -205.263 1727
-8.68554 -205.263 1727
7.98665 -442.618 3724
16.8919 -442.618 3724
25.7971 -442.618 3724
34.7023 -442.618 3724
43.6075 -442.618 3724
52.5127 -442.618 3724
61.4179 -442.618 3724
70.3231 -442.618 3724
79.3985 -443.568 3732
88.5122 -444.519 3740
97.4557 -444.519 3740
106.399 -444.519 3740
115.343 -444.519 3740
124.286 -444.519 3740
133.23 -444.519 3740
142.173 -444.519 3740
151.117 -444.519 3740
160.06 -444.519 3740
169.003 -444.519 3740
177.186 -442.618 3724
186.091 -442.618 3724
194.996 -442.618 3724
203.463 -441.667 3716
212.349 -441.667 3716
221.235 -441.667 3716
230.122 -441.667 3716
239.008 -441.667 3716
247.894 -441.667 3716
256.78 -441.667 3716
265.022 -440.597 3707
273.887 -440.597 3707
282.141 -439.646 3699
290.357 -438.695 3691
299.184 -438.695 3691
308.01 -438.695 3691
316.15 -437.744 3683
324.957 -437.744 3683
333.764 -437.744 3683
342.571 -437.744 3683
351.378 -437.744 3683
360.968 -438.695 3691
369.794 -438.695 3691
378.62 -438.695 3691
385.767 -436.794 3675
395.414 -437.744 3683
404.221 -437.744 3683
413.029 -437.744 3683
421.836 -437.744 3683
430.643 -437.744 3683
439.45 -437.744 3683
450.205 -439.646 3699
460.043 -440.597 3707
468.907 -440.597 3707
478.932 -441.667 3716
487.818 -441.667 3716
497.773 -442.618 3724
506.679 -442.618 3724
516.691 -443.568 3732
526.742 -444.519 3740
539.41 -447.609 3766
548.416 -447.609 3766
559.937 -449.63 3783
590.341 -466.508 3925
604.005 -469.835 3953
613.458 -469.835 3953
624.487 -471.024 3963
633.964 -471.024 3963
643.44 -471.024 3963
652.917 -471.024 3963
657.714 -467.696 3935
668.649 -468.766 3944
678.081 -468.766 3944
687.512 -468.766 3944
698.534 -469.835 3953
707.987 -469.835 3953
720.888 -472.094 3972
730.386 -472.094 3972
739.884 -472.094 3972
749.382 -472.094 3972
758.881 -472.094 3972
768.379 -472.094 3972
768.673 -466.508 3925
1759.04 -486 4089
1768.82 -486 4089
1778.59 -486 4089
1788.37 -486 4089
1789.36 -483.623 4069
1799.09 -483.623 4069
1804.37 -482.434 4059
1809.61 -481.246 4049
1819.29 -481.246 4049
1833.49 -482.434 4059
1843.2 -482.434 4059
1852.9 -482.434 4059
1867.2 -483.623 4069
1876.93 -483.623 4069
1886.66 -483.623 4069
1901.05 -484.811 4079
1910.8 -484.811 4079
1920.56 -484.811 4079
1925.58 -483.623 4069
1935.31 -483.623 4069
2500.55 -480.057 4039
2516.42 -481.246 4049
2532.34 -482.434 4059
2542.05 -482.434 4059
2564.33 -484.811 4079
2580.39 -486 4089
2590.17 -486 4089
2599.95 -486 4089
2609.73 -486 4089
2526.62 -468.766 3944
2536.05 -468.766 3944
2545.48 -468.766 3944
2519.28 -462.229 3889
2558.49 -467.696 3935
2567.9 -467.696 3935
2577.31 -467.696 3935
2586.72 -467.696 3935
2559.84 -461.159 3880
2557.2 -459.02 3862
2566.44 -459.02 3862
2516.98 -448.56 3774
2520.65 -447.609 3766
2512.19 -444.519 3740
2521.14 -444.519 3740
2519.26 -442.618 3724
2505.76 -438.695 3691
2503.68 -436.794 3675
2485.13 -432.039 3635
2493.82 -432.039 3635
2491.5 -430.138 3619
2473.21 -425.502 3580
2749.14 -449.63 3783
2758.19 -449.63 3783
2786.25 -452.72 3809
2795.36 -452.72 3809
2959.82 -477.799 4020
2969.44 -477.799 4020
2986.46 -478.987 4030
2996.1 -478.987 4030
3005.73 -478.987 4030
3000.41 -476.61 4010
2988.98 -473.282 3982
2998.5 -473.282 3982
3008.02 -473.282 3982
3017.55 -473.282 3982
3027.07 -473.282 3982
3036.59 -473.282 3982
3046.11 -473.282 3982
-2378.14 -404.815 3476
-2384.14 -407.26 3497
-2406.35 -412.501 3542
-2397.88 -412.501 3542
-2399.53 -414.248 3557
-2401.11 -415.995 3572
-2403.28 -417.858 3588
-2394.7 -417.858 3588
-2401.42 -420.537 3611
-2423.93 -426.01 3658
-2415.18 -426.01 3658
-2412.35 -427.058 3667
-2403.59 -427.058 3667
-2394.82 -427.058 3667
-2380.19 -426.01 3658
-2361.07 -424.147 3642
-2342.67 -422.4 3627
-1230.04 -376.515 3233
-1222.31 -376.515 3233
-1214.58 -376.515 3233
-1206.85 -376.515 3233
-1189.84 -373.603 3208
-1182.17 -373.603 3208
-636.914 -212.306 1823
-632.555 -212.306 1823
-628.195 -212.306 1823
-623.152 -212.073 1821
-618.797 -212.073 1821
-614.443 -212.073 1821
-609.418 -211.841 1819
-603.738 -211.375 1815
-597.416 -210.676 1809
-593.09 -210.676 1809
-587.462 -210.21 1805
-580.885 -209.395 1798
-575.302 -208.929 1794
-570.376 -208.696 1792
-566.09 -208.696 1792
-557.73 -207.182 1779
-551.609 -206.483 1773
-544.899 -205.552 1765
-540.679 -205.552 1765
-532.203 -203.921 1751
-525.603 -202.99 1743
-520.538 -202.64 1740
-516.377 -202.64 1740
-510.45 -201.941 1734
-504.259 -201.126 1727
-499.55 -200.893 1725
-495.425 -200.893 1725
-490.731 -200.66 1723
-486.61 -200.66 1723
-482.21 -200.544 1722
-477.537 -200.311 1720
-473.424 -200.311 1720
-468.765 -200.078 1718
-463.846 -199.729 1715
-459.208 -199.496 1713
-455.112 -199.496 1713
-451.016 -199.496 1713
-446.398 -199.263 1711
-442.306 -199.263 1711
-438.215 -199.263 1711
-433.616 -199.03 1709
-428.775 -198.681 1706
-424.197 -198.448 1704
-420.123 -198.448 1704
-415.315 -198.098 1701
-411.248 -198.098 1701
-406.223 -197.632 1697
-402.165 -197.632 1697
-397.637 -197.4 1695
-393.352 -197.283 1694
-388.382 -196.817 1690
-384.341 -196.817 1690
-380.074 -196.701 1689
-375.145 -196.235 1685
-370.675 -196.002 1683
-366.65 -196.002 1683
-362.41 -195.886 1682
-357.323 -195.303 1677
-352.891 -195.07 1675
-348.886 -195.07 1675
-344.88 -195.07 1675
-340.468 -194.837 1673
-336.467 -194.837 1673
-332.467 -194.837 1673
-328.466 -194.837 1673
-324.465 -194.837 1673
-320.465 -194.837 1673
-316.464 -194.837 1673
-312.463 -194.837 1673
-307.91 -194.488 1670
-303.916 -194.488 1670
-299.923 -194.488 1670
-295.929 -194.488 1670
-291.936 -194.488 1670
-287.597 -194.255 1668
-283.609 -194.255 1668
-279.62 -194.255 1668
-275.631 -194.255 1668
-271.643 -194.255 1668
-267.654 -194.255 1668
-264.297 -194.721 1672
-260.299 -194.721 1672
-256.454 -194.837 1673
-252.755 -195.07 1675
-249.79 -195.886 1682
-245.767 -195.886 1682
-241.889 -196.002 1683
-238.147 -196.235 1685
-235.09 -197.05 1692
-231.044 -197.05 1692
-227.266 -197.283 1694
-223.611 -197.632 1697
-220.2 -198.215 1702
-216.13 -198.215 1702
