ply
format ascii 1.0
comment File generated
element vertex 2251
property float x
property float y
property float z
end_header
-1943.84 208.76 3303
-1932.42 208.381 3297
-1924.54 208.381 3297
-1912.59 207.939 3290
-1904.72 207.939 3290
-1900.89 208.381 3297
-1893 208.381 3297
-1885.12 208.381 3297
-1873.25 207.939 3290
-1865.38 207.939 3290
-1857.51 207.939 3290
-1835.59 206.359 3265
-1827.78 206.359 3265
-1819.98 206.359 3265
-1812.17 206.359 3265
-1804.36 206.359 3265
-1796.55 206.359 3265
-1784.91 205.916 3258
-1777.12 205.916 3258
-1769.33 205.916 3258
-1761.54 205.916 3258
-1764.51 207.18 3278
-1756.68 207.18 3278
-1762.17 208.76 3303
-1754.28 208.76 3303
-1746.38 208.76 3303
-1742.16 209.203 3310
-1734.25 209.203 3310
-1726.33 209.203 3310
-1732.44 210.909 3337
-1724.46 210.909 3337
-1716.48 210.909 3337
-1708.5 210.909 3337
-1713.77 212.553 3363
-1719.93 214.322 3391
-1715.35 214.765 3398
-1707.22 214.765 3398
-1706.1 215.65 3412
-1704.91 216.534 3426
-1703.65 217.419 3440
-1695.42 217.419 3440
-1687.2 217.419 3440
-1678.97 217.419 3440
-1670.74 217.419 3440
-1659.13 216.977 3433
-1654.29 217.419 3440
-1646.07 217.419 3440
-1637.84 217.419 3440
-1629.61 217.419 3440
-1621.39 217.419 3440
-1616.44 217.862 3447
-1608.2 217.862 3447
-1599.96 217.862 3447
-1585.25 216.977 3433
-1577.04 216.977 3433
-1568.83 216.977 3433
-1560.62 216.977 3433
-1552.41 216.977 3433
-1544.2 216.977 3433
-1535.99 216.977 3433
-1527.78 216.977 3433
-1519.58 216.977 3433
-1505.2 216.092 3419
-1497.03 216.092 3419
-1479.71 214.765 3398
-1471.58 214.765 3398
-1463.45 214.765 3398
-1455.33 214.765 3398
-1447.2 214.765 3398
-1436.11 214.322 3391
-1416.21 212.553 3363
-1408.17 212.553 3363
-1394.72 211.731 3350
-1373.05 209.645 3317
-1362.23 209.203 3310
-1351.45 208.76 3303
-1343.56 208.76 3303
-717.769 112.186 1775
-713.524 112.186 1775
-709.28 112.186 1775
-705.035 112.186 1775
-700.791 112.186 1775
-693.407 111.68 1767
-690.741 111.933 1771
-686.506 111.933 1771
-683.042 112.059 1773
-678.802 112.059 1773
-674.562 112.059 1773
-673.725 112.628 1782
-669.464 112.628 1782
-665.203 112.628 1782
-660.941 112.628 1782
-654.838 112.312 1777
-650.588 112.312 1777
-644.884 112.059 1773
-639.922 111.933 1771
-634.251 111.68 1767
-630.025 111.68 1767
-625.8 111.68 1767
-620.167 111.427 1763
-614.903 111.238 1760
-610.001 111.111 1758
-605.797 111.111 1758
-599.197 110.669 1751
-594.331 110.542 1749
-589.473 110.416 1747
-585.296 110.416 1747
-579.122 110.037 1741
-572.647 109.594 1734
-568.501 109.594 1734
-564.354 109.594 1734
-559.239 109.405 1731
-553.175 109.026 1725
-548.414 108.899 1723
-544.293 108.899 1723
-539.233 108.71 1720
-533.564 108.394 1715
-528.846 108.267 1713
-524.749 108.267 1713
-519.437 108.014 1709
-515.049 107.951 1708
-510.366 107.825 1706
-506.287 107.825 1706
-501.618 107.698 1704
-496.96 107.572 1702
-492.89 107.572 1702
-488.82 107.572 1702
-484.75 107.572 1702
-480.397 107.509 1701
-475.209 107.256 1697
-471.151 107.256 1697
-467.093 107.256 1697
-463.035 107.256 1697
-458.436 107.13 1695
-454.383 107.13 1695
-450.33 107.13 1695
-446.277 107.13 1695
-442.223 107.13 1695
-438.17 107.13 1695
-434.117 107.13 1695
-429.81 107.066 1694
-425.759 107.066 1694
-421.708 107.066 1694
-417.657 107.066 1694
-413.118 106.94 1692
-408.347 106.75 1689
-403.829 106.624 1687
-399.795 106.624 1687
-394.822 106.371 1683
-390.798 106.371 1683
-386.543 106.308 1682
-382.521 106.308 1682
-378.049 106.181 1680
-373.364 105.992 1677
-368.913 105.865 1675
-364.908 105.865 1675
-360.902 105.865 1675
-355.831 105.549 1670
-351.416 105.423 1668
-347.219 105.36 1667
-343.233 105.36 1667
-338.84 105.233 1665
-334.858 105.233 1665
-330.479 105.107 1663
-326.895 105.233 1665
-322.914 105.233 1665
-318.932 105.233 1665
-314.951 105.233 1665
-310.969 105.233 1665
-306.988 105.233 1665
-303.006 105.233 1665
-299.384 105.36 1667
-295.575 105.423 1668
-291.586 105.423 1668
-287.942 105.549 1670
-284.459 105.739 1673
-281.129 105.992 1677
-277.118 105.992 1677
-273.597 106.181 1680
-269.9 106.308 1682
-265.878 106.308 1682
-261.856 106.308 1682
-258.6 106.624 1687
-254.566 106.624 1687
-250.978 106.814 1690
-246.936 106.814 1690
-243.182 106.94 1692
-239.56 107.13 1695
-235.785 107.256 1697
-231.727 107.256 1697
-227.937 107.382 1699
-224.27 107.572 1702
-220.458 107.698 1704
-216.384 107.698 1704
-212.558 107.825 1706
-208.845 108.014 1709
-204.758 108.014 1709
-200.672 108.014 1709
-196.815 108.141 1711
-192.949 108.267 1713
-188.852 108.267 1713
-185.08 108.457 1716
-180.976 108.457 1716
-177.079 108.583 1718
-173.373 108.836 1722
-169.354 108.899 1723
-165.234 108.899 1723
-161.487 109.152 1727
-157.54 109.278 1729
-153.583 109.405 1731
-149.443 109.405 1731
-145.556 109.594 1734
-141.572 109.721 1736
-137.579 109.847 1738
-133.423 109.847 1738
-129.416 109.974 1740
-125.471 110.163 1743
-121.303 110.163 1743
-117.135 110.163 1743
-113.226 110.416 1747
-109.174 110.542 1749
-105.111 110.669 1751
-100.924 110.669 1751
-96.7921 110.732 1752
-92.814 110.985 1756
-88.6148 110.985 1756
-84.4157 110.985 1756
-80.1252 110.859 1754
-75.9309 110.859 1754
-71.7365 110.859 1754
-67.4652 110.732 1752
-63.2756 110.732 1752
-58.9849 110.542 1749
-54.8025 110.542 1749
-50.6201 110.542 1749
-34.9793 225.32 3565
-26.5063 225.762 3572
-17.9645 225.762 3572
-9.42281 225.762 3572
-0.881075 225.762 3572
7.66066 225.762 3572
16.2024 225.762 3572
24.7441 225.762 3572
33.2859 225.762 3572
41.7456 225.32 3565
50.2706 225.32 3565
58.6637 224.814 3557
67.1695 224.814 3557
75.6754 224.814 3557
84.1813 224.814 3557
92.6871 224.814 3557
101.193 224.814 3557
109.452 224.308 3549
117.939 224.308 3549
125.393 222.475 3520
134.342 223.36 3534
142.793 223.36 3534
151.244 223.36 3534
159.695 223.36 3534
165.386 219.695 3476
173.698 219.695 3476
182.743 220.579 3490
191.089 220.579 3490
199.435 220.579 3490
202.303 214.765 3398
212.596 216.977 3433
225.436 221.527 3505
233.818 221.527 3505
242.199 221.527 3505
252.154 222.918 3527
260.588 222.918 3527
269.022 222.918 3527
277.456 222.918 3527
288.97 225.32 3565
297.495 225.32 3565
306.02 225.32 3565
314.545 225.32 3565
323.07 225.32 3565
331.595 225.32 3565
337.926 223.866 3542
346.396 223.866 3542
350.358 221.022 3497
358.72 221.022 3497
366.348 220.579 3490
374.693 220.579 3490
379.088 218.304 3454
384.207 216.534 3426
392.4 216.534 3426
397.319 214.765 3398
403.774 213.88 3384
408.58 212.173 3357
416.607 212.173 3357
422.105 210.909 3337
428.281 210.024 3323
434.52 209.203 3310
442.435 209.203 3310
450.351 209.203 3310
458.266 209.203 3310
466.181 209.203 3310
474.096 209.203 3310
480.992 208.76 3303
483.266 206.359 3265
490.021 205.916 3258
497.812 205.916 3258
511.655 208.381 3297
519.539 208.381 3297
535.902 211.731 3350
552.842 215.207 3405
572.682 219.695 3476
580.994 219.695 3476
591.68 220.579 3490
608.966 223.866 3542
620.051 224.814 3557
628.557 224.814 3557
638.495 225.32 3565
647.02 225.32 3565
655.545 225.32 3565
664.07 225.32 3565
672.595 225.32 3565
679.592 224.814 3557
689.645 225.32 3565
698.17 225.32 3565
708.083 225.762 3572
718.23 226.268 3580
726.79 226.268 3580
735.351 226.268 3580
743.912 226.268 3580
750.792 225.762 3572
759.333 225.762 3572
767.875 225.762 3572
774.895 225.32 3565
781.662 224.814 3557
791.945 225.32 3565
800.47 225.32 3565
808.995 225.32 3565
817.52 225.32 3565
827.667 225.762 3572
838.082 226.268 3580
846.643 226.268 3580
857.115 226.773 3588
867.383 227.216 3595
877.93 227.721 3603
886.545 227.721 3603
895.161 227.721 3603
903.777 227.721 3603
914.419 228.227 3611
923.054 228.227 3611
937.881 229.744 3635
948.396 230.186 3642
957.106 230.186 3642
965.815 230.186 3642
972.651 229.744 3635
981.343 229.744 3635
990.035 229.744 3635
996.53 229.238 3627
1005.2 229.238 3627
1016.11 229.744 3635
1024.81 229.744 3635
1033.5 229.744 3635
1039.9 229.238 3627
1048.57 229.238 3627
1059.57 229.744 3635
1068.27 229.744 3635
1076.96 229.744 3635
1085.65 229.744 3635
1091.94 229.238 3627
1100.61 229.238 3627
1109.28 229.238 3627
1117.96 229.238 3627
1121.66 228.227 3611
1130.29 228.227 3611
1138.93 228.227 3611
1150.11 228.733 3619
1163.88 229.744 3635
1177.41 230.692 3650
1186.14 230.692 3650
1194.87 230.692 3650
1206.24 231.198 3658
1214.98 231.198 3658
1223.73 231.198 3658
1232.48 231.198 3658
1246.99 232.272 3675
1255.78 232.272 3675
1264.57 232.272 3675
1273.36 232.272 3675
1282.15 232.272 3675
1290.94 232.272 3675
1299.72 232.272 3675
1308.51 232.272 3675
1317.3 232.272 3675
1326.09 232.272 3675
1337.78 232.778 3683
1346.59 232.778 3683
1358.34 233.283 3691
1367.17 233.283 3691
1375.99 233.283 3691
1384.82 233.283 3691
1390.62 232.778 3683
1402.47 233.283 3691
1414.36 233.789 3699
1423.2 233.789 3699
1432.05 233.789 3699
1440.89 233.789 3699
1449.74 233.789 3699
1449.12 232.272 3675
1454.73 231.766 3667
1450.73 229.744 3635
1456.21 229.238 3627
1464.89 229.238 3627
1460.56 227.216 3595
1466.29 226.773 3588
1471.59 226.268 3580
1480.15 226.268 3580
1488.71 226.268 3580
1497.27 226.268 3580
1499.52 225.32 3565
1508.04 225.32 3565
1516.57 225.32 3565
1518.25 224.308 3549
1520.28 223.36 3534
1528.73 223.36 3534
1537.19 223.36 3534
1552.2 224.308 3549
1560.68 224.308 3549
1576.24 225.32 3565
1598.11 227.216 3595
1606.7 227.216 3595
1618.89 227.721 3603
1641.96 229.744 3635
1650.66 229.744 3635
1659.35 229.744 3635
1674.92 230.692 3650
1683.65 230.692 3650
1692.38 230.692 3650
1701.11 230.692 3650
1709.84 230.692 3650
1714.8 230.186 3642
1723.51 230.186 3642
1728.89 229.744 3635
1733.76 229.238 3627
1749.64 230.186 3642
1758.35 230.186 3642
1767.05 230.186 3642
1775.76 230.186 3642
1784.47 230.186 3642
1793.18 230.186 3642
1801.89 230.186 3642
1799.17 228.733 3619
1807.82 228.733 3619
1796.9 226.268 3580
1805.46 226.268 3580
1798.31 224.308 3549
1803.24 223.866 3542
1792.78 221.527 3505
1801.16 221.527 3505
1801.8 220.579 3490
1810.14 220.579 3490
1818.49 220.579 3490
1830.5 221.022 3497
1838.86 221.022 3497
1855.15 221.97 3512
1871.51 222.918 3527
1879.94 222.918 3527
1888.37 222.918 3527
1896.81 222.918 3527
1909.02 223.36 3534
1917.47 223.36 3534
1934.1 224.308 3549
1942.59 224.308 3549
1963.72 225.762 3572
1981.09 226.773 3588
1993.56 227.216 3595
2002.15 227.216 3595
2019.7 228.227 3611
2050.24 230.692 3650
2086.61 233.789 3699
2095.45 233.789 3699
2118.52 235.369 3724
2127.43 235.369 3724
2136.33 235.369 3724
2145.24 235.369 3724
2149.52 234.863 3716
2148.53 233.789 3699
2162.04 234.294 3707
2170.9 234.294 3707
2189.76 235.369 3724
2198.67 235.369 3724
2207.57 235.369 3724
2216.48 235.369 3724
2225.38 235.369 3724
2234.29 235.369 3724
2248.01 235.875 3732
2267.22 236.949 3749
2276.18 236.949 3749
2285.15 236.949 3749
2314.92 239.098 3783
2323.97 239.098 3783
2333.01 239.098 3783
2342.06 239.098 3783
2351.1 239.098 3783
2360.15 239.098 3783
2369.2 239.098 3783
2388.93 240.172 3800
2398.02 240.172 3800
2407.1 240.172 3800
2411.11 239.667 3792
2403.58 238.023 3766
2406.82 237.455 3757
2404.87 236.38 3740
2413.82 236.38 3740
2422.76 236.38 3740
2448.61 238.023 3766
2457.61 238.023 3766
2466.62 238.023 3766
2458.53 236.38 3740
2456.92 235.369 3724
2443.97 233.283 3691
2452.8 233.283 3691
2456.29 232.778 3683
2448.37 231.198 3658
2457.11 231.198 3658
2465.86 231.198 3658
2469.2 230.692 3650
2477.92 230.692 3650
2486.65 230.692 3650
2489.91 230.186 3642
2498.62 230.186 3642
2507.33 230.186 3642
2511.2 229.744 3635
2519.9 229.744 3635
2528.59 229.744 3635
2526.11 228.733 3619
1973.74 178.107 2818
1980.48 178.107 2818
1987.22 178.107 2818
1990.42 177.791 2813
1997.15 177.791 2813
1993.9 176.906 2799
1987.01 175.705 2780
1980.75 174.567 2762
1987.36 174.567 2762
1980.97 173.43 2744
1983.91 173.114 2739
1990.46 173.114 2739
2003.57 173.683 2748
2016.72 174.251 2757
2023.32 174.251 2757
2037.27 174.883 2767
2046.84 175.136 2771
2060.14 175.705 2780
2066.79 175.705 2780
2080.89 176.337 2790
2094.3 176.906 2799
2104.75 177.222 2804
2111.45 177.222 2804
2121.93 177.538 2809
2135.47 178.107 2818
2149.81 178.739 2828
2156.57 178.739 2828
2163.34 178.739 2828
-2356.98 206.505 3148
-2349.46 206.505 3148
-2337.47 206.111 3142
-2325.5 205.718 3136
-2313.57 205.324 3130
-2306.08 205.324 3130
-2298.6 205.324 3130
-2299.9 206.111 3142
-2296.76 206.505 3148
-2302.32 207.686 3166
-2294.75 207.686 3166
-2291.52 208.079 3172
-2292.57 208.866 3184
-2284.96 208.866 3184
-2277.34 208.866 3184
-2274.01 209.26 3190
-2266.38 209.26 3190
-2258.75 209.26 3190
-2246.89 208.866 3184
-2239.27 208.866 3184
-2231.66 208.866 3184
-2224.05 208.866 3184
-2216.43 208.866 3184
-2208.82 208.866 3184
-2201.21 208.866 3184
-2197.72 209.26 3190
-2190.1 209.26 3190
-2186.57 209.654 3196
-2178.93 209.654 3196
-2175.36 210.047 3202
-2167.71 210.047 3202
-2160.05 210.047 3202
-2169.2 211.687 3227
-2161.48 211.687 3227
-2153.77 211.687 3227
-2158.68 212.934 3246
-2167.49 214.574 3271
-2159.67 214.574 3271
-2151.84 214.574 3271
-2144.02 214.574 3271
-2132.28 214.18 3265
-2145.3 216.279 3297
-2137.41 216.279 3297
-2142.45 217.591 3317
-2138.37 217.985 3323
-2130.43 217.985 3323
-2122.48 217.985 3323
-2114.54 217.985 3323
-2123.71 219.756 3350
-2115.69 219.756 3350
-2107.68 219.756 3350
-2091.53 218.903 3337
-2083.55 218.903 3337
-2075.57 218.903 3337
-2055.19 217.591 3317
-2047.26 217.591 3317
-2022.73 215.82 3290
-2027.11 217.132 3310
-2019.2 217.132 3310
-2011.28 217.132 3310
-2003.37 217.132 3310
-2015.34 219.297 3343
-2007.35 219.297 3343
-1999.36 219.297 3343
-1991.36 219.297 3343
-1983.37 219.297 3343
-1975.37 219.297 3343
-1955.61 217.985 3323
-1944.15 217.591 3317
-1936.21 217.591 3317
-1928.28 217.591 3317
-1920.35 217.591 3317
-1915.88 217.985 3323
-1907.93 217.985 3323
-1899.99 217.985 3323
-1880.65 216.673 3303
-1869.35 216.279 3297
-1868.81 217.132 3310
-1860.89 217.132 3310
-1852.98 217.132 3310
-1845.06 217.132 3310
-1837.15 217.132 3310
-1829.23 217.132 3310
-1821.32 217.132 3310
-1806.28 216.279 3297
-1788.03 215.033 3278
-1780.19 215.033 3278
-1772.35 215.033 3278
-1774.74 216.279 3297
-1777.58 217.591 3317
-1776.58 218.444 3330
-1768.62 218.444 3330
-1774.93 220.215 3357
-1773.74 221.068 3370
-1765.68 221.068 3370
-1757.63 221.068 3370
-1749.57 221.068 3370
-1748.74 221.986 3384
-1740.65 221.986 3384
-1732.56 221.986 3384
-1728.03 222.445 3391
-1734.13 224.282 3419
-1733.02 225.201 3433
-1724.81 225.201 3433
-1716.6 225.201 3433
-1718.84 226.578 3454
-1717.51 227.497 3468
-1709.22 227.497 3468
-1700.93 227.497 3468
-1689.22 227.037 3461
-1680.94 227.037 3461
-1672.67 227.037 3461
-1661.02 226.578 3454
-1652.76 226.578 3454
-1644.5 226.578 3454
-1632.93 226.119 3447
-1624.69 226.119 3447
-1619.73 226.578 3454
-1611.47 226.578 3454
-1603.21 226.578 3454
-1594.95 226.578 3454
-1586.69 226.578 3454
-1578.43 226.578 3454
-1570.17 226.578 3454
-1561.91 226.578 3454
-1553.65 226.578 3454
-1545.39 226.578 3454
-1537.13 226.578 3454
-1528.87 226.578 3454
-1508.28 224.741 3426
-1500.09 224.741 3426
-1479.71 222.905 3398
-1471.58 222.905 3398
-1463.45 222.905 3398
-1455.33 222.905 3398
-1447.2 222.905 3398
-1436.11 222.445 3391
-1419.16 221.068 3370
-1411.1 221.068 3370
-1403.04 221.068 3370
-1386.71 219.756 3350
-1362.23 217.132 3310
-719.573 116.044 1769
-717.769 116.438 1775
-713.524 116.438 1775
-709.28 116.438 1775
-705.035 116.438 1775
-700.791 116.438 1775
-693.407 115.913 1767
-690.741 116.175 1771
-686.506 116.175 1771
-683.042 116.307 1773
-678.802 116.307 1773
-674.562 116.307 1773
-672.969 116.766 1780
-668.713 116.766 1780
-664.456 116.766 1780
-660.2 116.766 1780
-654.101 116.438 1775
-649.856 116.438 1775
-644.884 116.307 1773
-638.476 115.913 1767
-633.533 115.782 1765
-629.312 115.782 1765
-625.092 115.782 1765
-619.816 115.585 1762
-614.205 115.323 1758
-610.001 115.323 1758
-605.797 115.323 1758
-598.513 114.732 1749
-593.651 114.601 1747
-589.473 114.601 1747
-585.296 114.601 1747
-579.122 114.207 1741
-572.647 113.748 1734
-568.501 113.748 1734
-564.354 113.748 1734
-559.239 113.551 1731
-553.175 113.158 1725
-548.414 113.027 1723
-544.293 113.027 1723
-539.233 112.83 1720
-533.564 112.502 1715
-528.846 112.371 1713
-524.749 112.371 1713
-519.437 112.108 1709
-515.049 112.043 1708
-510.366 111.911 1706
-506.287 111.911 1706
-501.618 111.78 1704
-496.96 111.649 1702
-492.89 111.649 1702
-488.82 111.649 1702
-484.75 111.649 1702
-480.397 111.584 1701
-475.769 111.452 1699
-471.151 111.321 1697
-467.093 111.321 1697
-463.035 111.321 1697
-458.436 111.19 1695
-454.383 111.19 1695
-450.33 111.19 1695
-446.277 111.19 1695
-442.223 111.19 1695
-438.17 111.19 1695
-434.117 111.19 1695
-429.81 111.124 1694
-425.759 111.124 1694
-421.708 111.124 1694
-417.657 111.124 1694
-413.118 110.993 1692
-407.863 110.665 1687
-403.829 110.665 1687
-399.795 110.665 1687
-394.822 110.403 1683
-390.566 110.337 1682
-386.543 110.337 1682
-382.521 110.337 1682
-378.049 110.206 1680
-373.364 110.009 1677
-368.913 109.878 1675
-364.908 109.878 1675
-360.256 109.681 1672
-355.831 109.55 1670
-351.416 109.419 1668
-346.803 109.222 1665
-342.821 109.222 1665
-338.433 109.091 1663
-334.255 109.025 1662
-330.281 109.025 1662
-326.503 109.091 1663
-322.526 109.091 1663
-318.549 109.091 1663
-314.572 109.091 1663
-310.596 109.091 1663
-306.619 109.091 1663
-303.006 109.222 1665
-299.025 109.222 1665
-295.398 109.353 1667
-291.411 109.353 1667
-287.942 109.55 1670
-284.289 109.681 1672
-281.129 110.009 1677
-277.118 110.009 1677
-273.597 110.206 1680
-269.9 110.337 1682
-266.036 110.403 1683
-262.012 110.403 1683
-258.6 110.665 1687
-254.868 110.796 1689
-250.978 110.862 1690
-246.936 110.862 1690
-243.47 111.124 1694
-239.56 111.19 1695
-235.785 111.321 1697
-231.727 111.321 1697
-227.937 111.452 1699
-224.27 111.649 1702
-220.458 111.78 1704
-216.384 111.78 1704
-212.558 111.911 1706
-208.845 112.108 1709
-204.758 112.108 1709
-200.672 112.108 1709
-196.815 112.239 1711
-192.949 112.371 1713
-188.852 112.371 1713
-185.08 112.567 1716
-180.976 112.567 1716
-177.079 112.699 1718
-173.373 112.961 1722
-169.354 113.027 1723
-165.234 113.027 1723
-161.487 113.289 1727
-157.54 113.42 1729
-153.583 113.551 1731
-149.443 113.551 1731
-145.556 113.748 1734
-141.572 113.879 1736
-137.738 114.142 1740
-133.577 114.142 1740
-129.416 114.142 1740
-125.471 114.339 1743
-121.303 114.339 1743
-117.135 114.339 1743
-113.226 114.601 1747
-109.174 114.732 1749
-105.111 114.863 1751
-100.924 114.863 1751
-96.7369 114.863 1751
-92.6025 114.929 1752
-88.413 114.929 1752
-84.2234 114.929 1752
-79.9882 114.863 1751
-75.801 114.863 1751
-71.6138 114.863 1751
-67.3496 114.732 1749
-63.1672 114.732 1749
-58.9849 114.732 1749
-54.8025 114.732 1749
-50.6201 114.732 1749
-35.5092 237.402 3619
-26.855 237.402 3619
-18.2009 237.402 3619
-9.54679 237.402 3619
-0.888721 236.352 3603
7.70999 235.828 3595
16.3067 235.828 3595
24.9035 235.828 3595
33.5002 235.828 3595
42.015 235.368 3588
50.595 235.368 3588
59.043 234.844 3580
67.6039 234.844 3580
76.1647 234.844 3580
85.2699 236.352 3603
93.8858 236.352 3603
102.502 236.352 3603
110.408 234.844 3580
118.969 234.844 3580
127.245 234.319 3572
137.269 236.877 3611
147.157 238.911 3642
155.866 238.911 3642
164.575 238.911 3642
173.284 238.911 3642
176.247 231.367 3527
184.681 231.367 3527
193.115 231.367 3527
201.549 231.367 3527
202.303 222.905 3398
212.596 225.201 3433
226.401 230.908 3520
234.819 230.908 3520
243.236 230.908 3520
252.154 231.367 3527
265.612 235.828 3595
274.209 235.828 3595
282.805 235.828 3595
290.186 234.844 3580
299.999 235.828 3595
308.596 235.828 3595
317.192 235.828 3595
325.789 235.828 3595
334.386 235.828 3595
342.315 235.368 3588
347.863 233.335 3557
354.866 232.351 3542
363.336 232.351 3542
370.966 231.826 3534
376.304 229.924 3505
383.039 228.94 3490
388.132 227.037 3461
396.409 227.037 3461
400.593 224.741 3426
405.444 222.905 3398
410.162 221.068 3370
418.221 221.068 3370
423.75 219.756 3350
429.183 218.444 3330
435.439 217.591 3317
443.371 217.591 3317
450.351 217.132 3310
458.266 217.132 3310
466.181 217.132 3310
474.096 217.132 3310
480.992 216.673 3303
483.266 214.18 3265
490.021 213.721 3258
497.812 213.721 3258
511.655 216.279 3297
519.539 216.279 3297
540.221 221.527 3377
555.115 224.282 3419
574.989 228.94 3490
583.334 228.94 3490
600.496 232.351 3542
611.545 233.335 3557
625.455 235.368 3588
634.035 235.368 3588
642.615 235.368 3588
651.195 235.368 3588
659.775 235.368 3588
668.355 235.368 3588
673.916 234.319 3572
682.458 234.319 3572
695.449 235.828 3595
704.045 235.828 3595
714.228 236.352 3603
722.844 236.352 3603
731.46 236.352 3603
740.076 236.352 3603
747.029 235.828 3595
754.155 235.368 3588
762.735 235.368 3588
771.315 235.368 3588
776.417 234.319 3572
784.958 234.319 3572
795.277 234.844 3580
803.838 234.844 3580
812.399 234.844 3580
820.96 234.844 3580
829.521 234.844 3580
845.339 236.877 3611
853.974 236.877 3611
862.609 236.877 3611
875.104 237.927 3627
883.778 237.927 3627
892.451 237.927 3627
901.124 237.927 3627
911.804 238.452 3635
926.321 239.96 3658
935.068 239.96 3658
946.138 240.551 3667
954.906 240.551 3667
963.675 240.551 3667
972.444 240.551 3667
978.805 239.96 3658
987.552 239.96 3658
996.3 239.96 3658
1002.85 239.436 3650
1009.36 238.911 3642
1020.31 239.436 3650
1029.03 239.436 3650
1037.76 239.436 3650
1044.2 238.911 3642
1052.91 238.911 3642
1061.61 238.911 3642
1068.27 238.452 3635
1076.96 238.452 3635
1085.65 238.452 3635
1096.45 238.911 3642
1105.16 238.911 3642
1113.87 238.911 3642
1120.42 238.452 3635
1126.63 237.927 3627
1135.3 237.927 3627
1141.45 237.402 3619
1152.65 237.927 3627
1166.12 238.911 3642
1179.99 239.96 3658
1188.74 239.96 3658
1197.49 239.96 3658
1206.24 239.96 3658
1214.98 239.96 3658
1223.73 239.96 3658
1243.6 242.125 3691
1252.42 242.125 3691
1261.25 242.125 3691
1270.08 242.125 3691
1278.9 242.125 3691
1284.94 241.6 3683
1293.75 241.6 3683
1302.55 241.6 3683
1311.36 241.6 3683
1320.17 241.6 3683
1331.86 242.125 3691
1343.59 242.65 3699
1352.44 242.65 3699
1361.28 242.65 3699
1370.13 242.65 3699
1378.97 242.65 3699
1387.82 242.65 3699
1396.67 242.65 3699
1405.51 242.65 3699
1414.36 242.65 3699
1423.2 242.65 3699
1432.05 242.65 3699
1440.89 242.65 3699
1449.74 242.65 3699
1449.12 241.075 3675
1457.91 241.075 3675
1463.5 240.551 3667
1472.27 240.551 3667
1468.12 238.452 3635
1470.31 237.402 3619
1469.15 235.828 3595
1477.75 235.828 3595
1486.35 235.828 3595
1494.95 235.828 3595
1500.61 235.368 3588
1509.19 235.368 3588
1517.77 235.368 3588
1526.35 235.368 3588
1531.51 234.844 3580
1536.63 234.319 3572
1545.17 234.319 3572
1547.19 233.335 3557
1559.19 233.86 3565
1567.72 233.86 3565
1586.41 235.368 3588
1601.66 236.352 3603
1610.28 236.352 3603
1633.27 238.452 3635
1652.35 239.96 3658
1661.1 239.96 3658
1669.85 239.96 3658
1678.6 239.96 3658
1687.34 239.96 3658
1696.09 239.96 3658
1704.84 239.96 3658
1713.59 239.96 3658
1722.33 239.96 3658
1731.08 239.96 3658
1736.02 239.436 3650
1737.58 238.452 3635
1749.64 238.911 3642
1758.35 238.911 3642
1767.05 238.911 3642
1775.76 238.911 3642
1784.47 238.911 3642
1793.18 238.911 3642
1801.89 238.911 3642
1799.17 237.402 3619
1807.82 237.402 3619
1792.88 234.319 3572
1801.42 234.319 3572
1802.37 233.335 3557
1803.24 232.351 3542
1788.69 229.399 3497
1797.05 229.399 3497
1801.8 228.94 3490
1806.51 228.48 3483
1814.84 228.48 3483
1830.5 229.399 3497
1838.86 229.399 3497
1855.15 230.383 3512
1871.51 231.367 3527
1879.94 231.367 3527
1892.12 231.826 3534
1900.57 231.826 3534
1909.02 231.826 3534
1917.47 231.826 3534
1934.1 232.81 3549
1942.59 232.81 3549
1968.12 234.844 3580
1989.38 236.352 3603
2002.43 236.877 3611
2011.06 236.877 3611
2033.12 238.452 3635
2054.73 239.96 3658
2105.22 244.815 3732
2114.15 244.815 3732
2142.42 247.045 3766
2151.42 247.045 3766
2160.43 247.045 3766
2169.43 247.045 3766
2154.14 244.29 3724
2182.22 246.455 3757
2196.45 247.045 3766
2205.45 247.045 3766
2214.46 247.045 3766
2223.47 247.045 3766
2232.47 247.045 3766
2241.48 247.045 3766
2250.48 247.045 3766
2259.49 247.045 3766
2268.49 247.045 3766
2298.06 249.275 3800
2307.15 249.275 3800
2321.72 249.866 3809
2336.34 250.456 3818
2345.47 250.456 3818
2354.6 250.456 3818
2379.82 252.162 3844
2389.02 252.162 3844
2415.05 253.933 3871
2424.31 253.933 3871
2439.22 254.523 3880
2448.5 254.523 3880
2457.78 254.523 3880
2432.72 250.981 3826
2420.17 248.751 3792
2429.24 248.751 3792
2415.8 246.455 3757
2435.76 247.57 3774
2444.78 247.57 3774
2453.81 247.57 3774
2462.83 247.57 3774
2471.86 247.57 3774
2475.62 247.045 3766
2462.2 244.815 3732
2454.57 243.175 3707
2463.43 243.175 3707
2466.96 242.65 3699
2448.37 239.96 3658
2457.11 239.96 3658
2471.93 240.551 3667
2480.7 240.551 3667
2489.47 240.551 3667
2498.23 240.551 3667
2500.85 239.96 3658
2509.6 239.96 3658
2518.34 239.96 3658
2533.31 240.551 3667
2542.08 240.551 3667
2550.85 240.551 3667
2559.62 240.551 3667
1967.47 183.021 2790
1974.15 183.021 2790
1980.82 183.021 2790
1980.37 182.365 2780
1967.71 180.593 2753
1957.8 179.085 2730
1964.33 179.085 2730
1964.36 178.494 2721
1970.87 178.494 2721
1983.92 179.085 2730
1997.01 179.675 2739
2010.14 180.265 2748
2016.71 180.265 2748
2029.91 180.856 2757
2050.54 182.102 2776
2060.14 182.365 2780
2066.79 182.365 2780
2080.89 183.021 2790
2094.3 183.611 2799
2108.5 184.267 2809
2115.22 184.267 2809
2121.93 184.267 2809
2128.65 184.267 2809
2149.81 185.513 2828
2156.57 185.513 2828
2163.34 185.513 2828
-2352.49 213.638 3142
-2344.98 213.638 3142
-2333 213.23 3136
-2321.05 212.822 3130
-2304.7 212.006 3118
-2301.66 212.414 3124
-2294.19 212.414 3124
-2299.9 213.638 3142
-2292.38 213.638 3142
-2289.23 214.046 3148
-2281.71 214.046 3148
-2287.18 215.27 3166
-2288.25 216.086 3178
-2280.65 216.086 3178
-2273.05 216.086 3178
-2269.73 216.494 3184
-2262.12 216.494 3184
-2254.5 216.494 3184
-2242.65 216.086 3178
-2235.05 216.086 3178
-2227.46 216.086 3178
-2219.86 216.086 3178
-2212.26 216.086 3178
-2204.66 216.086 3178
-2197.06 216.086 3178
-2197.72 216.902 3190
-2190.1 216.902 3190
-2186.57 217.31 3196
-2178.93 217.31 3196
-2175.36 217.718 3202
-2167.71 217.718 3202
-2160.05 217.718 3202
-2169.2 219.418 3227
-2161.48 219.418 3227
-2153.77 219.418 3227
-2158.68 220.709 3246
-2167.49 222.409 3271
-2159.67 222.409 3271
-2151.84 222.409 3271
-2144.02 222.409 3271
-2132.28 222.001 3265
-2145.3 224.177 3297
-2137.41 224.177 3297
-2142.45 225.537 3317
-2138.37 225.945 3323
-2130.43 225.945 3323
-2122.48 225.945 3323
-2114.54 225.945 3323
-2123.71 227.781 3350
-2115.69 227.781 3350
-2107.68 227.781 3350
-2091.53 226.897 3337
-2083.55 226.897 3337
-2075.57 226.897 3337
-2055.19 225.537 3317
-2047.26 225.537 3317
-2022.73 223.701 3290
-2027.11 225.061 3310
-2019.2 225.061 3310
-2011.28 225.061 3310
-2003.37 225.061 3310
-2015.34 227.305 3343
-2007.35 227.305 3343
-1999.36 227.305 3343
-1991.36 227.305 3343
-1983.37 227.305 3343
-1975.37 227.305 3343
-1955.61 225.945 3323
-1944.15 225.537 3317
-1936.21 225.537 3317
-1928.28 225.537 3317
-1920.35 225.537 3317
-1915.88 225.945 3323
-1907.93 225.945 3323
-1899.99 225.945 3323
-1880.65 224.585 3303
-1869.35 224.177 3297
-1868.81 225.061 3310
-1860.89 225.061 3310
-1852.98 225.061 3310
-1845.06 225.061 3310
-1837.15 225.061 3310
-1829.23 225.061 3310
-1821.32 225.061 3310
-1806.28 224.177 3297
-1788.03 222.885 3278
-1780.19 222.885 3278
-1772.35 222.885 3278
-1803.27 227.781 3350
-1813.48 230.093 3384
-1805.39 230.093 3384
-1815.89 232.472 3419
-1815.11 233.424 3433
-1806.9 233.424 3433
-1798.69 233.424 3433
-1790.48 233.424 3433
-1782.27 233.424 3433
-1777.68 233.9 3440
-1773.06 234.376 3447
-1764.81 234.376 3447
-1756.57 234.376 3447
-1755.43 235.328 3461
-1754.73 236.348 3476
-1746.41 236.348 3476
-1738.1 236.348 3476
-1733.27 236.824 3483
-1728.41 237.3 3490
-1720.06 237.3 3490
-1711.72 237.3 3490
-1703.37 237.3 3490
-1695.03 237.3 3490
-1679.92 236.348 3476
-1664.39 235.328 3461
-1656.11 235.328 3461
-1647.84 235.328 3461
-1639.56 235.328 3461
-1631.28 235.328 3461
-1619.73 234.852 3454
-1611.47 234.852 3454
-1603.21 234.852 3454
-1598.18 235.328 3461
-1589.9 235.328 3461
-1581.63 235.328 3461
-1573.35 235.328 3461
-1565.07 235.328 3461
-1563.55 236.348 3476
-1555.23 236.348 3476
-1546.92 236.348 3476
-1538.61 236.348 3476
-1520.61 234.852 3454
-1512.35 234.852 3454
-1491.9 232.948 3426
-1489.77 233.9 3440
-1481.54 233.9 3440
-1473.32 233.9 3440
-1465.09 233.9 3440
-1456.87 233.9 3440
-1428 230.569 3391
-1419.9 230.569 3391
-1411.79 230.569 3391
-1386.71 227.781 3350
-1362.23 225.061 3310
-722.014 120.69 1775
-717.769 120.69 1775
-713.524 120.69 1775
-709.28 120.69 1775
-701.858 120.146 1767
-697.632 120.146 1767
-693.407 120.146 1767
-690.741 120.418 1771
-686.506 120.418 1771
-683.042 120.554 1773
-678.802 120.554 1773
-674.562 120.554 1773
-672.969 121.03 1780
-668.713 121.03 1780
-664.456 121.03 1780
-660.2 121.03 1780
-654.101 120.69 1775
-649.856 120.69 1775
-644.884 120.554 1773
-638.476 120.146 1767
-633.533 120.01 1765
-629.312 120.01 1765
-625.092 120.01 1765
-619.816 119.806 1762
-614.205 119.534 1758
-610.001 119.534 1758
-605.797 119.534 1758
-598.513 118.922 1749
-593.651 118.786 1747
-589.473 118.786 1747
-585.296 118.786 1747
-579.122 118.378 1741
-572.647 117.902 1734
-568.501 117.902 1734
-564.354 117.902 1734
-559.239 117.698 1731
-553.817 117.426 1727
-548.414 117.154 1723
-544.293 117.154 1723
-539.233 116.95 1720
-533.564 116.61 1715
-528.846 116.474 1713
-524.749 116.474 1713
-520.653 116.474 1713
-515.049 116.134 1708
-510.965 116.134 1708
-506.88 116.134 1708
-502.207 115.998 1706
-496.96 115.726 1702
-492.89 115.726 1702
-488.82 115.726 1702
-484.75 115.726 1702
-480.397 115.658 1701
-475.769 115.522 1699
-471.151 115.386 1697
-467.093 115.386 1697
-463.035 115.386 1697
-458.436 115.25 1695
-454.383 115.25 1695
-450.33 115.25 1695
-446.277 115.25 1695
-442.223 115.25 1695
-438.17 115.25 1695
-434.117 115.25 1695
-429.81 115.182 1694
-425.759 115.182 1694
-421.708 115.182 1694
-417.657 115.182 1694
-413.118 115.046 1692
-407.863 114.706 1687
-403.829 114.706 1687
-399.795 114.706 1687
-394.822 114.434 1683
-390.566 114.366 1682
-386.543 114.366 1682
-382.521 114.366 1682
-378.049 114.23 1680
-373.364 114.026 1677
-368.913 113.89 1675
-364.908 113.89 1675
-360.256 113.686 1672
-355.831 113.55 1670
-351.416 113.414 1668
-346.803 113.21 1665
-342.821 113.21 1665
-338.433 113.074 1663
-334.255 113.006 1662
-330.281 113.006 1662
-326.503 113.074 1663
-322.526 113.074 1663
-318.549 113.074 1663
-314.572 113.074 1663
-310.596 113.074 1663
-306.619 113.074 1663
-303.006 113.21 1665
-299.025 113.21 1665
-295.398 113.346 1667
-291.411 113.346 1667
-287.942 113.55 1670
-284.289 113.686 1672
-281.129 114.026 1677
-277.118 114.026 1677
-273.597 114.23 1680
-269.9 114.366 1682
-266.036 114.434 1683
-262.012 114.434 1683
-258.6 114.706 1687
-254.868 114.842 1689
-250.978 114.91 1690
-246.936 114.91 1690
-243.47 115.182 1694
-239.56 115.25 1695
-235.785 115.386 1697
-231.727 115.386 1697
-227.937 115.522 1699
-224.27 115.726 1702
-220.458 115.862 1704
-216.384 115.862 1704
-212.558 115.998 1706
-208.845 116.202 1709
-204.758 116.202 1709
-200.672 116.202 1709
-196.815 116.338 1711
-192.949 116.474 1713
-188.852 116.474 1713
-185.08 116.678 1716
-180.976 116.678 1716
-177.079 116.814 1718
-173.373 117.086 1722
-169.354 117.154 1723
-165.234 117.154 1723
-161.487 117.426 1727
-157.54 117.562 1729
-153.583 117.698 1731
-149.443 117.698 1731
-145.556 117.902 1734
-141.572 118.038 1736
-137.738 118.31 1740
-133.577 118.31 1740
-129.416 118.31 1740
-125.471 118.514 1743
-121.303 118.514 1743
-117.135 118.514 1743
-113.226 118.786 1747
-109.174 118.922 1749
-105.111 119.058 1751
-100.924 119.058 1751
-96.7369 119.058 1751
-92.6025 119.126 1752
-88.413 119.126 1752
-84.2234 119.126 1752
-79.9882 119.058 1751
-75.801 119.058 1751
-71.6138 119.058 1751
-67.3496 118.922 1749
-63.1672 118.922 1749
-58.9849 118.922 1749
-54.8025 118.922 1749
-50.6201 118.922 1749
-46.3846 118.786 1747
-35.6662 247.159 3635
-26.9738 247.159 3635
-18.3166 247.635 3642
-9.60747 247.635 3642
-0.898341 247.635 3642
7.77861 246.615 3627
16.4519 246.615 3627
25.1251 246.615 3627
33.7984 246.615 3627
42.4716 246.615 3627
51.1449 246.615 3627
59.6862 246.071 3619
68.3403 246.071 3619
77.1647 246.615 3627
86.7846 249.335 3667
95.5535 249.335 3667
104.322 249.335 3667
111.858 246.615 3627
120.531 246.615 3627
129.204 246.615 3627
137.877 246.615 3627
147.157 247.635 3642
155.866 247.635 3642
164.575 247.635 3642
173.284 247.635 3642
176.247 239.816 3527
184.681 239.816 3527
193.115 239.816 3527
201.549 239.816 3527
202.303 231.045 3398
212.596 233.424 3433
226.401 239.34 3520
234.819 239.34 3520
243.236 239.34 3520
252.154 239.816 3527
265.612 244.439 3595
274.209 244.439 3595
282.805 244.439 3595
290.186 243.42 3580
299.999 244.439 3595
308.596 244.439 3595
317.192 244.439 3595
327.964 246.071 3619
336.618 246.071 3619
345.272 246.071 3619
351.579 244.439 3595
359.475 243.963 3588
368.055 243.963 3588
372.541 241.312 3549
379.417 240.292 3534
384.685 238.32 3505
391.385 237.3 3490
399.73 237.3 3490
404.685 235.328 3461
408.785 232.948 3426
412.718 230.569 3391
420.827 230.569 3391
425.394 228.665 3363
430.085 226.897 3337
435.439 225.537 3317
443.371 225.537 3317
450.351 225.061 3310
458.266 225.061 3310
466.181 225.061 3310
474.096 225.061 3310
480.992 224.585 3303
483.266 222.001 3265
490.021 221.525 3258
500.868 222.885 3278
512.586 224.585 3303
520.485 224.585 3303
541.341 230.093 3384
557.389 233.424 3433
576.142 237.776 3497
584.505 237.776 3497
603.039 241.856 3557
616.875 243.963 3588
629.464 245.527 3611
638.099 245.527 3611
646.734 245.527 3611
655.369 245.527 3611
664.004 245.527 3611
672.639 245.527 3611
681.274 245.527 3611
689.909 245.527 3611
703.187 247.159 3635
711.879 247.159 3635
721.959 247.635 3642
730.668 247.635 3642
739.377 247.635 3642
748.086 247.635 3642
758.458 248.179 3650
768.868 248.723 3658
777.615 248.723 3658
786.362 248.723 3658
793.371 248.179 3650
798.803 247.159 3635
810.828 248.179 3650
819.556 248.179 3650
828.284 248.179 3650
837.012 248.179 3650
845.741 248.179 3650
852.596 247.635 3642
863.197 248.179 3650
879.808 250.423 3683
888.616 250.423 3683
897.423 250.423 3683
906.23 250.423 3683
915.037 250.423 3683
921.838 249.879 3675
932.651 250.423 3683
941.459 250.423 3683
952.33 250.967 3691
961.156 250.967 3691
969.983 250.967 3691
978.809 250.967 3691
983.354 249.879 3675
989.982 249.335 3667
998.751 249.335 3667
1005.05 248.723 3658
1011.58 248.179 3650
1020.31 248.179 3650
1029.03 248.179 3650
1037.76 248.179 3650
1046.49 248.179 3650
1055.22 248.179 3650
1063.95 248.179 3650
1070.32 247.635 3642
1079.03 247.635 3642
1087.74 247.635 3642
1098.86 248.179 3650
1107.59 248.179 3650
1116.32 248.179 3650
1122.58 247.635 3642
1131.29 247.635 3642
1140 247.635 3642
1143.98 246.615 3627
1157.42 247.635 3642
1171.25 248.723 3658
1188.06 250.423 3683
1196.87 250.423 3683
1205.67 250.423 3683
1214.48 250.423 3683
1228.6 251.511 3699
1237.45 251.511 3699
1246.29 251.511 3699
1257.85 252.055 3707
1266.72 252.055 3707
1275.58 252.055 3707
1284.45 252.055 3707
1293.31 252.055 3707
1302.18 252.055 3707
1311.04 252.055 3707
1317.06 251.511 3699
1325.9 251.511 3699
1337.63 252.055 3707
1349.77 252.667 3716
1358.65 252.667 3716
1370.48 253.211 3724
1379.39 253.211 3724
1388.29 253.211 3724
1397.2 253.211 3724
1403.08 252.667 3716
1415.01 253.211 3724
1423.92 253.211 3724
1432.82 253.211 3724
1441.73 253.211 3724
1447.51 252.667 3716
1456.4 252.667 3716
1461.74 252.055 3707
1467.43 251.511 3699
1466.7 249.879 3675
1475.48 249.879 3675
1484.27 249.879 3675
1486.15 248.723 3658
1478.96 246.071 3619
1490.91 246.615 3627
1499.58 246.615 3627
1508.25 246.615 3627
1516.93 246.615 3627
1522.23 246.071 3619
1530.89 246.071 3619
1536.14 245.527 3611
1544.77 245.527 3611
1549.97 244.983 3603
1558.58 244.983 3603
1567.2 244.983 3603
1575.81 244.983 3603
1584.43 244.983 3603
1593.05 244.983 3603
1619 247.635 3642
1627.71 247.635 3642
1643.61 248.723 3658
1656.42 249.335 3667
1668.82 249.879 3675
1677.61 249.879 3675
1686.4 249.879 3675
1695.19 249.879 3675
1703.97 249.879 3675
1712.76 249.879 3675
1721.55 249.879 3675
1726.57 249.335 3667
1735.34 249.335 3667
1744.11 249.335 3667
1744.75 248.179 3650
1761.65 249.335 3667
1770.42 249.335 3667
1779.18 249.335 3667
1787.95 249.335 3667
1792.31 248.723 3658
1801.06 248.723 3658
1801.89 247.635 3642
1810.6 247.635 3642
1811.82 246.615 3627
1796.9 243.42 3580
1805.46 243.42 3580
1806.42 242.4 3565
1806.8 241.312 3549
1807.61 240.292 3534
1816.06 240.292 3534
1805.41 237.776 3497
1810.14 237.3 3490
1818.49 237.3 3490
1830.5 237.776 3497
1838.86 237.776 3497
1859.37 239.34 3520
1871.51 239.816 3527
1879.94 239.816 3527
1896.41 240.836 3542
1904.88 240.836 3542
1913.35 240.836 3542
1925.61 241.312 3549
1938.46 241.856 3557
1946.97 241.856 3557
1980.76 244.983 3603
2002.63 246.615 3627
2015.74 247.159 3635
2024.43 247.159 3635
2045.99 248.723 3658
2077.76 251.511 3699
2128.92 256.61 3774
2137.94 256.61 3774
2172 259.602 3818
2181.13 259.602 3818
2190.26 259.602 3818
2199.39 259.602 3818
2188.27 257.222 3783
2212.42 258.99 3809
2231.44 260.146 3826
2240.59 260.146 3826
2249.74 260.146 3826
2258.89 260.146 3826
2273.37 260.758 3835
2282.55 260.758 3835
2291.72 260.758 3835
2300.89 260.758 3835
2294.4 258.99 3809
2335.56 262.594 3862
2344.79 262.594 3862
2359.51 263.206 3871
2385.29 265.042 3898
2394.61 265.042 3898
2403.93 265.042 3898
2424.4 266.266 3916
2433.76 266.266 3916
2454.98 267.557 3935
2464.39 267.557 3935
2473.8 267.557 3935
2483.21 267.557 3935
2492.62 267.557 3935
2489.95 266.266 3916
2482.08 264.43 3889
2451.02 260.146 3826
2438.31 257.834 3792
2458.35 258.99 3809
2467.46 258.99 3809
2476.57 258.99 3809
2485.67 258.99 3809
2494.78 258.99 3809
2503.89 258.99 3809
2484.63 256.066 3766
2476.42 254.299 3740
2485.36 254.299 3740
2483.64 253.211 3724
2475.81 251.511 3699
2479.28 250.967 3691
2488.11 250.967 3691
2496.93 250.967 3691
2505.76 250.967 3691
2514.58 250.967 3691
2523.41 250.967 3691
2532.24 250.967 3691
2541.06 250.967 3691
2560.94 252.055 3707
2569.81 252.055 3707
2578.67 252.055 3707
2559.62 249.335 3667
1960.42 189.024 2780
1967.07 189.024 2780
1973.72 189.024 2780
1967.54 187.8 2762
1951.28 185.624 2730
1948.48 184.74 2717
1954.98 184.74 2717
1958.59 184.468 2713
1965.08 184.468 2713
1974.47 184.74 2717
1990.45 185.624 2730
2007.21 186.576 2744
2013.78 186.576 2744
2023.28 186.848 2748
2050.54 188.752 2776
2057.18 188.752 2776
2063.81 188.752 2776
2080.89 189.704 2790
2094.3 190.316 2799
2108.5 190.996 2809
2115.22 190.996 2809
2121.93 190.996 2809
2128.65 190.996 2809
2149.81 192.288 2828
2156.57 192.288 2828
2163.34 192.288 2828
-2348 220.742 3136
-2340.5 220.742 3136
-2328.54 220.32 3130
-2316.6 219.898 3124
-2304.7 219.475 3118
-2301.66 219.898 3124
-2294.19 219.898 3124
-2295.51 220.742 3136
-2292.38 221.165 3142
-2284.87 221.165 3142
-2277.36 221.165 3142
-2278.51 222.009 3154
-2279.61 222.854 3166
-2276.35 223.276 3172
-2268.76 223.276 3172
-2265.45 223.699 3178
-2257.85 223.699 3178
-2250.25 223.699 3178
-2234.19 222.854 3166
-2226.62 222.854 3166
-2223.25 223.276 3172
-2219.86 223.699 3178
-2212.26 223.699 3178
-2204.66 223.699 3178
-2197.06 223.699 3178
-2193.59 224.121 3184
-2185.98 224.121 3184
-2186.57 224.966 3196
-2183.02 225.388 3202
-2175.36 225.388 3202
-2167.71 225.388 3202
-2160.05 225.388 3202
-2169.2 227.148 3227
-2174.21 228.485 3246
-2166.45 228.485 3246
-2171.32 229.823 3265
-2172.13 230.738 3278
-2180.79 232.497 3303
-2172.9 232.497 3303
-2169.58 232.99 3310
-2161.67 232.99 3310
-2166.77 234.398 3330
-2158.8 234.398 3330
-2176.68 237.214 3370
-2173.12 237.706 3377
-2165.05 237.706 3377
-2156.97 237.706 3377
-2148.9 237.706 3377
-2163.01 240.17 3412
-2154.85 240.17 3412
-2146.69 240.17 3412
-2138.53 240.17 3412
-2130.37 240.17 3412
-2122.21 240.17 3412
-2101.04 238.692 3391
-2088.61 238.199 3384
-2055.31 235.313 3343
-2047.32 235.313 3343
-2039.33 235.313 3343
-2039.84 236.299 3357
-2031.81 236.299 3357
-2027.4 236.721 3363
-2019.36 236.721 3363
-2023.88 238.199 3384
-2015.78 238.199 3384
-2007.69 238.199 3384
-1999.6 238.199 3384
-1975.62 236.299 3357
-1951.77 234.398 3330
-1943.8 234.398 3330
-1931.77 233.905 3323
-1931.93 234.891 3337
-1927.41 235.313 3343
-1919.41 235.313 3343
-1911.42 235.313 3343
-1900.01 234.891 3337
-1892.03 234.891 3337
-1895.34 236.299 3357
-1887.32 236.299 3357
-1879.29 236.299 3357
-1871.26 236.299 3357
-1863.23 236.299 3357
-1844.15 234.891 3337
-1836.17 234.891 3337
-1820.52 233.905 3323
-1809.3 233.483 3317
-1801.37 233.483 3317
-1782.63 232.075 3297
-1803.27 235.806 3350
-1813.48 238.199 3384
-1805.39 238.199 3384
-1815.89 240.663 3419
-1815.11 241.648 3433
-1806.9 241.648 3433
-1798.69 241.648 3433
-1790.48 241.648 3433
-1782.27 241.648 3433
-1777.68 242.141 3440
-1773.06 242.634 3447
-1764.81 242.634 3447
-1756.57 242.634 3447
-1755.43 243.619 3461
-1754.73 244.675 3476
-1746.41 244.675 3476
-1738.1 244.675 3476
-1733.27 245.168 3483
-1728.41 245.66 3490
-1720.06 245.66 3490
-1711.72 245.66 3490
-1703.37 245.66 3490
-1695.03 245.66 3490
-1679.92 244.675 3476
-1664.39 243.619 3461
-1656.11 243.619 3461
-1647.84 243.619 3461
-1639.56 243.619 3461
-1631.28 243.619 3461
-1619.73 243.126 3454
-1611.47 243.126 3454
-1603.21 243.126 3454
-1598.18 243.619 3461
-1589.9 243.619 3461
-1581.63 243.619 3461
-1573.35 243.619 3461
-1565.07 243.619 3461
-1563.55 244.675 3476
-1555.23 244.675 3476
-1546.92 244.675 3476
-1538.61 244.675 3476
-1520.61 243.126 3454
-1512.35 243.126 3454
-1491.9 241.155 3426
-1489.77 242.141 3440
-1481.54 242.141 3440
-1473.32 242.141 3440
-1465.09 242.141 3440
-1456.87 242.141 3440
-1428 238.692 3391
-1419.9 238.692 3391
-1411.79 238.692 3391
-1386.71 235.806 3350
-722.014 124.942 1775
-717.769 124.942 1775
-713.524 124.942 1775
-709.28 124.942 1775
-701.858 124.379 1767
-697.632 124.379 1767
-691.837 124.097 1763
-690.741 124.66 1771
-686.506 124.66 1771
-683.042 124.801 1773
-678.802 124.801 1773
-674.562 124.801 1773
-672.591 125.223 1779
-668.337 125.223 1779
-664.083 125.223 1779
-659.829 125.223 1779
-653.364 124.801 1773
-649.124 124.801 1773
-644.884 124.801 1773
-637.753 124.238 1765
-633.533 124.238 1765
-629.312 124.238 1765
-624.383 124.097 1763
-619.112 123.886 1760
-614.205 123.745 1758
-609.307 123.604 1756
-605.108 123.604 1756
-598.513 123.112 1749
-593.651 122.971 1747
-588.799 122.83 1745
-584.626 122.83 1745
-579.122 122.549 1741
-572.647 122.056 1734
-568.501 122.056 1734
-564.354 122.056 1734
-559.239 121.845 1731
-553.817 121.563 1727
-548.414 121.282 1723
-544.293 121.282 1723
-539.233 121.07 1720
-533.564 120.718 1715
-528.846 120.578 1713
-524.749 120.578 1713
-520.653 120.578 1713
-515.049 120.226 1708
-510.965 120.226 1708
-506.88 120.226 1708
-502.207 120.085 1706
-496.96 119.803 1702
-492.89 119.803 1702
-488.82 119.803 1702
-484.75 119.803 1702
-480.397 119.733 1701
-475.769 119.592 1699
-471.151 119.451 1697
-467.093 119.451 1697
-463.035 119.451 1697
-458.436 119.311 1695
-454.383 119.311 1695
-450.33 119.311 1695
-446.277 119.311 1695
-442.223 119.311 1695
-438.17 119.311 1695
-434.117 119.311 1695
-429.81 119.24 1694
-425.759 119.24 1694
-421.708 119.24 1694
-417.657 119.24 1694
-413.118 119.1 1692
-407.863 118.748 1687
-403.829 118.748 1687
-399.795 118.748 1687
-394.822 118.466 1683
-390.566 118.396 1682
-386.084 118.255 1680
-382.066 118.255 1680
-378.049 118.255 1680
-373.364 118.044 1677
-368.913 117.903 1675
-364.908 117.903 1675
-360.256 117.692 1672
-355.405 117.41 1668
-351.416 117.41 1668
-346.178 116.988 1662
-342.204 116.988 1662
-338.229 116.988 1662
-334.255 116.988 1662
-330.281 116.988 1662
-326.306 116.988 1662
-322.332 116.988 1662
-318.358 116.988 1662
-314.572 117.058 1663
-310.596 117.058 1663
-306.619 117.058 1663
-303.006 117.199 1665
-299.025 117.199 1665
-295.043 117.199 1665
-291.062 117.199 1665
-287.597 117.41 1668
-284.289 117.692 1672
-281.129 118.044 1677
-277.118 118.044 1677
-273.271 118.114 1678
-269.9 118.396 1682
-266.036 118.466 1683
-262.012 118.466 1683
-258.6 118.748 1687
-254.868 118.888 1689
-250.978 118.959 1690
-246.936 118.959 1690
-243.47 119.24 1694
-239.56 119.311 1695
-235.785 119.451 1697
-231.727 119.451 1697
-227.937 119.592 1699
-224.27 119.803 1702
-220.458 119.944 1704
-216.384 119.944 1704
-212.558 120.085 1706
-208.845 120.296 1709
-204.758 120.296 1709
-200.672 120.296 1709
-196.815 120.437 1711
-192.949 120.578 1713
-188.852 120.578 1713
-185.08 120.789 1716
-180.976 120.789 1716
-177.079 120.93 1718
-173.373 121.211 1722
-169.354 121.282 1723
-165.234 121.282 1723
-161.487 121.563 1727
-157.54 121.704 1729
-153.583 121.845 1731
-149.443 121.845 1731
-145.556 122.056 1734
-141.572 122.197 1736
-137.738 122.478 1740
-133.577 122.478 1740
-129.416 122.478 1740
-125.471 122.689 1743
-121.303 122.689 1743
-117.135 122.689 1743
-113.226 122.971 1747
-109.049 122.971 1747
-105.111 123.253 1751
-100.924 123.253 1751
-96.7369 123.253 1751
-92.5497 123.253 1751
-88.3625 123.253 1751
-84.1753 123.253 1751
-79.8968 123.112 1749
-75.6278 122.971 1747
-71.4502 122.971 1747
-67.1956 122.83 1745
-63.0228 122.83 1745
-58.85 122.83 1745
-54.7398 122.971 1747
-50.5622 122.971 1747
-46.3846 122.971 1747
-35.6662 255.867 3635
-26.9738 255.867 3635
-18.3166 256.36 3642
-9.60747 256.36 3642
-0.898341 256.36 3642
7.77861 255.304 3627
16.4519 255.304 3627
25.1251 255.304 3627
33.7984 255.304 3627
42.4716 255.304 3627
51.1449 255.304 3627
59.6862 254.741 3619
68.3403 254.741 3619
77.1647 255.304 3627
86.7846 258.119 3667
95.5535 258.119 3667
104.322 258.119 3667
111.858 255.304 3627
120.531 255.304 3627
129.204 255.304 3627
137.877 255.304 3627
147.157 256.36 3642
155.866 256.36 3642
164.575 256.36 3642
173.284 256.36 3642
176.247 248.265 3527
184.681 248.265 3527
193.115 248.265 3527
201.549 248.265 3527
226.401 247.772 3520
234.819 247.772 3520
243.236 247.772 3520
265.612 253.051 3595
274.209 253.051 3595
282.805 253.051 3595
290.186 251.995 3580
299.999 253.051 3595
308.596 253.051 3595
317.192 253.051 3595
327.964 254.741 3619
336.618 254.741 3619
345.272 254.741 3619
351.579 253.051 3595
359.475 252.559 3588
368.055 252.559 3588
372.541 249.813 3549
379.417 248.757 3534
384.685 246.716 3505
391.385 245.66 3490
399.73 245.66 3490
404.685 243.619 3461
408.785 241.155 3426
412.718 238.692 3391
420.827 238.692 3391
425.394 236.721 3363
430.085 234.891 3337
435.439 233.483 3317
443.371 233.483 3317
450.351 232.99 3310
458.266 232.99 3310
466.181 232.99 3310
474.096 232.99 3310
480.992 232.497 3303
482.23 229.33 3258
490.021 229.33 3258
500.868 230.738 3278
512.586 232.497 3303
520.485 232.497 3303
541.341 238.199 3384
557.389 241.648 3433
576.142 246.153 3497
584.505 246.153 3497
603.039 250.376 3557
616.875 252.559 3588
629.464 254.178 3611
638.099 254.178 3611
646.734 254.178 3611
655.369 254.178 3611
664.004 254.178 3611
672.639 254.178 3611
681.274 254.178 3611
689.909 254.178 3611
703.187 255.867 3635
711.879 255.867 3635
721.959 256.36 3642
730.668 256.36 3642
739.377 256.36 3642
748.086 256.36 3642
758.458 256.923 3650
768.868 257.486 3658
777.615 257.486 3658
786.362 257.486 3658
793.371 256.923 3650
798.803 255.867 3635
810.828 256.923 3650
819.556 256.923 3650
828.284 256.923 3650
837.012 256.923 3650
845.741 256.923 3650
852.596 256.36 3642
863.197 256.923 3650
879.808 259.246 3683
888.616 259.246 3683
897.423 259.246 3683
906.23 259.246 3683
915.037 259.246 3683
921.838 258.682 3675
932.651 259.246 3683
941.459 259.246 3683
952.33 259.809 3691
961.156 259.809 3691
969.983 259.809 3691
978.809 259.809 3691
983.354 258.682 3675
989.982 258.119 3667
998.751 258.119 3667
1005.05 257.486 3658
1011.58 256.923 3650
1020.31 256.923 3650
1029.03 256.923 3650
1037.76 256.923 3650
1046.49 256.923 3650
1055.22 256.923 3650
1063.95 256.923 3650
1070.32 256.36 3642
1079.03 256.36 3642
1087.74 256.36 3642
1098.86 256.923 3650
1107.59 256.923 3650
1116.32 256.923 3650
1122.58 256.36 3642
1131.29 256.36 3642
1140 256.36 3642
1143.98 255.304 3627
1157.42 256.36 3642
1171.25 257.486 3658
1188.06 259.246 3683
1196.87 259.246 3683
1205.67 259.246 3683
1214.48 259.246 3683
1228.6 260.372 3699
