ply
format ascii 1.0
comment File generated
element vertex 2132
property float x
property float y
property float z
end_header
-448.485 -343.122 1673
-444.485 -343.122 1673
-439.694 -342.507 1670
-434.918 -341.891 1667
-429.639 -340.866 1662
-425.665 -340.866 1662
-420.422 -339.84 1657
-414.7 -338.405 1650
-409.51 -337.379 1645
-405.576 -337.379 1645
-399.689 -335.738 1637
-395.533 -335.533 1636
-389.945 -334.098 1629
-384.865 -333.072 1624
-380.981 -333.072 1624
-376.866 -332.867 1623
-371.835 -331.842 1618
-366.829 -330.816 1613
-362.972 -330.816 1613
-358.224 -329.996 1609
-353.936 -329.586 1607
-349.44 -328.97 1604
-345.604 -328.97 1604
-341.129 -328.355 1601
-335.615 -326.714 1593
-330.348 -325.279 1586
-326.555 -325.279 1586
-322.152 -324.663 1583
-317.763 -324.048 1580
-313.389 -323.433 1577
-308.636 -322.407 1572
-304.877 -322.407 1572
-300.543 -321.792 1569
-296.791 -321.792 1569
-292.479 -321.177 1566
-288.734 -321.177 1566
-284.99 -321.177 1566
-281.245 -321.177 1566
-277.5 -321.177 1566
-274.28 -321.792 1569
-270.528 -321.792 1569
-266.776 -321.792 1569
-263.024 -321.792 1569
-260.098 -322.818 1574
-256.334 -322.818 1574
-253.052 -323.433 1577
-249.755 -324.048 1580
-246.132 -324.253 1581
-242.352 -324.253 1581
-238.873 -324.663 1583
-235.236 -324.868 1584
-232.179 -325.894 1589
-228.379 -325.894 1589
-225.144 -326.714 1593
-221.752 -327.33 1596
-218.891 -328.765 1603
-215.058 -328.765 1603
-211.752 -329.586 1607
-208.168 -329.996 1609
-205.082 -331.226 1615
-201.22 -331.226 1615
-197.725 -331.842 1618
-194.574 -333.072 1624
-190.926 -333.482 1626
-187.037 -333.482 1626
-183.487 -334.098 1629
-180.474 -335.738 1637
-177.422 -337.379 1645
-173.488 -337.379 1645
-170.585 -339.43 1655
-166.93 -340.045 1658
-163.85 -341.891 1667
-159.863 -341.891 1667
-156.438 -343.122 1673
-152.893 -344.147 1678
-149.324 -345.173 1683
-145.299 -345.173 1683
-141.611 -345.993 1687
-138.147 -347.429 1694
-134.096 -347.429 1694
-130.046 -347.429 1694
-125.995 -347.429 1694
-192.217 -781.202 3809
-183.542 -783.048 3818
-174.412 -783.048 3818
-165.282 -783.048 3818
-158.319 -793.918 3871
-149.063 -793.918 3871
-139.806 -793.918 3871
-130.549 -793.918 3871
-121.01 -792.072 3862
-111.254 -788.38 3844
-102.062 -788.38 3844
-92.8699 -788.38 3844
-83.4818 -786.534 3835
-74.4855 -788.38 3844
-65.2934 -788.38 3844
-56.1012 -788.38 3844
-46.909 -788.38 3844
-37.6285 -786.534 3835
-28.4579 -786.534 3835
-19.1112 -779.356 3800
-10.0243 -779.356 3800
-0.941754 -783.048 3818
8.18824 -783.048 3818
17.3182 -783.048 3818
26.1434 -774.024 3774
35.1682 -774.024 3774
44.0993 -772.383 3766
53.105 -772.383 3766
62.1106 -772.383 3766
71.6072 -777.715 3792
81.9728 -790.226 3853
91.8255 -795.764 3880
101.104 -795.764 3880
113.824 -820.58 4001
123.392 -820.58 4001
132.96 -820.58 4001
243.442 -838.628 4089
253.22 -838.628 4089
262.998 -838.628 4089
272.109 -836.577 4079
281.863 -836.577 4079
291.618 -836.577 4079
299.894 -832.475 4059
309.6 -832.475 4059
317.025 -826.528 4030
326.662 -826.528 4030
334.63 -822.426 4010
340.957 -814.632 3972
347.985 -808.89 3944
356.601 -807.044 3935
366.011 -807.044 3935
371.032 -797.609 3889
380.332 -797.609 3889
387.828 -793.918 3871
397.085 -793.918 3871
404.452 -790.226 3853
411.733 -786.534 3835
419.038 -783.048 3818
428.168 -783.048 3818
436.267 -781.202 3809
448.416 -786.534 3835
457.586 -786.534 3835
466.757 -786.534 3835
475.928 -786.534 3835
482.948 -783.048 3818
490.918 -781.202 3809
501.208 -783.048 3818
521.031 -799.455 3898
530.353 -799.455 3898
539.674 -799.455 3898
548.995 -799.455 3898
558.316 -799.455 3898
553.367 -779.356 3800
561.27 -777.715 3792
567.63 -774.024 3774
584.6 -784.689 3826
593.749 -784.689 3826
605.735 -788.38 3844
627.885 -804.993 3925
644.902 -814.632 3972
654.4 -814.632 3972
667.074 -818.529 3991
676.618 -818.529 3991
686.161 -818.529 3991
3073.74 -834.526 4069
3083.47 -834.526 4069
3093.2 -834.526 4069
3080.06 -828.374 4039
3089.72 -828.374 4039
-2521.09 -754.848 3724
-2534.45 -761.537 3757
-2542.94 -766.807 3783
-2533.9 -766.807 3783
-2524.85 -766.807 3783
-2504.5 -763.362 3766
-2495.49 -763.362 3766
-2475.26 -759.916 3749
-2444.59 -753.227 3716
-2440.95 -754.848 3724
-2437.27 -756.47 3732
-2428.34 -756.47 3732
-2419.42 -756.47 3732
-2410.49 -756.47 3732
-2401.57 -756.47 3732
-2366.36 -748.159 3691
-2342.2 -743.294 3667
-2322.62 -739.849 3650
-2308.82 -738.227 3642
-2300.11 -738.227 3642
-517.397 -342.357 1689
-513.358 -342.357 1689
-509.319 -342.357 1689
-504.682 -341.952 1687
-499.461 -341.141 1683
-495.436 -341.141 1683
-491.412 -341.141 1683
-486.518 -340.533 1680
-482.501 -340.533 1680
-479.053 -340.938 1682
-475.031 -340.938 1682
-471.009 -340.938 1682
-466.432 -340.533 1680
-462.414 -340.533 1680
-458.397 -340.533 1680
-453.568 -339.925 1677
-448.485 -339.114 1673
-444.485 -339.114 1673
-440.484 -339.114 1673
-435.701 -338.506 1670
-429.639 -336.884 1662
-425.665 -336.884 1662
-421.183 -336.479 1660
-415.203 -334.857 1652
-410.008 -333.844 1647
-406.069 -333.844 1647
-399.689 -331.817 1637
-395.775 -331.817 1637
-390.424 -330.601 1631
-384.865 -329.182 1624
-380.981 -329.182 1624
-376.401 -328.574 1621
-371.146 -327.358 1615
-366.147 -326.344 1610
-362.297 -326.344 1610
-357.779 -325.736 1607
-353.716 -325.533 1606
-349.222 -324.925 1603
-345.389 -324.925 1603
-340.064 -323.506 1596
-334.773 -322.087 1589
-329.931 -321.074 1584
-326.144 -321.074 1584
-321.542 -320.263 1580
-317.361 -319.858 1578
-313.389 -319.655 1577
-308.636 -318.642 1572
-304.877 -318.642 1572
-300.926 -318.439 1571
-296.791 -318.034 1569
-292.479 -317.425 1566
-288.734 -317.425 1566
-284.99 -317.425 1566
-281.604 -317.831 1568
-277.854 -317.831 1568
-274.28 -318.034 1569
-270.528 -318.034 1569
-266.776 -318.034 1569
-263.024 -318.034 1569
-260.098 -319.047 1574
-256.334 -319.047 1574
-253.052 -319.655 1577
-249.755 -320.263 1580
-246.132 -320.466 1581
-242.352 -320.466 1581
-238.873 -320.871 1583
-235.236 -321.074 1584
-232.179 -322.087 1589
-228.379 -322.087 1589
-225.144 -322.898 1593
-221.752 -323.506 1596
-219.028 -325.128 1604
-215.192 -325.128 1604
-211.752 -325.736 1607
-208.297 -326.344 1610
-205.082 -327.358 1615
-201.22 -327.358 1615
-198.091 -328.574 1621
-194.574 -329.182 1624
-190.926 -329.587 1626
-187.037 -329.587 1626
-183.712 -330.601 1631
-180.474 -331.817 1637
-177.422 -333.439 1645
-173.488 -333.439 1645
-170.585 -335.466 1655
-167.131 -336.479 1660
-163.85 -337.898 1667
-159.863 -337.898 1667
-156.438 -339.114 1673
-152.893 -340.128 1678
-149.324 -341.141 1683
-145.299 -341.141 1683
-141.778 -342.357 1689
-138.147 -343.371 1694
-134.492 -344.384 1699
-130.429 -344.384 1699
-126.515 -344.79 1701
-122.448 -344.79 1701
-118.38 -344.79 1701
-183.542 -773.902 3818
-177.244 -786.469 3880
-167.966 -786.469 3880
-158.687 -786.469 3880
-149.063 -784.645 3871
-139.806 -784.645 3871
-130.549 -784.645 3871
-121.01 -782.821 3862
-111.254 -779.172 3844
-102.062 -779.172 3844
-92.8699 -779.172 3844
-83.6777 -779.172 3844
-74.4855 -779.172 3844
-65.2934 -779.172 3844
-56.1012 -779.172 3844
-46.909 -779.172 3844
-37.2851 -770.253 3800
-28.1982 -770.253 3800
-19.0257 -766.807 3783
-9.97942 -766.807 3783
-0.941754 -773.902 3818
8.18824 -773.902 3818
17.3182 -773.902 3818
26.1434 -764.983 3774
35.1682 -764.983 3774
44.0993 -763.362 3766
53.105 -763.362 3766
62.1106 -763.362 3766
71.6072 -768.632 3792
81.0367 -772.078 3809
91.8255 -786.469 3880
101.104 -786.469 3880
113.54 -808.969 3991
123.084 -808.969 3991
132.627 -808.969 3991
212.537 -822.752 4059
222.244 -822.752 4059
233.664 -828.833 4089
243.442 -828.833 4089
253.22 -828.833 4089
262.998 -828.833 4089
272.109 -826.806 4079
280.481 -822.752 4059
290.188 -822.752 4059
299.894 -822.752 4059
308.838 -820.725 4049
315.452 -812.82 4010
325.041 -812.82 4010
333.879 -810.996 4001
339.327 -801.266 3953
347.191 -797.617 3935
356.601 -797.617 3935
366.011 -797.617 3935
371.032 -788.293 3889
380.332 -788.293 3889
387.828 -784.645 3871
397.085 -784.645 3871
403.507 -779.172 3844
411.733 -777.348 3835
418.05 -772.078 3809
427.159 -772.078 3809
435.236 -770.253 3800
447.363 -775.523 3826
456.513 -775.523 3826
465.662 -775.523 3826
474.811 -775.523 3826
480.671 -770.253 3800
490.918 -772.078 3809
503.44 -777.348 3835
519.828 -788.293 3889
529.128 -788.293 3889
538.428 -788.293 3889
547.728 -788.293 3889
557.027 -788.293 3889
553.367 -770.253 3800
559.937 -766.807 3783
567.63 -764.983 3774
584.6 -775.523 3826
593.749 -775.523 3826
608.571 -782.821 3862
627.885 -795.591 3925
644.902 -805.117 3972
654.4 -805.117 3972
668.745 -810.996 4001
681.534 -814.847 4020
691.147 -814.847 4020
700.76 -814.847 4020
710.373 -814.847 4020
3054.28 -824.779 4069
3064.01 -824.779 4069
3073.74 -824.779 4069
3083.47 -824.779 4069
3093.2 -824.779 4069
3080.06 -818.698 4039
3089.72 -818.698 4039
-2521.09 -745.927 3724
-2512.19 -745.927 3724
-2531.52 -754.34 3766
-2522.51 -754.34 3766
-2513.5 -754.34 3766
-2504.5 -754.34 3766
-2495.49 -754.34 3766
-2469.32 -749.132 3740
-2444.59 -744.325 3716
-2451.43 -749.132 3740
-2442.49 -749.132 3740
-2433.55 -749.132 3740
-2424.6 -749.132 3740
-2405.33 -745.927 3724
-2396.42 -745.927 3724
-2366.36 -739.317 3691
-2336.45 -732.707 3658
-2322.62 -731.105 3650
-2304.38 -728.1 3635
-2295.69 -728.1 3635
-517.704 -338.512 1690
-513.662 -338.512 1690
-509.621 -338.512 1690
-504.682 -337.911 1687
-499.461 -337.109 1683
-495.436 -337.109 1683
-491.412 -337.109 1683
-486.518 -336.509 1680
-482.501 -336.509 1680
-479.053 -336.909 1682
-475.031 -336.909 1682
-471.009 -336.909 1682
-466.432 -336.509 1680
-462.414 -336.509 1680
-458.397 -336.509 1680
-453.568 -335.908 1677
-448.485 -335.106 1673
-444.485 -335.106 1673
-440.484 -335.106 1673
-435.701 -334.506 1670
-429.639 -332.903 1662
-425.665 -332.903 1662
-421.691 -332.903 1662
-415.203 -330.9 1652
-410.008 -329.899 1647
-406.069 -329.899 1647
-400.178 -328.296 1639
-395.775 -327.896 1637
-390.424 -326.694 1631
-385.339 -325.692 1626
-381.45 -325.692 1626
-376.401 -324.691 1621
-371.146 -323.489 1615
-366.147 -322.487 1610
-362.297 -322.487 1610
-357.779 -321.886 1607
-353.716 -321.686 1606
-349.222 -321.085 1603
-345.389 -321.085 1603
-340.064 -319.683 1596
-334.773 -318.281 1589
-329.931 -317.28 1584
-326.144 -317.28 1584
-321.542 -316.478 1580
-317.361 -316.078 1578
-313.389 -315.877 1577
-309.029 -315.276 1574
-305.265 -315.276 1574
-300.926 -314.676 1571
-296.791 -314.275 1569
-292.853 -314.075 1568
-289.103 -314.075 1568
-285.354 -314.075 1568
-281.784 -314.275 1569
-278.032 -314.275 1569
-274.629 -314.676 1571
-270.873 -314.676 1571
-267.116 -314.676 1571
-263.359 -314.676 1571
-260.263 -315.477 1575
-256.497 -315.477 1575
-253.052 -315.877 1577
-249.913 -316.679 1581
-246.132 -316.679 1581
-242.352 -316.679 1581
-238.873 -317.079 1583
-235.533 -317.68 1586
-232.179 -318.281 1589
-228.379 -318.281 1589
-225.144 -319.082 1593
-221.752 -319.683 1596
-219.028 -321.286 1604
-215.192 -321.286 1604
-212.015 -322.287 1609
-208.297 -322.487 1610
-205.336 -323.889 1617
-201.469 -323.889 1617
-198.091 -324.691 1621
-194.814 -325.692 1626
-190.926 -325.692 1626
-187.037 -325.692 1626
-183.825 -326.894 1632
-180.804 -328.496 1640
-177.746 -330.099 1648
-173.805 -330.099 1648
-170.895 -332.102 1658
-167.332 -332.903 1662
-163.948 -334.105 1668
-159.959 -334.105 1668
-156.812 -335.908 1677
-153.257 -336.909 1682
-149.501 -337.51 1685
-145.472 -337.51 1685
-141.862 -338.512 1690
-138.392 -339.914 1697
-134.651 -340.715 1701
-130.583 -340.715 1701
-127.11 -342.317 1709
-123.024 -342.317 1709
-118.937 -342.317 1709
-183.542 -764.756 3818
-177.244 -777.174 3880
-167.966 -777.174 3880
-158.687 -777.174 3880
-149.409 -777.174 3880
-140.131 -777.174 3880
-130.549 -775.372 3871
-121.01 -773.569 3862
-111.775 -773.569 3862
-102.54 -773.569 3862
-93.0873 -771.766 3853
-83.6777 -769.964 3844
-74.4855 -769.964 3844
-65.2934 -769.964 3844
-56.1012 -769.964 3844
-46.909 -769.964 3844
-37.2851 -761.15 3800
-28.1982 -761.15 3800
-19.0257 -757.745 3783
-9.97942 -757.745 3783
-0.941754 -764.756 3818
8.18824 -764.756 3818
17.3182 -764.756 3818
26.1434 -755.942 3774
35.1682 -755.942 3774
44.0993 -754.34 3766
53.105 -754.34 3766
62.1106 -754.34 3766
71.6072 -759.548 3792
81.0367 -762.953 3809
91.8255 -777.174 3880
101.104 -777.174 3880
113.54 -799.408 3991
123.084 -799.408 3991
132.627 -799.408 3991
212.537 -813.029 4059
222.244 -813.029 4059
233.664 -819.038 4089
243.442 -819.038 4089
253.22 -819.038 4089
262.998 -819.038 4089
272.109 -817.035 4079
280.481 -813.029 4059
290.188 -813.029 4059
299.894 -813.029 4059
308.838 -811.026 4049
315.452 -803.214 4010
325.041 -803.214 4010
333.879 -801.411 4001
339.327 -791.797 3953
347.191 -788.191 3935
356.601 -788.191 3935
366.011 -788.191 3935
371.032 -778.977 3889
380.332 -778.977 3889
387.828 -775.372 3871
397.085 -775.372 3871
403.507 -769.964 3844
411.733 -768.161 3835
418.05 -762.953 3809
427.159 -762.953 3809
435.236 -761.15 3800
447.363 -766.358 3826
456.513 -766.358 3826
465.662 -766.358 3826
474.811 -766.358 3826
481.81 -762.953 3809
493.109 -766.358 3826
508.166 -775.372 3871
519.828 -778.977 3889
529.128 -778.977 3889
538.428 -778.977 3889
547.728 -778.977 3889
557.027 -778.977 3889
555.988 -764.756 3818
559.937 -757.745 3783
575.451 -766.358 3826
590.101 -773.569 3862
599.336 -773.569 3862
612.826 -778.977 3889
632.364 -791.797 3953
644.902 -795.602 3972
654.4 -795.602 3972
671.921 -805.217 4020
681.534 -805.217 4020
694.414 -809.023 4039
704.072 -809.023 4039
713.731 -809.023 4039
723.389 -809.023 4039
733.048 -809.023 4039
742.706 -809.023 4039
3054.28 -815.032 4069
3064.01 -815.032 4069
3073.74 -815.032 4069
3083.47 -815.032 4069
3093.2 -815.032 4069
3080.06 -809.023 4039
3089.72 -809.023 4039
-2521.09 -737.006 3724
-2534.45 -743.537 3757
-2531.52 -745.319 3766
-2522.51 -745.319 3766
-2513.5 -745.319 3766
-2504.5 -745.319 3766
-2495.49 -745.319 3766
-2475.26 -741.954 3749
-2449.85 -737.006 3724
-2457.33 -741.954 3749
-2448.37 -741.954 3749
-2439.4 -741.954 3749
-2430.44 -741.954 3749
-2415.66 -740.173 3740
-2406.72 -740.173 3740
-2366.36 -730.475 3691
-2336.45 -723.945 3658
-2322.62 -722.361 3650
-2304.38 -719.393 3635
-2295.69 -719.393 3635
-517.704 -334.463 1690
-513.662 -334.463 1690
-509.621 -334.463 1690
-504.682 -333.869 1687
-499.461 -333.078 1683
-495.436 -333.078 1683
-491.12 -332.88 1682
-486.518 -332.484 1680
-482.501 -332.484 1680
-479.053 -332.88 1682
-475.031 -332.88 1682
-471.009 -332.88 1682
-466.432 -332.484 1680
-462.414 -332.484 1680
-458.397 -332.484 1680
-453.838 -332.088 1678
-448.485 -331.099 1673
-444.485 -331.099 1673
-440.484 -331.099 1673
-435.701 -330.505 1670
-429.898 -329.12 1663
-425.921 -329.12 1663
-421.691 -328.922 1662
-415.454 -327.141 1653
-410.008 -325.953 1647
-406.069 -325.953 1647
-400.178 -324.37 1639
-395.775 -323.974 1637
-390.424 -322.787 1631
-385.339 -321.797 1626
-381.45 -321.797 1626
-376.401 -320.808 1621
-371.146 -319.62 1615
-366.147 -318.631 1610
-362.297 -318.631 1610
-357.779 -318.037 1607
-353.275 -317.443 1604
-349.222 -317.245 1603
-345.389 -317.245 1603
-340.064 -315.86 1596
-334.773 -314.475 1589
-329.723 -313.287 1583
-325.938 -313.287 1583
-321.542 -312.693 1580
-317.16 -312.1 1577
-313.389 -312.1 1577
-309.029 -311.506 1574
-305.265 -311.506 1574
-300.926 -310.912 1571
-296.791 -310.516 1569
-292.853 -310.319 1568
-289.103 -310.319 1568
-285.354 -310.319 1568
-282.143 -310.912 1571
-278.386 -310.912 1571
-274.629 -310.912 1571
-270.873 -310.912 1571
-267.116 -310.912 1571
-263.359 -310.912 1571
-260.263 -311.704 1575
-256.497 -311.704 1575
-253.052 -312.1 1577
-249.913 -312.891 1581
-246.132 -312.891 1581
-242.352 -312.891 1581
-238.873 -313.287 1583
-235.533 -313.881 1586
-232.179 -314.475 1589
-228.379 -314.475 1589
-225.144 -315.266 1593
-221.752 -315.86 1596
-219.028 -317.443 1604
-215.192 -317.443 1604
-212.015 -318.433 1609
-208.297 -318.631 1610
-205.336 -320.016 1617
-201.469 -320.016 1617
-198.091 -320.808 1621
-194.814 -321.797 1626
-190.926 -321.797 1626
-187.037 -321.797 1626
-183.825 -322.985 1632
-180.804 -324.568 1640
-177.746 -326.151 1648
-173.805 -326.151 1648
-170.895 -328.13 1658
-167.332 -328.922 1662
-163.948 -330.109 1668
-159.959 -330.109 1668
-156.812 -331.89 1677
-153.257 -332.88 1682
-149.501 -333.474 1685
-145.472 -333.474 1685
-141.862 -334.463 1690
-138.392 -335.849 1697
-134.651 -336.64 1701
-130.583 -336.64 1701
-127.11 -338.223 1709
-123.024 -338.223 1709
-118.937 -338.223 1709
-183.542 -755.61 3818
-177.244 -767.88 3880
-167.966 -767.88 3880
-158.687 -767.88 3880
-149.409 -767.88 3880
-140.131 -767.88 3880
-130.549 -766.099 3871
-121.01 -764.318 3862
-111.775 -764.318 3862
-102.54 -764.318 3862
-93.0873 -762.536 3853
-83.6777 -760.755 3844
-74.4855 -760.755 3844
-65.2934 -760.755 3844
-56.1012 -760.755 3844
-46.909 -760.755 3844
-37.2066 -750.464 3792
-28.1388 -750.464 3792
-19.0257 -748.683 3783
-9.97942 -748.683 3783
-0.93312 -748.683 3783
8.11318 -748.683 3783
17.1595 -748.683 3783
26.1434 -746.902 3774
35.1682 -746.902 3774
43.9939 -743.537 3757
52.978 -743.537 3757
61.9622 -743.537 3757
71.1162 -745.319 3766
80.675 -750.464 3792
90.9735 -760.755 3844
100.166 -760.755 3844
111.406 -775.005 3916
120.771 -775.005 3916
130.135 -775.005 3916
212.537 -803.305 4059
222.244 -803.305 4059
233.664 -809.243 4089
243.442 -809.243 4089
253.22 -809.243 4089
261.712 -805.284 4069
271.442 -805.284 4069
280.481 -803.305 4059
290.188 -803.305 4059
299.894 -803.305 4059
308.838 -801.326 4049
313.249 -788.066 3982
322.772 -788.066 3982
328.372 -778.765 3935
337.781 -778.765 3935
347.191 -778.765 3935
356.601 -778.765 3935
366.011 -778.765 3935
371.032 -769.661 3889
380.332 -769.661 3889
386.926 -764.318 3862
396.162 -764.318 3862
403.507 -760.755 3844
410.767 -757.193 3826
418.05 -753.829 3809
427.159 -753.829 3809
435.236 -752.047 3800
445.376 -753.829 3809
454.484 -753.829 3809
463.593 -753.829 3809
472.701 -753.829 3809
481.81 -753.829 3809
493.109 -757.193 3826
508.166 -766.099 3871
517.422 -766.099 3871
526.679 -766.099 3871
533.444 -762.536 3853
542.657 -762.536 3853
551.871 -762.536 3853
555.988 -755.61 3818
559.937 -748.683 3783
575.451 -757.193 3826
590.101 -764.318 3862
599.336 -764.318 3862
612.826 -769.661 3889
632.364 -782.327 3953
644.902 -786.087 3972
654.4 -786.087 3972
671.921 -795.587 4020
681.534 -795.587 4020
694.414 -799.347 4039
704.072 -799.347 4039
713.731 -799.347 4039
723.389 -799.347 4039
733.048 -799.347 4039
742.706 -799.347 4039
3054.28 -805.284 4069
3064.01 -805.284 4069
3073.74 -805.284 4069
3083.47 -805.284 4069
3070.4 -799.347 4039
3080.06 -799.347 4039
3089.72 -799.347 4039
-2515.68 -726.521 3716
-2534.45 -734.537 3757
-2531.52 -736.297 3766
-2522.51 -736.297 3766
-2513.5 -736.297 3766
-2504.5 -736.297 3766
-2495.49 -736.297 3766
-2475.26 -732.973 3749
-2449.85 -728.086 3724
-2457.33 -732.973 3749
-2448.37 -732.973 3749
-2439.4 -732.973 3749
-2430.44 -732.973 3749
-2415.66 -731.214 3740
-2406.72 -731.214 3740
-2366.36 -721.634 3691
-2336.45 -715.182 3658
-2317.53 -712.054 3642
-2304.38 -710.685 3635
-2295.69 -710.685 3635
-517.704 -330.415 1690
-513.662 -330.415 1690
-509.621 -330.415 1690
-504.084 -329.437 1685
-499.461 -329.046 1683
-495.436 -329.046 1683
-490.536 -328.46 1680
-486.518 -328.46 1680
-482.501 -328.46 1680
-479.053 -328.851 1682
-475.031 -328.851 1682
-471.009 -328.851 1682
-466.432 -328.46 1680
-462.414 -328.46 1680
-458.397 -328.46 1680
-453.838 -328.069 1678
-448.485 -327.091 1673
-444.485 -327.091 1673
-440.484 -327.091 1673
-435.701 -326.505 1670
-429.898 -325.136 1663
-425.921 -325.136 1663
-421.691 -324.94 1662
-415.454 -323.181 1653
-410.008 -322.008 1647
-406.069 -322.008 1647
-400.178 -320.444 1639
-395.775 -320.053 1637
-390.424 -318.88 1631
-385.339 -317.902 1626
-381.45 -317.902 1626
-376.401 -316.924 1621
-371.146 -315.751 1615
-366.147 -314.774 1610
-362.297 -314.774 1610
-357.779 -314.187 1607
-353.275 -313.601 1604
-348.786 -313.014 1601
-344.958 -313.014 1601
-340.064 -312.037 1596
-334.773 -310.668 1589
-329.307 -309.104 1581
-325.526 -309.104 1581
-321.542 -308.908 1580
-317.16 -308.322 1577
-312.992 -307.931 1575
-309.029 -307.735 1574
-305.265 -307.735 1574
-300.926 -307.149 1571
-296.791 -306.758 1569
-292.853 -306.562 1568
-289.103 -306.562 1568
-285.354 -306.562 1568
-282.143 -307.149 1571
-278.386 -307.149 1571
-274.629 -307.149 1571
-270.873 -307.149 1571
-267.116 -307.149 1571
-263.359 -307.149 1571
-260.594 -308.322 1577
-256.823 -308.322 1577
-253.052 -308.322 1577
-249.913 -309.104 1581
-246.444 -309.495 1583
-242.658 -309.495 1583
-239.024 -309.691 1584
-235.978 -310.668 1589
-232.325 -310.864 1590
-228.523 -310.864 1590
-225.427 -311.841 1595
-222.03 -312.428 1598
-219.301 -313.992 1606
-215.46 -313.992 1606
-212.015 -314.578 1609
-208.556 -315.165 1612
-205.463 -316.338 1618
-201.594 -316.338 1618
-198.091 -316.924 1621
-194.814 -317.902 1626
-191.161 -318.293 1628
-187.268 -318.293 1628
-184.05 -319.466 1634
-180.804 -320.639 1640
-177.746 -322.203 1648
-173.805 -322.203 1648
-171.101 -324.549 1660
-167.332 -324.94 1662
-164.439 -327.091 1673
-160.439 -327.091 1673
-156.906 -328.069 1678
-153.349 -329.046 1683
-149.945 -330.415 1690
-145.904 -330.415 1690
-142.45 -331.783 1697
-138.718 -332.565 1701
-135.284 -334.129 1709
-131.197 -334.129 1709
-127.259 -334.521 1711
-123.168 -334.521 1711
-119.076 -334.521 1711
-177.244 -758.585 3880
-167.966 -758.585 3880
-158.687 -758.585 3880
-149.409 -758.585 3880
-140.131 -758.585 3880
-130.549 -756.826 3871
-121.01 -755.066 3862
-112.036 -756.826 3871
-102.779 -756.826 3871
-93.5222 -756.826 3871
-84.2654 -756.826 3871
-74.8343 -755.066 3862
-65.5991 -755.066 3862
-56.3639 -755.066 3862
-46.909 -751.547 3844
-37.3734 -744.704 3809
-28.265 -744.704 3809
-19.0257 -739.621 3783
-9.97942 -739.621 3783
-0.93312 -739.621 3783
8.11318 -739.621 3783
17.1595 -739.621 3783
26.2058 -739.621 3783
34.9352 -732.973 3749
43.7949 -731.214 3740
52.7383 -731.214 3740
61.6818 -731.214 3740
70.9463 -734.537 3757
79.9304 -734.537 3757
89.7429 -741.38 3792
98.8107 -741.38 3792
110.382 -758.585 3880
119.66 -758.585 3880
128.939 -758.585 3880
231.379 -791.627 4049
241.061 -791.627 4049
251.363 -793.582 4059
261.069 -793.582 4059
270.775 -793.582 4059
280.481 -793.582 4059
290.188 -793.582 4059
299.155 -791.627 4049
305.176 -782.242 4001
313.249 -778.528 3982
322.772 -778.528 3982
328.372 -769.339 3935
337.781 -769.339 3935
347.191 -769.339 3935
356.601 -769.339 3935
366.011 -769.339 3935
370.173 -758.585 3880
377.691 -755.066 3862
385.123 -751.547 3844
394.315 -751.547 3844
402.563 -749.787 3835
408.942 -744.704 3809
417.062 -742.944 3800
426.149 -742.944 3800
434.32 -741.38 3792
444.323 -742.944 3800
454.484 -744.704 3809
463.593 -744.704 3809
472.701 -744.704 3809
481.81 -744.704 3809
496.589 -753.307 3853
508.166 -756.826 3871
517.422 -756.826 3871
526.679 -756.826 3871
533.444 -753.307 3853
542.657 -753.307 3853
551.871 -753.307 3853
557.153 -748.028 3826
567.634 -749.787 3835
576.805 -749.787 3835
594.227 -760.345 3889
603.526 -760.345 3889
618.499 -767.383 3925
635.403 -776.572 3972
651.071 -784.002 4010
660.661 -784.002 4010
671.921 -785.957 4020
683.229 -787.912 4030
694.414 -789.672 4039
704.072 -789.672 4039
713.731 -789.672 4039
723.389 -789.672 4039
733.048 -789.672 4039
742.706 -789.672 4039
3025.01 -787.912 4030
3048.95 -791.627 4049
3058.64 -791.627 4049
3068.32 -791.627 4049
3063.56 -787.912 4030
3073.19 -787.912 4030
3082.83 -787.912 4030
-2515.68 -717.62 3716
-2563.46 -733.841 3800
-2554.37 -733.841 3800
-2545.28 -733.841 3800
-2536.2 -733.841 3800
-2515.8 -730.559 3783
-2506.76 -730.559 3783
-2475.26 -723.993 3749
-2460.38 -722.255 3740
-2457.33 -723.993 3749
-2448.37 -723.993 3749
-2439.4 -723.993 3749
-2430.44 -723.993 3749
-2415.66 -722.255 3740
-2406.72 -722.255 3740
-2366.36 -712.792 3691
-2336.45 -706.419 3658
-2313.07 -701.977 3635
-2304.38 -701.977 3635
-2295.69 -701.977 3635
-2281.96 -700.432 3627
-516.785 -325.787 1687
-512.75 -325.787 1687
-508.716 -325.787 1687
-504.084 -325.401 1685
-498.571 -324.435 1680
-494.553 -324.435 1680
-489.952 -324.049 1678
-486.518 -324.435 1680
-482.501 -324.435 1680
-479.053 -324.821 1682
-475.031 -324.821 1682
-471.009 -324.821 1682
-466.987 -324.821 1682
-462.965 -324.821 1682
-458.942 -324.821 1682
-453.838 -324.049 1678
-449.558 -323.856 1677
-445.548 -323.856 1677
-440.484 -323.083 1673
-435.701 -322.504 1670
-430.415 -321.538 1665
-426.433 -321.538 1665
-421.944 -321.152 1663
-415.957 -319.607 1655
-410.008 -318.062 1647
-406.069 -318.062 1647
-400.422 -316.711 1640
-395.533 -315.938 1636
-390.663 -315.166 1632
-385.339 -314.007 1626
-381.45 -314.007 1626
-376.866 -313.428 1623
-371.146 -311.883 1615
-366.147 -310.917 1610
-362.297 -310.917 1610
-357.779 -310.338 1607
-353.275 -309.758 1604
-348.786 -309.179 1601
-344.958 -309.179 1601
-340.064 -308.213 1596
-334.351 -306.475 1587
-329.307 -305.317 1581
-325.526 -305.317 1581
-321.542 -305.124 1580
-317.16 -304.544 1577
-312.992 -304.158 1575
-309.029 -303.965 1574
-305.265 -303.965 1574
-300.926 -303.386 1571
-296.602 -302.806 1568
-292.853 -302.806 1568
-289.103 -302.806 1568
-285.354 -302.806 1568
-282.143 -303.386 1571
-278.386 -303.386 1571
-274.629 -303.386 1571
-270.873 -303.386 1571
-267.116 -303.386 1571
-263.527 -303.579 1572
-260.594 -304.544 1577
-256.823 -304.544 1577
-253.212 -304.737 1578
-249.913 -305.317 1581
-246.444 -305.703 1583
-242.658 -305.703 1583
-239.325 -306.282 1586
-236.127 -307.055 1590
-232.617 -307.441 1592
-228.81 -307.441 1592
-225.568 -308.213 1596
-222.447 -309.179 1601
-219.437 -310.338 1607
-215.595 -310.338 1607
-212.147 -310.917 1610
-208.944 -311.883 1615
-205.717 -312.848 1620
-201.843 -312.848 1620
-198.336 -313.428 1623
-194.814 -314.007 1626
-191.278 -314.586 1629
-187.383 -314.586 1629
-184.05 -315.552 1634
-181.025 -317.097 1642
-177.746 -318.255 1648
-173.805 -318.255 1648
-171.101 -320.573 1660
-167.332 -320.959 1662
-164.439 -323.083 1673
-160.439 -323.083 1673
-156.906 -324.049 1678
-153.349 -325.015 1683
-149.945 -326.366 1690
-145.904 -326.366 1690
-142.45 -327.718 1697
-138.963 -329.07 1704
-135.284 -330.036 1709
-131.197 -330.036 1709
-127.259 -330.422 1711
-123.168 -330.422 1711
-119.076 -330.422 1711
-177.244 -749.291 3880
-167.966 -749.291 3880
-158.687 -749.291 3880
-149.409 -749.291 3880
-140.131 -749.291 3880
-130.549 -747.553 3871
-121.292 -747.553 3871
-112.296 -749.291 3880
-103.018 -749.291 3880
-93.7396 -749.291 3880
-84.4613 -749.291 3880
-75.0087 -747.553 3871
-65.752 -747.553 3871
-56.4952 -747.553 3871
-47.1287 -745.815 3862
-37.4617 -737.318 3818
-28.3317 -737.318 3818
-19.071 -732.297 3792
-10.0032 -732.297 3792
-0.941754 -737.318 3818
8.18824 -737.318 3818
17.3182 -737.318 3818
26.3859 -735.58 3809
35.4944 -735.58 3809
44.4974 -733.841 3800
53.5844 -733.841 3800
61.9622 -725.538 3757
70.9463 -725.538 3757
79.9304 -725.538 3757
90.3582 -737.318 3818
99.4882 -737.318 3818
110.382 -749.291 3880
119.66 -749.291 3880
128.939 -749.291 3880
239.93 -778.258 4030
251.363 -783.859 4059
261.069 -783.859 4059
270.775 -783.859 4059
280.481 -783.859 4059
290.188 -783.859 4059
297.013 -776.327 4020
305.176 -772.658 4001
310.968 -763.388 3953
320.421 -763.388 3953
328.372 -759.912 3935
337.781 -759.912 3935
347.191 -759.912 3935
356.601 -759.912 3935
366.011 -759.912 3935
368.456 -745.815 3862
375.931 -742.339 3844
383.32 -738.863 3826
392.469 -738.863 3826
398.889 -733.841 3800
407.117 -732.297 3792
414.209 -728.82 3774
425.252 -732.297 3792
434.32 -732.297 3792
443.388 -732.297 3792
453.41 -733.841 3800
462.497 -733.841 3800
471.584 -733.841 3800
481.81 -735.58 3809
496.589 -744.077 3853
508.166 -747.553 3871
517.422 -747.553 3871
526.679 -747.553 3871
533.444 -744.077 3853
538.855 -738.863 3826
549.293 -740.601 3835
558.464 -740.601 3835
571.631 -745.815 3862
584.927 -751.029 3889
601.255 -759.912 3935
610.665 -759.912 3935
621.493 -761.65 3944
635.403 -767.057 3972
651.071 -774.396 4010
660.661 -774.396 4010
671.921 -776.327 4020
683.229 -778.258 4030
692.866 -778.258 4030
702.503 -778.258 4030
712.14 -778.258 4030
721.777 -778.258 4030
731.414 -778.258 4030
741.051 -778.258 4030
3039.27 -781.927 4049
3056.48 -783.859 4059
3066.19 -783.859 4059
3075.9 -783.859 4059
3078 -781.927 4049
3073.19 -778.258 4030
3082.83 -778.258 4030
-2593.14 -733.13 3844
-2583.95 -733.13 3844
-2574.76 -733.13 3844
-2548.21 -728.172 3818
-2515.8 -721.496 3783
-2506.76 -721.496 3783
-2486.49 -718.254 3766
-2460.38 -713.295 3740
-2457.33 -715.012 3749
-2448.37 -715.012 3749
-2439.4 -715.012 3749
-2430.44 -715.012 3749
-2415.66 -713.295 3740
-2406.72 -713.295 3740
-2361.23 -702.424 3683
-2336.45 -697.656 3658
-2313.07 -693.27 3635
-2304.38 -693.27 3635
-2295.69 -693.27 3635
-2286.99 -693.27 3635
-516.172 -321.364 1685
-512.143 -321.364 1685
-508.113 -321.364 1685
-504.084 -321.364 1685
-499.164 -320.792 1682
-495.142 -320.792 1682
-490.536 -320.411 1680
-487.098 -320.792 1682
-483.076 -320.792 1682
-479.338 -320.983 1683
-475.314 -320.983 1683
-471.289 -320.983 1683
-467.264 -320.983 1683
-463.24 -320.983 1683
-459.215 -320.983 1683
-454.92 -320.792 1682
-449.558 -319.839 1677
-445.548 -319.839 1677
-441.011 -319.457 1675
-436.223 -318.885 1672
-431.19 -318.122 1668
-427.202 -318.122 1668
-422.452 -317.55 1665
-416.46 -316.024 1657
-410.257 -314.308 1648
-406.316 -314.308 1648
-400.91 -313.163 1642
-395.775 -312.21 1637
-390.663 -311.256 1632
-385.813 -310.493 1628
-381.92 -310.493 1628
-376.866 -309.54 1623
-371.606 -308.395 1617
-366.147 -307.06 1610
-362.297 -307.06 1610
-357.779 -306.488 1607
-353.275 -305.916 1604
-348.786 -305.344 1601
-344.958 -305.344 1601
-340.064 -304.39 1596
-334.351 -302.674 1587
-329.307 -301.529 1581
-325.526 -301.529 1581
-321.135 -300.957 1578
-317.16 -300.767 1577
-312.992 -300.385 1575
-309.029 -300.194 1574
-305.265 -300.194 1574
-300.543 -299.241 1569
-296.602 -299.05 1568
-292.853 -299.05 1568
-289.288 -299.241 1569
-285.536 -299.241 1569
-282.143 -299.622 1571
-278.386 -299.622 1571
-274.804 -299.813 1572
-271.045 -299.813 1572
-267.286 -299.813 1572
-263.527 -299.813 1572
-260.594 -300.767 1577
-256.823 -300.767 1577
-253.212 -300.957 1578
-249.913 -301.529 1581
-246.444 -301.911 1583
-242.658 -301.911 1583
-239.325 -302.483 1586
-236.127 -303.246 1590
-232.617 -303.627 1592
-228.81 -303.627 1592
-225.568 -304.39 1596
-222.447 -305.344 1601
-219.437 -306.488 1607
-215.595 -306.488 1607
-212.147 -307.06 1610
-208.944 -308.014 1615
-205.844 -309.158 1621
-201.968 -309.158 1621
-198.458 -309.73 1624
-195.173 -310.684 1629
-191.63 -311.256 1632
-187.728 -311.256 1632
-184.276 -312.019 1636
-181.025 -313.163 1642
-177.746 -314.308 1648
-173.805 -314.308 1648
-171.101 -316.596 1660
-167.433 -317.168 1663
-164.439 -319.076 1673
-160.439 -319.076 1673
-156.906 -320.029 1678
-153.349 -320.983 1683
-149.945 -322.318 1690
-145.904 -322.318 1690
-142.45 -323.653 1697
-138.963 -324.988 1704
-135.284 -325.942 1709
-131.197 -325.942 1709
-127.259 -326.323 1711
-123.168 -326.323 1711
-119.076 -326.323 1711
-177.244 -739.996 3880
-167.966 -739.996 3880
-159.424 -743.429 3898
-150.102 -743.429 3898
-140.781 -743.429 3898
-131.46 -743.429 3898
-122.138 -743.429 3898
-112.557 -741.713 3889
-103.257 -741.713 3889
-93.957 -741.713 3889
-84.4613 -739.996 3880
-75.0087 -738.28 3871
-65.752 -738.28 3871
-56.4952 -738.28 3871
-47.1287 -736.563 3862
-37.4617 -728.172 3818
-28.3317 -728.172 3818
-19.2017 -728.172 3818
-10.0717 -728.172 3818
-0.943727 -729.697 3826
8.2054 -729.697 3826
17.4362 -733.13 3844
26.6283 -733.13 3844
35.8205 -733.13 3844
44.6028 -726.455 3809
53.7113 -726.455 3809
62.8198 -726.455 3809
72.0982 -728.172 3818
81.2282 -728.172 3818
90.7605 -731.414 3835
99.9312 -731.414 3835
111.406 -746.862 3916
120.771 -746.862 3916
130.135 -746.862 3916
239.93 -768.604 4030
251.363 -774.135 4059
261.069 -774.135 4059
270.775 -774.135 4059
280.481 -774.135 4059
290.188 -774.135 4059
297.013 -766.697 4020
305.176 -763.073 4001
310.968 -753.919 3953
320.421 -753.919 3953
328.372 -750.486 3935
337.781 -750.486 3935
347.191 -750.486 3935
356.601 -750.486 3935
366.011 -750.486 3935
368.456 -736.563 3862
375.931 -733.13 3844
383.32 -729.697 3826
392.469 -729.697 3826
398.889 -724.739 3800
407.117 -723.213 3792
414.209 -719.78 3774
425.252 -723.213 3792
434.32 -723.213 3792
443.388 -723.213 3792
453.41 -724.739 3800
462.497 -724.739 3800
471.584 -724.739 3800
481.81 -726.455 3809
496.589 -734.847 3853
508.166 -738.28 3871
517.422 -738.28 3871
526.679 -738.28 3871
533.444 -734.847 3853
538.855 -729.697 3826
551.871 -734.847 3853
561.085 -734.847 3853
571.631 -736.563 3862
590.341 -748.579 3925
601.255 -750.486 3935
610.665 -750.486 3935
622.911 -753.919 3953
637.003 -759.45 3982
651.071 -764.79 4010
660.661 -764.79 4010
671.921 -766.697 4020
683.229 -768.604 4030
692.866 -768.604 4030
702.503 -768.604 4030
712.14 -768.604 4030
721.777 -768.604 4030
731.414 -768.604 4030
741.051 -768.604 4030
3046.78 -774.135 4059
3056.48 -774.135 4059
3066.19 -774.135 4059
3075.9 -774.135 4059
3078 -772.228 4049
3087.68 -772.228 4049
3097.36 -772.228 4049
-2593.14 -723.922 3844
-2583.95 -723.922 3844
-2574.76 -723.922 3844
-2553.55 -720.532 3826
-2515.8 -712.434 3783
-2506.76 -712.434 3783
-2486.49 -709.233 3766
-2460.38 -704.336 3740
-2457.33 -706.031 3749
-2448.37 -706.031 3749
-2439.4 -706.031 3749
-2430.44 -706.031 3749
-2415.66 -704.336 3740
-2406.72 -704.336 3740
-2361.23 -693.602 3683
-2336.45 -688.893 3658
-2313.07 -684.562 3635
-2304.38 -684.562 3635
-2295.69 -684.562 3635
-2286.99 -684.562 3635
-2268.27 -681.549 3619
-516.172 -317.328 1685
-512.143 -317.328 1685
-508.113 -317.328 1685
-504.084 -317.328 1685
-500.055 -317.328 1685
-496.025 -317.328 1685
-491.412 -316.951 1683
-487.966 -317.328 1685
-483.937 -317.328 1685
-479.908 -317.328 1685
-475.878 -317.328 1685
-471.849 -317.328 1685
-467.264 -316.951 1683
-463.24 -316.951 1683
-459.215 -316.951 1683
-455.191 -316.951 1683
-449.826 -316.01 1678
-445.813 -316.01 1678
-441.537 -315.821 1677
-436.223 -314.88 1672
-431.19 -314.126 1668
-427.202 -314.126 1668
-422.959 -313.938 1667
-416.711 -312.243 1658
-410.755 -310.737 1650
-406.809 -310.737 1650
-400.91 -309.23 1642
-396.258 -308.665 1639
-390.663 -307.347 1632
-385.813 -306.593 1628
-381.92 -306.593 1628
-376.866 -305.652 1623
-371.606 -304.522 1617
-366.147 -303.204 1610
-362.297 -303.204 1610
-357.779 -302.639 1607
-353.275 -302.074 1604
-348.786 -301.509 1601
-344.958 -301.509 1601
-340.064 -300.567 1596
-334.351 -298.872 1587
-329.307 -297.742 1581
-325.526 -297.742 1581
-321.135 -297.177 1578
-317.16 -296.989 1577
-312.992 -296.612 1575
-309.029 -296.424 1574
-305.265 -296.424 1574
-300.543 -295.482 1569
-296.791 -295.482 1569
-293.039 -295.482 1569
-289.288 -295.482 1569
-285.536 -295.482 1569
-282.143 -295.859 1571
-278.386 -295.859 1571
-274.804 -296.047 1572
-271.045 -296.047 1572
-267.286 -296.047 1572
-263.862 -296.424 1574
-260.759 -297.177 1578
-256.986 -297.177 1578
-253.212 -297.177 1578
-249.913 -297.742 1581
-246.599 -298.307 1584
-242.811 -298.307 1584
-239.476 -298.872 1587
-236.424 -299.814 1592
-232.763 -300.002 1593
-228.954 -300.002 1593
-225.851 -300.944 1598
-222.724 -301.885 1603
-219.437 -302.639 1607
-215.595 -302.639 1607
-212.411 -303.58 1612
-208.944 -304.145 1615
-206.098 -305.652 1623
-202.217 -305.652 1623
-198.702 -306.217 1626
-195.413 -307.158 1631
-192.1 -308.1 1636
-188.188 -308.1 1636
-184.614 -308.665 1639
-181.576 -310.172 1647
-178.285 -311.302 1653
-174.332 -311.302 1653
-171.101 -312.62 1660
-167.836 -313.938 1667
-164.439 -315.068 1673
-160.439 -315.068 1673
-156.906 -316.01 1678
-153.349 -316.951 1683
-149.945 -318.27 1690
-145.904 -318.27 1690
-142.45 -319.588 1697
-138.963 -320.906 1704
-135.284 -321.848 1709
-131.197 -321.848 1709
-127.259 -322.224 1711
-123.168 -322.224 1711
-119.076 -322.224 1711
-177.655 -732.397 3889
-168.355 -732.397 3889
-160.16 -737.481 3916
-150.795 -737.481 3916
-141.431 -737.481 3916
-132.067 -737.481 3916
-122.138 -734.091 3898
-112.557 -732.397 3889
-103.257 -732.397 3889
-93.957 -732.397 3889
-84.4613 -730.702 3880
-75.0087 -729.007 3871
-65.752 -729.007 3871
-56.4952 -729.007 3871
-47.1287 -727.312 3862
-37.4617 -719.026 3818
-28.3317 -719.026 3818
-19.2017 -719.026 3818
-10.0717 -719.026 3818
-0.943727 -720.532 3826
8.2054 -720.532 3826
17.4362 -723.922 3844
26.6283 -723.922 3844
35.8205 -723.922 3844
44.9073 -722.227 3835
54.2048 -723.922 3844
63.397 -723.922 3844
72.5892 -723.922 3844
81.7814 -723.922 3844
90.9735 -723.922 3844
100.166 -723.922 3844
111.406 -737.481 3916
120.771 -737.481 3916
130.135 -737.481 3916
238.739 -755.184 4010
248.947 -757.067 4020
258.56 -757.067 4020
268.173 -757.067 4020
277.787 -757.067 4020
287.4 -757.067 4020
297.013 -757.067 4020
305.176 -753.489 4001
309.552 -741.06 3935
314.504 -730.702 3880
323.782 -730.702 3880
333.06 -730.702 3880
342.338 -730.702 3880
350.801 -729.007 3871
360.058 -729.007 3871
365.021 -720.532 3826
371.628 -715.636 3800
378.11 -710.739 3774
387.135 -710.739 3774
395.32 -709.233 3766
403.359 -707.538 3757
411.465 -706.031 3749
423.234 -710.739 3774
432.258 -710.739 3774
442.336 -712.434 3783
452.456 -714.129 3792
461.524 -714.129 3792
470.591 -714.129 3792
481.81 -717.331 3809
492.078 -719.026 3818
508.166 -729.007 3871
517.422 -729.007 3871
526.679 -729.007 3871
533.444 -725.617 3853
538.855 -720.532 3826
551.871 -725.617 3853
561.085 -725.617 3853
571.631 -727.312 3862
590.341 -739.176 3925
601.255 -741.06 3935
610.665 -741.06 3935
622.911 -744.449 3953
637.003 -749.911 3982
647.987 -751.606 3991
657.53 -751.606 3991
671.921 -757.067 4020
683.229 -758.95 4030
692.866 -758.95 4030
702.503 -758.95 4030
712.14 -758.95 4030
721.777 -758.95 4030
731.414 -758.95 4030
741.051 -758.95 4030
3046.78 -764.412 4059
3056.48 -764.412 4059
3066.19 -764.412 4059
3075.9 -764.412 4059
3078 -762.529 4049
3087.68 -762.529 4049
3097.36 -762.529 4049
-2593.14 -714.714 3844
-2583.95 -714.714 3844
-2574.76 -714.714 3844
-2553.55 -711.367 3826
-2515.8 -703.372 3783
-2506.76 -703.372 3783
-2486.49 -700.211 3766
-2455.11 -693.889 3732
-2457.33 -697.05 3749
-2448.37 -697.05 3749
-2439.4 -697.05 3749
-2424.6 -695.377 3740
-2405.33 -692.402 3724
-2396.42 -692.402 3724
-2361.23 -684.779 3683
-2336.45 -680.131 3658
-2313.07 -675.854 3635
-2304.38 -675.854 3635
-2295.69 -675.854 3635
-2286.99 -675.854 3635
-2268.27 -672.879 3619
-516.172 -313.291 1685
-512.143 -313.291 1685
-508.113 -313.291 1685
-504.084 -313.291 1685
-500.055 -313.291 1685
-496.025 -313.291 1685
-491.412 -312.92 1683
-487.966 -313.291 1685
-483.937 -313.291 1685
-479.908 -313.291 1685
-475.878 -313.291 1685
-471.849 -313.291 1685
-467.264 -312.92 1683
-463.24 -312.92 1683
-459.215 -312.92 1683
-455.191 -312.92 1683
-449.826 -311.99 1678
-445.813 -311.99 1678
-441.537 -311.804 1677
-436.223 -310.874 1672
-431.19 -310.131 1668
-427.202 -310.131 1668
-422.959 -309.945 1667
-416.711 -308.271 1658
-410.755 -306.784 1650
-406.809 -306.784 1650
-400.91 -305.297 1642
-396.258 -304.739 1639
-390.663 -303.437 1632
-385.813 -302.693 1628
-381.92 -302.693 1628
-376.866 -301.764 1623
-371.606 -300.648 1617
-366.147 -299.347 1610
-362.297 -299.347 1610
-357.779 -298.789 1607
-353.275 -298.231 1604
-348.786 -297.673 1601
-344.958 -297.673 1601
-339.851 -296.558 1595
-334.141 -294.884 1586
-329.307 -293.955 1581
-325.526 -293.955 1581
-321.135 -293.397 1578
-316.758 -292.839 1575
-312.793 -292.653 1574
-308.636 -292.281 1572
-304.877 -292.281 1572
-300.543 -291.724 1569
-296.791 -291.724 1569
-293.039 -291.724 1569
-289.288 -291.724 1569
-285.536 -291.724 1569
-282.143 -292.095 1571
-278.386 -292.095 1571
-274.804 -292.281 1572
-271.045 -292.281 1572
-267.286 -292.281 1572
-263.862 -292.653 1574
-260.759 -293.397 1578
-256.986 -293.397 1578
-253.212 -293.397 1578
-249.913 -293.955 1581
-246.599 -294.513 1584
-242.811 -294.513 1584
-239.476 -295.07 1587
-236.424 -296 1592
-232.763 -296.186 1593
-228.954 -296.186 1593
-225.851 -297.116 1598
-222.724 -298.045 1603
-219.437 -298.789 1607
-215.595 -298.789 1607
-212.411 -299.719 1612
-208.944 -300.276 1615
-206.098 -301.764 1623
-202.217 -301.764 1623
-198.702 -302.322 1626
-195.413 -303.251 1631
-192.1 -304.181 1636
-188.188 -304.181 1636
-184.614 -304.739 1639
-181.576 -306.226 1647
-178.285 -307.342 1653
-174.332 -307.342 1653
-171.101 -308.643 1660
-167.836 -309.945 1667
-164.439 -311.06 1673
-160.439 -311.06 1673
-156.906 -311.99 1678
-153.349 -312.92 1683
-149.856 -314.035 1689
-145.817 -314.035 1689
-142.03 -314.593 1692
-138.718 -316.266 1701
-135.205 -317.568 1708
-131.12 -317.568 1708
-127.259 -318.126 1711
-123.168 -318.126 1711
-119.076 -318.126 1711
-177.655 -723.08 3889
-168.355 -723.08 3889
-160.16 -728.101 3916
-150.795 -728.101 3916
-141.431 -728.101 3916
-132.067 -728.101 3916
-122.138 -724.754 3898
-112.557 -723.08 3889
-103.257 -723.08 3889
-93.957 -723.08 3889
-84.4613 -721.407 3880
-75.0087 -719.734 3871
-65.752 -719.734 3871
-56.4952 -719.734 3871
-47.0188 -716.387 3853
-37.4617 -709.879 3818
-28.3317 -709.879 3818
-19.2017 -709.879 3818
-10.0717 -709.879 3818
-0.943727 -711.367 3826
8.2054 -711.367 3826
17.4362 -714.714 3844
26.6283 -714.714 3844
35.8205 -714.714 3844
44.9073 -713.04 3835
54.2048 -714.714 3844
63.397 -714.714 3844
72.5892 -714.714 3844
81.7814 -714.714 3844
90.9735 -714.714 3844
100.166 -714.714 3844
111.406 -728.101 3916
120.771 -728.101 3916
130.135 -728.101 3916
237.072 -740.372 3982
248.328 -745.578 4010
257.917 -745.578 4010
267.506 -745.578 4010
277.096 -745.578 4010
286.685 -745.578 4010
291.397 -733.307 3944
300.142 -731.633 3935
306.641 -724.754 3898
310.856 -713.04 3835
322.28 -718.06 3862
331.515 -718.06 3862
340.75 -718.06 3862
349.985 -718.06 3862
359.221 -718.06 3862
364.258 -709.879 3818
369.965 -703.372 3783
377.308 -700.211 3766
386.314 -700.211 3766
393.535 -697.05 3749
401.534 -695.377 3740
410.477 -695.377 3740
421.327 -698.538 3757
430.311 -698.538 3757
441.283 -701.699 3774
450.308 -701.699 3774
459.333 -701.699 3774
468.358 -701.699 3774
479.659 -705.045 3792
492.078 -709.879 3818
506.984 -718.06 3862
516.219 -718.06 3862
525.455 -718.06 3862
534.69 -718.06 3862
538.855 -711.367 3826
551.871 -716.387 3853
561.085 -716.387 3853
579.623 -728.101 3916
591.845 -731.633 3935
604.005 -734.98 3953
613.458 -734.98 3953
627.481 -740.372 3982
637.003 -740.372 3982
646.525 -740.372 3982
656.047 -740.372 3982
670.25 -745.578 4010
679.839 -745.578 4010
689.428 -745.578 4010
3046.78 -754.688 4059
3056.48 -754.688 4059
3066.19 -754.688 4059
3075.9 -754.688 4059
3078 -752.829 4049
3087.68 -752.829 4049
3097.36 -752.829 4049
-2593.14 -705.505 3844
-2583.95 -705.505 3844
-2574.76 -705.505 3844
-2553.55 -702.202 3826
-2515.8 -694.31 3783
-2506.76 -694.31 3783
-2464.04 -684.949 3732
-2455.11 -684.949 3732
-2446.19 -684.949 3732
-2437.27 -684.949 3732
-2428.34 -684.949 3732
-2419.42 -684.949 3732
-2405.33 -683.481 3724
-2396.42 -683.481 3724
-2356.1 -674.488 3675
-2326.23 -668.431 3642
-2313.07 -667.147 3635
-2304.38 -667.147 3635
-2295.69 -667.147 3635
-2286.99 -667.147 3635
-2268.27 -664.21 3619
-1336.69 -674.488 3675
-1327.9 -674.488 3675
-1319.11 -674.488 3675
-1310.32 -674.488 3675
-1298.7 -673.02 3667
-516.172 -309.255 1685
-512.75 -309.622 1687
-508.716 -309.622 1687
-504.682 -309.622 1687
-500.648 -309.622 1687
-496.614 -309.622 1687
-491.996 -309.255 1685
-487.966 -309.255 1685
-483.937 -309.255 1685
-479.908 -309.255 1685
-475.878 -309.255 1685
-471.849 -309.255 1685
-467.82 -309.255 1685
-463.79 -309.255 1685
-459.761 -309.255 1685
-455.191 -308.888 1683
-449.826 -307.97 1678
-445.813 -307.97 1678
-441.537 -307.787 1677
-436.484 -307.053 1673
-431.19 -306.135 1668
-427.202 -306.135 1668
-422.959 -305.951 1667
-416.711 -304.3 1658
-411.252 -303.198 1652
-407.302 -303.198 1652
-401.398 -301.73 1644
-396.258 -300.812 1639
-390.663 -299.528 1632
-385.813 -298.794 1628
-381.92 -298.794 1628
-376.866 -297.876 1623
-371.146 -296.408 1615
-366.147 -295.49 1610
-362.297 -295.49 1610
-357.779 -294.939 1607
-353.275 -294.389 1604
-348.351 -293.471 1599
-344.527 -293.471 1599
-339.425 -292.37 1593
-334.141 -291.085 1586
-329.098 -289.984 1580
-325.32 -289.984 1580
-320.931 -289.433 1577
-316.758 -289.066 1575
-312.793 -288.883 1574
-308.636 -288.516 1572
-304.877 -288.516 1572
-300.543 -287.965 1569
-296.791 -287.965 1569
-293.039 -287.965 1569
-289.288 -287.965 1569
-285.536 -287.965 1569
-282.143 -288.332 1571
-278.386 -288.332 1571
-274.804 -288.516 1572
-271.045 -288.516 1572
-267.286 -288.516 1572
-263.862 -288.883 1574
-260.759 -289.617 1578
-256.986 -289.617 1578
-253.212 -289.617 1578
-249.913 -290.167 1581
-246.599 -290.718 1584
-242.811 -290.718 1584
-239.476 -291.269 1587
-236.424 -292.186 1592
-232.763 -292.37 1593
-228.954 -292.37 1593
-225.851 -293.288 1598
-222.724 -294.205 1603
-219.437 -294.939 1607
-215.595 -294.939 1607
-212.411 -295.857 1612
-208.944 -296.408 1615
-206.098 -297.876 1623
-202.217 -297.876 1623
-198.947 -298.794 1628
-195.533 -299.528 1632
-192.1 -300.262 1636
-188.188 -300.262 1636
-184.726 -300.996 1640
-181.686 -302.464 1648
-178.716 -304.116 1657
-174.754 -304.116 1657
-171.41 -305.217 1663
-168.339 -306.869 1672
-164.832 -307.787 1677
-160.822 -307.787 1677
-157.373 -308.888 1683
-153.713 -309.622 1687
-150.122 -310.54 1692
-146.076 -310.54 1692
-142.618 -311.825 1699
-138.8 -312.375 1702
-135.284 -313.66 1709
-131.197 -313.66 1709
-127.557 -314.761 1715
-124.031 -316.229 1723
-119.911 -316.229 1723
-115.791 -316.229 1723
-177.655 -713.764 3889
-168.355 -713.764 3889
-160.16 -718.72 3916
-150.795 -718.72 3916
-141.431 -718.72 3916
-132.067 -718.72 3916
-122.138 -715.416 3898
-112.557 -713.764 3889
-103.257 -713.764 3889
-93.957 -713.764 3889
-84.0695 -708.809 3862
-74.6599 -707.157 3853
-65.4462 -707.157 3853
-56.2325 -707.157 3853
-46.5917 -700.733 3818
-37.4617 -700.733 3818
-28.3317 -700.733 3818
-19.0257 -694.31 3783
-9.97942 -694.31 3783
-0.941754 -700.733 3818
8.18824 -700.733 3818
17.3953 -703.853 3835
26.566 -703.853 3835
35.7366 -703.853 3835
44.9073 -703.853 3835
54.2048 -705.505 3844
63.397 -705.505 3844
72.7591 -707.157 3853
81.9728 -707.157 3853
91.1865 -707.157 3853
100.166 -705.505 3844
111.406 -718.72 3916
120.771 -718.72 3916
130.135 -718.72 3916
267.506 -735.972 4010
277.096 -735.972 4010
286.685 -735.972 4010
290.732 -722.207 3935
299.38 -720.372 3925
306.641 -715.416 3898
315.963 -715.416 3898
325.284 -715.416 3898
334.605 -715.416 3898
343.927 -715.416 3898
353.248 -715.416 3898
362.569 -715.416 3898
366.739 -705.505 3844
372.508 -699.082 3809
379.913 -695.961 3792
388.981 -695.961 3792
396.159 -692.658 3774
402.5 -688.07 3749
411.465 -688.07 3749
422.337 -691.19 3766
431.342 -691.19 3766
440.348 -691.19 3766
450.308 -692.658 3774
459.333 -692.658 3774
469.474 -694.31 3783
478.521 -694.31 3783
496.589 -707.157 3853
506.984 -708.809 3862
516.219 -708.809 3862
525.455 -708.809 3862
534.69 -708.809 3862
541.39 -705.505 3844
553.16 -708.809 3862
562.395 -708.809 3862
579.623 -718.72 3916
591.845 -722.207 3935
605.533 -727.346 3963
615.01 -727.346 3963
627.481 -730.833 3982
640.043 -734.32 4001
651.071 -735.972 4010
660.661 -735.972 4010
670.25 -735.972 4010
3027.36 -744.965 4059
3037.07 -744.965 4059
3046.78 -744.965 4059
3056.48 -744.965 4059
3066.19 -744.965 4059
3075.9 -744.965 4059
3078 -743.13 4049
3080.06 -741.294 4039
3089.72 -741.294 4039
-2581 -693.036 3826
-2571.85 -693.036 3826
-2562.7 -693.036 3826
-2553.55 -693.036 3826
-2509.82 -683.617 3774
-2500.79 -683.617 3774
-2464.04 -676.009 3732
-2449.85 -674.56 3724
-2440.95 -674.56 3724
-2432.04 -674.56 3724
-2423.14 -674.56 3724
-2414.23 -674.56 3724
-2394.35 -671.481 3707
-2385.48 -671.481 3707
-2350.97 -664.235 3667
-2326.23 -659.707 3642
-2307.98 -656.99 3627
-2299.31 -656.99 3627
-2300.11 -659.707 3642
-2291.4 -659.707 3642
-2287.7 -661.156 3650
-2278.98 -661.156 3650
-2270.25 -661.156 3650
-1434.35 -691.587 3818
-1425.22 -691.587 3818
-1416.09 -691.587 3818
-1394.06 -685.247 3783
-1351.33 -668.583 3691
