ply
format ascii 1.0
comment File generated
element vertex 2123
property float x
property float y
property float z
end_header
-25.2776 -438.203 1732
-21.1359 -438.203 1732
-16.9942 -438.203 1732
-12.8153 -436.938 1727
317.106 -961.415 3800
326.193 -961.415 3800
337.574 -967.993 3826
346.723 -967.993 3826
355.872 -967.993 3826
363.399 -963.692 3809
372.508 -963.692 3809
386.025 -974.824 3853
398.008 -981.655 3880
407.286 -981.655 3880
416.564 -981.655 3880
425.843 -981.655 3880
435.121 -981.655 3880
441.307 -974.824 3853
450.52 -974.824 3853
459.734 -974.824 3853
468.948 -974.824 3853
475.928 -970.27 3835
481.81 -963.692 3809
490.918 -963.692 3809
500.027 -963.692 3809
505.66 -957.114 3783
511.168 -950.536 3757
516.691 -944.211 3732
523.362 -940.163 3716
532.248 -940.163 3716
536.329 -931.813 3683
1684.62 -990.763 3916
1693.98 -990.763 3916
1703.34 -990.763 3916
1716.65 -993.04 3925
1730.43 -995.57 3935
1739.84 -995.57 3935
1749.25 -995.57 3935
1758.66 -995.57 3935
1768.07 -995.57 3935
1794.19 -1004.93 3972
1803.69 -1004.93 3972
1813.19 -1004.93 3972
1835.99 -1012.27 4001
1863.09 -1021.88 4039
1872.75 -1021.88 4039
1887.07 -1024.41 4049
1901.43 -1026.94 4059
1911.14 -1026.94 4059
1920.85 -1026.94 4059
1930.55 -1026.94 4059
1912.53 -1012.27 4001
-2510.95 -922.991 3683
-2502.14 -922.991 3683
-2504.17 -927 3699
-2495.32 -927 3699
-2486.48 -927 3699
-2477.63 -927 3699
-2441.42 -916.726 3658
-2417.38 -910.962 3635
-2408.69 -910.962 3635
-2400 -910.962 3635
-2380.78 -906.952 3619
-2366.88 -904.947 3611
-2353.02 -902.942 3603
-2344.4 -902.942 3603
-2330.6 -900.937 3595
-2307.15 -895.173 3572
-2288.96 -891.414 3557
-2280.45 -891.414 3557
-2271.94 -891.414 3557
-2258.35 -889.409 3549
-2231.48 -882.142 3520
-2223.06 -882.142 3520
-2205.2 -878.382 3505
-646.421 -473.399 1889
-641.904 -473.399 1889
-639.074 -474.652 1894
-634.545 -474.652 1894
-630.016 -474.652 1894
-623.836 -473.399 1889
-619.318 -473.399 1889
-612.198 -471.394 1881
-604.792 -469.139 1872
-596.467 -466.132 1860
-592.019 -466.132 1860
-586.94 -465.63 1858
-581.243 -464.628 1854
-575.565 -463.626 1850
-571.141 -463.626 1850
-563.347 -460.869 1839
-557.126 -459.365 1833
-549.727 -456.859 1823
-544.171 -455.857 1819
-539.821 -455.857 1819
-532.528 -453.351 1809
-524.406 -450.093 1796
-516.636 -447.085 1784
-512.37 -447.085 1784
-503.832 -443.326 1769
-496.495 -440.57 1758
-489.771 -438.314 1749
-485.589 -438.314 1749
-478.378 -435.557 1738
-473.131 -434.555 1734
-468.173 -433.803 1731
-462.425 -432.299 1725
-458.3 -432.299 1725
-453.649 -431.798 1723
-449.268 -431.548 1722
-444.633 -431.046 1720
-440.52 -431.046 1720
-436.407 -431.046 1720
-431.791 -430.545 1718
-427.683 -430.545 1718
-423.574 -430.545 1718
-418.978 -430.044 1716
-414.874 -430.044 1716
-410.053 -429.292 1713
-405.956 -429.292 1713
-401.86 -429.292 1713
-397.299 -428.791 1711
-392.748 -428.29 1709
-388.662 -428.29 1709
-384.35 -428.039 1708
-380.265 -428.039 1708
-375.741 -427.538 1706
-371.661 -427.538 1706
-367.151 -427.037 1704
-362.65 -426.535 1702
-358.58 -426.535 1702
-354.51 -426.535 1702
-350.44 -426.535 1702
-346.166 -426.285 1701
-341.696 -425.784 1699
-337.236 -425.282 1697
-333.178 -425.282 1697
-328.15 -424.029 1692
-324.104 -424.029 1692
-319.491 -423.278 1689
-315.452 -423.278 1689
-311.413 -423.278 1689
-307.01 -422.776 1687
-302.617 -422.275 1685
-298.587 -422.275 1685
-294.558 -422.275 1685
-290.873 -422.776 1687
-286.839 -422.776 1687
-282.805 -422.776 1687
-278.771 -422.776 1687
-275.063 -423.278 1689
-271.024 -423.278 1689
-266.985 -423.278 1689
-262.946 -423.278 1689
-258.907 -423.278 1689
-254.868 -423.278 1689
-251.275 -424.029 1692
-247.229 -424.029 1692
-243.47 -424.531 1694
-239.56 -424.781 1695
-235.785 -425.282 1697
-231.727 -425.282 1697
-228.206 -426.285 1701
-224.533 -427.037 1704
-220.458 -427.037 1704
-216.384 -427.037 1704
-212.807 -428.039 1708
-208.723 -428.039 1708
-204.758 -428.29 1709
-200.906 -428.791 1711
-196.815 -428.791 1711
-192.723 -428.791 1711
-188.852 -429.292 1713
-184.756 -429.292 1713
-180.66 -429.292 1713
-176.564 -429.292 1713
-172.669 -429.793 1715
-168.666 -430.044 1716
-164.562 -430.044 1716
-160.459 -430.044 1716
-156.355 -430.044 1716
-152.252 -430.044 1716
-148.148 -430.044 1716
-144.213 -430.545 1718
-140.105 -430.545 1718
-135.996 -430.545 1718
-131.888 -430.545 1718
-127.78 -430.545 1718
-123.672 -430.545 1718
-119.563 -430.545 1718
-115.455 -430.545 1718
-111.347 -430.545 1718
-107.238 -430.545 1718
-103.25 -431.046 1720
-99.1373 -431.046 1720
-95.0242 -431.046 1720
-91.0169 -431.548 1722
-86.9495 -431.798 1723
-82.8293 -431.798 1723
-78.7091 -431.798 1723
-74.6755 -432.299 1725
-70.5505 -432.299 1725
-66.4255 -432.299 1725
-62.3005 -432.299 1725
-58.1755 -432.299 1725
-54.1131 -432.801 1727
-49.9833 -432.801 1727
-45.8536 -432.801 1727
-41.7238 -432.801 1727
-37.594 -432.801 1727
-33.4642 -432.801 1727
-29.3344 -432.801 1727
-25.263 -433.803 1731
-21.1237 -433.803 1731
-16.9844 -433.803 1731
-12.8153 -432.801 1727
317.106 -952.312 3800
326.193 -952.312 3800
337.574 -958.828 3826
346.723 -958.828 3826
355.872 -958.828 3826
365.021 -958.828 3826
372.508 -954.567 3809
386.926 -967.85 3862
398.008 -972.361 3880
407.286 -972.361 3880
416.564 -972.361 3880
425.843 -972.361 3880
435.121 -972.361 3880
441.307 -965.594 3853
450.52 -965.594 3853
459.734 -965.594 3853
468.948 -965.594 3853
475.928 -961.083 3835
481.81 -954.567 3809
490.918 -954.567 3809
500.027 -954.567 3809
505.66 -948.052 3783
511.168 -941.536 3757
516.691 -935.271 3732
523.362 -931.261 3716
532.248 -931.261 3716
536.329 -922.991 3683
1684.62 -981.383 3916
1697.87 -983.638 3925
1707.26 -983.638 3925
1724.95 -988.4 3944
1734.39 -988.4 3944
1743.82 -988.4 3944
1753.25 -988.4 3944
1758.66 -986.144 3935
1793.23 -1000.18 3991
1802.77 -1000.18 3991
1812.32 -1000.18 3991
1826.43 -1002.68 4001
1844.71 -1007.45 4020
1867.7 -1014.71 4049
1877.38 -1014.71 4049
1896.39 -1019.73 4069
1906.12 -1019.73 4069
1915.85 -1019.73 4069
1925.58 -1019.73 4069
1930.55 -1017.22 4059
1921.62 -1007.45 4020
-2510.95 -914.168 3683
-2502.14 -914.168 3683
-2504.17 -918.139 3699
-2495.32 -918.139 3699
-2486.48 -918.139 3699
-2477.63 -918.139 3699
-2441.42 -907.963 3658
-2417.38 -902.254 3635
-2408.69 -902.254 3635
-2400 -902.254 3635
-2380.78 -898.282 3619
-2366.88 -896.297 3611
-2353.02 -894.311 3603
-2344.4 -894.311 3603
-2330.6 -892.325 3595
-2307.15 -886.616 3572
-2294.1 -884.879 3565
-2285.58 -884.879 3565
-2271.94 -882.893 3557
-2263.44 -882.893 3557
-2231.48 -873.709 3520
-2223.06 -873.709 3520
-2205.2 -869.986 3505
-2178.65 -862.788 3476
-646.421 -468.874 1889
-641.904 -468.874 1889
-639.074 -470.115 1894
-634.545 -470.115 1894
-630.016 -470.115 1894
-623.836 -468.874 1889
-619.318 -468.874 1889
-612.198 -466.888 1881
-604.792 -464.655 1872
-596.467 -461.676 1860
-592.019 -461.676 1860
-586.94 -461.18 1858
-581.243 -460.187 1854
-575.565 -459.194 1850
-571.141 -459.194 1850
-563.347 -456.464 1839
-557.126 -454.974 1833
-549.727 -452.492 1823
-544.171 -451.499 1819
-539.821 -451.499 1819
-532.528 -449.017 1809
-524.406 -445.79 1796
-516.636 -442.812 1784
-512.37 -442.812 1784
-503.832 -439.089 1769
-496.495 -436.358 1758
-489.771 -434.124 1749
-485.589 -434.124 1749
-478.378 -431.394 1738
-473.131 -430.401 1734
-468.173 -429.657 1731
-462.425 -428.167 1725
-458.3 -428.167 1725
-453.649 -427.671 1723
-449.268 -427.423 1722
-444.633 -426.926 1720
-440.52 -426.926 1720
-436.407 -426.926 1720
-431.791 -426.43 1718
-427.683 -426.43 1718
-423.574 -426.43 1718
-418.978 -425.933 1716
-414.874 -425.933 1716
-410.053 -425.189 1713
-405.956 -425.189 1713
-401.86 -425.189 1713
-397.299 -424.692 1711
-392.748 -424.196 1709
-388.662 -424.196 1709
-384.35 -423.948 1708
-380.265 -423.948 1708
-375.741 -423.451 1706
-371.661 -423.451 1706
-367.151 -422.955 1704
-362.65 -422.458 1702
-358.58 -422.458 1702
-354.51 -422.458 1702
-350.44 -422.458 1702
-346.166 -422.21 1701
-341.696 -421.714 1699
-337.236 -421.217 1697
-333.178 -421.217 1697
-328.15 -419.976 1692
-324.104 -419.976 1692
-319.491 -419.232 1689
-315.452 -419.232 1689
-311.413 -419.232 1689
-307.01 -418.735 1687
-302.617 -418.239 1685
-298.587 -418.239 1685
-294.558 -418.239 1685
-290.873 -418.735 1687
-286.839 -418.735 1687
-282.805 -418.735 1687
-278.771 -418.735 1687
-275.063 -419.232 1689
-271.024 -419.232 1689
-266.985 -419.232 1689
-262.946 -419.232 1689
-258.907 -419.232 1689
-254.868 -419.232 1689
-251.275 -419.976 1692
-247.229 -419.976 1692
-243.47 -420.473 1694
-239.56 -420.721 1695
-235.785 -421.217 1697
-231.727 -421.217 1697
-228.206 -422.21 1701
-224.533 -422.955 1704
-220.458 -422.955 1704
-216.384 -422.955 1704
-212.807 -423.948 1708
-208.723 -423.948 1708
-204.758 -424.196 1709
-200.906 -424.692 1711
-196.815 -424.692 1711
-192.723 -424.692 1711
-188.852 -425.189 1713
-184.756 -425.189 1713
-180.66 -425.189 1713
-176.564 -425.189 1713
-172.669 -425.685 1715
-168.666 -425.933 1716
-164.562 -425.933 1716
-160.646 -426.43 1718
-156.538 -426.43 1718
-152.429 -426.43 1718
-148.321 -426.43 1718
-144.213 -426.43 1718
-140.105 -426.43 1718
-135.996 -426.43 1718
-131.888 -426.43 1718
-127.78 -426.43 1718
-123.672 -426.43 1718
-119.563 -426.43 1718
-115.455 -426.43 1718
-111.347 -426.43 1718
-107.238 -426.43 1718
-103.25 -426.926 1720
-99.1373 -426.926 1720
-95.0242 -426.926 1720
-91.0169 -427.423 1722
-86.9495 -427.671 1723
-82.8293 -427.671 1723
-78.7091 -427.671 1723
-74.6755 -428.167 1725
-70.5505 -428.167 1725
-66.4255 -428.167 1725
-62.3005 -428.167 1725
-58.1755 -428.167 1725
-54.1131 -428.664 1727
-49.9833 -428.664 1727
-45.8536 -428.664 1727
-41.7238 -428.664 1727
-37.594 -428.664 1727
-33.4642 -428.664 1727
-29.3344 -428.664 1727
-25.263 -429.657 1731
-21.1237 -429.657 1731
-16.9844 -429.657 1731
-12.8153 -428.664 1727
337.574 -949.663 3826
346.723 -949.663 3826
355.872 -949.663 3826
365.021 -949.663 3826
372.508 -945.443 3809
386.926 -958.598 3862
398.008 -963.066 3880
407.286 -963.066 3880
416.564 -963.066 3880
425.843 -963.066 3880
435.121 -963.066 3880
441.307 -956.364 3853
449.468 -954.13 3844
455.558 -947.677 3818
464.688 -947.677 3818
473.818 -947.677 3818
480.671 -943.209 3800
487.567 -938.989 3783
493.2 -932.536 3757
502.184 -932.536 3757
507.767 -926.331 3732
514.476 -922.359 3716
518.715 -914.168 3683
527.522 -914.168 3683
532.688 -907.963 3658
1684.62 -972.002 3916
1697.87 -974.236 3925
1707.26 -974.236 3925
1724.95 -978.952 3944
1734.39 -978.952 3944
1743.82 -978.952 3944
1753.25 -978.952 3944
1758.66 -976.718 3935
1793.23 -990.618 3991
1802.77 -990.618 3991
1812.32 -990.618 3991
1826.43 -993.1 4001
1844.71 -997.816 4020
1867.7 -1005.01 4049
1877.38 -1005.01 4049
1896.39 -1009.98 4069
1906.12 -1009.98 4069
1915.85 -1009.98 4069
1925.58 -1009.98 4069
1912 -997.816 4020
1921.62 -997.816 4020
-2493.91 -899.2 3658
-2485.16 -899.2 3658
-2482.51 -901.412 3667
-2479.13 -903.379 3675
-2470.35 -903.379 3675
-2461.56 -903.379 3675
-2447.43 -901.412 3667
-2432.68 -899.2 3658
-2423.93 -899.2 3658
-2400 -893.546 3635
-2380.78 -889.613 3619
-2366.88 -887.647 3611
-2353.02 -885.68 3603
-2344.4 -885.68 3603
-2326.06 -881.993 3588
-2307.15 -878.06 3572
-2294.1 -876.339 3565
-2285.58 -876.339 3565
-2271.94 -874.372 3557
-2263.44 -874.372 3557
-2221.97 -861.59 3505
-2213.59 -861.59 3505
-2200.17 -859.623 3497
-2178.65 -854.461 3476
-646.421 -464.349 1889
-641.904 -464.349 1889
-637.387 -464.349 1889
-632.87 -464.349 1889
-628.353 -464.349 1889
-622.515 -463.366 1885
-618.007 -463.366 1885
-610.896 -461.399 1877
-604.792 -460.17 1872
-595.826 -456.729 1858
-591.383 -456.729 1858
-585.676 -455.745 1854
-580.616 -455.254 1852
-575.565 -454.762 1850
-571.141 -454.762 1850
-563.347 -452.058 1839
-555.302 -449.108 1827
-549.727 -448.125 1823
-542.975 -446.159 1815
-538.634 -446.159 1815
-532.528 -444.684 1809
-524.406 -441.488 1796
-516.057 -438.047 1782
-511.796 -438.047 1782
-503.262 -434.359 1767
-495.93 -431.655 1756
-488.651 -428.951 1745
-484.478 -428.951 1745
-477.828 -426.739 1736
-472.312 -425.51 1731
-467.091 -424.527 1727
-461.889 -423.543 1723
-457.769 -423.543 1723
-453.385 -423.298 1722
-448.746 -422.806 1720
-444.116 -422.314 1718
-440.007 -422.314 1718
-435.899 -422.314 1718
-431.791 -422.314 1718
-427.185 -421.823 1716
-423.081 -421.823 1716
-418.734 -421.577 1715
-414.149 -421.085 1713
-410.053 -421.085 1713
-405.956 -421.085 1713
-401.391 -420.594 1711
-396.835 -420.102 1709
-392.518 -419.856 1708
-388.434 -419.856 1708
-383.9 -419.364 1706
-379.82 -419.364 1706
-374.86 -418.381 1702
-370.79 -418.381 1702
-366.72 -418.381 1702
-362.437 -418.135 1701
-358.369 -418.135 1701
-354.301 -418.135 1701
-350.234 -418.135 1701
-345.759 -417.644 1699
-341.294 -417.152 1697
-336.64 -416.415 1694
-332.589 -416.415 1694
-327.762 -415.431 1690
-323.529 -415.186 1689
-319.112 -414.694 1687
-315.078 -414.694 1687
-311.044 -414.694 1687
-306.282 -413.711 1683
-302.257 -413.711 1683
-298.233 -413.711 1683
-294.208 -413.711 1683
-290.529 -414.202 1685
-286.499 -414.202 1685
-282.805 -414.694 1687
-278.771 -414.694 1687
-274.737 -414.694 1687
-270.703 -414.694 1687
-266.669 -414.694 1687
-262.634 -414.694 1687
-258.6 -414.694 1687
-254.868 -415.186 1689
-251.275 -415.923 1692
-247.229 -415.923 1692
-243.47 -416.415 1694
-239.56 -416.66 1695
-235.785 -417.152 1697
-231.727 -417.152 1697
-227.937 -417.644 1699
-224.27 -418.381 1702
-220.458 -418.873 1704
-216.384 -418.873 1704
-212.807 -419.856 1708
-208.723 -419.856 1708
-204.758 -420.102 1709
-200.906 -420.594 1711
-196.815 -420.594 1711
-192.723 -420.594 1711
-188.852 -421.085 1713
-184.756 -421.085 1713
-180.66 -421.085 1713
-176.564 -421.085 1713
-172.669 -421.577 1715
-168.666 -421.823 1716
-164.562 -421.823 1716
-160.646 -422.314 1718
-156.538 -422.314 1718
-152.429 -422.314 1718
-148.321 -422.314 1718
-144.213 -422.314 1718
-140.105 -422.314 1718
-135.996 -422.314 1718
-131.888 -422.314 1718
-127.78 -422.314 1718
-123.672 -422.314 1718
-119.563 -422.314 1718
-115.455 -422.314 1718
-111.347 -422.314 1718
-107.238 -422.314 1718
-103.25 -422.806 1720
-99.1373 -422.806 1720
-95.0242 -422.806 1720
-91.0169 -423.298 1722
-86.9495 -423.543 1723
-82.8293 -423.543 1723
-78.7091 -423.543 1723
-74.6755 -424.035 1725
-70.5505 -424.035 1725
-66.4255 -424.035 1725
-62.3005 -424.035 1725
-58.1755 -424.035 1725
-54.0505 -424.035 1725
-49.9833 -424.527 1727
-45.8536 -424.527 1727
-41.7238 -424.527 1727
-37.5505 -424.035 1725
-33.4642 -424.527 1727
-29.3344 -424.527 1727
-25.263 -425.51 1731
-21.1237 -425.51 1731
-16.9844 -425.51 1731
-12.8153 -424.527 1727
337.574 -940.497 3826
346.723 -940.497 3826
355.872 -940.497 3826
365.021 -940.497 3826
372.508 -936.318 3809
386.926 -949.347 3862
398.008 -953.771 3880
407.286 -953.771 3880
416.564 -953.771 3880
425.843 -953.771 3880
435.121 -953.771 3880
441.307 -947.134 3853
447.363 -940.497 3826
455.558 -938.531 3818
464.688 -938.531 3818
472.701 -936.318 3809
479.659 -932.14 3792
486.407 -927.715 3774
492.15 -921.569 3749
501.115 -921.569 3749
506.679 -915.424 3724
509.907 -905.345 3683
518.715 -905.345 3683
527.522 -905.345 3683
531.523 -897.233 3650
1684.62 -962.621 3916
1697.87 -964.833 3925
1707.26 -964.833 3925
1724.95 -969.504 3944
1734.39 -969.504 3944
1743.82 -969.504 3944
1753.25 -969.504 3944
1758.66 -967.291 3935
1793.23 -981.057 3991
1802.77 -981.057 3991
1812.32 -981.057 3991
1826.43 -983.515 4001
1844.71 -988.186 4020
1867.7 -995.315 4049
1877.38 -995.315 4049
1896.39 -1000.23 4069
1906.12 -1000.23 4069
1915.85 -1000.23 4069
1925.58 -1000.23 4069
1912 -988.186 4020
1921.62 -988.186 4020
-2493.91 -890.437 3658
-2485.16 -890.437 3658
-2482.51 -892.628 3667
-2479.13 -894.575 3675
-2470.35 -894.575 3675
-2461.56 -894.575 3675
-2447.43 -892.628 3667
-2432.68 -890.437 3658
-2423.93 -890.437 3658
-2400 -884.839 3635
-2380.78 -880.944 3619
-2366.88 -878.996 3611
-2353.02 -877.049 3603
-2344.4 -877.049 3603
-2326.06 -873.398 3588
-2307.15 -869.503 3572
-2294.1 -867.799 3565
-2285.58 -867.799 3565
-2271.94 -865.852 3557
-2263.44 -865.852 3557
-2216.9 -851.246 3497
-2208.53 -851.246 3497
-2195.77 -849.542 3490
-2178.65 -846.134 3476
-646.421 -459.824 1889
-641.904 -459.824 1889
-637.387 -459.824 1889
-632.2 -459.337 1887
-627.688 -459.337 1887
-621.854 -458.363 1883
-617.351 -458.363 1883
-610.896 -456.903 1877
-604.146 -455.199 1870
-595.826 -452.278 1858
-591.383 -452.278 1858
-585.044 -450.817 1852
-579.989 -450.33 1850
-574.631 -449.6 1847
-570.215 -449.6 1847
-562.735 -447.166 1837
-555.302 -444.732 1827
-549.727 -443.758 1823
-542.975 -441.811 1815
-538.634 -441.811 1815
-531.939 -439.863 1807
-523.822 -436.699 1794
-515.478 -433.291 1780
-511.221 -433.291 1780
-503.262 -430.126 1767
-494.801 -426.475 1752
-488.091 -424.284 1743
-483.923 -424.284 1743
-476.727 -421.607 1732
-471.221 -420.39 1727
-466.009 -419.416 1723
-461.621 -419.172 1722
-457.503 -419.172 1722
-452.332 -418.199 1718
-447.702 -417.712 1716
-443.599 -417.712 1716
-439.495 -417.712 1716
-435.392 -417.712 1716
-431.037 -417.469 1715
-426.936 -417.469 1715
-422.835 -417.469 1715
-418.245 -416.982 1713
-414.149 -416.982 1713
-409.574 -416.495 1711
-405.482 -416.495 1711
-400.922 -416.008 1709
-396.603 -415.765 1708
-392.059 -415.278 1706
-387.979 -415.278 1706
-383.45 -414.791 1704
-379.375 -414.791 1704
-374.86 -414.304 1702
-370.79 -414.304 1702
-366.504 -414.061 1701
-362.01 -413.574 1699
-357.948 -413.574 1699
-353.885 -413.574 1699
-349.41 -413.087 1697
-345.352 -413.087 1697
-340.892 -412.6 1695
-336.242 -411.87 1692
-332.196 -411.87 1692
-327.568 -411.14 1689
-323.146 -410.653 1687
-318.734 -410.166 1685
-314.705 -410.166 1685
-310.306 -409.679 1683
-306.282 -409.679 1683
-302.078 -409.436 1682
-298.056 -409.436 1682
-294.033 -409.436 1682
-290.184 -409.679 1683
-286.159 -409.679 1683
-282.135 -409.679 1683
-278.11 -409.679 1683
-274.411 -410.166 1685
-270.382 -410.166 1685
-266.352 -410.166 1685
-262.323 -410.166 1685
-258.294 -410.166 1685
-254.566 -410.653 1687
-250.978 -411.383 1690
-246.936 -411.383 1690
-243.182 -411.87 1692
-239.419 -412.357 1694
-235.507 -412.6 1695
-231.454 -412.6 1695
-227.937 -413.574 1699
-224.27 -414.304 1702
-220.458 -414.791 1704
-216.384 -414.791 1704
-212.807 -415.765 1708
-208.723 -415.765 1708
-204.758 -416.008 1709
-200.906 -416.495 1711
-196.815 -416.495 1711
-192.723 -416.495 1711
-188.632 -416.495 1711
-184.756 -416.982 1713
-180.66 -416.982 1713
-176.564 -416.982 1713
-172.669 -417.469 1715
-168.666 -417.712 1716
-164.562 -417.712 1716
-160.646 -418.199 1718
-156.538 -418.199 1718
-152.429 -418.199 1718
-148.321 -418.199 1718
-144.213 -418.199 1718
-140.105 -418.199 1718
-135.996 -418.199 1718
-131.888 -418.199 1718
-127.78 -418.199 1718
-123.815 -418.686 1720
-119.702 -418.686 1720
-115.589 -418.686 1720
-111.347 -418.199 1718
-107.238 -418.199 1718
-103.25 -418.686 1720
-99.1373 -418.686 1720
-95.0242 -418.686 1720
-91.0169 -419.172 1722
-86.9495 -419.416 1723
-82.8293 -419.416 1723
-78.7091 -419.416 1723
-74.5889 -419.416 1723
-70.5505 -419.903 1725
-66.4255 -419.903 1725
-62.3005 -419.903 1725
-58.108 -419.416 1723
-54.0505 -419.903 1725
-49.9255 -419.903 1725
-45.8005 -419.903 1725
-41.6755 -419.903 1725
-37.5505 -419.903 1725
-33.4642 -420.39 1727
-29.3344 -420.39 1727
-25.2047 -420.39 1727
-21.0749 -420.39 1727
-16.9451 -420.39 1727
-12.8153 -420.39 1727
337.574 -931.332 3826
346.723 -931.332 3826
355.872 -931.332 3826
364.258 -929.385 3818
372.508 -927.194 3809
386.926 -940.095 3862
398.008 -944.477 3880
407.286 -944.477 3880
416.564 -944.477 3880
423.867 -940.095 3862
433.102 -940.095 3862
439.245 -933.523 3835
447.363 -931.332 3826
456.513 -931.332 3826
465.662 -931.332 3826
470.591 -923.056 3792
479.659 -923.056 3792
484.216 -914.536 3757
489.918 -908.45 3732
498.843 -908.45 3732
506.679 -906.503 3724
509.907 -896.523 3683
515.194 -890.437 3658
523.941 -890.437 3658
1684.62 -953.24 3916
1702.2 -957.865 3935
1711.61 -957.865 3935
1724.95 -960.056 3944
1734.39 -960.056 3944
1743.82 -960.056 3944
1753.25 -960.056 3944
1762.68 -960.056 3944
1789.19 -969.306 3982
1807.29 -973.931 4001
1816.86 -973.931 4001
1826.43 -973.931 4001
1840.12 -976.122 4010
1863.09 -983.181 4039
1872.75 -983.181 4039
1887.07 -985.615 4049
1896.75 -985.615 4049
1906.43 -985.615 4049
1916.11 -985.615 4049
1912 -978.556 4020
1921.62 -978.556 4020
3118.19 -995.352 4089
3127.96 -995.352 4089
-2505.5 -885.772 3675
-2496.71 -885.772 3675
-2493.34 -887.7 3683
-2495.32 -891.557 3699
-2486.48 -891.557 3699
-2477.63 -891.557 3699
-2458.11 -887.7 3683
-2432.68 -881.674 3658
-2423.93 -881.674 3658
-2404.62 -877.818 3642
-2391.3 -876.131 3635
-2372.12 -872.274 3619
-2353.02 -868.418 3603
-2344.4 -868.418 3603
-2330.6 -866.49 3595
-2317.48 -864.803 3588
-2298.61 -860.946 3572
-2290.07 -860.946 3572
-2277.05 -859.259 3565
-2263.44 -857.331 3557
-2245.42 -853.715 3542
-2236.95 -853.715 3542
-2200.17 -842.869 3497
-2183.03 -839.495 3483
-648.133 -456.504 1894
-643.603 -456.504 1894
-639.074 -456.504 1894
-632.87 -455.299 1889
-627.022 -454.335 1885
-621.194 -453.371 1881
-616.696 -453.371 1881
-609.919 -451.683 1874
-602.853 -449.755 1866
-595.826 -447.827 1858
-591.383 -447.827 1858
-585.044 -446.381 1852
-579.048 -445.176 1847
-573.387 -444.212 1843
-568.98 -444.212 1843
-562.122 -442.283 1835
-555.302 -440.355 1827
-549.124 -438.909 1821
-542.975 -437.463 1815
-538.634 -437.463 1815
-531.939 -435.535 1807
-523.822 -432.401 1794
-515.188 -428.786 1779
-510.934 -428.786 1779
-502.123 -424.929 1763
-494.518 -422.037 1751
-487.531 -419.627 1741
-483.367 -419.627 1741
-476.727 -417.458 1732
-471.221 -416.253 1727
-466.009 -415.288 1723
-460.549 -414.083 1718
-456.44 -414.083 1718
-451.806 -413.601 1716
-447.702 -413.601 1716
-443.34 -413.36 1715
-439.239 -413.36 1715
-435.138 -413.36 1715
-431.037 -413.36 1715
-426.438 -412.878 1713
-422.342 -412.878 1713
-418.245 -412.878 1713
-413.666 -412.396 1711
-409.095 -411.914 1709
-405.009 -411.914 1709
-400.687 -411.673 1708
-396.603 -411.673 1708
-391.599 -410.709 1704
-387.524 -410.709 1704
-383.45 -410.709 1704
-378.93 -410.227 1702
-374.639 -409.986 1701
-370.572 -409.986 1701
-366.073 -409.504 1699
-362.01 -409.504 1699
-357.526 -409.022 1697
-353.468 -409.022 1697
-348.998 -408.54 1695
-344.945 -408.54 1695
-340.691 -408.299 1694
-335.845 -407.335 1690
-331.804 -407.335 1690
-327.568 -407.094 1689
-323.146 -406.611 1687
-318.734 -406.129 1685
-314.705 -406.129 1685
-310.306 -405.647 1683
-306.1 -405.406 1682
-302.078 -405.406 1682
-298.056 -405.406 1682
-294.033 -405.406 1682
-290.011 -405.406 1682
-285.989 -405.406 1682
-281.967 -405.406 1682
-277.945 -405.406 1682
-274.085 -405.647 1683
-270.061 -405.647 1683
-266.036 -405.647 1683
-262.012 -405.647 1683
-257.987 -405.647 1683
-254.264 -406.129 1685
-250.829 -407.094 1689
-246.79 -407.094 1689
-242.895 -407.335 1690
-239.419 -408.299 1694
-235.507 -408.54 1695
-231.454 -408.54 1695
-227.669 -409.022 1697
-224.138 -409.986 1701
-220.458 -410.709 1704
-216.384 -410.709 1704
-212.558 -411.191 1706
-208.723 -411.673 1708
-204.758 -411.914 1709
-200.906 -412.396 1711
-196.815 -412.396 1711
-192.723 -412.396 1711
-188.632 -412.396 1711
-184.756 -412.878 1713
-180.66 -412.878 1713
-176.564 -412.878 1713
-172.669 -413.36 1715
-168.666 -413.601 1716
-164.562 -413.601 1716
-160.646 -414.083 1718
-156.538 -414.083 1718
-152.429 -414.083 1718
-148.321 -414.083 1718
-144.213 -414.083 1718
-140.105 -414.083 1718
-135.996 -414.083 1718
-131.888 -414.083 1718
-127.78 -414.083 1718
-123.815 -414.565 1720
-119.702 -414.565 1720
-115.589 -414.565 1720
-111.347 -414.083 1718
-107.238 -414.083 1718
-103.25 -414.565 1720
-99.1373 -414.565 1720
-95.0242 -414.565 1720
-91.0169 -415.047 1722
-86.8991 -415.047 1722
-82.7812 -415.047 1722
-78.7091 -415.288 1723
-74.5889 -415.288 1723
-70.4687 -415.288 1723
-66.3484 -415.288 1723
-62.2282 -415.288 1723
-58.0743 -415.047 1722
-53.9565 -415.047 1722
-49.8676 -415.288 1723
-45.7474 -415.288 1723
-41.6272 -415.288 1723
-37.5069 -415.288 1723
-33.4642 -416.253 1727
-29.3344 -416.253 1727
-25.2047 -416.253 1727
-21.0749 -416.253 1727
-16.9451 -416.253 1727
-12.8005 -415.77 1725
309.345 -893.485 3707
318.21 -893.485 3707
334.574 -913.972 3792
343.642 -913.972 3792
352.71 -913.972 3792
361.778 -913.972 3792
370.845 -913.972 3792
382.518 -920.239 3818
396.162 -930.844 3862
405.397 -930.844 3862
414.632 -930.844 3862
420.904 -924.336 3835
430.074 -924.336 3835
438.214 -922.167 3826
447.363 -922.167 3826
456.513 -922.167 3826
465.662 -922.167 3826
470.591 -913.972 3792
479.659 -913.972 3792
484.216 -905.536 3757
489.918 -899.51 3732
498.843 -899.51 3732
506.679 -897.582 3724
509.907 -887.7 3683
1692.79 -948.439 3935
1702.2 -948.439 3935
1711.61 -948.439 3935
1728.89 -952.777 3953
1738.34 -952.777 3953
1747.8 -952.777 3953
1757.25 -952.777 3953
1771.17 -955.188 3963
1789.19 -959.767 3982
1807.29 -964.346 4001
1816.86 -964.346 4001
1826.43 -964.346 4001
1840.12 -966.516 4010
1863.09 -973.505 4039
1872.75 -973.505 4039
1887.07 -975.916 4049
1896.75 -975.916 4049
1906.43 -975.916 4049
1916.11 -975.916 4049
1912 -968.926 4020
1921.62 -968.926 4020
1899.04 -952.777 3953
1908.49 -952.777 3953
3118.19 -985.557 4089
3127.96 -985.557 4089
-2514.29 -876.968 3675
-2505.5 -876.968 3675
-2496.71 -876.968 3675
-2493.34 -878.877 3683
-2495.32 -882.696 3699
-2486.48 -882.696 3699
-2477.63 -882.696 3699
-2458.11 -878.877 3683
-2432.68 -872.912 3658
-2423.93 -872.912 3658
-2409.9 -871.003 3650
-2391.3 -867.423 3635
-2372.12 -863.605 3619
-2358.24 -861.696 3611
-2349.61 -861.696 3611
-2335.79 -859.787 3603
-2322.01 -857.878 3595
-2313.41 -857.878 3595
-2304.81 -857.878 3595
-2296.21 -857.878 3595
-2268.53 -850.719 3565
-2254.93 -848.81 3557
-2246.43 -848.81 3557
-2223.45 -843.321 3534
-2183.03 -831.151 3483
-649.501 -452.921 1898
-644.963 -452.921 1898
-640.424 -452.921 1898
-634.545 -451.967 1894
-627.022 -449.819 1885
-621.194 -448.865 1881
-616.696 -448.865 1881
-609.919 -447.194 1874
-602.853 -445.285 1866
-595.826 -443.376 1858
-591.383 -443.376 1858
-585.044 -441.944 1852
-579.048 -440.751 1847
-573.387 -439.797 1843
-568.98 -439.797 1843
-562.122 -437.888 1835
-555.302 -435.979 1827
-549.124 -434.547 1821
-542.975 -433.115 1815
-538.634 -433.115 1815
-531.939 -431.206 1807
-523.822 -428.104 1794
-515.188 -424.524 1779
-510.934 -424.524 1779
-502.123 -420.706 1763
-494.518 -417.843 1751
-487.531 -415.456 1741
-483.367 -415.456 1741
-476.727 -413.309 1732
-471.221 -412.115 1727
-466.009 -411.161 1723
-460.549 -409.968 1718
-456.44 -409.968 1718
-451.806 -409.491 1716
-447.702 -409.491 1716
-443.34 -409.252 1715
-439.239 -409.252 1715
-435.138 -409.252 1715
-431.037 -409.252 1715
-426.438 -408.775 1713
-422.342 -408.775 1713
-418.245 -408.775 1713
-413.666 -408.297 1711
-409.095 -407.82 1709
-405.009 -407.82 1709
-400.687 -407.582 1708
-396.603 -407.582 1708
-391.599 -406.627 1704
-387.524 -406.627 1704
-383.45 -406.627 1704
-378.93 -406.15 1702
-374.639 -405.911 1701
-370.572 -405.911 1701
-366.073 -405.434 1699
-362.01 -405.434 1699
-357.526 -404.957 1697
-353.468 -404.957 1697
-348.998 -404.479 1695
-344.945 -404.479 1695
-340.691 -404.241 1694
-335.845 -403.286 1690
-331.804 -403.286 1690
-327.568 -403.048 1689
-323.146 -402.57 1687
-318.734 -402.093 1685
-314.705 -402.093 1685
-310.306 -401.616 1683
-306.1 -401.377 1682
-302.078 -401.377 1682
-298.056 -401.377 1682
-294.033 -401.377 1682
-290.011 -401.377 1682
-285.989 -401.377 1682
-281.967 -401.377 1682
-277.945 -401.377 1682
-274.085 -401.616 1683
-270.061 -401.616 1683
-266.036 -401.616 1683
-262.012 -401.616 1683
-257.987 -401.616 1683
-254.264 -402.093 1685
-250.829 -403.048 1689
-246.79 -403.048 1689
-242.895 -403.286 1690
-239.419 -404.241 1694
-235.507 -404.479 1695
-231.454 -404.479 1695
-227.669 -404.957 1697
-224.138 -405.911 1701
-220.458 -406.627 1704
-216.384 -406.627 1704
-212.558 -407.104 1706
-208.723 -407.582 1708
-204.758 -407.82 1709
-200.906 -408.297 1711
-196.815 -408.297 1711
-192.723 -408.297 1711
-188.632 -408.297 1711
-184.756 -408.775 1713
-180.66 -408.775 1713
-176.564 -408.775 1713
-172.769 -409.491 1716
-168.666 -409.491 1716
-164.562 -409.491 1716
-160.646 -409.968 1718
-156.538 -409.968 1718
-152.429 -409.968 1718
-148.321 -409.968 1718
-144.213 -409.968 1718
-140.105 -409.968 1718
-135.996 -409.968 1718
-131.888 -409.968 1718
-127.78 -409.968 1718
-123.815 -410.445 1720
-119.702 -410.445 1720
-115.589 -410.445 1720
-111.347 -409.968 1718
-107.238 -409.968 1718
-103.25 -410.445 1720
-99.1373 -410.445 1720
-95.0242 -410.445 1720
-91.0169 -410.922 1722
-86.8991 -410.922 1722
-82.7812 -410.922 1722
-78.7091 -411.161 1723
-74.5889 -411.161 1723
-70.4687 -411.161 1723
-66.3484 -411.161 1723
-62.2282 -411.161 1723
-58.0743 -410.922 1722
-53.9565 -410.922 1722
-49.8676 -411.161 1723
-45.7474 -411.161 1723
-41.6272 -411.161 1723
-37.5069 -411.161 1723
-33.4642 -412.115 1727
-29.3344 -412.115 1727
-25.2047 -412.115 1727
-21.0749 -412.115 1727
-16.9451 -412.115 1727
-12.8005 -411.638 1725
309.345 -884.605 3707
318.21 -884.605 3707
334.574 -904.888 3792
343.642 -904.888 3792
352.71 -904.888 3792
361.778 -904.888 3792
370.845 -904.888 3792
382.518 -911.093 3818
396.162 -921.592 3862
405.397 -921.592 3862
414.632 -921.592 3862
420.904 -915.149 3835
430.074 -915.149 3835
438.214 -913.002 3826
447.363 -913.002 3826
456.513 -913.002 3826
465.662 -913.002 3826
470.591 -904.888 3792
479.659 -904.888 3792
484.216 -896.536 3757
489.918 -890.57 3732
498.843 -890.57 3732
506.679 -888.661 3724
509.907 -878.877 3683
1692.79 -939.012 3935
1702.2 -939.012 3935
1711.61 -939.012 3935
1728.89 -943.308 3953
1738.34 -943.308 3953
1747.8 -943.308 3953
1757.25 -943.308 3953
1771.17 -945.694 3963
1784.69 -947.842 3972
1807.29 -954.762 4001
1816.86 -954.762 4001
1826.43 -954.762 4001
1840.12 -956.91 4010
1858.94 -961.682 4030
1868.57 -961.682 4030
1882.41 -963.83 4039
1892.06 -963.83 4039
1901.72 -963.83 4039
1911.38 -963.83 4039
1912 -959.296 4020
1916.84 -956.91 4010
1899.04 -943.308 3953
1908.49 -943.308 3953
3118.19 -975.762 4089
3127.96 -975.762 4089
-2514.29 -868.165 3675
-2505.5 -868.165 3675
-2496.71 -868.165 3675
-2493.34 -870.055 3683
-2495.32 -873.835 3699
-2486.48 -873.835 3699
-2477.63 -873.835 3699
-2458.11 -870.055 3683
-2432.68 -864.149 3658
-2423.93 -864.149 3658
-2409.9 -862.259 3650
-2391.3 -858.715 3635
-2372.12 -854.936 3619
-2358.24 -853.046 3611
-2349.61 -853.046 3611
-2340.97 -853.046 3611
-2327.17 -851.156 3603
-2313.41 -849.266 3595
-2304.81 -849.266 3595
-2296.21 -849.266 3595
-2283.16 -847.612 3588
-2254.93 -840.289 3557
-2246.43 -840.289 3557
-2228.48 -836.746 3542
-2183.03 -822.808 3483
-649.501 -448.375 1898
-644.963 -448.375 1898
-640.424 -448.375 1898
-634.545 -447.43 1894
-626.357 -444.831 1883
-621.194 -444.359 1881
-616.696 -444.359 1881
-609.919 -442.705 1874
-602.853 -440.815 1866
-595.826 -438.925 1858
-591.383 -438.925 1858
-583.465 -436.327 1847
-577.794 -435.382 1843
-572.765 -434.909 1841
-565.892 -433.019 1833
-561.509 -433.019 1833
-554.087 -430.657 1823
-548.521 -429.712 1819
-541.778 -427.822 1811
-537.447 -427.822 1811
-531.056 -426.169 1804
-523.238 -423.334 1792
-514.609 -419.79 1777
-510.36 -419.79 1777
-501.838 -416.247 1762
-493.953 -413.176 1749
-487.531 -411.286 1741
-483.367 -411.286 1741
-476.727 -409.16 1732
-470.675 -407.506 1725
-466.009 -407.034 1723
-460.549 -405.852 1718
-456.44 -405.852 1718
-451.806 -405.38 1716
-447.441 -405.144 1715
-442.823 -404.671 1713
-438.727 -404.671 1713
-434.631 -404.671 1713
-430.534 -404.671 1713
-426.438 -404.671 1713
-422.342 -404.671 1713
-417.757 -404.199 1711
-413.666 -404.199 1711
-408.856 -403.49 1708
-404.772 -403.49 1708
-400.687 -403.49 1708
-396.138 -403.017 1706
-391.599 -402.545 1704
-387.524 -402.545 1704
-383 -402.073 1702
-378.707 -401.836 1701
-374.199 -401.364 1699
-370.136 -401.364 1699
-366.073 -401.364 1699
-361.584 -400.891 1697
-357.526 -400.891 1697
-353.468 -400.891 1697
-348.998 -400.419 1695
-344.742 -400.183 1694
-340.288 -399.71 1692
-335.646 -399.001 1689
-331.607 -399.001 1689
-327.181 -398.529 1687
-322.763 -398.057 1685
-318.356 -397.584 1683
-314.331 -397.584 1683
-310.306 -397.584 1683
-306.1 -397.348 1682
-302.078 -397.348 1682
-298.056 -397.348 1682
-294.033 -397.348 1682
-290.011 -397.348 1682
-285.989 -397.348 1682
-281.967 -397.348 1682
-277.945 -397.348 1682
-273.923 -397.348 1682
-269.9 -397.348 1682
-266.036 -397.584 1683
-262.012 -397.584 1683
-257.987 -397.584 1683
-254.264 -398.057 1685
-250.532 -398.529 1687
-246.498 -398.529 1687
-242.751 -399.001 1689
-239.419 -400.183 1694
-235.368 -400.183 1694
-231.317 -400.183 1694
-227.669 -400.891 1697
-224.138 -401.836 1701
-220.2 -402.073 1702
-216.13 -402.073 1702
-212.558 -403.017 1706
-208.723 -403.49 1708
-204.758 -403.726 1709
-200.906 -404.199 1711
-196.815 -404.199 1711
-192.723 -404.199 1711
-188.632 -404.199 1711
-184.756 -404.671 1713
-180.66 -404.671 1713
-176.564 -404.671 1713
-172.769 -405.38 1716
-168.666 -405.38 1716
-164.562 -405.38 1716
-160.459 -405.38 1716
-156.538 -405.852 1718
-152.429 -405.852 1718
-148.321 -405.852 1718
-144.213 -405.852 1718
-140.105 -405.852 1718
-135.996 -405.852 1718
-131.888 -405.852 1718
-127.78 -405.852 1718
-123.672 -405.852 1718
-119.563 -405.852 1718
-115.455 -405.852 1718
-111.347 -405.852 1718
-107.238 -405.852 1718
-103.13 -405.852 1718
-99.022 -405.852 1718
-95.0242 -406.325 1720
-91.0169 -406.797 1722
-86.8991 -406.797 1722
-82.7812 -406.797 1722
-78.7091 -407.034 1723
-74.5889 -407.034 1723
-70.4687 -407.034 1723
-66.3484 -407.034 1723
-62.2282 -407.034 1723
-58.0743 -406.797 1722
-53.9565 -406.797 1722
-49.8676 -407.034 1723
-45.7474 -407.034 1723
-41.6272 -407.034 1723
-37.5069 -407.034 1723
-33.4642 -407.978 1727
-29.3344 -407.978 1727
-25.2047 -407.978 1727
-21.0749 -407.978 1727
-16.9451 -407.978 1727
-12.7856 -407.034 1723
309.345 -875.724 3707
318.21 -875.724 3707
327.868 -877.851 3716
337.48 -879.74 3724
346.385 -879.74 3724
355.29 -879.74 3724
364.978 -881.63 3732
378.11 -891.552 3774
388.981 -895.804 3792
398.049 -895.804 3792
407.117 -895.804 3792
418.05 -899.82 3809
427.159 -899.82 3809
436.267 -899.82 3809
445.376 -899.82 3809
454.484 -899.82 3809
463.593 -899.82 3809
470.591 -895.804 3792
479.659 -895.804 3792
482.025 -883.52 3740
489.918 -881.63 3732
498.843 -881.63 3732
505.59 -877.851 3716
1704.83 -936.201 3963
1718.2 -938.327 3972
1727.7 -938.327 3972
1737.2 -938.327 3972
1742.74 -936.201 3963
1752.22 -936.201 3963
1761.7 -936.201 3963
1775.19 -938.327 3972
1784.69 -938.327 3972
1798.71 -940.689 3982
1808.23 -940.689 3982
1817.75 -940.689 3982
1835.99 -945.178 4001
1849.71 -947.304 4010
1859.3 -947.304 4010
1878.21 -952.028 4030
1887.85 -952.028 4030
1897.49 -952.028 4030
1902.39 -949.666 4020
1907.25 -947.304 4010
1912.53 -945.178 4001
1899.04 -933.838 3953
1908.49 -933.838 3953
3118.19 -965.966 4089
3127.96 -965.966 4089
-2514.29 -859.361 3675
-2505.5 -859.361 3675
-2496.71 -859.361 3675
-2493.34 -861.232 3683
-2495.32 -864.974 3699
-2486.48 -864.974 3699
-2477.63 -864.974 3699
-2458.11 -861.232 3683
-2432.68 -855.386 3658
-2423.93 -855.386 3658
-2409.9 -853.515 3650
-2391.3 -850.008 3635
-2372.12 -846.266 3619
-2358.24 -844.396 3611
-2349.61 -844.396 3611
-2340.97 -844.396 3611
-2327.17 -842.525 3603
-2313.41 -840.654 3595
-2304.81 -840.654 3595
-2296.21 -840.654 3595
-2283.16 -839.017 3588
-2254.93 -831.768 3557
-2246.43 -831.768 3557
-2228.48 -828.261 3542
-663.089 -446.868 1911
-658.52 -446.868 1911
-653.95 -446.868 1911
-647.001 -445.231 1904
-642.448 -445.231 1904
-635.885 -443.828 1898
-626.357 -440.32 1883
-621.854 -440.32 1883
-617.351 -440.32 1883
-610.896 -438.917 1877
-603.5 -436.813 1868
-595.184 -434.007 1856
-590.746 -434.007 1856
-582.201 -430.967 1843
-577.167 -430.499 1841
-570.898 -429.096 1835
-565.275 -428.161 1831
-560.897 -428.161 1831
-553.479 -425.822 1821
-547.315 -424.419 1815
-539.983 -422.081 1805
-535.667 -422.081 1805
-529.29 -420.444 1798
-520.902 -417.17 1784
-511.713 -413.195 1767
-507.488 -413.195 1767
-500.129 -410.623 1756
-492.259 -407.583 1743
-486.131 -405.946 1736
-481.979 -405.946 1736
-475.351 -403.841 1727
-470.13 -402.906 1723
-465.198 -402.205 1720
-460.013 -401.269 1716
-455.909 -401.269 1716
-451.542 -401.035 1715
-447.441 -401.035 1715
-442.823 -400.568 1713
-438.727 -400.568 1713
-434.123 -400.1 1711
-430.032 -400.1 1711
-425.94 -400.1 1711
-421.849 -400.1 1711
-417.757 -400.1 1711
-413.182 -399.632 1709
-408.856 -399.398 1708
-404.772 -399.398 1708
-400.218 -398.931 1706
-395.674 -398.463 1704
-391.14 -397.995 1702
-387.07 -397.995 1702
-382.775 -397.762 1701
-378.707 -397.762 1701
-374.199 -397.294 1699
-370.136 -397.294 1699
-365.642 -396.826 1697
-361.158 -396.359 1695
-357.105 -396.359 1695
-353.052 -396.359 1695
-348.792 -396.125 1694
-344.335 -395.657 1692
-339.886 -395.189 1690
-335.249 -394.488 1687
-331.215 -394.488 1687
-326.793 -394.02 1685
-322.38 -393.552 1683
-318.356 -393.552 1683
-314.331 -393.552 1683
-310.122 -393.319 1682
-305.736 -392.851 1680
-301.719 -392.851 1680
-297.701 -392.851 1680
-293.684 -392.851 1680
-289.666 -392.851 1680
-285.649 -392.851 1680
-281.632 -392.851 1680
-277.614 -392.851 1680
-273.923 -393.319 1682
-269.9 -393.319 1682
-265.878 -393.319 1682
-261.856 -393.319 1682
-257.834 -393.319 1682
-254.264 -394.02 1685
-250.532 -394.488 1687
-246.498 -394.488 1687
-242.751 -394.955 1689
-239.419 -396.125 1694
-235.368 -396.125 1694
-231.317 -396.125 1694
-227.669 -396.826 1697
-224.138 -397.762 1701
-220.2 -397.995 1702
-216.13 -397.995 1702
-212.558 -398.931 1706
-208.479 -398.931 1706
-204.758 -399.632 1709
-200.906 -400.1 1711
-196.815 -400.1 1711
-192.723 -400.1 1711
-188.852 -400.568 1713
-184.756 -400.568 1713
-180.66 -400.568 1713
-176.77 -401.035 1715
-172.769 -401.269 1716
-168.666 -401.269 1716
-164.562 -401.269 1716
-160.646 -401.737 1718
-156.538 -401.737 1718
-152.429 -401.737 1718
-148.321 -401.737 1718
-144.213 -401.737 1718
-140.105 -401.737 1718
-135.996 -401.737 1718
-131.888 -401.737 1718
-127.78 -401.737 1718
-123.672 -401.737 1718
-119.563 -401.737 1718
-115.455 -401.737 1718
-111.347 -401.737 1718
-107.238 -401.737 1718
-103.25 -402.205 1720
-99.1373 -402.205 1720
-95.0242 -402.205 1720
-90.9112 -402.205 1720
-86.8991 -402.672 1722
-82.7812 -402.672 1722
-78.6634 -402.672 1722
-74.5889 -402.906 1723
-70.4687 -402.906 1723
-66.3484 -402.906 1723
-62.2282 -402.906 1723
-58.0743 -402.672 1722
-53.9565 -402.672 1722
-49.8676 -402.906 1723
-45.7474 -402.906 1723
-41.6272 -402.906 1723
-37.5069 -402.906 1723
-33.4642 -403.841 1727
-29.3344 -403.841 1727
-25.2047 -403.841 1727
-21.0749 -403.841 1727
-16.9451 -403.841 1727
-12.7856 -402.906 1723
308.01 -863.103 3691
316.836 -863.103 3691
325.663 -863.103 3691
334.489 -863.103 3691
343.315 -863.103 3691
351.378 -861.232 3683
362.533 -866.844 3707
373.1 -870.82 3724
383.647 -874.561 3740
392.59 -874.561 3740
401.534 -874.561 3740
412.343 -878.536 3757
421.327 -878.536 3757
430.311 -878.536 3757
443.388 -886.721 3792
452.456 -886.721 3792
461.524 -886.721 3792
470.591 -886.721 3792
479.659 -886.721 3792
1713.01 -931.15 3982
1722.53 -931.15 3982
1732.05 -931.15 3982
1741.57 -931.15 3982
1751.1 -931.15 3982
1760.62 -931.15 3982
1765.7 -928.812 3972
1788.16 -935.593 4001
1797.72 -935.593 4001
1807.29 -935.593 4001
1808.23 -931.15 3982
1817.75 -931.15 3982
1827.27 -931.15 3982
1840.95 -933.255 3991
1850.49 -933.255 3991
1860.04 -933.255 3991
1869.58 -933.255 3991
1879.12 -933.255 3991
1888.67 -933.255 3991
1889.17 -928.812 3972
1889.59 -924.369 3953
1894.72 -922.264 3944
1904.15 -922.264 3944
-2514.29 -850.558 3675
-2505.5 -850.558 3675
-2496.71 -850.558 3675
-2487.92 -850.558 3675
-2484.53 -852.409 3683
-2475.72 -852.409 3683
-2466.92 -852.409 3683
-2458.11 -852.409 3683
-2432.68 -846.623 3658
-2423.93 -846.623 3658
-2400 -841.3 3635
-2386.04 -839.449 3627
-2372.12 -837.597 3619
-2358.24 -835.745 3611
-2349.61 -835.745 3611
-2340.97 -835.745 3611
-2327.17 -833.894 3603
-2313.41 -832.042 3595
-2304.81 -832.042 3595
-2296.21 -832.042 3595
-2283.16 -830.422 3588
-2254.93 -823.247 3557
-2246.43 -823.247 3557
-2232.89 -821.396 3549
-666.212 -444.373 1920
-661.621 -444.373 1920
-657.03 -444.373 1920
-649.38 -442.29 1911
-644.81 -442.29 1911
-637.895 -440.67 1904
-627.688 -436.735 1887
-621.854 -435.81 1883
-617.351 -435.81 1883
-610.896 -434.421 1877
-603.5 -432.338 1868
-594.543 -429.098 1854
-590.11 -429.098 1854
-581.569 -426.089 1841
-575.286 -424.7 1835
-570.276 -424.237 1833
-564.04 -422.849 1827
-559.671 -422.849 1827
-552.263 -420.534 1817
-545.505 -418.683 1809
-538.487 -416.6 1800
-534.183 -416.6 1800
-526.346 -413.822 1788
-517.691 -410.351 1773
-509.107 -406.879 1758
-504.903 -406.879 1758
-498.705 -405.259 1751
-490.847 -402.25 1738
-485.01 -400.862 1732
-478.925 -399.241 1725
-474.8 -399.241 1725
-470.13 -398.779 1723
-465.198 -398.084 1720
-460.013 -397.158 1716
-455.909 -397.158 1716
-451.542 -396.927 1715
-446.919 -396.464 1713
-442.823 -396.464 1713
-438.727 -396.464 1713
-434.123 -396.001 1711
-430.032 -396.001 1711
-425.94 -396.001 1711
-421.849 -396.001 1711
-417.269 -395.538 1709
-412.94 -395.307 1708
-408.377 -394.844 1706
-404.298 -394.844 1706
-399.749 -394.381 1704
-395.674 -394.381 1704
-390.91 -393.687 1701
-386.842 -393.687 1701
-382.775 -393.687 1701
-378.262 -393.224 1699
-374.199 -393.224 1699
-370.136 -393.224 1699
-365.642 -392.761 1697
-361.158 -392.298 1695
-356.894 -392.067 1694
-352.843 -392.067 1694
-348.381 -391.604 1692
-344.335 -391.604 1692
-339.886 -391.141 1690
-335.249 -390.447 1687
-331.215 -390.447 1687
-326.793 -389.984 1685
-322.38 -389.521 1683
-318.166 -389.289 1682
-314.144 -389.289 1682
-309.753 -388.826 1680
-305.736 -388.826 1680
-301.719 -388.826 1680
-297.701 -388.826 1680
-293.684 -388.826 1680
-289.666 -388.826 1680
-285.649 -388.826 1680
-281.632 -388.826 1680
-277.614 -388.826 1680
-273.597 -388.826 1680
-269.579 -388.826 1680
-265.878 -389.289 1682
-261.856 -389.289 1682
-257.834 -389.289 1682
-253.963 -389.521 1683
-250.532 -390.447 1687
-246.498 -390.447 1687
-242.751 -390.909 1689
-239.419 -392.067 1694
-235.368 -392.067 1694
-231.317 -392.067 1694
-227.937 -393.224 1699
-224.138 -393.687 1701
-220.2 -393.918 1702
-216.13 -393.918 1702
-212.558 -394.844 1706
-208.479 -394.844 1706
-204.758 -395.538 1709
-200.906 -396.001 1711
-196.815 -396.001 1711
-192.723 -396.001 1711
-188.852 -396.464 1713
-184.756 -396.464 1713
-180.66 -396.464 1713
-176.77 -396.927 1715
-172.769 -397.158 1716
-168.666 -397.158 1716
-164.562 -397.158 1716
-160.646 -397.621 1718
-156.538 -397.621 1718
-152.429 -397.621 1718
-148.321 -397.621 1718
-144.213 -397.621 1718
-140.105 -397.621 1718
-135.996 -397.621 1718
-131.888 -397.621 1718
-127.78 -397.621 1718
-123.672 -397.621 1718
-119.563 -397.621 1718
-115.455 -397.621 1718
-111.347 -397.621 1718
-107.238 -397.621 1718
-103.25 -398.084 1720
-99.1373 -398.084 1720
-95.0242 -398.084 1720
-90.9112 -398.084 1720
-86.7981 -398.084 1720
-82.6851 -398.084 1720
-78.6634 -398.547 1722
-74.5889 -398.779 1723
-70.4687 -398.779 1723
-66.3484 -398.779 1723
-62.2282 -398.779 1723
-58.0068 -398.084 1720
-53.9565 -398.547 1722
-49.8386 -398.547 1722
-45.7208 -398.547 1722
-41.603 -398.547 1722
-37.5069 -398.779 1723
-33.4642 -399.704 1727
-29.3344 -399.704 1727
-25.2047 -399.704 1727
-21.0749 -399.704 1727
-16.9451 -399.704 1727
-12.7782 -398.547 1722
308.01 -854.261 3691
316.836 -854.261 3691
325.663 -854.261 3691
334.489 -854.261 3691
343.315 -854.261 3691
352.142 -854.261 3691
361.75 -856.113 3699
372.299 -860.047 3716
383.647 -865.602 3740
392.59 -865.602 3740
401.534 -865.602 3740
410.477 -865.602 3740
419.421 -865.602 3740
428.364 -865.602 3740
441.283 -873.471 3774
454.484 -881.571 3809
463.593 -881.571 3809
472.701 -881.571 3809
1729.36 -930.406 4020
1743.29 -932.721 4030
1752.93 -932.721 4030
1762.57 -932.721 4030
1772.21 -932.721 4030
1781.84 -932.721 4030
1782.59 -928.092 4010
1792.18 -928.092 4010
1801.77 -928.092 4010
1811.36 -928.092 4010
1816.86 -926.009 4001
1821.86 -923.694 3991
1827.27 -921.611 3982
1840.95 -923.694 3991
1855.13 -926.009 4001
1864.7 -926.009 4001
1874.26 -926.009 4001
1879.12 -923.694 3991
1888.67 -923.694 3991
1889.17 -919.297 3972
1889.59 -914.899 3953
1894.72 -912.816 3944
1904.15 -912.816 3944
-2508.81 -839.922 3667
-2505.5 -841.754 3675
-2496.71 -841.754 3675
-2487.92 -841.754 3675
-2484.53 -843.587 3683
-2475.72 -843.587 3683
-2466.92 -843.587 3683
-2458.11 -843.587 3683
-2427.36 -836.028 3650
-2418.63 -836.028 3650
-2400 -832.592 3635
-2386.04 -830.76 3627
-2372.12 -828.928 3619
-2358.24 -827.095 3611
-2349.61 -827.095 3611
-2340.97 -827.095 3611
-2327.17 -825.263 3603
-2318.56 -825.263 3603
-2309.94 -825.263 3603
-2296.21 -823.43 3595
-2283.16 -821.827 3588
-2260 -816.559 3565
-2251.48 -816.559 3565
-2232.89 -812.894 3549
-666.212 -439.774 1920
-661.621 -439.774 1920
-657.03 -439.774 1920
-650.06 -438.17 1913
-645.485 -438.17 1913
-637.895 -436.109 1904
-630.016 -433.818 1894
-623.175 -432.215 1887
-618.663 -432.215 1887
-611.547 -430.383 1879
-603.5 -427.863 1868
-594.543 -424.657 1854
-590.11 -424.657 1854
-581.569 -421.679 1841
-575.286 -420.305 1835
-570.276 -419.846 1833
-564.04 -418.472 1827
-559.671 -418.472 1827
-552.263 -416.182 1817
-545.505 -414.349 1809
-538.487 -412.288 1800
-534.183 -412.288 1800
-526.346 -409.539 1788
-517.691 -406.104 1773
-509.107 -402.668 1758
-504.903 -402.668 1758
-498.705 -401.064 1751
-490.847 -398.087 1738
-485.01 -396.713 1732
-478.925 -395.109 1725
-474.8 -395.109 1725
-470.13 -394.651 1723
-465.198 -393.964 1720
-460.013 -393.048 1716
-455.909 -393.048 1716
-451.542 -392.819 1715
-446.919 -392.361 1713
-442.823 -392.361 1713
-438.727 -392.361 1713
-434.123 -391.903 1711
-430.032 -391.903 1711
-425.94 -391.903 1711
-421.849 -391.903 1711
-417.269 -391.444 1709
-412.94 -391.215 1708
-408.377 -390.757 1706
-404.298 -390.757 1706
-399.749 -390.299 1704
-395.674 -390.299 1704
-390.91 -389.612 1701
-386.842 -389.612 1701
-382.775 -389.612 1701
-378.262 -389.154 1699
-374.199 -389.154 1699
-370.136 -389.154 1699
-365.642 -388.696 1697
-361.158 -388.238 1695
-356.894 -388.009 1694
-352.843 -388.009 1694
-348.381 -387.551 1692
-344.335 -387.551 1692
-339.886 -387.092 1690
-335.249 -386.405 1687
-331.215 -386.405 1687
-326.793 -385.947 1685
-322.38 -385.489 1683
-318.166 -385.26 1682
-314.144 -385.26 1682
-309.753 -384.802 1680
-305.736 -384.802 1680
-301.719 -384.802 1680
-297.701 -384.802 1680
-293.684 -384.802 1680
-289.666 -384.802 1680
-285.649 -384.802 1680
-281.632 -384.802 1680
-277.614 -384.802 1680
-273.597 -384.802 1680
-269.579 -384.802 1680
-265.878 -385.26 1682
-261.856 -385.26 1682
-257.834 -385.26 1682
-253.963 -385.489 1683
-250.532 -386.405 1687
-246.498 -386.405 1687
-242.751 -386.863 1689
-239.419 -388.009 1694
-235.368 -388.009 1694
-231.317 -388.009 1694
-227.937 -389.154 1699
-224.138 -389.612 1701
-220.2 -389.841 1702
-216.13 -389.841 1702
-212.558 -390.757 1706
-208.479 -390.757 1706
-204.758 -391.444 1709
-200.906 -391.903 1711
-196.815 -391.903 1711
-192.949 -392.361 1713
-188.852 -392.361 1713
-184.756 -392.361 1713
-180.66 -392.361 1713
-176.77 -392.819 1715
-172.769 -393.048 1716
-168.862 -393.506 1718
-164.754 -393.506 1718
-160.646 -393.506 1718
-156.538 -393.506 1718
-152.429 -393.506 1718
-148.321 -393.506 1718
-144.213 -393.506 1718
-140.105 -393.506 1718
-135.996 -393.506 1718
-131.888 -393.506 1718
-127.78 -393.506 1718
-123.815 -393.964 1720
-119.702 -393.964 1720
-115.589 -393.964 1720
-111.347 -393.506 1718
-107.238 -393.506 1718
-103.25 -393.964 1720
-99.1373 -393.964 1720
-95.0242 -393.964 1720
-90.9112 -393.964 1720
-86.8991 -394.422 1722
-82.7812 -394.422 1722
-78.6634 -394.422 1722
-74.5889 -394.651 1723
-70.4687 -394.651 1723
-66.3484 -394.651 1723
-62.2282 -394.651 1723
-58.0068 -393.964 1720
-53.9565 -394.422 1722
-49.8386 -394.422 1722
-45.7208 -394.422 1722
-41.603 -394.422 1722
-37.5069 -394.651 1723
-33.4642 -395.567 1727
-29.3344 -395.567 1727
-25.2047 -395.567 1727
-21.0749 -395.567 1727
