ply
format ascii 1.0
comment File generated
element vertex 2243
property float x
property float y
property float z
end_header
1211.58 1216.32 2233
1206.02 1205.42 2213
1211.31 1205.42 2213
1219.35 1208.15 2218
1224.66 1208.15 2218
1229.96 1208.15 2218
1227.47 1200.52 2204
1226.03 1193.98 2192
1234.64 1197.25 2198
1243.28 1200.52 2204
1248.55 1200.52 2204
1268.61 1214.68 2230
1273.94 1214.68 2230
1279.28 1214.68 2230
1284.61 1214.68 2230
1278.37 1203.79 2210
1278.43 1198.89 2201
1283.69 1198.89 2201
1288.96 1198.89 2201
1307.74 1211.41 2224
1313.06 1211.41 2224
1318.38 1211.41 2224
1323.7 1211.41 2224
1329.02 1211.41 2224
1334.33 1211.41 2224
1339.65 1211.41 2224
1344.97 1211.41 2224
1341.79 1203.79 2210
1347.07 1203.79 2210
1348.69 1200.52 2204
1353.96 1200.52 2204
1349.98 1192.35 2189
1348.4 1186.36 2178
1351.75 1184.72 2175
1365.68 1192.35 2189
1370.92 1192.35 2189
1376.15 1192.35 2189
1381.38 1192.35 2189
1386.62 1192.35 2189
1391.85 1192.35 2189
1395.17 1190.72 2186
1415.78 1203.79 2210
1428.13 1209.78 2221
1433.44 1209.78 2221
1464.67 1231.57 2261
1477.88 1238.1 2273
1493.1 1246.27 2288
1498.57 1246.27 2288
1516.53 1256.62 2307
1535.25 1267.52 2327
1549.42 1274.6 2340
1555.01 1274.6 2340
1564.61 1277.87 2346
1570.22 1277.87 2346
1575.83 1277.87 2346
1581.44 1277.87 2346
1587.05 1277.87 2346
1592.66 1277.87 2346
1589.41 1270.79 2333
1594.99 1270.79 2333
1587.54 1260.44 2314
1577.92 1248.45 2292
1580.64 1246.27 2288
1586.11 1246.27 2288
1591.58 1246.27 2288
1597.06 1246.27 2288
1602.53 1246.27 2288
1608 1246.27 2288
1611.35 1244.64 2285
1610.45 1239.74 2276
1615.89 1239.74 2276
1621.34 1239.74 2276
1628.92 1241.37 2279
1634.37 1241.37 2279
1639.82 1241.37 2279
1632.28 1231.57 2261
1637.68 1231.57 2261
1633.64 1224.49 2248
1636.83 1222.85 2245
1650.98 1229.39 2257
1661.51 1233.2 2264
1666.93 1233.2 2264
1687.85 1244.64 2285
1695.54 1246.27 2288
1701.01 1246.27 2288
1709.47 1248.45 2292
1714.95 1248.45 2292
1720.43 1248.45 2292
1728.17 1250.09 2295
1733.65 1250.09 2295
1739.14 1250.09 2295
1742.35 1248.45 2292
1742.49 1244.64 2285
1747.96 1244.64 2285
-1697.36 1240.27 2267
-1691.94 1240.27 2267
-1682.05 1236.98 2261
-1676.65 1236.98 2261
-1657.2 1226.59 2242
-1619.42 1202.52 2198
-1607.55 1197.59 2189
-1598.66 1194.86 2184
-1593.43 1194.86 2184
-1581.67 1189.93 2175
-1574.29 1188.29 2172
-1566.93 1186.65 2169
-1561.74 1186.65 2169
-1548.66 1180.63 2158
-1535.63 1174.62 2147
-1524.8 1170.24 2139
-1523.23 1172.97 2144
-1518.11 1172.97 2144
-1517.21 1176.26 2150
-1517.7 1180.63 2158
-1512.54 1180.63 2158
-1507.38 1180.63 2158
-1502.22 1180.63 2158
-1513.01 1193.22 2181
-1517.48 1200.88 2195
-1512.23 1200.88 2195
-1522.77 1213.46 2218
-1540.04 1231.51 2251
-1534.66 1231.51 2251
-1544.22 1243.55 2273
-1544.88 1248.47 2282
-1546.17 1253.94 2292
-1540.69 1253.94 2292
-1543.25 1260.51 2304
-1537.74 1260.51 2304
-1532.23 1260.51 2304
-1526.72 1260.51 2304
-1510.64 1251.76 2288
-1484.78 1234.8 2257
-1485.94 1240.27 2267
-1480.52 1240.27 2267
-1475.09 1240.27 2267
-1469.67 1240.27 2267
-1475.88 1250.11 2285
-1470.41 1250.11 2285
-1464.95 1250.11 2285
-1459.49 1250.11 2285
-1450.2 1246.83 2279
-1450.46 1251.76 2288
-1444.99 1251.76 2288
-1439.52 1251.76 2288
-1436.55 1253.94 2292
-1431.07 1253.94 2292
-1425.59 1253.94 2292
-1421.97 1255.59 2295
-1418.33 1257.23 2298
-1416.53 1260.51 2304
-1411.02 1260.51 2304
-1405.51 1260.51 2304
-1400 1260.51 2304
-1394.49 1260.51 2304
-1387.17 1258.87 2301
-1373.86 1251.76 2288
-1363.01 1246.83 2279
-1357.56 1246.83 2279
-1350.33 1245.19 2276
-1343.11 1243.55 2273
-1326.5 1233.15 2254
-1322.86 1234.8 2257
-1317.47 1234.8 2257
-1317.88 1240.27 2267
-1312.46 1240.27 2267
-1310.5 1243.55 2273
-1305.06 1243.55 2273
-1299.63 1243.55 2273
-1290.78 1240.27 2267
-1285.36 1240.27 2267
-1279.94 1240.27 2267
-1267.21 1233.15 2254
-1256.78 1228.23 2245
-1253.08 1229.87 2248
-1247.71 1229.87 2248
-1249.51 1236.98 2261
-1244.11 1236.98 2261
-1238.7 1236.98 2261
-1233.29 1236.98 2261
-1227.89 1236.98 2261
-1230.59 1245.19 2276
-1225.15 1245.19 2276
-1219.71 1245.19 2276
-1214.26 1245.19 2276
-1204.04 1240.27 2267
-1198.62 1240.27 2267
-1190.04 1236.98 2261
-1180.97 1233.15 2254
-1174.01 1231.51 2251
-1171.74 1234.8 2257
-1166.35 1234.8 2257
-1166.09 1240.27 2267
-1163.74 1243.55 2273
-1162.89 1248.47 2282
-1157.44 1248.47 2282
-1157.03 1253.94 2292
-1151.55 1253.94 2292
-1146.07 1253.94 2292
-1138.6 1251.76 2288
-1133.12 1251.76 2288
-1126.17 1250.11 2285
-1122.18 1251.76 2288
-1116.71 1251.76 2288
-1111.24 1251.76 2288
-1105.77 1251.76 2288
-1100.3 1251.76 2288
-1094.82 1251.76 2288
-1079.35 1240.27 2267
-1072.51 1238.63 2264
-1065.68 1236.98 2261
-1060.28 1236.98 2261
-1054.87 1236.98 2261
-1050.86 1238.63 2264
-1045.44 1238.63 2264
-1040.03 1238.63 2264
-1034.62 1238.63 2264
-1029.2 1238.63 2264
-1017.91 1231.51 2251
-1012.53 1231.51 2251
-1003.12 1226.59 2242
-1007.55 1238.63 2264
-1008.77 1246.83 2279
-1004.64 1248.47 2282
-999.185 1248.47 2282
-993.728 1248.47 2282
-986.972 1246.83 2279
-981.523 1246.83 2279
-973.503 1243.55 2273
-973.178 1250.11 2285
-968.985 1251.76 2288
-963.513 1251.76 2288
-958.042 1251.76 2288
-951.322 1250.11 2285
-945.858 1250.11 2285
-940.394 1250.11 2285
-932.474 1246.83 2279
-927.025 1246.83 2279
-920.362 1245.19 2276
-914.919 1245.19 2276
-908.278 1243.55 2273
-899.268 1238.63 2264
-897.407 1243.55 2273
-891.971 1243.55 2273
-886.536 1243.55 2273
-882.264 1245.19 2276
-876.821 1245.19 2276
-871.378 1245.19 2276
-864.794 1243.55 2273
-859.359 1243.55 2273
-853.923 1243.55 2273
-849.608 1245.19 2276
-844.165 1245.19 2276
-838.723 1245.19 2276
-833.28 1245.19 2276
-827.837 1245.19 2276
-822.395 1245.19 2276
-815.875 1243.55 2273
-810.44 1243.55 2273
-805.005 1243.55 2273
-799.569 1243.55 2273
-794.134 1243.55 2273
-792.862 1250.11 2285
-787.398 1250.11 2285
-781.934 1250.11 2285
-776.47 1250.11 2285
-766.957 1243.55 2273
-760.516 1241.91 2270
-755.088 1241.91 2270
-747.678 1238.63 2264
-731.117 1220.02 2230
-563.431 990.791 1811
-560.335 992.979 1815
-555.995 992.979 1815
-552.263 994.073 1817
-549.124 996.262 1821
-544.77 996.262 1821
-540.415 996.262 1821
-536.06 996.262 1821
-531.706 996.262 1821
-527.351 996.262 1821
-522.997 996.262 1821
-518.642 996.262 1821
-514.288 996.262 1821
-509.373 995.168 1819
-505.578 996.262 1821
-501.224 996.262 1821
-497.415 997.356 1823
-493.597 998.45 1825
-489.233 998.45 1825
-484.868 998.45 1825
-481.031 999.544 1827
-477.184 1000.64 1829
-473.327 1001.73 1831
-468.949 1001.73 1831
-465.078 1002.83 1833
-461.197 1003.92 1835
-456.809 1003.92 1835
-452.421 1003.92 1835
-448.521 1005.02 1837
-444.128 1005.02 1837
-439.736 1005.02 1837
-435.343 1005.02 1837
-430.95 1005.02 1837
-426.557 1005.02 1837
-422.164 1005.02 1837
-417.771 1005.02 1837
-413.379 1005.02 1837
-408.986 1005.02 1837
-404.593 1005.02 1837
-400.2 1005.02 1837
-396.238 1006.11 1839
-391.841 1006.11 1839
-387.443 1006.11 1839
-383.045 1006.11 1839
-378.236 1005.02 1837
-373.029 1002.83 1833
-368.646 1002.83 1833
-363.865 1001.73 1831
-359.487 1001.73 1831
-354.72 1000.64 1829
-350.347 1000.64 1829
-345.973 1000.64 1829
-341.226 999.544 1827
-336.488 998.45 1825
-332.124 998.45 1825
-327.76 998.45 1825
-323.041 997.356 1823
-317.633 994.073 1817
-312.943 992.979 1815
-308.603 992.979 1815
-303.927 991.885 1813
-299.262 990.791 1811
-294.605 989.697 1809
-290.279 989.697 1809
-285.321 987.508 1805
-280.849 986.961 1804
-276.535 986.961 1804
-272.372 987.508 1805
-268.056 987.508 1805
-263.74 987.508 1805
-259.711 988.603 1807
-256.238 991.885 1813
-251.902 991.885 1813
-247.84 992.979 1815
-243.5 992.979 1815
-239.16 992.979 1815
-234.819 992.979 1815
-230.479 992.979 1815
-226.388 994.073 1817
-222.043 994.073 1817
-217.698 994.073 1817
-213.353 994.073 1817
-208.778 992.979 1815
-205.114 996.262 1821
-201.2 998.45 1825
-196.836 998.45 1825
-192.472 998.45 1825
-188.108 998.45 1825
-183.744 998.45 1825
-184.061 1234.8 2257
-179.455 1240.27 2267
-174.034 1240.27 2267
-168.613 1240.27 2267
-163.192 1240.27 2267
-157.979 1241.91 2270
-153.559 1250.11 2285
-148.095 1250.11 2285
-143.068 1253.94 2292
-137.767 1255.59 2295
-132.452 1257.23 2298
-126.957 1257.23 2298
-121.462 1257.23 2298
-115.966 1257.23 2298
-110.471 1257.23 2298
-104.976 1257.23 2298
-99.4807 1257.23 2298
-93.9855 1257.23 2298
-88.4903 1257.23 2298
-82.995 1257.23 2298
-77.601 1258.87 2301
-72.0986 1258.87 2301
-66.5962 1258.87 2301
-61.0142 1257.23 2298
-55.519 1257.23 2298
-49.6755 1248.47 2282
-44.2185 1248.47 2282
-38.6596 1245.19 2276
-33.217 1245.19 2276
-27.811 1246.83 2279
-22.3613 1246.83 2279
-16.9115 1246.83 2279
-11.4617 1246.83 2279
-6.01192 1246.83 2279
-0.559182 1240.27 2267
4.8619 1240.27 2267
10.224 1233.15 2254
15.5725 1229.87 2248
21.032 1234.8 2257
26.6165 1243.55 2273
32.0519 1243.55 2273
37.5368 1245.19 2276
43.1494 1250.11 2285
48.6135 1250.11 2285
54.0777 1250.11 2285
59.5418 1250.11 2285
65.0059 1250.11 2285
70.47 1250.11 2285
75.9342 1250.11 2285
81.1846 1246.83 2279
86.6343 1246.83 2279
92.0841 1246.83 2279
97.5339 1246.83 2279
103.255 1250.11 2285
109.195 1255.59 2295
114.983 1258.87 2301
120.485 1258.87 2301
125.987 1258.87 2301
131.49 1258.87 2301
136.992 1258.87 2301
142.495 1258.87 2301
147.611 1255.59 2295
152.232 1248.47 2282
157.689 1248.47 2282
163.146 1248.47 2282
168.603 1248.47 2282
174.06 1248.47 2282
180.303 1253.94 2292
185.784 1253.94 2292
191.265 1253.94 2292
196.746 1253.94 2292
202.227 1253.94 2292
207.708 1253.94 2292
212.816 1251.76 2288
218.288 1251.76 2288
223.172 1248.47 2282
228.629 1248.47 2282
233.778 1246.83 2279
238.913 1245.19 2276
244.034 1243.55 2273
249.469 1243.55 2273
254.905 1243.55 2273
260.34 1243.55 2273
266.126 1245.19 2276
271.927 1246.83 2279
277.377 1246.83 2279
282.826 1246.83 2279
288.276 1246.83 2279
293.339 1245.19 2276
298.782 1245.19 2276
303.824 1243.55 2273
309.259 1243.55 2273
315.11 1245.19 2276
320.552 1245.19 2276
325.995 1245.19 2276
331.438 1245.19 2276
337.324 1246.83 2279
343.676 1250.11 2285
349.141 1250.11 2285
355.07 1251.76 2288
361.172 1253.94 2292
367.133 1255.59 2295
372.621 1255.59 2295
378.109 1255.59 2295
383.597 1255.59 2295
389.085 1255.59 2295
394.573 1255.59 2295
399.538 1253.94 2292
405.019 1253.94 2292
411.574 1257.23 2298
417.614 1258.87 2301
423.116 1258.87 2301
428.619 1258.87 2301
434.121 1258.87 2301
439.624 1258.87 2301
443.385 1253.94 2292
448.082 1251.76 2288
454.347 1253.94 2292
459.827 1253.94 2292
465.308 1253.94 2292
471.405 1255.59 2295
476.893 1255.59 2295
482.381 1255.59 2295
487.232 1253.94 2292
491.853 1251.76 2288
496.672 1250.11 2285
502.136 1250.11 2285
507.6 1250.11 2285
513.064 1250.11 2285
519.209 1251.76 2288
525.598 1253.94 2292
531.079 1253.94 2292
536.56 1253.94 2292
542.04 1253.94 2292
547.521 1253.94 2292
553.002 1253.94 2292
558.483 1253.94 2292
564.702 1255.59 2295
570.935 1257.23 2298
576.431 1257.23 2298
581.926 1257.23 2298
587.421 1257.23 2298
591.368 1253.94 2292
596.849 1253.94 2292
599.702 1248.47 2282
606.75 1251.76 2288
614.094 1255.59 2295
619.583 1255.59 2295
625.071 1255.59 2295
630.559 1255.59 2295
636.047 1255.59 2295
641.535 1255.59 2295
647.023 1255.59 2295
649.668 1250.11 2285
654.272 1248.47 2282
659.729 1248.47 2282
665.185 1248.47 2282
669.761 1246.83 2279
676.099 1248.47 2282
682.452 1250.11 2285
687.916 1250.11 2285
693.381 1250.11 2285
698.845 1250.11 2285
704.309 1250.11 2285
712.879 1255.59 2295
718.367 1255.59 2295
725.748 1258.87 2301
732.203 1260.51 2304
737.713 1260.51 2304
743.223 1260.51 2304
748.732 1260.51 2304
755.224 1262.15 2307
760.741 1262.15 2307
766.257 1262.15 2307
775.119 1267.62 2317
781.671 1269.26 2320
787.219 1269.26 2320
792.766 1269.26 2320
798.314 1269.26 2320
803.862 1269.26 2320
808.363 1267.62 2317
813.904 1267.62 2317
818.384 1265.98 2314
821.425 1262.15 2307
822.64 1255.59 2295
828.128 1255.59 2295
829.984 1250.11 2285
835.448 1250.11 2285
838.704 1246.83 2279
844.154 1246.83 2279
847.367 1243.55 2273
849.425 1238.63 2264
853.707 1236.98 2261
859.113 1236.98 2261
861.844 1233.15 2254
866.079 1231.51 2251
870.301 1229.87 2248
874.508 1228.23 2245
879.876 1228.23 2245
885.245 1228.23 2245
890.613 1228.23 2245
894.784 1226.59 2242
900.146 1226.59 2242
900.66 1220.02 2230
914.525 1231.51 2251
919.908 1231.51 2251
925.29 1231.51 2251
930.673 1231.51 2251
927.323 1220.02 2230
940.184 1229.87 2248
954.813 1241.91 2270
960.242 1241.91 2270
965.67 1241.91 2270
955.27 1221.67 2233
964.481 1226.59 2242
969.843 1226.59 2242
975.204 1226.59 2242
980.565 1226.59 2242
985.926 1226.59 2242
991.288 1226.59 2242
991.315 1220.02 2230
996.647 1220.02 2230
1010.07 1229.87 2248
1016.8 1231.51 2251
1022.18 1231.51 2251
1032.13 1236.98 2261
1040.29 1240.27 2267
1051.25 1246.83 2279
1056.7 1246.83 2279
1063.54 1248.47 2282
1069 1248.47 2282
1074.46 1248.47 2282
1078.49 1246.83 2279
1076.81 1238.63 2264
1071.71 1226.59 2242
1077.07 1226.59 2242
1078.08 1221.67 2233
1081.97 1220.02 2230
1084.38 1216.74 2224
1089.69 1216.74 2224
1095.01 1216.74 2224
1100.33 1216.74 2224
1101.17 1211.82 2215
1103.97 1209.08 2210
1109.26 1209.08 2210
1114.54 1209.08 2210
1119.83 1209.08 2210
1120.53 1204.16 2201
1125.79 1204.16 2201
1129.52 1202.52 2198
1133.22 1200.88 2195
1138.47 1200.88 2195
1143.72 1200.88 2195
1153.68 1205.8 2204
1158.95 1205.8 2204
1167.39 1209.08 2210
1178.51 1215.1 2221
1183.82 1215.1 2221
1189.14 1215.1 2221
1194.45 1215.1 2221
1192.19 1207.44 2207
1197.47 1207.44 2207
1196.21 1200.88 2195
1199.82 1199.23 2192
1208.36 1202.52 2198
1213.61 1202.52 2198
1218.87 1202.52 2198
1220.78 1199.23 2192
1221.55 1194.86 2184
1226.77 1194.86 2184
1234.82 1197.59 2189
1240.05 1197.59 2189
1252.11 1204.16 2201
1259.09 1205.8 2204
1264.36 1205.8 2204
1269.63 1205.8 2204
1273.17 1204.16 2201
1276.69 1202.52 2198
1281.94 1202.52 2198
1287.2 1202.52 2198
1292.45 1202.52 2198
1295.94 1200.88 2195
1301.19 1200.88 2195
1306.44 1200.88 2195
1311.69 1200.88 2195
1315.14 1199.23 2192
1320.38 1199.23 2192
1325.62 1199.23 2192
1326 1194.86 2184
1331.23 1194.86 2184
1336.45 1194.86 2184
1341.67 1194.86 2184
1343.19 1191.58 2178
1346.54 1189.93 2175
1344.91 1183.92 2164
1355.07 1188.29 2172
1360.27 1188.29 2172
1376.15 1197.59 2189
1381.38 1197.59 2189
1386.62 1197.59 2189
1391.85 1197.59 2189
1395.17 1195.95 2186
1402.32 1197.59 2189
1422.99 1210.72 2213
1428.28 1210.72 2213
1448.47 1223.31 2236
1475.93 1241.91 2270
1487.23 1246.83 2279
1492.68 1246.83 2279
1510.62 1257.23 2298
1522.05 1262.15 2307
1540.81 1273.09 2327
1546.37 1273.09 2327
1551.94 1273.09 2327
1561.52 1276.38 2333
1567.1 1276.38 2333
1572.68 1276.38 2333
1578.26 1276.38 2333
1581.8 1274.73 2330
1576.47 1265.98 2314
1582 1265.98 2314
1567.64 1250.11 2285
1556.58 1236.98 2261
1564.06 1238.63 2264
1569.48 1238.63 2264
1574.89 1238.63 2264
1580.3 1238.63 2264
1583.62 1236.98 2261
1589.02 1236.98 2261
1585.26 1229.87 2248
1586.39 1226.59 2242
1596.01 1229.87 2248
1617.06 1241.91 2270
1622.49 1241.91 2270
1627.92 1241.91 2270
1633.35 1241.91 2270
1632.28 1236.98 2261
1637.68 1236.98 2261
1633.64 1229.87 2248
1645.58 1234.8 2257
1653.9 1236.98 2261
1663.71 1240.27 2267
1669.13 1240.27 2267
1687.85 1250.11 2285
1698.5 1253.94 2292
1703.98 1253.94 2292
1711.7 1255.59 2295
1717.19 1255.59 2295
1724.93 1257.23 2298
1730.43 1257.23 2298
1735.92 1257.23 2298
1741.42 1257.23 2298
1746.91 1257.23 2298
1742.49 1250.11 2285
1747.96 1250.11 2285
-1697.36 1245.7 2267
-1691.94 1245.7 2267
-1682.05 1242.4 2261
-1676.65 1242.4 2261
-1657.2 1231.96 2242
-1619.42 1207.78 2198
-1607.55 1202.84 2189
-1589.87 1193.5 2172
-1584.68 1193.5 2172
-1577.3 1191.85 2169
-1572.12 1191.85 2169
-1558.98 1185.8 2158
-1553.82 1185.8 2158
-1542.92 1181.41 2150
-1524.19 1170.97 2131
-1512.68 1166.02 2122
-1519.68 1175.36 2139
-1514.57 1175.36 2139
-1509.45 1175.36 2139
-1504.34 1175.36 2139
-1499.22 1175.36 2139
-1494.11 1175.36 2139
-1498.74 1183.06 2153
-1494.98 1184.15 2155
-1489.82 1184.15 2155
-1484.67 1184.15 2155
-1506.98 1206.13 2195
-1521.57 1222.07 2224
-1516.25 1222.07 2224
-1540.15 1245.7 2267
-1540.82 1250.64 2276
-1543.47 1257.24 2288
-1538 1257.24 2288
-1535.21 1259.43 2292
-1529.73 1259.43 2292
-1524.25 1259.43 2292
-1516.11 1257.24 2288
-1502.72 1250.64 2276
-1468.99 1227.01 2233
-1485.94 1245.7 2267
-1480.52 1245.7 2267
-1475.09 1245.7 2267
-1469.67 1245.7 2267
-1475.88 1255.59 2285
-1470.41 1255.59 2285
-1464.95 1255.59 2285
-1459.49 1255.59 2285
-1450.2 1252.29 2279
-1450.46 1257.24 2288
-1444.99 1257.24 2288
-1439.52 1257.24 2288
-1436.55 1259.43 2292
-1431.07 1259.43 2292
-1425.59 1259.43 2292
-1421.97 1261.08 2295
-1418.33 1262.73 2298
-1416.53 1266.03 2304
-1411.02 1266.03 2304
-1405.51 1266.03 2304
-1400 1266.03 2304
-1394.49 1266.03 2304
-1387.17 1264.38 2301
-1373.86 1257.24 2288
-1363.01 1252.29 2279
-1357.56 1252.29 2279
-1350.33 1250.64 2276
-1343.11 1248.99 2273
-1326.5 1238.55 2254
-1322.86 1240.2 2257
-1317.47 1240.2 2257
-1317.88 1245.7 2267
-1312.46 1245.7 2267
-1310.5 1248.99 2273
-1305.06 1248.99 2273
-1299.63 1248.99 2273
-1290.78 1245.7 2267
-1285.36 1245.7 2267
-1279.94 1245.7 2267
-1267.21 1238.55 2254
-1256.78 1233.61 2245
-1251.41 1233.61 2245
-1246.04 1233.61 2245
-1249.51 1242.4 2261
-1244.11 1242.4 2261
-1238.7 1242.4 2261
-1233.29 1242.4 2261
-1227.89 1242.4 2261
-1227.35 1247.35 2270
-1221.92 1247.35 2270
-1216.49 1247.35 2270
-1211.06 1247.35 2270
-1200.85 1242.4 2261
-1195.45 1242.4 2261
-1186.36 1238.55 2254
-1179.39 1236.91 2251
-1172.45 1235.26 2248
-1168.63 1236.91 2251
-1163.25 1236.91 2251
-1160.95 1240.2 2257
-1162.21 1247.35 2270
-1159.84 1250.64 2276
-1154.39 1250.64 2276
-1151.98 1253.94 2282
-1146.52 1253.94 2282
-1141.07 1253.94 2282
-1135.61 1253.94 2282
-1127.18 1250.64 2276
-1117.3 1245.7 2267
-1110.41 1244.05 2264
-1106.46 1245.7 2267
-1101.04 1245.7 2267
-1095.62 1245.7 2267
-1090.2 1245.7 2267
-1084.78 1245.7 2267
-1079.35 1245.7 2267
-1072.51 1244.05 2264
-1065.68 1242.4 2261
-1060.28 1242.4 2261
-1054.87 1242.4 2261
-1050.86 1244.05 2264
-1045.44 1244.05 2264
-1040.03 1244.05 2264
-1034.62 1244.05 2264
-1029.2 1244.05 2264
-1017.91 1236.91 2251
-1012.53 1236.91 2251
-1003.12 1231.96 2242
-1007.55 1244.05 2264
-1008.77 1252.29 2279
-1004.64 1253.94 2282
-999.185 1253.94 2282
-993.728 1253.94 2282
-986.972 1252.29 2279
-981.523 1252.29 2279
-973.503 1248.99 2273
-973.178 1255.59 2285
-968.985 1257.24 2288
-963.513 1257.24 2288
-958.042 1257.24 2288
-951.322 1255.59 2285
-945.858 1255.59 2285
-940.394 1255.59 2285
-932.474 1252.29 2279
-927.025 1252.29 2279
-920.362 1250.64 2276
-914.919 1250.64 2276
-908.278 1248.99 2273
-899.268 1244.05 2264
-897.407 1248.99 2273
-891.971 1248.99 2273
-886.536 1248.99 2273
-882.264 1250.64 2276
-876.821 1250.64 2276
-871.378 1250.64 2276
-864.794 1248.99 2273
-859.359 1248.99 2273
-853.923 1248.99 2273
-849.608 1250.64 2276
-844.165 1250.64 2276
-838.723 1250.64 2276
-833.28 1250.64 2276
-827.837 1250.64 2276
-822.395 1250.64 2276
-815.875 1248.99 2273
-810.44 1248.99 2273
-805.005 1248.99 2273
-799.569 1248.99 2273
-794.134 1248.99 2273
-792.862 1255.59 2285
-787.398 1255.59 2285
-781.934 1255.59 2285
-776.47 1255.59 2285
-766.957 1248.99 2273
-760.516 1247.35 2270
-755.088 1247.35 2270
-747.678 1244.05 2264
-731.117 1225.37 2230
-563.431 995.129 1811
-560.335 997.327 1815
-555.995 997.327 1815
-552.263 998.426 1817
-549.124 1000.62 1821
-544.77 1000.62 1821
-540.415 1000.62 1821
-536.06 1000.62 1821
-531.706 1000.62 1821
-527.351 1000.62 1821
-522.997 1000.62 1821
-518.642 1000.62 1821
-514.288 1000.62 1821
-509.373 999.525 1819
-505.578 1000.62 1821
-501.224 1000.62 1821
-497.415 1001.72 1823
-493.597 1002.82 1825
-489.233 1002.82 1825
-484.868 1002.82 1825
-481.031 1003.92 1827
-477.184 1005.02 1829
-473.327 1006.12 1831
-468.949 1006.12 1831
-465.078 1007.22 1833
-460.694 1007.22 1833
-456.809 1008.32 1835
-452.421 1008.32 1835
-448.033 1008.32 1835
-444.128 1009.42 1837
-439.736 1009.42 1837
-435.343 1009.42 1837
-430.95 1009.42 1837
-426.557 1009.42 1837
-422.164 1009.42 1837
-417.771 1009.42 1837
-413.379 1009.42 1837
-408.986 1009.42 1837
-404.593 1009.42 1837
-400.2 1009.42 1837
-396.238 1010.51 1839
-391.841 1010.51 1839
-387.443 1010.51 1839
-383.045 1010.51 1839
-378.236 1009.42 1837
-373.029 1007.22 1833
-368.646 1007.22 1833
-363.865 1006.12 1831
-359.094 1005.02 1829
-354.72 1005.02 1829
-350.347 1005.02 1829
-345.973 1005.02 1829
-341.226 1003.92 1827
-336.488 1002.82 1825
-331.76 1001.72 1823
-327.401 1001.72 1823
-323.041 1001.72 1823
-317.633 998.426 1817
-312.943 997.327 1815
-308.603 997.327 1815
-303.927 996.228 1813
-298.931 994.03 1809
-294.279 992.931 1807
-289.958 992.931 1807
-285.163 991.283 1804
-280.849 991.283 1804
-276.689 991.832 1805
-272.372 991.832 1805
-268.056 991.832 1805
-264.032 992.931 1807
-259.711 992.931 1807
-256.238 996.228 1813
-251.902 996.228 1813
-247.84 997.327 1815
-243.5 997.327 1815
-239.16 997.327 1815
-234.819 997.327 1815
-230.479 997.327 1815
-226.388 998.426 1817
-222.043 998.426 1817
-217.698 998.426 1817
-213.353 998.426 1817
-209.238 999.525 1819
-205.339 1001.72 1823
-201.421 1003.92 1827
-197.052 1003.92 1827
-192.683 1003.92 1827
-188.314 1003.92 1827
-183.945 1003.92 1827
-184.061 1240.2 2257
-178.663 1240.2 2257
-173.266 1240.2 2257
-167.869 1240.2 2257
-163.192 1245.7 2267
-157.771 1245.7 2267
-152.551 1247.35 2270
-147.123 1247.35 2270
-142.631 1255.59 2285
-137.587 1259.43 2292
-132.279 1261.08 2295
-126.791 1261.08 2295
-121.303 1261.08 2295
-115.462 1257.24 2288
-109.99 1257.24 2288
-104.519 1257.24 2288
-99.0478 1257.24 2288
-93.4538 1255.59 2285
-87.9897 1255.59 2285
-82.5255 1255.59 2285
-77.1626 1257.24 2288
-71.6913 1257.24 2288
-66.22 1257.24 2288
-60.5894 1253.94 2282
-55.0599 1252.29 2279
-49.2836 1244.05 2264
-43.5597 1235.26 2248
-38.4049 1242.4 2261
-32.9981 1242.4 2261
-27.628 1244.05 2264
-22.2141 1244.05 2264
-16.8002 1244.05 2264
-11.3712 1242.4 2261
-5.93806 1236.91 2251
-0.553755 1233.61 2245
4.81472 1233.61 2245
10.1015 1223.72 2227
15.427 1223.72 2227
20.9201 1233.61 2245
26.4291 1240.2 2257
31.8263 1240.2 2257
37.2895 1242.4 2261
42.8661 1247.35 2270
48.2944 1247.35 2270
53.7227 1247.35 2270
59.1509 1247.35 2270
64.5792 1247.35 2270
70.1 1248.99 2273
75.5354 1248.99 2273
80.9708 1248.99 2273
86.4062 1248.99 2273
91.8417 1248.99 2273
97.2771 1248.99 2273
102.713 1248.99 2273
108.719 1255.59 2285
114.683 1261.08 2295
120.171 1261.08 2295
125.659 1261.08 2295
131.147 1261.08 2295
136.635 1261.08 2295
142.123 1261.08 2295
146.968 1255.59 2285
152.232 1253.94 2282
157.689 1253.94 2282
163.146 1253.94 2282
168.381 1252.29 2279
173.831 1252.29 2279
179.517 1253.94 2282
185.46 1257.24 2288
190.931 1257.24 2288
196.402 1257.24 2288
201.874 1257.24 2288
207.345 1257.24 2288
212.537 1255.59 2285
217.715 1253.94 2282
222.879 1252.29 2279
228.329 1252.29 2279
233.778 1252.29 2279
238.283 1247.35 2270
243.712 1247.35 2270
249.14 1247.35 2270
254.905 1248.99 2273
260.34 1248.99 2273
266.126 1250.64 2276
271.569 1250.64 2276
277.012 1250.64 2276
282.454 1250.64 2276
287.897 1250.64 2276
292.953 1248.99 2273
298.388 1248.99 2273
303.824 1248.99 2273
309.259 1248.99 2273
314.694 1248.99 2273
320.13 1248.99 2273
325.565 1248.99 2273
330.564 1247.35 2270
336.436 1248.99 2273
342.774 1252.29 2279
348.224 1252.29 2279
353.674 1252.29 2279
359.596 1253.94 2282
366.013 1257.24 2288
371.484 1257.24 2288
376.955 1257.24 2288
382.427 1257.24 2288
387.898 1257.24 2288
393.369 1257.24 2288
398.318 1255.59 2285
403.782 1255.59 2285
409.246 1255.59 2285
415.981 1259.43 2292
421.461 1259.43 2292
426.942 1259.43 2292
432.423 1259.43 2292
437.904 1259.43 2292
442.611 1257.24 2288
448.082 1257.24 2288
454.347 1259.43 2292
459.827 1259.43 2292
465.308 1259.43 2292
470.789 1259.43 2292
476.27 1259.43 2292
481.751 1259.43 2292
485.744 1255.59 2285
491.208 1255.59 2285
496.672 1255.59 2285
502.136 1255.59 2285
507.6 1255.59 2285
513.064 1255.59 2285
519.209 1257.24 2288
524.681 1257.24 2288
531.079 1259.43 2292
536.56 1259.43 2292
542.04 1259.43 2292
545.849 1255.59 2285
551.313 1255.59 2285
556.777 1255.59 2285
561.503 1253.94 2282
568.451 1257.24 2288
573.922 1257.24 2288
579.394 1257.24 2288
583.331 1253.94 2282
588.014 1252.29 2279
593.464 1252.29 2279
597.337 1248.99 2273
604.363 1252.29 2279
612.221 1257.24 2288
618.773 1259.43 2292
624.253 1259.43 2292
629.734 1259.43 2292
634.107 1257.24 2288
639.578 1257.24 2288
642.512 1252.29 2279
647.962 1252.29 2279
652.551 1250.64 2276
657.994 1250.64 2276
663.437 1250.64 2276
668.879 1250.64 2276
674.322 1250.64 2276
679.764 1250.64 2276
686.11 1252.29 2279
691.56 1252.29 2279
697.01 1252.29 2279
702.459 1252.29 2279
709.773 1255.59 2285
715.237 1255.59 2285
722.909 1259.43 2292
729.343 1261.08 2295
734.831 1261.08 2295
740.319 1261.08 2295
745.807 1261.08 2295
753.26 1264.38 2301
758.762 1264.38 2301
764.264 1264.38 2301
771.774 1267.68 2307
780.66 1273.17 2317
786.201 1273.17 2317
791.741 1273.17 2317
797.282 1273.17 2317
802.823 1273.17 2317
807.317 1271.52 2314
812.85 1271.52 2314
818.384 1271.52 2314
818.22 1262.73 2298
822.64 1261.08 2295
828.128 1261.08 2295
829.984 1255.59 2285
835.448 1255.59 2285
838.704 1252.29 2279
844.154 1252.29 2279
847.367 1248.99 2273
849.425 1244.05 2264
853.707 1242.4 2261
859.113 1242.4 2261
861.844 1238.55 2254
864.925 1235.26 2248
867.978 1231.96 2242
868.665 1225.37 2230
873.997 1225.37 2230
879.33 1225.37 2230
884.663 1225.37 2230
889.995 1225.37 2230
895.328 1225.37 2230
895.814 1218.77 2218
905.993 1225.37 2230
911.326 1225.37 2230
916.658 1225.37 2230
920.75 1223.72 2227
922.333 1218.77 2218
925.546 1216.02 2213
932.941 1218.77 2218
938.245 1218.77 2218
948.654 1225.37 2230
955.27 1227.01 2233
964.481 1231.96 2242
969.843 1231.96 2242
975.204 1231.96 2242
980.565 1231.96 2242
985.926 1231.96 2242
991.288 1231.96 2242
991.315 1225.37 2230
996.647 1225.37 2230
1010.07 1235.26 2248
1016.8 1236.91 2251
1022.18 1236.91 2251
1032.13 1242.4 2261
1040.29 1245.7 2267
1051.25 1252.29 2279
1056.7 1252.29 2279
1063.54 1253.94 2282
1069 1253.94 2282
1074.46 1253.94 2282
1078.49 1252.29 2279
1076.81 1244.05 2264
1071.71 1231.96 2242
1077.07 1231.96 2242
1078.08 1227.01 2233
1081.97 1225.37 2230
1084.38 1222.07 2224
1089.69 1222.07 2224
1095.01 1222.07 2224
1100.33 1222.07 2224
1101.17 1217.12 2215
1103.97 1214.38 2210
1109.26 1214.38 2210
1114.54 1214.38 2210
1119.83 1214.38 2210
1120.53 1209.43 2201
1125.79 1209.43 2201
1129.52 1207.78 2198
1133.22 1206.13 2195
1138.47 1206.13 2195
1143.72 1206.13 2195
1153.68 1211.08 2204
1158.95 1211.08 2204
1167.39 1214.38 2210
1178.51 1220.42 2221
1183.82 1220.42 2221
1189.14 1220.42 2221
1194.45 1220.42 2221
1192.19 1212.73 2207
1197.47 1212.73 2207
1196.21 1206.13 2195
1199.82 1204.49 2192
1208.36 1207.78 2198
1213.61 1207.78 2198
1218.87 1207.78 2198
1220.78 1204.49 2192
1221.55 1200.09 2184
1226.77 1200.09 2184
1234.82 1202.84 2189
1240.05 1202.84 2189
1252.11 1209.43 2201
1259.09 1211.08 2204
1264.36 1211.08 2204
1269.63 1211.08 2204
1273.17 1209.43 2201
1276.69 1207.78 2198
1281.94 1207.78 2198
1287.2 1207.78 2198
1292.45 1207.78 2198
1295.94 1206.13 2195
1301.19 1206.13 2195
1306.44 1206.13 2195
1311.69 1206.13 2195
1315.14 1204.49 2192
1320.38 1204.49 2192
1325.62 1204.49 2192
1326 1200.09 2184
1331.23 1200.09 2184
1336.45 1200.09 2184
1341.67 1200.09 2184
1343.19 1196.79 2178
1346.54 1195.14 2175
1344.91 1189.1 2164
1355.07 1193.5 2172
1360.27 1193.5 2172
1376.15 1202.84 2189
1381.38 1202.84 2189
1386.62 1202.84 2189
1391.85 1202.84 2189
1395.17 1201.19 2186
1402.32 1202.84 2189
1422.99 1216.02 2213
1428.28 1216.02 2213
1448.47 1228.66 2236
1465.52 1238.55 2254
1487.23 1252.29 2279
1492.68 1252.29 2279
1510.62 1262.73 2298
1516.11 1262.73 2298
1525.58 1266.03 2304
1531.09 1266.03 2304
1536.6 1266.03 2304
1542.11 1266.03 2304
1549.63 1267.68 2307
1555.15 1267.68 2307
1560.67 1267.68 2307
1564.15 1266.03 2304
1556.71 1255.59 2285
1562.18 1255.59 2285
1546.37 1238.55 2254
1551.76 1238.55 2254
1559.23 1240.2 2257
1564.62 1240.2 2257
1570.02 1240.2 2257
1569.14 1235.26 2248
1572.41 1233.61 2245
1567.24 1225.37 2230
1572.57 1225.37 2230
1573.66 1222.07 2224
1578.97 1222.07 2224
1610.65 1242.4 2261
1620.34 1245.7 2267
1625.77 1245.7 2267
1631.19 1245.7 2267
1632.28 1242.4 2261
1637.68 1242.4 2261
1633.64 1235.26 2248
1645.58 1240.2 2257
1653.9 1242.4 2261
1663.71 1245.7 2267
1669.13 1245.7 2267
1687.85 1255.59 2285
1700.73 1261.08 2295
1712.91 1266.03 2304
1723.64 1269.88 2311
1729.16 1269.88 2311
1734.69 1269.88 2311
1740.21 1269.88 2311
1745.74 1269.88 2311
1751.27 1269.88 2311
1746.91 1262.73 2298
1726.48 1244.05 2264
1731.89 1244.05 2264
-1692.87 1247.82 2261
-1687.46 1247.82 2261
-1672.38 1240.64 2248
-1667.01 1240.64 2248
-1643.89 1227.4 2224
-1612.79 1208.08 2189
-1597.27 1200.35 2175
-1586.21 1195.94 2167
-1581.03 1195.94 2167
-1571.49 1192.63 2161
-1561.97 1189.32 2155
-1548.87 1183.25 2144
-1543.74 1183.25 2144
-1529.29 1176.07 2131
-1517.75 1171.1 2122
-1511.25 1170 2120
-1507.6 1171.1 2122
-1502.53 1171.1 2122
-1501.69 1174.42 2128
-1498.71 1176.07 2131
-1493.61 1176.07 2131
-1488.52 1176.07 2131
-1483.42 1176.07 2131
-1485.96 1182.14 2142
-1480.84 1182.14 2142
-1475.71 1182.14 2142
-1479.52 1189.32 2155
-1483.94 1197.04 2169
-1480.8 1198.7 2172
-1533.35 1245.61 2257
-1534.73 1251.13 2267
-1533.35 1254.44 2273
-1527.92 1254.44 2273
-1524.49 1256.09 2276
-1519.05 1256.09 2276
-1513.61 1256.09 2276
-1508.16 1256.09 2276
-1468.39 1227.4 2224
-1463.07 1227.4 2224
-1485.94 1251.13 2267
-1480.52 1251.13 2267
-1475.09 1251.13 2267
-1469.67 1251.13 2267
-1473.94 1259.41 2282
-1468.48 1259.41 2282
-1463.03 1259.41 2282
-1457.57 1259.41 2282
-1448.29 1256.09 2276
-1450.46 1262.72 2288
-1444.99 1262.72 2288
-1439.52 1262.72 2288
-1436.55 1264.93 2292
-1431.07 1264.93 2292
-1425.59 1264.93 2292
-1421.97 1266.58 2295
-1418.33 1268.24 2298
-1416.53 1271.55 2304
-1411.02 1271.55 2304
-1405.51 1271.55 2304
-1400 1271.55 2304
-1394.49 1271.55 2304
-1387.17 1269.89 2301
-1373.86 1262.72 2288
-1363.01 1257.75 2279
-1357.56 1257.75 2279
-1348.55 1254.44 2273
-1339.57 1251.13 2267
-1326.5 1243.95 2254
-1321.11 1243.95 2254
-1315.72 1243.95 2254
-1314.39 1247.82 2261
-1310.72 1249.47 2264
-1307.04 1251.13 2267
-1301.62 1251.13 2267
-1296.2 1251.13 2267
-1289.07 1249.47 2264
-1283.66 1249.47 2264
-1278.24 1249.47 2264
-1265.52 1242.3 2251
-1256.78 1238.99 2245
-1251.41 1238.99 2245
-1246.04 1238.99 2245
-1249.51 1247.82 2261
-1244.11 1247.82 2261
-1238.7 1247.82 2261
-1231.11 1245.61 2257
-1225.71 1245.61 2257
-1224.1 1249.47 2264
-1218.69 1249.47 2264
-1213.27 1249.47 2264
-1207.86 1249.47 2264
-1200.85 1247.82 2261
-1195.45 1247.82 2261
-1183.2 1240.64 2248
-1169.96 1232.36 2233
-1163.06 1230.71 2230
-1165.51 1238.99 2245
-1160.14 1238.99 2245
-1157.86 1242.3 2251
-1155.55 1245.61 2257
-1155.25 1251.13 2267
-1149.83 1251.13 2267
-1144.41 1251.13 2267
-1138.99 1251.13 2267
-1133.57 1251.13 2267
-1128.14 1251.13 2267
-1116.29 1243.95 2254
-1109.42 1242.3 2251
-1104.03 1242.3 2251
-1100.12 1243.95 2254
-1094.73 1243.95 2254
-1089.34 1243.95 2254
-1087.31 1247.82 2261
-1081.9 1247.82 2261
-1076.5 1247.82 2261
-1067.78 1243.95 2254
-1062.39 1243.95 2254
-1057 1243.95 2254
-1051.61 1243.95 2254
-1046.22 1243.95 2254
-1036.67 1238.99 2245
-1031.3 1238.99 2245
-1023.19 1235.68 2239
-1016.47 1234.02 2236
-1011.13 1234.02 2236
-1005.78 1234.02 2236
-999.09 1232.36 2233
-993.75 1232.36 2233
-1003.46 1251.13 2267
-999.359 1252.78 2270
-993.931 1252.78 2270
-988.503 1252.78 2270
-983.075 1252.78 2270
-978.938 1254.44 2273
-973.503 1254.44 2273
-973.178 1261.06 2285
-968.985 1262.72 2288
-963.513 1262.72 2288
-958.042 1262.72 2288
-951.322 1261.06 2285
-945.858 1261.06 2285
-940.394 1261.06 2285
-932.474 1257.75 2279
-927.025 1257.75 2279
-920.362 1256.09 2276
-914.919 1256.09 2276
-908.278 1254.44 2273
-899.268 1249.47 2264
-897.407 1254.44 2273
-891.971 1254.44 2273
-886.536 1254.44 2273
-881.101 1254.44 2273
-875.665 1254.44 2273
-870.23 1254.44 2273
-862.512 1251.13 2267
-858.225 1252.78 2270
-853.923 1254.44 2273
-848.488 1254.44 2273
-843.053 1254.44 2273
-837.617 1254.44 2273
-832.182 1254.44 2273
-826.746 1254.44 2273
-821.311 1254.44 2273
-812.645 1249.47 2264
-807.231 1249.47 2264
-801.817 1249.47 2264
-796.403 1249.47 2264
-790.989 1249.47 2264
-785.575 1249.47 2264
-783.263 1254.44 2273
-777.827 1254.44 2273
-772.392 1254.44 2273
-763.92 1249.47 2264
-754.151 1242.3 2251
-748.768 1242.3 2251
-741.403 1238.99 2245
-731.117 1230.71 2230
-559.101 999.467 1811
-554.77 999.467 1811
-552.263 1002.78 1817
-547.918 1002.78 1817
-543.573 1002.78 1817
-539.228 1002.78 1817
-534.883 1002.78 1817
-531.706 1004.99 1821
-527.351 1004.99 1821
-522.997 1004.99 1821
-518.642 1004.99 1821
-513.723 1003.88 1819
-509.373 1003.88 1819
-505.023 1003.88 1819
-500.673 1003.88 1819
-496.869 1004.99 1821
-493.056 1006.09 1823
-488.696 1006.09 1823
-484.337 1006.09 1823
-480.504 1007.19 1825
-477.184 1009.4 1829
-473.327 1010.51 1831
-468.949 1010.51 1831
-465.078 1011.61 1833
-460.694 1011.61 1833
-456.809 1012.71 1835
-452.421 1012.71 1835
-448.033 1012.71 1835
-444.128 1013.82 1837
-439.736 1013.82 1837
-435.343 1013.82 1837
-430.95 1013.82 1837
-426.557 1013.82 1837
-422.164 1013.82 1837
-417.771 1013.82 1837
-413.379 1013.82 1837
-408.986 1013.82 1837
-404.593 1013.82 1837
-400.2 1013.82 1837
-396.238 1014.92 1839
-391.841 1014.92 1839
-387.443 1014.92 1839
-383.045 1014.92 1839
-378.236 1013.82 1837
-373.029 1011.61 1833
-368.646 1011.61 1833
-363.865 1010.51 1831
-359.094 1009.4 1829
-354.72 1009.4 1829
-350.347 1009.4 1829
-345.973 1009.4 1829
-341.226 1008.3 1827
-336.488 1007.19 1825
-331.76 1006.09 1823
-327.401 1006.09 1823
-323.041 1006.09 1823
-317.633 1002.78 1817
-312.943 1001.67 1815
-308.603 1001.67 1815
-303.927 1000.57 1813
-298.931 998.364 1809
-294.279 997.26 1807
-289.958 997.26 1807
-285.163 995.604 1804
-280.849 995.604 1804
-276.689 996.156 1805
-272.674 997.26 1807
-268.353 997.26 1807
-264.032 997.26 1807
-259.998 998.364 1809
-256.52 1001.67 1815
-252.18 1001.67 1815
-247.84 1001.67 1815
-243.768 1002.78 1817
-239.423 1002.78 1817
-235.078 1002.78 1817
-230.479 1001.67 1815
-226.388 1002.78 1817
-222.043 1002.78 1817
-217.938 1003.88 1819
-213.588 1003.88 1819
-209.238 1003.88 1819
-205.564 1007.19 1825
-201.421 1008.3 1827
-197.052 1008.3 1827
-193.105 1010.51 1831
-188.726 1010.51 1831
-184.348 1010.51 1831
-188.725 1206.43 2186
-183.498 1206.43 2186
-184.061 1245.61 2257
-178.663 1245.61 2257
-173.266 1245.61 2257
-167.869 1245.61 2257
-163.192 1251.13 2267
-157.771 1251.13 2267
-152.551 1252.78 2270
-147.123 1252.78 2270
-142.631 1261.06 2285
-137.587 1264.93 2292
-132.279 1266.58 2295
-126.791 1266.58 2295
-121.303 1266.58 2295
-115.462 1262.72 2288
-109.99 1262.72 2288
-104.519 1262.72 2288
-99.0478 1262.72 2288
-93.4538 1261.06 2285
-87.9897 1261.06 2285
-81.9838 1252.78 2270
-76.6567 1254.44 2273
-71.2213 1254.44 2273
-65.7858 1254.44 2273
-60.1115 1249.47 2264
-54.3835 1242.3 2251
-48.7394 1235.68 2239
-43.1528 1229.05 2227
-38.0821 1237.33 2242
-32.7208 1237.33 2242
-27.4327 1240.64 2248
-22.0571 1240.64 2248
-16.6814 1240.64 2248
-11.2756 1237.33 2242
-5.89057 1232.36 2233
-0.549315 1229.05 2227
4.77612 1229.05 2227
10.0108 1218.01 2207
15.2677 1216.36 2204
20.622 1221.33 2213
25.9139 1221.33 2213
31.2059 1221.33 2213
36.5308 1222.43 2215
41.9975 1227.4 2224
47.3157 1227.4 2224
52.634 1227.4 2224
57.9523 1227.4 2224
63.1852 1225.74 2221
68.5888 1227.4 2224
73.907 1227.4 2224
79.2253 1227.4 2224
84.5436 1227.4 2224
89.7406 1225.74 2221
95.6936 1234.02 2236
101.041 1234.02 2236
107.244 1243.95 2254
112.634 1243.95 2254
118.705 1251.13 2267
124.126 1251.13 2267
129.718 1252.78 2270
135.504 1256.09 2276
140.946 1256.09 2276
146.389 1256.09 2276
151.832 1256.09 2276
157.274 1256.09 2276
162.717 1256.09 2276
168.159 1256.09 2276
173.373 1254.44 2273
179.045 1256.09 2276
184.974 1259.41 2282
190.43 1259.41 2282
195.887 1259.41 2282
201.344 1259.41 2282
206.801 1259.41 2282
211.979 1257.75 2279
217.429 1257.75 2279
222.879 1257.75 2279
228.329 1257.75 2279
233.163 1254.44 2273
238.283 1252.78 2270
243.39 1251.13 2267
248.811 1251.13 2267
254.232 1251.13 2267
259.653 1251.13 2267
265.776 1254.44 2273
271.569 1256.09 2276
277.012 1256.09 2276
282.454 1256.09 2276
287.517 1254.44 2273
292.566 1252.78 2270
297.994 1252.78 2270
303.423 1252.78 2270
308.443 1251.13 2267
313.864 1251.13 2267
319.285 1251.13 2267
324.276 1249.47 2264
329.253 1247.82 2261
334.66 1247.82 2261
340.518 1249.47 2264
345.932 1249.47 2264
351.811 1251.13 2267
357.232 1251.13 2267
363.133 1252.78 2270
368.562 1252.78 2270
373.99 1252.78 2270
379.418 1252.78 2270
384.846 1252.78 2270
390.275 1252.78 2270
395.18 1251.13 2267
400.601 1251.13 2267
406.022 1251.13 2267
413.077 1256.09 2276
418.519 1256.09 2276
423.962 1256.09 2276
429.404 1256.09 2276
434.847 1256.09 2276
439.709 1254.44 2273
445.145 1254.44 2273
452.364 1259.41 2282
457.821 1259.41 2282
463.278 1259.41 2282
469.351 1261.06 2285
474.815 1261.06 2285
480.28 1261.06 2285
485.106 1259.41 2282
490.563 1259.41 2282
496.02 1259.41 2282
501.477 1259.41 2282
506.934 1259.41 2282
512.391 1259.41 2282
518.529 1261.06 2285
524.681 1262.72 2288
530.152 1262.72 2288
535.623 1262.72 2288
541.094 1262.72 2288
545.849 1261.06 2285
551.313 1261.06 2285
556.046 1259.41 2282
560.765 1257.75 2279
566.96 1259.41 2282
572.417 1259.41 2282
577.874 1259.41 2282
582.564 1257.75 2279
586.466 1254.44 2273
591.901 1254.44 2273
596.548 1252.78 2270
601.181 1251.13 2267
609.813 1257.75 2279
615.263 1257.75 2279
620.713 1257.75 2279
626.163 1257.75 2279
629.949 1254.44 2273
635.385 1254.44 2273
638.283 1249.47 2264
640.001 1242.3 2251
645.384 1242.3 2251
652.501 1245.61 2257
657.898 1245.61 2257
663.295 1245.61 2257
668.693 1245.61 2257
674.09 1245.61 2257
679.487 1245.61 2257
683.063 1242.3 2251
688.446 1242.3 2251
692.904 1240.64 2248
698.28 1240.64 2248
700.838 1235.68 2239
708.085 1238.99 2245
716.314 1243.95 2254
722.664 1245.61 2257
728.061 1245.61 2257
733.459 1245.61 2257
744.094 1254.44 2273
752.497 1259.41 2282
757.954 1259.41 2282
766.756 1264.93 2292
772.237 1264.93 2292
777.718 1264.93 2292
783.199 1264.93 2292
788.679 1264.93 2292
795.2 1266.58 2295
800.688 1266.58 2295
806.176 1266.58 2295
811.664 1266.58 2295
813.591 1261.06 2285
819.056 1261.06 2285
824.52 1261.06 2285
828.894 1259.41 2282
834.351 1259.41 2282
838.704 1257.75 2279
844.154 1257.75 2279
847.367 1254.44 2273
849.425 1249.47 2264
853.707 1247.82 2261
859.113 1247.82 2261
861.844 1243.95 2254
863.771 1238.99 2245
863.332 1230.71 2230
867.496 1229.05 2227
873.997 1230.71 2230
879.33 1230.71 2230
884.663 1230.71 2230
889.995 1230.71 2230
895.328 1230.71 2230
895.814 1224.09 2218
903.555 1227.4 2224
908.874 1227.4 2224
914.192 1227.4 2224
919.51 1227.4 2224
920.254 1221.33 2213
920.527 1214.7 2201
927.052 1216.36 2204
938.245 1224.09 2218
943.549 1224.09 2218
951.42 1227.4 2224
958.028 1229.05 2227
963.354 1229.05 2227
968.679 1229.05 2227
974.005 1229.05 2227
976.692 1225.74 2221
982.003 1225.74 2221
987.314 1225.74 2221
989.943 1222.43 2215
995.24 1222.43 2215
1003.25 1225.74 2221
1008.56 1225.74 2221
1026.19 1240.64 2248
1031.57 1240.64 2248
1038.33 1242.3 2251
1043.71 1242.3 2251
1057.95 1252.78 2270
1063.38 1252.78 2270
1068.81 1252.78 2270
1071.4 1249.47 2264
1066.35 1237.33 2242
1067.41 1232.36 2233
1066.98 1225.74 2221
1072.29 1225.74 2221
1077.6 1225.74 2221
1082.91 1225.74 2221
1088.22 1225.74 2221
1093.54 1225.74 2221
1095.88 1222.43 2215
1094.21 1214.7 2201
1097.98 1213.05 2198
1103.24 1213.05 2198
1108.49 1213.05 2198
1113.75 1213.05 2198
1119 1213.05 2198
1124.26 1213.05 2198
1124.89 1208.08 2189
1128.58 1206.43 2186
1132.77 1205.32 2184
1137.99 1205.32 2184
1144.26 1206.43 2186
1149.49 1206.43 2186
1154.71 1206.43 2186
1164.72 1211.39 2195
1169.97 1211.39 2195
1175.21 1211.39 2195
1180.46 1211.39 2195
1185.71 1211.39 2195
1190.96 1211.39 2195
1188.58 1203.67 2181
1199.82 1209.74 2192
1205.06 1209.74 2192
1210.3 1209.74 2192
1215.54 1209.74 2192
1220.78 1209.74 2192
1214.84 1198.7 2172
1226.77 1205.32 2184
1234.82 1208.08 2189
1240.05 1208.08 2189
1245.29 1208.08 2189
1250.52 1208.08 2189
1255.76 1208.08 2189
1258.11 1205.32 2184
1259.86 1202.01 2178
1271.46 1208.08 2189
1278.44 1209.74 2192
1283.68 1209.74 2192
1288.93 1209.74 2192
1292.4 1208.08 2189
1297.63 1208.08 2189
1298.1 1203.67 2181
1303.32 1203.67 2181
1303.14 1198.7 2172
1308.33 1198.7 2172
1313.52 1198.7 2172
1316.9 1197.04 2169
1327.57 1202.01 2178
1332.78 1202.01 2178
1337.99 1202.01 2178
1337.64 1197.04 2169
1339.73 1194.28 2164
1344.91 1194.28 2164
1353.2 1197.04 2169
1358.39 1197.04 2169
1373.01 1205.32 2184
1378.23 1205.32 2184
1383.45 1205.32 2184
1388.67 1205.32 2184
1395.17 1206.43 2186
1402.32 1208.08 2189
1422.99 1221.33 2213
1428.28 1221.33 2213
1448.47 1234.02 2236
1465.52 1243.95 2254
1487.23 1257.75 2279
1492.68 1257.75 2279
1510.62 1268.24 2298
1516.11 1268.24 2298
1525.58 1271.55 2304
1531.09 1271.55 2304
1536.6 1271.55 2304
1542.11 1271.55 2304
1549.63 1273.2 2307
1555.15 1273.2 2307
1560.67 1273.2 2307
1564.15 1271.55 2304
1556.71 1261.06 2285
1562.18 1261.06 2285
1546.37 1243.95 2254
1551.76 1243.95 2254
1559.23 1245.61 2257
1564.62 1245.61 2257
1570.02 1245.61 2257
1569.14 1240.64 2248
1572.41 1238.99 2245
1567.24 1230.71 2230
1572.57 1230.71 2230
1573.66 1227.4 2224
1578.97 1227.4 2224
1610.65 1247.82 2261
1620.34 1251.13 2267
1625.77 1251.13 2267
1631.19 1251.13 2267
1632.28 1247.82 2261
1637.68 1247.82 2261
1633.64 1240.64 2248
1645.58 1245.61 2257
1653.9 1247.82 2261
1663.71 1251.13 2267
1669.13 1251.13 2267
1687.85 1261.06 2285
1700.73 1266.58 2295
1712.91 1271.55 2304
1723.64 1275.41 2311
1729.16 1275.41 2311
1734.69 1275.41 2311
1740.21 1275.41 2311
1745.74 1275.41 2311
1751.27 1275.41 2311
1753.75 1273.2 2307
1726.48 1249.47 2264
1731.89 1249.47 2264
-1692.87 1253.23 2261
-1687.46 1253.23 2261
-1672.38 1246.03 2248
-1667.01 1246.03 2248
-1643.89 1232.72 2224
-1612.79 1213.32 2189
-1597.27 1205.56 2175
-1586.21 1201.13 2167
-1581.03 1201.13 2167
-1571.49 1197.8 2161
-1561.97 1194.48 2155
-1548.87 1188.38 2144
-1543.74 1188.38 2144
-1529.29 1181.18 2131
-1519.9 1177.85 2125
-1512.68 1176.19 2122
-1507.6 1176.19 2122
-1502.53 1176.19 2122
-1501.69 1179.51 2128
-1496.6 1179.51 2128
-1491.51 1179.51 2128
-1486.42 1179.51 2128
-1483.42 1181.18 2131
-1478.33 1181.18 2131
-1478.76 1185.61 2139
-1473.65 1185.61 2139
-1474.02 1190.04 2147
-1476.42 1196.14 2158
-1480.8 1203.9 2172
-1475.61 1203.9 2172
-1527.96 1251.02 2257
-1529.3 1256.56 2267
-1523.88 1256.56 2267
-1518.46 1256.56 2267
-1457.65 1210.55 2184
-1452.42 1210.55 2184
-1447.2 1210.55 2184
-1441.98 1210.55 2184
-1438.07 1211.66 2186
-1453.82 1229.4 2218
-1480.52 1256.56 2267
-1475.09 1256.56 2267
-1469.67 1256.56 2267
-1453.92 1247.69 2251
-1448.53 1247.69 2251
-1441.23 1246.03 2248
-1435.85 1246.03 2248
-1426.66 1242.7 2242
-1442.85 1261.55 2276
-1437.41 1261.55 2276
-1431.97 1261.55 2276
-1432.17 1266.54 2285
-1426.7 1266.54 2285
-1421.24 1266.54 2285
-1417.63 1268.2 2288
-1412.16 1268.2 2288
-1414.68 1275.4 2301
-1409.18 1275.4 2301
-1403.68 1275.4 2301
-1398.17 1275.4 2301
-1392.67 1275.4 2301
-1383.55 1272.08 2295
-1372.06 1266.54 2285
-1355.83 1256.56 2267
-1350.41 1256.56 2267
-1344.99 1256.56 2267
-1333.66 1251.02 2257
-1326.5 1249.35 2254
-1321.11 1249.35 2254
-1315.72 1249.35 2254
-1310.33 1249.35 2254
-1304.94 1249.35 2254
-1305.31 1254.9 2264
-1299.9 1254.9 2264
-1294.48 1254.9 2264
-1287.36 1253.23 2261
-1281.95 1253.23 2261
-1276.55 1253.23 2261
-1263.83 1246.03 2248
-1256.78 1244.36 2245
-1251.41 1244.36 2245
-1246.04 1244.36 2245
-1243.99 1247.69 2251
-1238.6 1247.69 2251
-1233.22 1247.69 2251
-1227.84 1247.69 2251
-1222.46 1247.69 2251
-1220.32 1251.02 2257
-1214.92 1251.02 2257
-1209.52 1251.02 2257
-1200.92 1247.69 2251
-1192.36 1244.36 2245
-1186.99 1244.36 2245
-1173.72 1236.05 2230
-1159.48 1226.63 2213
-1161.49 1234.39 2227
-1157.73 1236.05 2230
-1152.39 1236.05 2230
-1154.78 1244.36 2245
-1154.02 1249.35 2254
-1148.63 1249.35 2254
-1143.24 1249.35 2254
-1137.85 1249.35 2254
-1132.46 1249.35 2254
-1125.57 1247.69 2251
-1120.18 1247.69 2251
-1113.31 1246.03 2248
-1104.98 1242.7 2242
-1095.21 1237.71 2233
-1091.33 1239.38 2236
-1085.98 1239.38 2236
-1080.64 1239.38 2236
-1078.17 1242.7 2242
-1072.81 1242.7 2242
-1067.45 1242.7 2242
-1060.67 1241.04 2239
-1055.32 1241.04 2239
-1049.96 1241.04 2239
-1044.61 1241.04 2239
-1039.25 1241.04 2239
-1032.51 1239.38 2236
-1027.17 1239.38 2236
-1017.71 1234.39 2227
-1009.65 1231.06 2221
-1004.34 1231.06 2221
-1000.38 1232.72 2224
-995.063 1232.72 2224
-992.415 1236.05 2230
-993.722 1244.36 2245
-992.315 1249.35 2254
-986.925 1249.35 2254
-982.842 1251.02 2257
-977.445 1251.02 2257
-975.062 1254.9 2264
-969.648 1254.9 2264
-964.234 1254.9 2264
-967.714 1266.54 2285
-962.25 1266.54 2285
-956.786 1266.54 2285
-951.322 1266.54 2285
-943.374 1263.21 2279
-937.924 1263.21 2279
-932.474 1263.21 2279
-925.804 1261.55 2276
-919.149 1259.88 2273
-913.713 1259.88 2273
-907.079 1258.22 2270
-898.076 1253.23 2261
-896.222 1258.22 2270
-890.794 1258.22 2270
-885.366 1258.22 2270
-879.938 1258.22 2270
-874.509 1258.22 2270
-869.081 1258.22 2270
-862.512 1256.56 2267
-858.225 1258.22 2270
-853.923 1259.88 2273
-848.488 1259.88 2273
-843.053 1259.88 2273
-837.617 1259.88 2273
-832.182 1259.88 2273
-823.473 1254.9 2264
-818.059 1254.9 2264
-809.056 1249.35 2254
-803.666 1249.35 2254
-796.151 1246.03 2248
-790.775 1246.03 2248
-784.351 1244.36 2245
-782.106 1249.35 2254
-779.128 1253.23 2261
-773.721 1253.23 2261
-768.314 1253.23 2261
-757.509 1244.36 2245
-749.125 1239.38 2236
-743.778 1239.38 2236
-734.468 1232.72 2224
-729.15 1232.72 2224
-560.953 1007.13 1817
-556.608 1007.13 1817
-552.263 1007.13 1817
-547.918 1007.13 1817
-543.573 1007.13 1817
-539.228 1007.13 1817
-534.883 1007.13 1817
-530.538 1007.13 1817
-526.193 1007.13 1817
-521.848 1007.13 1817
-517.503 1007.13 1817
-513.158 1007.13 1817
-508.813 1007.13 1817
-505.023 1008.24 1819
-500.673 1008.24 1819
-496.324 1008.24 1819
-492.515 1009.35 1821
-488.696 1010.46 1823
-484.337 1010.46 1823
-480.504 1011.57 1825
-477.184 1013.78 1829
-473.327 1014.89 1831
-468.949 1014.89 1831
-464.57 1014.89 1831
-460.694 1016 1833
-456.311 1016 1833
-451.928 1016 1833
-448.033 1017.11 1835
-443.645 1017.11 1835
-439.257 1017.11 1835
-434.869 1017.11 1835
-430.481 1017.11 1835
-426.557 1018.22 1837
-422.164 1018.22 1837
-417.771 1018.22 1837
-413.379 1018.22 1837
-408.54 1017.11 1835
-404.152 1017.11 1835
-399.764 1017.11 1835
-395.807 1018.22 1837
-391.414 1018.22 1837
-387.022 1018.22 1837
-382.629 1018.22 1837
-378.236 1018.22 1837
-373.029 1016 1833
-368.646 1016 1833
-363.865 1014.89 1831
-359.094 1013.78 1829
-354.72 1013.78 1829
-350.347 1013.78 1829
-345.973 1013.78 1829
-341.226 1012.67 1827
-336.488 1011.57 1825
-331.76 1010.46 1823
-327.401 1010.46 1823
-322.687 1009.35 1821
-317.633 1007.13 1817
-312.598 1004.91 1813
-308.263 1004.91 1813
-303.592 1003.81 1811
-298.931 1002.7 1809
-294.279 1001.59 1807
-289.958 1001.59 1807
-285.163 999.926 1804
-280.849 999.926 1804
-276.689 1000.48 1805
-272.674 1001.59 1807
-268.353 1001.59 1807
-264.032 1001.59 1807
-259.998 1002.7 1809
-256.52 1006.02 1815
-252.18 1006.02 1815
-247.84 1006.02 1815
-243.768 1007.13 1817
-239.423 1007.13 1817
-235.078 1007.13 1817
-230.479 1006.02 1815
-226.388 1007.13 1817
-222.043 1007.13 1817
-217.938 1008.24 1819
-213.588 1008.24 1819
-209.238 1008.24 1819
-205.564 1011.57 1825
-201.421 1012.67 1827
-197.052 1012.67 1827
-193.105 1014.89 1831
-188.726 1014.89 1831
-184.348 1014.89 1831
-188.725 1211.66 2186
-183.498 1211.66 2186
-181.125 1231.06 2221
-176.526 1236.05 2230
-171.193 1236.05 2230
-165.861 1236.05 2230
-159.88 1231.06 2221
-154.36 1229.4 2218
-151.274 1247.69 2251
-145.891 1247.69 2251
-140.509 1247.69 2251
-135.726 1253.23 2261
-131.011 1259.88 2273
-125.576 1259.88 2273
-120.299 1261.55 2276
-114.856 1261.55 2276
-109.414 1261.55 2276
-103.971 1261.55 2276
-98.5283 1261.55 2276
-92.8403 1258.22 2270
