ply
format ascii 1.0
comment File generated
element vertex 2145
property float x
property float y
property float z
end_header
1653.62 -238.458 3740
1662.56 -238.458 3740
1671.51 -238.458 3740
2447.28 -260.072 4079
2457.03 -260.072 4079
2466.79 -260.072 4079
2464.4 -258.797 4059
2456.43 -256.948 4030
2466.07 -256.948 4030
2475.7 -256.948 4030
2485.34 -256.948 4030
2494.98 -256.948 4030
2498.4 -256.31 4020
2508.01 -256.31 4020
2505.73 -255.099 4001
2497.06 -253.25 3972
2488.89 -251.464 3944
2498.32 -251.464 3944
2507.75 -251.464 3944
2517.18 -251.464 3944
2526.62 -251.464 3944
2536.05 -251.464 3944
2527.41 -249.679 3916
2507.62 -246.81 3871
2516.88 -246.81 3871
2532.01 -247.384 3880
2541.29 -247.384 3880
2550.56 -247.384 3880
2583.59 -249.679 3916
2592.96 -249.679 3916
2602.32 -249.679 3916
2605.68 -249.105 3907
2609 -248.531 3898
2624.37 -249.105 3907
2633.71 -249.105 3907
2643.05 -249.105 3907
2652.4 -249.105 3907
2631.08 -246.236 3862
2652.62 -247.384 3880
2692.77 -250.253 3925
2702.16 -250.253 3925
2711.55 -250.253 3925
2766.69 -254.461 3991
2776.23 -254.461 3991
2785.77 -254.461 3991
2795.32 -254.461 3991
2791.51 -253.25 3972
2801.01 -253.25 3972
2713.57 -244.515 3835
2722.74 -244.515 3835
2725.5 -243.941 3826
2734.64 -243.941 3826
2738.06 -243.431 3818
2747.19 -243.431 3818
2756.32 -243.431 3818
2765.45 -243.431 3818
2780.39 -243.941 3826
2789.54 -243.941 3826
2798.69 -243.941 3826
2807.84 -243.941 3826
2816.99 -243.941 3826
2826.14 -243.941 3826
2835.29 -243.941 3826
2844.43 -243.941 3826
2853.58 -243.941 3826
2856.75 -243.431 3818
2859.12 -242.857 3809
2868.23 -242.857 3809
2903.78 -245.088 3844
2912.97 -245.088 3844
2949.53 -247.384 3880
2958.81 -247.384 3880
2968.08 -247.384 3880
-2580.85 -211.519 3447
-2572.61 -211.519 3447
-2564.37 -211.519 3447
-2524.98 -208.942 3405
-2537.53 -210.66 3433
-2529.32 -210.66 3433
-2521.12 -210.66 3433
-2518.03 -211.089 3440
-2509.8 -211.089 3440
-2501.58 -211.089 3440
-2493.35 -211.089 3440
-2485.13 -211.089 3440
-2476.9 -211.089 3440
-2468.67 -211.089 3440
-2450.43 -210.23 3426
-2447.23 -210.66 3433
-2439.02 -210.66 3433
-2445.68 -211.949 3454
-2437.42 -211.949 3454
-2439.01 -212.808 3468
-2436.32 -213.298 3476
-2428.01 -213.298 3476
-2419.7 -213.298 3476
-2405.84 -212.808 3468
-2438.33 -216.428 3527
-2429.9 -216.428 3527
-2436.57 -217.778 3549
-2428.08 -217.778 3549
-2456.41 -221.092 3603
-2447.79 -221.092 3603
-2455.43 -222.564 3627
-2456.87 -223.485 3642
-2458.92 -224.467 3658
-2450.17 -224.467 3658
-2447.43 -225.019 3667
-2449.3 -226.001 3683
-2456.4 -227.473 3707
-2447.53 -227.473 3707
-2449.85 -228.517 3724
-2446.19 -229.007 3732
-2464.7 -231.585 3774
-2455.67 -231.585 3774
-2446.65 -231.585 3774
-2443.43 -232.137 3783
-2467.85 -235.328 3835
-2458.68 -235.328 3835
-2449.51 -235.328 3835
-2440.34 -235.328 3835
-2431.17 -235.328 3835
-2389.16 -232.137 3783
-2348.02 -229.007 3732
-2329.07 -228.026 3716
-2304.57 -226.492 3691
-2295.75 -226.492 3691
-1829.11 -224.467 3658
-1820.36 -224.467 3658
-1811.61 -224.467 3658
-1791.53 -223.055 3635
-1771.06 -221.583 3611
-1739.98 -218.76 3565
-1731.45 -218.76 3565
-1722.93 -218.76 3565
-1692.76 -215.998 3520
-1536.06 -222.564 3627
-1574.97 -229.498 3740
-1566.03 -229.498 3740
-1557.09 -229.498 3740
-1531.17 -226.982 3699
-1505.45 -224.467 3658
-1496.71 -224.467 3658
-1472.09 -222.073 3619
-1460.2 -221.583 3611
-1448.35 -221.092 3603
-1439.74 -221.092 3603
-1412.85 -218.269 3557
-1401.19 -217.778 3549
-1378.18 -215.508 3512
-1369.78 -215.508 3512
-1358.67 -215.078 3505
-1341.81 -213.728 3483
-1314.34 -210.66 3433
-1295.48 -208.942 3405
-1287.34 -208.942 3405
-1263.42 -206.364 3363
-1247.91 -205.137 3343
-1230.27 -203.542 3317
-1222.34 -203.542 3317
-1211.84 -203.112 3310
-1201.38 -202.683 3303
-1188.79 -201.885 3290
-1180.92 -201.885 3290
-1168.77 -201.149 3278
-1156.33 -200.351 3265
-1143.95 -199.553 3252
-1136.17 -199.553 3252
-1128.4 -199.553 3252
-1114.07 -198.387 3233
-1106.34 -198.387 3233
-1098.61 -198.387 3233
-1090.88 -198.387 3233
-1085.16 -198.755 3239
-1077.41 -198.755 3239
-1069.67 -198.755 3239
-558.01 -104.44 1702
-553.94 -104.44 1702
-549.87 -104.44 1702
-544.837 -104.256 1699
-538.547 -103.827 1692
-534.501 -103.827 1692
-529.827 -103.704 1690
-525.786 -103.704 1690
-521.745 -103.704 1690
-517.704 -103.704 1690
-512.143 -103.397 1685
-507.209 -103.213 1682
-501.092 -102.783 1675
-493.526 -102.047 1663
-489.549 -102.047 1663
-480.9 -101.065 1647
-473.197 -100.267 1634
-467.854 -99.9607 1629
-463.958 -99.9607 1629
-457.521 -99.4084 1620
-452.247 -99.1016 1615
-446.997 -98.7948 1610
-443.147 -98.7948 1610
-438.205 -98.5493 1606
-433.554 -98.3652 1603
-427.844 -97.9357 1596
-422.965 -97.6902 1592
-419.158 -97.6902 1592
-414.046 -97.3834 1587
-409.217 -97.1379 1583
-404.92 -97.0152 1581
-401.139 -97.0152 1581
-396.353 -96.7698 1577
-391.337 -96.463 1572
-386.838 -96.2789 1569
-383.086 -96.2789 1569
-378.609 -96.0948 1566
-374.386 -95.972 1564
-370.172 -95.8493 1562
-366.436 -95.8493 1562
-362.005 -95.6652 1559
-358.047 -95.6039 1558
-353.866 -95.4811 1556
-350.595 -95.6039 1558
-346.87 -95.6039 1558
-343.144 -95.6039 1558
-339.636 -95.6652 1559
-335.908 -95.6652 1559
-332.18 -95.6652 1559
-329.927 -96.0948 1566
-326.599 -96.2175 1568
-324.085 -96.5857 1574
-320.321 -96.5857 1574
-317.16 -96.7698 1577
-314.581 -97.1379 1583
-311.385 -97.322 1586
-307.592 -97.322 1586
-304.566 -97.5675 1590
-301.71 -97.8743 1595
-298.456 -98.0584 1598
-294.634 -98.0584 1598
-291.905 -98.4266 1604
-288.429 -98.5493 1606
-285.651 -98.9175 1612
-281.797 -98.9175 1612
-278.459 -99.1016 1615
-274.937 -99.2243 1617
-271.573 -99.4084 1620
-268.691 -99.7766 1626
-264.803 -99.7766 1626
-261.235 -99.8993 1628
-257.817 -100.083 1631
-254.383 -100.267 1634
-250.476 -100.267 1634
-247.021 -100.452 1637
-243.552 -100.636 1640
-240.361 -100.942 1645
-236.427 -100.942 1645
-232.776 -101.065 1647
-229.533 -101.372 1652
-226.675 -101.863 1660
-222.705 -101.863 1660
-219.394 -102.17 1665
-216.06 -102.477 1670
-212.447 -102.661 1673
-208.446 -102.661 1673
-204.935 -102.906 1677
-202.123 -103.52 1687
-198.91 -103.949 1694
-194.859 -103.949 1694
-191.597 -104.379 1701
-187.86 -104.563 1704
-184.756 -105.115 1713
-180.66 -105.115 1713
-177.079 -105.422 1718
-173.373 -105.667 1722
-169.55 -105.852 1725
-165.425 -105.852 1725
-161.487 -105.974 1727
-157.54 -106.097 1729
-153.583 -106.22 1731
-149.443 -106.22 1731
-145.892 -106.649 1738
-142.306 -107.079 1745
-139.558 -108.183 1763
-135.343 -108.183 1763
-131.722 -108.674 1771
-128.063 -109.165 1779
-123.878 -109.227 1780
-119.622 -109.227 1780
-115.365 -109.227 1780
-111.608 -109.717 1788
-107.332 -109.717 1788
-103.057 -109.717 1788
-178.206 -227.473 3707
-169.341 -227.473 3707
-160.476 -227.473 3707
-151.285 -226.982 3699
-142.131 -226.492 3691
-133.305 -226.492 3691
-124.479 -226.492 3691
-115.652 -226.492 3691
-106.826 -226.492 3691
-97.9997 -226.492 3691
-89.1734 -226.492 3691
-80.173 -226.001 3683
-71.5208 -226.492 3691
-62.8304 -226.982 3699
-53.985 -226.982 3699
-45.1396 -226.982 3699
-36.2941 -226.982 3699
-27.4487 -226.982 3699
-18.6033 -226.982 3699
-9.75783 -226.982 3699
-0.912401 -226.982 3699
7.93303 -226.982 3699
16.7785 -226.982 3699
25.6239 -226.982 3699
34.4693 -226.982 3699
43.3148 -226.982 3699
52.1602 -226.982 3699
60.8737 -226.492 3691
69.7 -226.492 3691
78.5263 -226.492 3691
87.3526 -226.492 3691
96.1789 -226.492 3691
105.005 -226.492 3691
113.831 -226.492 3691
122.658 -226.492 3691
131.484 -226.492 3691
140.31 -226.492 3691
148.813 -226.001 3683
157.621 -226.001 3683
166.428 -226.001 3683
175.235 -226.001 3683
184.042 -226.001 3683
192.849 -226.001 3683
201.656 -226.001 3683
210.464 -226.001 3683
219.271 -226.001 3683
227.583 -225.51 3675
236.371 -225.51 3675
245.159 -225.51 3675
253.947 -225.51 3675
262.735 -225.51 3675
271.523 -225.51 3675
280.311 -225.51 3675
289.728 -226.001 3683
298.535 -226.001 3683
307.342 -226.001 3683
316.15 -226.001 3683
324.957 -226.001 3683
333.764 -226.001 3683
342.571 -226.001 3683
351.378 -226.001 3683
360.185 -226.001 3683
368.993 -226.001 3683
377.8 -226.001 3683
385.767 -225.51 3675
394.555 -225.51 3675
403.343 -225.51 3675
412.131 -225.51 3675
420.003 -225.019 3667
428.772 -225.019 3667
439.45 -226.001 3683
448.257 -226.001 3683
457.064 -226.001 3683
465.872 -226.001 3683
475.71 -226.492 3691
485.586 -226.982 3699
496.704 -228.026 3716
505.59 -228.026 3716
516.691 -229.007 3732
531.531 -231.585 3774
541.845 -232.137 3783
550.891 -232.137 3783
565.118 -234.285 3818
579.512 -236.432 3853
588.726 -236.432 3853
597.94 -236.432 3853
608.571 -236.985 3862
617.807 -236.985 3862
629.964 -238.089 3880
639.243 -238.089 3880
650.025 -238.641 3889
662.377 -239.746 3907
671.719 -239.746 3907
681.062 -239.746 3907
690.405 -239.746 3907
691.688 -236.985 3862
700.924 -236.985 3862
705.194 -235.328 3835
709.521 -233.732 3809
708.819 -230.542 3757
717.803 -230.542 3757
726.787 -230.542 3757
730.876 -229.007 3732
741.386 -229.498 3740
750.329 -229.498 3740
759.273 -229.498 3740
768.216 -229.498 3740
777.16 -229.498 3740
789.676 -230.542 3757
800.574 -231.094 3766
809.579 -231.094 3766
818.585 -231.094 3766
823.855 -230.051 3749
832.82 -230.051 3749
841.785 -230.051 3749
1010.19 -235.88 3844
1019.38 -235.88 3844
1028.57 -235.88 3844
1054.78 -239.746 3907
1071.74 -241.464 3935
1081.15 -241.464 3935
1095.55 -242.569 3953
1110.32 -243.735 3972
1119.81 -243.735 3972
1129.31 -243.735 3972
1138.81 -243.735 3972
1148.31 -243.735 3972
1157.81 -243.735 3972
1167.31 -243.735 3972
1182.43 -244.901 3991
1206.31 -247.846 4039
1218.98 -248.46 4049
1228.66 -248.46 4049
1238.35 -248.46 4049
1244.95 -247.846 4039
1254.61 -247.846 4039
1264.26 -247.846 4039
1271.08 -247.294 4030
1283.58 -247.846 4039
1302.84 -249.687 4069
1319.03 -250.914 4089
1328.8 -250.914 4089
1338.58 -250.914 4089
1348.36 -250.914 4089
1358.14 -250.914 4089
1593.07 -231.094 3766
1602.08 -231.094 3766
1611.08 -231.094 3766
1612.77 -230.051 3749
1621.74 -230.051 3749
1630.7 -230.051 3749
1628.74 -228.517 3724
1644.68 -229.498 3740
1653.62 -229.498 3740
1662.56 -229.498 3740
1671.51 -229.498 3740
2447.28 -250.301 4079
2457.03 -250.301 4079
2466.79 -250.301 4079
2464.4 -249.073 4059
2456.43 -247.294 4030
2471.57 -247.846 4039
2481.23 -247.846 4039
2490.89 -247.846 4039
2500.55 -247.846 4039
2498.4 -246.68 4020
2508.01 -246.68 4020
2505.73 -245.514 4001
2497.06 -243.735 3972
2488.89 -242.016 3944
2498.32 -242.016 3944
2507.75 -242.016 3944
2517.18 -242.016 3944
2526.62 -242.016 3944
2536.05 -242.016 3944
2527.41 -240.298 3916
2525.11 -239.194 3898
2528.58 -238.641 3889
2537.88 -238.641 3889
2558.97 -239.746 3907
2568.31 -239.746 3907
2583.59 -240.298 3916
2592.96 -240.298 3916
2602.32 -240.298 3916
2605.68 -239.746 3907
2609 -239.194 3898
2624.37 -239.746 3907
2633.71 -239.746 3907
2643.05 -239.746 3907
2652.4 -239.746 3907
2631.08 -236.985 3862
2652.62 -238.089 3880
2692.77 -240.851 3925
2702.16 -240.851 3925
2711.55 -240.851 3925
2766.69 -244.901 3991
2776.23 -244.901 3991
2785.77 -244.901 3991
2795.32 -244.901 3991
2791.51 -243.735 3972
2801.01 -243.735 3972
2713.57 -235.328 3835
2722.74 -235.328 3835
2725.5 -234.776 3826
2734.64 -234.776 3826
2738.06 -234.285 3818
2747.19 -234.285 3818
2756.32 -234.285 3818
2765.45 -234.285 3818
2780.39 -234.776 3826
2789.54 -234.776 3826
2798.69 -234.776 3826
2807.84 -234.776 3826
2816.99 -234.776 3826
2826.14 -234.776 3826
2835.29 -234.776 3826
2844.43 -234.776 3826
2853.58 -234.776 3826
2856.75 -234.285 3818
2859.12 -233.732 3809
2868.23 -233.732 3809
2903.78 -235.88 3844
2912.97 -235.88 3844
2949.53 -238.089 3880
2958.81 -238.089 3880
2968.08 -238.089 3880
-2580.85 -203.262 3447
-2572.61 -203.262 3447
-2564.37 -203.262 3447
-2524.98 -200.785 3405
-2537.53 -202.436 3433
-2529.32 -202.436 3433
-2521.12 -202.436 3433
-2518.03 -202.849 3440
-2509.8 -202.849 3440
-2501.58 -202.849 3440
-2493.35 -202.849 3440
-2485.13 -202.849 3440
-2476.9 -202.849 3440
-2468.67 -202.849 3440
-2450.43 -202.023 3426
-2447.23 -202.436 3433
-2439.02 -202.436 3433
-2445.68 -203.674 3454
-2437.42 -203.674 3454
-2439.01 -204.5 3468
-2436.32 -204.972 3476
-2428.01 -204.972 3476
-2419.7 -204.972 3476
-2405.84 -204.5 3468
-2438.33 -207.979 3527
-2429.9 -207.979 3527
-2436.57 -209.276 3549
-2428.08 -209.276 3549
-2456.41 -212.461 3603
-2447.79 -212.461 3603
-2455.43 -213.876 3627
-2456.87 -214.76 3642
-2458.92 -215.704 3658
-2450.17 -215.704 3658
-2447.43 -216.235 3667
-2449.3 -217.178 3683
-2451.1 -218.121 3699
-2442.25 -218.121 3699
-2444.59 -219.124 3716
-2446.19 -220.067 3732
-2459.47 -222.072 3766
-2450.47 -222.072 3766
-2446.65 -222.544 3774
-2443.43 -223.075 3783
-2456.91 -225.139 3818
-2447.78 -225.139 3818
-2438.65 -225.139 3818
-2429.52 -225.139 3818
-2420.39 -225.139 3818
-2389.16 -223.075 3783
-2348.02 -220.067 3732
-2323.43 -218.593 3707
-2304.57 -217.65 3691
-2295.75 -217.65 3691
-1829.11 -215.704 3658
-1820.36 -215.704 3658
-1811.61 -215.704 3658
-1791.53 -214.348 3635
-1771.06 -212.932 3611
-1739.98 -210.22 3565
-1731.45 -210.22 3565
-1722.93 -210.22 3565
-1692.76 -207.566 3520
-1536.06 -213.876 3627
-1544.23 -216.235 3667
-1535.46 -216.235 3667
-1526.69 -216.235 3667
-1501.37 -213.876 3627
-1489.4 -213.404 3619
-1480.75 -213.404 3619
-1465.59 -212.461 3603
-1456.97 -212.461 3603
-1439.11 -211.104 3580
-1430.55 -211.104 3580
-1412.85 -209.748 3557
-1401.19 -209.276 3549
-1378.18 -207.095 3512
-1369.78 -207.095 3512
-1358.67 -206.682 3505
-1341.81 -205.384 3483
-1314.34 -202.436 3433
-1295.48 -200.785 3405
-1287.34 -200.785 3405
-1263.42 -198.308 3363
-1247.91 -197.129 3343
-1230.27 -195.596 3317
-1222.34 -195.596 3317
-1211.84 -195.183 3310
-1201.38 -194.77 3303
-1188.79 -194.004 3290
-1180.92 -194.004 3290
-1168.77 -193.296 3278
-1156.33 -192.53 3265
-1143.95 -191.763 3252
-1136.17 -191.763 3252
-1128.4 -191.763 3252
-1114.07 -190.643 3233
-1106.34 -190.643 3233
-1098.61 -190.643 3233
-1090.88 -190.643 3233
-1085.16 -190.996 3239
-1077.41 -190.996 3239
-1069.67 -190.996 3239
-558.01 -100.363 1702
-553.94 -100.363 1702
-549.87 -100.363 1702
-544.837 -100.186 1699
-538.547 -99.7733 1692
-534.501 -99.7733 1692
-529.827 -99.6554 1690
-525.786 -99.6554 1690
-521.745 -99.6554 1690
-517.704 -99.6554 1690
-512.143 -99.3606 1685
-507.209 -99.1837 1682
-501.092 -98.7709 1675
-493.526 -98.0633 1663
-489.549 -98.0633 1663
-480.316 -97.0019 1645
-473.197 -96.3532 1634
-467.854 -96.0584 1629
-463.958 -96.0584 1629
-456.674 -95.3508 1617
-451.687 -95.1149 1613
-446.164 -94.7611 1607
-442.321 -94.7611 1607
-437.387 -94.5252 1603
-432.201 -94.2304 1598
-427.04 -93.9355 1593
-421.636 -93.5817 1587
-417.841 -93.5817 1587
-413.264 -93.4048 1584
-408.7 -93.2279 1581
-404.151 -93.051 1578
-400.378 -93.051 1578
-395.599 -92.8151 1574
-391.088 -92.6382 1571
-386.838 -92.5203 1569
-383.086 -92.5203 1569
-378.609 -92.3434 1566
-374.386 -92.2255 1564
-370.172 -92.1075 1562
-366.436 -92.1075 1562
-362.005 -91.9306 1559
-358.047 -91.8717 1558
-353.866 -91.7537 1556
-350.145 -91.7537 1556
-346.424 -91.7537 1556
-343.144 -91.8717 1558
-339.418 -91.8717 1558
-335.908 -91.9306 1559
-332.18 -91.9306 1559
-329.927 -92.3434 1566
-326.182 -92.3434 1566
-324.085 -92.8151 1574
-320.321 -92.8151 1574
-317.16 -92.9921 1577
-314.581 -93.3459 1583
-311.385 -93.5228 1586
-307.592 -93.5228 1586
-304.566 -93.7586 1590
-301.71 -94.0535 1595
-298.456 -94.2304 1598
-294.634 -94.2304 1598
-291.905 -94.5842 1604
-288.429 -94.7021 1606
-285.651 -95.0559 1612
-281.797 -95.0559 1612
-278.459 -95.2328 1615
-274.937 -95.3508 1617
-271.573 -95.5277 1620
-268.691 -95.8815 1626
-264.803 -95.8815 1626
-261.235 -95.9994 1628
-257.817 -96.1763 1631
-254.383 -96.3532 1634
-250.476 -96.3532 1634
-247.021 -96.5301 1637
-243.552 -96.707 1640
-240.361 -97.0019 1645
-236.427 -97.0019 1645
-232.776 -97.1198 1647
-229.533 -97.4146 1652
-226.675 -97.8864 1660
-222.705 -97.8864 1660
-219.394 -98.1812 1665
-216.06 -98.476 1670
-212.447 -98.6529 1673
-208.446 -98.6529 1673
-204.935 -98.8888 1677
-202.123 -99.4785 1687
-198.91 -99.8913 1694
-194.859 -99.8913 1694
-191.597 -100.304 1701
-187.86 -100.481 1704
-184.756 -101.012 1713
-180.66 -101.012 1713
-177.079 -101.306 1718
-173.373 -101.542 1722
-169.55 -101.719 1725
-165.425 -101.719 1725
-161.487 -101.837 1727
-157.54 -101.955 1729
-153.583 -102.073 1731
-149.443 -102.073 1731
-145.892 -102.486 1738
-142.306 -102.899 1745
-139.558 -103.96 1763
-135.343 -103.96 1763
-131.722 -104.432 1771
-128.063 -104.904 1779
-123.878 -104.962 1780
-119.622 -104.962 1780
-115.365 -104.962 1780
-111.608 -105.434 1788
-107.332 -105.434 1788
-103.057 -105.434 1788
-178.206 -218.593 3707
-169.341 -218.593 3707
-160.476 -218.593 3707
-151.285 -218.121 3699
-142.131 -217.65 3691
-133.305 -217.65 3691
-124.209 -217.178 3683
-115.402 -217.178 3683
-106.594 -217.178 3683
-97.7873 -217.178 3683
-88.9801 -217.178 3683
-79.9988 -216.706 3675
-71.3658 -217.178 3683
-62.6945 -217.65 3691
-53.8682 -217.65 3691
-45.0419 -217.65 3691
-36.2156 -217.65 3691
-27.3893 -217.65 3691
-18.563 -217.65 3691
-9.73673 -217.65 3691
-0.912401 -218.121 3699
7.93303 -218.121 3699
16.7785 -218.121 3699
25.6239 -218.121 3699
34.3948 -217.65 3691
43.2211 -217.65 3691
52.0474 -217.65 3691
60.8737 -217.65 3691
69.7 -217.65 3691
78.5263 -217.65 3691
87.3526 -217.65 3691
96.1789 -217.65 3691
105.005 -217.65 3691
113.831 -217.65 3691
122.658 -217.65 3691
131.199 -217.178 3683
140.006 -217.178 3683
148.49 -216.706 3675
157.278 -216.706 3675
166.066 -216.706 3675
174.854 -216.706 3675
183.642 -216.706 3675
192.43 -216.706 3675
201.218 -216.706 3675
210.006 -216.706 3675
218.794 -216.706 3675
227.583 -216.706 3675
236.371 -216.706 3675
245.159 -216.706 3675
253.947 -216.706 3675
262.735 -216.706 3675
271.523 -216.706 3675
280.311 -216.706 3675
289.728 -217.178 3683
298.535 -217.178 3683
307.342 -217.178 3683
316.15 -217.178 3683
324.957 -217.178 3683
333.764 -217.178 3683
342.571 -217.178 3683
351.378 -217.178 3683
360.185 -217.178 3683
368.993 -217.178 3683
377.8 -217.178 3683
385.767 -216.706 3675
394.555 -216.706 3675
403.343 -216.706 3675
412.131 -216.706 3675
420.003 -216.235 3667
428.772 -216.235 3667
439.45 -217.178 3683
448.257 -217.178 3683
457.064 -217.178 3683
465.872 -217.178 3683
475.71 -217.65 3691
485.586 -218.121 3699
496.704 -219.124 3716
505.59 -219.124 3716
515.584 -219.596 3724
529.137 -221.542 3757
540.556 -222.544 3774
549.581 -222.544 3774
561.27 -223.605 3792
572.894 -224.608 3809
582.003 -224.608 3809
591.111 -224.608 3809
600.22 -224.608 3809
610.768 -225.139 3818
625.581 -227.203 3853
634.794 -227.203 3853
644.008 -227.203 3853
653.222 -227.203 3853
662.435 -227.203 3853
671.649 -227.203 3853
674.678 -225.139 3818
680.584 -224.077 3800
689.671 -224.077 3800
695.632 -223.075 3783
699.835 -221.542 3757
702.593 -219.596 3724
711.498 -219.596 3724
720.404 -219.596 3724
729.309 -219.596 3724
741.386 -220.539 3740
750.329 -220.539 3740
759.273 -220.539 3740
768.216 -220.539 3740
777.16 -220.539 3740
789.676 -221.542 3757
800.574 -222.072 3766
809.579 -222.072 3766
818.585 -222.072 3766
823.855 -221.07 3749
832.82 -221.07 3749
841.785 -221.07 3749
1010.19 -226.672 3844
1019.38 -226.672 3844
1028.57 -226.672 3844
1040.2 -227.203 3853
1066.57 -230.917 3916
1075.93 -230.917 3916
1087.79 -231.448 3925
1102.49 -232.569 3944
1111.92 -232.569 3944
1121.35 -232.569 3944
1130.78 -232.569 3944
1137.61 -232.038 3935
1149.65 -232.569 3944
1159.08 -232.569 3944
1182.43 -235.34 3991
1203.62 -237.64 4030
1215.97 -238.171 4039
1225.63 -238.171 4039
1235.29 -238.171 4039
1244.95 -238.171 4039
1254.61 -238.171 4039
1264.26 -238.171 4039
1271.08 -237.64 4030
1283.58 -238.171 4039
1302.84 -239.94 4069
1319.03 -241.119 4089
1328.8 -241.119 4089
1338.58 -241.119 4089
1593.07 -222.072 3766
1602.08 -222.072 3766
1611.08 -222.072 3766
1612.77 -221.07 3749
1621.74 -221.07 3749
1630.7 -221.07 3749
1628.74 -219.596 3724
1644.68 -220.539 3740
1653.62 -220.539 3740
1662.56 -220.539 3740
1671.51 -220.539 3740
2447.28 -240.529 4079
2457.03 -240.529 4079
2466.79 -240.529 4079
2458.33 -238.76 4049
2456.43 -237.64 4030
2471.57 -238.171 4039
2481.23 -238.171 4039
2490.89 -238.171 4039
2500.55 -238.171 4039
2498.4 -237.05 4020
2508.01 -237.05 4020
2499.46 -235.34 3991
2491.4 -233.689 3963
2488.89 -232.569 3944
2498.32 -232.569 3944
2507.75 -232.569 3944
2517.18 -232.569 3944
2526.62 -232.569 3944
2536.05 -232.569 3944
2527.41 -230.917 3916
2525.11 -229.856 3898
2528.58 -229.325 3889
2537.88 -229.325 3889
2558.97 -230.387 3907
2568.31 -230.387 3907
2583.59 -230.917 3916
2592.96 -230.917 3916
2602.32 -230.917 3916
2605.68 -230.387 3907
2609 -229.856 3898
2624.37 -230.387 3907
2633.71 -230.387 3907
2643.05 -230.387 3907
2652.4 -230.387 3907
2631.08 -227.733 3862
2652.62 -228.795 3880
2692.77 -231.448 3925
2702.16 -231.448 3925
2711.55 -231.448 3925
2747.28 -233.689 3963
2763.01 -234.22 3972
2772.51 -234.22 3972
2782.01 -234.22 3972
2695.22 -226.141 3835
2704.4 -226.141 3835
2713.57 -226.141 3835
2710.67 -225.139 3818
2701.28 -223.605 3792
2710.34 -223.605 3792
2706.5 -222.544 3774
2715.53 -222.544 3774
2724.55 -222.544 3774
2733.58 -222.544 3774
2761.5 -224.077 3800
2770.58 -224.077 3800
2779.67 -224.077 3800
2795.36 -224.608 3809
2804.47 -224.608 3809
2813.58 -224.608 3809
2822.69 -224.608 3809
2831.8 -224.608 3809
2840.9 -224.608 3809
2843.28 -224.077 3800
2826.84 -222.072 3766
2835.85 -222.072 3766
2864.5 -223.605 3792
2893.27 -225.139 3818
2902.4 -225.139 3818
2911.53 -225.139 3818
2920.66 -225.139 3818
-2580.85 -195.004 3447
-2572.61 -195.004 3447
-2564.37 -195.004 3447
-2524.98 -192.628 3405
-2522.01 -193.024 3412
-2513.85 -193.024 3412
-2521.12 -194.212 3433
-2512.91 -194.212 3433
-2514.91 -195.004 3447
-2506.67 -195.004 3447
-2503.5 -195.4 3454
-2495.24 -195.4 3454
-2486.98 -195.4 3454
-2478.72 -195.4 3454
-2460.45 -194.608 3440
-2452.22 -194.608 3440
-2448.97 -195.004 3447
-2455.59 -196.192 3468
-2447.3 -196.192 3468
-2449.56 -197.041 3483
-2441.23 -197.041 3483
-2432.9 -197.041 3483
-2424.57 -197.041 3483
-2416.24 -197.041 3483
-2453.54 -200.775 3549
-2445.05 -200.775 3549
-2442.06 -201.227 3557
-2443.82 -202.076 3572
-2467.32 -204.735 3619
-2458.66 -204.735 3619
-2460.84 -205.64 3635
-2456.87 -206.036 3642
-2458.92 -206.941 3658
-2450.17 -206.941 3658
-2447.43 -207.45 3667
-2443.98 -207.903 3675
-2451.1 -209.261 3699
-2442.25 -209.261 3699
-2433.41 -209.261 3699
-2440.95 -210.675 3724
-2437.27 -211.127 3732
-2428.34 -211.127 3732
-2441.46 -213.051 3766
-2437.62 -213.503 3774
-2451.12 -215.483 3809
-2442.01 -215.483 3809
-2432.9 -215.483 3809
-2423.79 -215.483 3809
-2414.69 -215.483 3809
-2372.74 -212.542 3757
-2348.02 -211.127 3732
-2318.42 -209.261 3699
-2299.58 -208.355 3683
-2290.77 -208.355 3683
-1914.83 -211.58 3740
-1905.88 -211.58 3740
-1896.94 -211.58 3740
-1888 -211.58 3740
-1875.03 -211.127 3732
-1845.61 -208.808 3691
-1836.78 -208.808 3691
-1811.61 -206.941 3658
-1791.53 -205.64 3635
-1771.06 -204.282 3611
-1739.98 -201.68 3565
-1731.45 -201.68 3565
-1722.93 -201.68 3565
-1692.76 -199.134 3520
-1680.52 -198.682 3512
-1672.12 -198.682 3512
-1660.41 -198.286 3505
-1648.25 -197.833 3497
-1636.61 -197.437 3490
-1628.26 -197.437 3490
-1525.9 -203.83 3603
-1517.28 -203.83 3603
-1508.67 -203.83 3603
-1500.05 -203.83 3603
-1491.43 -203.83 3603
-1473.35 -202.528 3580
-1464.79 -202.528 3580
-1456.23 -202.528 3580
-1447.67 -202.528 3580
-1433.08 -201.68 3565
-1424.55 -201.68 3565
-1409.67 -200.775 3549
-1395.26 -199.926 3534
-1378.18 -198.682 3512
-1369.78 -198.682 3512
-1352.86 -197.437 3490
-1341.81 -197.041 3483
-1314.34 -194.212 3433
-1295.48 -192.628 3405
-1287.34 -192.628 3405
-1263.42 -190.252 3363
-1247.91 -189.121 3343
-1230.27 -187.65 3317
-1222.34 -187.65 3317
-1211.84 -187.254 3310
-1201.38 -186.858 3303
-1188.79 -186.122 3290
-1180.92 -186.122 3290
-1168.77 -185.444 3278
-1156.33 -184.708 3265
-1143.95 -183.973 3252
-1136.17 -183.973 3252
-1128.4 -183.973 3252
-1114.07 -182.898 3233
-1106.34 -182.898 3233
-1098.61 -182.898 3233
-1090.88 -182.898 3233
-1083.15 -182.898 3233
-1075.42 -182.898 3233
-1067.69 -182.898 3233
-558.01 -96.2859 1702
-553.94 -96.2859 1702
-549.87 -96.2859 1702
-544.196 -96.003 1697
-538.547 -95.7201 1692
-534.501 -95.7201 1692
-529.827 -95.607 1690
-525.786 -95.607 1690
-521.745 -95.607 1690
-517.704 -95.607 1690
-512.143 -95.3241 1685
-507.209 -95.1544 1682
-501.092 -94.7584 1675
-493.229 -94.023 1662
-489.254 -94.023 1662
-480.024 -93.0047 1644
-472.328 -92.2692 1631
-466.992 -91.9864 1626
-463.104 -91.9864 1626
-456.109 -91.3641 1615
-451.407 -91.1944 1612
-445.053 -90.6852 1603
-441.22 -90.6852 1603
-436.841 -90.5721 1601
-431.66 -90.2892 1596
-426.235 -89.9498 1590
-420.839 -89.6103 1584
-417.051 -89.6103 1584
-412.481 -89.4406 1581
-407.925 -89.2709 1578
-403.383 -89.1012 1575
-399.617 -89.1012 1575
-394.845 -88.8749 1571
-390.59 -88.7618 1569
-386.838 -88.7618 1569
-383.086 -88.7618 1569
-378.609 -88.592 1566
-374.386 -88.4789 1564
-369.935 -88.3092 1561
-366.202 -88.3092 1561
-362.005 -88.196 1559
-358.047 -88.1395 1558
-353.866 -88.0263 1556
-350.145 -88.0263 1556
-346.424 -88.0263 1556
-343.144 -88.1395 1558
-339.418 -88.1395 1558
-335.693 -88.1395 1558
-331.967 -88.1395 1558
-329.716 -88.5355 1565
-326.182 -88.592 1566
-323.673 -88.9315 1572
-319.914 -88.9315 1572
-317.16 -89.2143 1577
-314.581 -89.5538 1583
-311.385 -89.7235 1586
-307.592 -89.7235 1586
-304.949 -90.0629 1592
-301.71 -90.2326 1595
-298.456 -90.4024 1598
-294.634 -90.4024 1598
-291.723 -90.6852 1603
-288.429 -90.8549 1606
-285.651 -91.1944 1612
-281.797 -91.1944 1612
-278.459 -91.3641 1615
-274.937 -91.4772 1617
-271.573 -91.6469 1620
-268.36 -91.8732 1624
-264.477 -91.8732 1624
-261.235 -92.0995 1628
-257.817 -92.2692 1631
-254.383 -92.4389 1634
-250.476 -92.4389 1634
-247.021 -92.6087 1637
-243.552 -92.7784 1640
-240.361 -93.0612 1645
-236.427 -93.0612 1645
-232.918 -93.231 1648
-229.672 -93.5138 1653
-226.675 -93.9098 1660
-222.705 -93.9098 1660
-219.394 -94.1927 1665
-216.06 -94.4755 1670
-212.447 -94.6453 1673
-208.446 -94.6453 1673
-204.69 -94.7584 1675
-201.643 -95.211 1683
-198.441 -95.607 1690
-194.399 -95.607 1690
-190.921 -95.8899 1695
-187.529 -96.2293 1701
-184.325 -96.6819 1709
-180.238 -96.6819 1709
-176.77 -97.0213 1715
-173.172 -97.3042 1720
-169.55 -97.587 1725
-165.425 -97.587 1725
-161.487 -97.7002 1727
-157.358 -97.7002 1727
-153.583 -97.9265 1731
-149.443 -97.9265 1731
-145.892 -98.3225 1738
-142.47 -98.8316 1747
-139.558 -99.7368 1763
-135.343 -99.7368 1763
-131.871 -100.302 1773
-128.135 -100.698 1780
-124.157 -100.925 1784
-119.89 -100.925 1784
-115.884 -101.151 1788
-111.608 -101.151 1788
-107.332 -101.151 1788
-103.057 -101.151 1788
-178.206 -209.713 3707
-169.341 -209.713 3707
-160.476 -209.713 3707
-151.285 -209.261 3699
-142.439 -209.261 3699
-133.594 -209.261 3699
-124.479 -208.808 3691
-115.652 -208.808 3691
-106.826 -208.808 3691
-97.9997 -208.808 3691
-89.1734 -208.808 3691
-80.173 -208.355 3683
-71.3658 -208.355 3683
-62.6945 -208.808 3691
-53.8682 -208.808 3691
-45.0419 -208.808 3691
-36.1371 -208.355 3683
-27.33 -208.355 3683
-18.563 -208.808 3691
-9.73673 -208.808 3691
-0.910428 -208.808 3691
7.91587 -208.808 3691
16.7422 -208.808 3691
25.5685 -208.808 3691
34.3948 -208.808 3691
43.1274 -208.355 3683
51.9346 -208.355 3683
60.7417 -208.355 3683
69.5489 -208.355 3683
78.3561 -208.355 3683
87.1632 -208.355 3683
95.9704 -208.355 3683
104.778 -208.355 3683
113.585 -208.355 3683
122.392 -208.355 3683
131.199 -208.355 3683
140.006 -208.355 3683
148.49 -207.903 3675
157.278 -207.903 3675
166.066 -207.903 3675
174.854 -207.903 3675
183.642 -207.903 3675
192.43 -207.903 3675
201.218 -207.903 3675
210.006 -207.903 3675
218.794 -207.903 3675
227.087 -207.45 3667
235.856 -207.45 3667
244.625 -207.45 3667
253.394 -207.45 3667
262.735 -207.903 3675
271.523 -207.903 3675
280.311 -207.903 3675
289.728 -208.355 3683
298.535 -208.355 3683
307.342 -208.355 3683
316.15 -208.355 3683
324.957 -208.355 3683
333.764 -208.355 3683
342.571 -208.355 3683
351.378 -208.355 3683
360.185 -208.355 3683
368.993 -208.355 3683
377.8 -208.355 3683
386.607 -208.355 3683
395.414 -208.355 3683
403.343 -207.903 3675
412.131 -207.903 3675
420.003 -207.45 3667
429.707 -207.903 3675
440.405 -208.808 3691
449.231 -208.808 3691
458.057 -208.808 3691
466.883 -208.808 3691
476.741 -209.261 3699
485.586 -209.261 3699
496.704 -210.222 3716
505.59 -210.222 3716
516.691 -211.127 3732
526.742 -211.58 3740
536.975 -212.089 3749
545.94 -212.089 3749
558.605 -213.503 3774
570.337 -214.522 3792
582.003 -215.483 3809
591.111 -215.483 3809
600.22 -215.483 3809
609.328 -215.483 3809
621.197 -216.445 3826
630.346 -216.445 3826
642.504 -217.463 3844
651.696 -217.463 3844
660.888 -217.463 3844
668.511 -216.954 3835
674.678 -215.993 3818
677.539 -214.013 3783
686.586 -214.013 3783
690.851 -212.542 3757
695.178 -211.127 3732
701.084 -210.222 3716
708.25 -209.713 3707
720.404 -210.675 3724
729.309 -210.675 3724
741.386 -211.58 3740
750.329 -211.58 3740
759.273 -211.58 3740
768.216 -211.58 3740
777.16 -211.58 3740
789.676 -212.542 3757
800.574 -213.051 3766
809.579 -213.051 3766
818.585 -213.051 3766
823.855 -212.089 3749
832.82 -212.089 3749
841.785 -212.089 3749
848.707 -211.58 3740
1010.19 -217.463 3844
1019.38 -217.463 3844
1028.57 -217.463 3844
1037.77 -217.463 3844
1049.41 -217.973 3853
1058.62 -217.973 3853
1070.33 -218.482 3862
1097.18 -222.046 3925
1106.56 -222.046 3925
1115.95 -222.046 3925
1122.76 -221.537 3916
1132.12 -221.537 3916
1147.02 -222.612 3935
1156.43 -222.612 3935
1182.43 -225.78 3991
1200.64 -227.42 4020
1213.26 -227.986 4030
1222.9 -227.986 4030
1235.29 -228.495 4039
1244.95 -228.495 4039
1254.61 -228.495 4039
1264.26 -228.495 4039
1271.08 -227.986 4030
1280.72 -227.986 4030
1299.64 -229.626 4059
1319.03 -231.324 4089
1328.8 -231.324 4089
1338.58 -231.324 4089
1543.69 -208.808 3691
1552.52 -208.808 3691
1593.07 -213.051 3766
1602.08 -213.051 3766
1611.08 -213.051 3766
1605.46 -211.127 3732
1614.39 -211.127 3732
1619.83 -210.675 3724
1617.8 -209.261 3699
1623.13 -208.808 3691
1631.96 -208.808 3691
1640.78 -208.808 3691
1649.61 -208.808 3691
2437.53 -230.758 4079
2447.28 -230.758 4079
2457.03 -230.758 4079
2466.79 -230.758 4079
2458.33 -229.061 4049
2461.91 -228.495 4039
2471.57 -228.495 4039
2481.23 -228.495 4039
2490.89 -228.495 4039
2500.55 -228.495 4039
2498.4 -227.42 4020
2508.01 -227.42 4020
2499.46 -225.78 3991
2491.4 -224.196 3963
2488.89 -223.121 3944
2498.32 -223.121 3944
2507.75 -223.121 3944
2517.18 -223.121 3944
2526.62 -223.121 3944
2536.05 -223.121 3944
2533.22 -222.046 3925
2530.94 -221.028 3907
2534.43 -220.518 3898
2543.75 -220.518 3898
2558.97 -221.028 3907
2568.31 -221.028 3907
2583.59 -221.537 3916
2592.96 -221.537 3916
2602.32 -221.537 3916
2605.68 -221.028 3907
2609 -220.518 3898
2618.32 -220.518 3898
2627.65 -220.518 3898
2636.97 -220.518 3898
2615.74 -217.973 3853
2618.82 -217.463 3844
2646.47 -218.991 3871
2655.73 -218.991 3871
2664.98 -218.991 3871
2674.24 -218.991 3871
2689.74 -219.5 3880
2699.02 -219.5 3880
2708.29 -219.5 3880
2717.57 -219.5 3880
2605.27 -209.713 3707
2614.13 -209.713 3707
2623 -209.713 3707
2614.82 -208.355 3683
2623.63 -208.355 3683
2661.74 -210.675 3724
2670.65 -210.675 3724
2679.55 -210.675 3724
2688.46 -210.675 3724
2697.36 -210.675 3724
2706.27 -210.675 3724
2715.17 -210.675 3724
2724.08 -210.675 3724
2732.98 -210.675 3724
2741.89 -210.675 3724
2750.79 -210.675 3724
2765.63 -211.127 3732
2774.55 -211.127 3732
2789.44 -211.58 3740
2798.38 -211.58 3740
2807.33 -211.58 3740
2829.07 -212.542 3757
2844.86 -213.051 3766
2873.56 -214.522 3792
2882.63 -214.522 3792
2891.7 -214.522 3792
2900.77 -214.522 3792
-2580.85 -186.747 3447
-2572.61 -186.747 3447
-2564.37 -186.747 3447
-2524.98 -184.472 3405
-2516.84 -184.472 3405
-2508.7 -184.472 3405
-2500.55 -184.472 3405
-2512.91 -185.989 3433
-2514.91 -186.747 3447
-2506.67 -186.747 3447
-2503.5 -187.126 3454
-2495.24 -187.126 3454
-2486.98 -187.126 3454
-2478.72 -187.126 3454
-2460.45 -186.368 3440
-2452.22 -186.368 3440
-2448.97 -186.747 3447
-2455.59 -187.885 3468
-2447.3 -187.885 3468
-2449.56 -188.697 3483
-2451.04 -189.456 3497
-2448.27 -189.889 3505
-2439.89 -189.889 3505
-2431.5 -189.889 3505
-2459.07 -192.706 3557
-2450.57 -192.706 3557
-2447.55 -193.14 3565
-2443.82 -193.519 3572
-2467.32 -196.065 3619
-2458.66 -196.065 3619
-2460.84 -196.932 3635
-2456.87 -197.311 3642
-2458.92 -198.178 3658
-2450.17 -198.178 3658
-2447.43 -198.666 3667
-2438.66 -198.666 3667
-2445.8 -199.966 3691
-2436.97 -199.966 3691
-2428.14 -199.966 3691
-2424.56 -200.4 3699
-2420.94 -200.833 3707
-2412.07 -200.833 3707
-2419.42 -202.187 3732
-2426.64 -203.542 3757
-2423.45 -204.029 3766
-2414.44 -204.029 3766
-2405.44 -204.029 3766
-2390.7 -203.542 3757
-2381.72 -203.542 3757
-2362 -202.621 3740
-2337.96 -201.321 3716
-2313.4 -199.966 3691
-2278.98 -197.745 3650
-2270.25 -197.745 3650
-1819.02 -190.702 3520
-1810.61 -190.702 3520
-1914.83 -202.621 3740
-1905.88 -202.621 3740
-1896.94 -202.621 3740
-1888 -202.621 3740
-1875.03 -202.187 3732
-1845.61 -199.966 3691
-1836.78 -199.966 3691
-1811.61 -198.178 3658
-1791.53 -196.932 3635
-1771.06 -195.632 3611
-1739.98 -193.14 3565
-1731.45 -193.14 3565
-1722.93 -193.14 3565
-1692.76 -190.702 3520
-1680.52 -190.268 3512
-1672.12 -190.268 3512
-1660.41 -189.889 3505
-1648.25 -189.456 3497
-1636.61 -189.077 3490
-1628.26 -189.077 3490
-1613.42 -188.318 3476
-1601.41 -187.885 3468
-1577.04 -185.989 3433
-1572.03 -186.368 3440
-1563.8 -186.368 3440
-1555.58 -186.368 3440
-1507.58 -190.702 3520
-1499.16 -190.702 3520
-1509.8 -193.14 3565
-1504.23 -193.519 3572
-1495.68 -193.519 3572
-1487.14 -193.519 3572
-1478.6 -193.519 3572
-1463.89 -192.706 3557
-1455.38 -192.706 3557
-1446.87 -192.706 3557
-1438.37 -192.706 3557
-1426.65 -192.273 3549
-1418.16 -192.273 3549
-1403.72 -191.46 3534
-1386.58 -190.268 3512
-1375.43 -189.889 3505
-1367.05 -189.889 3505
-1352.86 -189.077 3490
-1333.34 -187.505 3461
-1308.98 -185.23 3419
-1295.48 -184.472 3405
-1287.34 -184.472 3405
-1263.42 -182.196 3363
-1247.91 -181.113 3343
-1230.27 -179.704 3317
-1222.34 -179.704 3317
-1211.84 -179.325 3310
-1201.38 -178.946 3303
-1188.79 -178.241 3290
-1180.92 -178.241 3290
-1168.77 -177.591 3278
-1153.85 -176.508 3258
-1146.06 -176.508 3258
-1138.27 -176.508 3258
-1128.4 -176.183 3252
-1116.14 -175.478 3239
-1106.34 -175.153 3233
-1098.61 -175.153 3233
-1090.88 -175.153 3233
-1083.15 -175.153 3233
-1075.42 -175.153 3233
-1067.69 -175.153 3233
-558.01 -92.2087 1702
-553.94 -92.2087 1702
-549.87 -92.2087 1702
-544.196 -91.9378 1697
-537.91 -91.5586 1690
-533.869 -91.5586 1690
-528.887 -91.396 1687
-524.853 -91.396 1687
-520.201 -91.2877 1685
-516.172 -91.2877 1685
-511.535 -91.1793 1683
-505.098 -90.7459 1675
-500.195 -90.5834 1672
-491.151 -89.6624 1655
-487.194 -89.6624 1655
-477.98 -88.6872 1637
-471.46 -88.1996 1628
-466.131 -87.9287 1623
-462.249 -87.9287 1623
-455.544 -87.387 1613
-451.407 -87.3328 1612
-445.053 -86.8452 1603
-441.22 -86.8452 1603
-437.387 -86.8452 1603
-431.66 -86.466 1596
-426.772 -86.2493 1592
-420.839 -85.8159 1584
-417.051 -85.8159 1584
-412.481 -85.6533 1581
-407.925 -85.4908 1578
-403.383 -85.3283 1575
-399.617 -85.3283 1575
-394.845 -85.1116 1571
-390.59 -85.0032 1569
-386.099 -84.8407 1566
-382.354 -84.8407 1566
-378.367 -84.7865 1565
-374.386 -84.7323 1564
-369.935 -84.5698 1561
-366.202 -84.5698 1561
-361.772 -84.4073 1558
-357.587 -84.2989 1556
-353.184 -84.1364 1553
-349.92 -84.2447 1555
-346.202 -84.2447 1555
-342.704 -84.2989 1556
-338.983 -84.2989 1556
-335.693 -84.4073 1558
-331.967 -84.4073 1558
-329.506 -84.7323 1564
-326.182 -84.8407 1566
-323.673 -85.1657 1572
-319.914 -85.1657 1572
-317.16 -85.4366 1577
-314.581 -85.7617 1583
-311.385 -85.9242 1586
-307.592 -85.9242 1586
-304.949 -86.2493 1592
-301.331 -86.3034 1593
-298.456 -86.5743 1598
-294.634 -86.5743 1598
-291.723 -86.8452 1603
-288.608 -87.0619 1607
-285.651 -87.3328 1612
-281.797 -87.3328 1612
-278.804 -87.6037 1617
-275.447 -87.7662 1620
-272.076 -87.9287 1623
-268.36 -87.9829 1624
-265.128 -88.1996 1628
-261.396 -88.2538 1629
-257.975 -88.4163 1632
-254.695 -88.633 1636
-250.783 -88.633 1636
-247.323 -88.7956 1639
-244.146 -89.0665 1644
-240.361 -89.1206 1645
-236.427 -89.1206 1645
-233.2 -89.3915 1650
-229.949 -89.6624 1655
-226.948 -90.0416 1662
-222.973 -90.0416 1662
-219.394 -90.2042 1665
-215.801 -90.3667 1668
-212.32 -90.5834 1672
-208.322 -90.5834 1672
-204.446 -90.6376 1673
-201.523 -91.1252 1682
-198.441 -91.5586 1690
-194.399 -91.5586 1690
-190.921 -91.8295 1695
-187.64 -92.2087 1702
-184.217 -92.5338 1708
-180.133 -92.5338 1708
-176.77 -92.913 1715
-172.971 -93.0755 1718
-169.55 -93.4548 1725
-165.425 -93.4548 1725
-161.3 -93.4548 1725
-157.358 -93.5631 1727
-153.583 -93.7798 1731
-149.443 -93.7798 1731
-145.724 -94.0507 1736
-142.47 -94.6467 1747
-139.558 -95.5135 1763
-135.343 -95.5135 1763
-131.871 -96.0552 1773
-128.279 -96.5428 1782
-124.157 -96.6512 1784
-119.89 -96.6512 1784
-115.884 -96.8679 1788
-111.608 -96.8679 1788
-107.332 -96.8679 1788
-103.057 -96.8679 1788
-178.638 -201.321 3716
-169.752 -201.321 3716
-160.866 -201.321 3716
-151.612 -200.833 3707
-142.439 -200.4 3699
-133.594 -200.4 3699
-124.748 -200.4 3699
-115.903 -200.4 3699
-106.826 -199.966 3691
-97.9997 -199.966 3691
-89.1734 -199.966 3691
-80.173 -199.533 3683
-71.3658 -199.533 3683
-62.6945 -199.966 3691
-53.8682 -199.966 3691
-45.0419 -199.966 3691
-36.1371 -199.533 3683
-27.33 -199.533 3683
-18.563 -199.966 3691
-9.73673 -199.966 3691
-0.910428 -199.966 3691
7.89872 -199.533 3683
16.7059 -199.533 3683
25.5131 -199.533 3683
34.3202 -199.533 3683
43.1274 -199.533 3683
51.9346 -199.533 3683
60.7417 -199.533 3683
69.5489 -199.533 3683
78.3561 -199.533 3683
87.1632 -199.533 3683
95.9704 -199.533 3683
104.55 -199.099 3675
113.338 -199.099 3675
122.126 -199.099 3675
130.914 -199.099 3675
139.702 -199.099 3675
148.49 -199.099 3675
157.278 -199.099 3675
166.066 -199.099 3675
174.854 -199.099 3675
183.243 -198.666 3667
192.43 -199.099 3675
201.218 -199.099 3675
210.006 -199.099 3675
218.794 -199.099 3675
227.087 -198.666 3667
235.856 -198.666 3667
244.625 -198.666 3667
253.947 -199.099 3675
262.735 -199.099 3675
272.114 -199.533 3683
280.921 -199.533 3683
289.728 -199.533 3683
299.184 -199.966 3691
308.01 -199.966 3691
316.836 -199.966 3691
324.957 -199.533 3683
333.764 -199.533 3683
342.571 -199.533 3683
351.378 -199.533 3683
360.968 -199.966 3691
369.794 -199.966 3691
378.62 -199.966 3691
386.607 -199.533 3683
395.414 -199.533 3683
404.221 -199.533 3683
413.029 -199.533 3683
420.919 -199.099 3675
430.643 -199.533 3683
440.405 -199.966 3691
450.205 -200.4 3699
459.05 -200.4 3699
467.895 -200.4 3699
476.741 -200.4 3699
486.636 -200.833 3707
496.704 -201.321 3716
505.59 -201.321 3716
516.691 -202.187 3732
526.742 -202.621 3740
536.975 -203.108 3749
545.94 -203.108 3749
556.089 -203.542 3757
570.337 -205.438 3792
582.003 -206.359 3809
591.111 -206.359 3809
600.22 -206.359 3809
609.328 -206.359 3809
621.197 -207.28 3826
630.346 -207.28 3826
639.495 -207.28 3826
648.644 -207.28 3826
657.793 -207.28 3826
666.942 -207.28 3826
670.083 -205.438 3792
677.539 -204.95 3783
686.586 -204.95 3783
689.38 -203.108 3749
693.688 -201.754 3724
699.386 -200.833 3707
708.25 -200.833 3707
720.404 -201.754 3724
729.309 -201.754 3724
744.756 -203.542 3757
753.74 -203.542 3757
762.724 -203.542 3757
771.708 -203.542 3757
777.16 -202.621 3740
784.422 -202.187 3732
798.66 -203.542 3757
807.645 -203.542 3757
816.629 -203.542 3757
821.877 -202.621 3740
830.821 -202.621 3740
839.764 -202.621 3740
848.707 -202.621 3740
980.757 -202.187 3732
989.682 -202.187 3732
1003.15 -203.108 3749
1018.87 -204.463 3774
1039.88 -206.847 3818
1049.01 -206.847 3818
1058.14 -206.847 3818
1077.05 -208.743 3853
1093.88 -210.206 3880
1103.16 -210.206 3880
1117.59 -211.181 3898
1126.92 -211.181 3898
1147.02 -213.185 3935
1156.43 -213.185 3935
1182.43 -216.219 3991
1194.96 -216.761 4001
1213.26 -218.332 4030
1222.9 -218.332 4030
1232.54 -218.332 4030
1242.17 -218.332 4030
1251.81 -218.332 4030
1261.45 -218.332 4030
1267.93 -217.79 4020
1277.54 -217.79 4020
1293.24 -218.82 4039
1312.57 -220.445 4069
1322.31 -220.445 4069
1335.31 -220.987 4079
1345.06 -220.987 4079
1354.82 -220.987 4079
1526.04 -199.966 3691
1534.87 -199.966 3691
1543.69 -199.966 3691
1552.52 -199.966 3691
1575.3 -201.754 3724
1584.21 -201.754 3724
1593.11 -201.754 3724
1591.27 -200.4 3699
1600.11 -200.4 3699
1602 -199.533 3683
1603.81 -198.666 3667
1612.57 -198.666 3667
1621.34 -198.666 3667
1626.11 -198.178 3658
1627.71 -197.311 3642
1615.3 -194.765 3595
1610.34 -193.14 3565
1618.87 -193.14 3565
1623.74 -192.706 3557
1635.92 -193.14 3565
1644.44 -193.14 3565
1652.97 -193.14 3565
1657.77 -192.706 3557
1666.27 -192.706 3557
2443.5 -221.528 4089
2453.28 -221.528 4089
2463.06 -221.528 4089
2466.79 -220.987 4079
2464.4 -219.903 4059
2468.01 -219.361 4049
2477.69 -219.361 4049
2487.37 -219.361 4049
2490.89 -218.82 4039
2500.55 -218.82 4039
2498.4 -217.79 4020
2508.01 -217.79 4020
2499.46 -216.219 3991
2497.06 -215.19 3972
2488.89 -213.673 3944
2498.32 -213.673 3944
2507.75 -213.673 3944
2517.18 -213.673 3944
2526.62 -213.673 3944
2536.05 -213.673 3944
2545.48 -213.673 3944
2530.94 -211.668 3907
2534.43 -211.181 3898
2543.75 -211.181 3898
2558.97 -211.668 3907
2568.31 -211.668 3907
2583.59 -212.156 3916
2592.96 -212.156 3916
2602.32 -212.156 3916
2605.68 -211.668 3907
2602.98 -210.693 3889
2588.1 -208.743 3853
2597.31 -208.743 3853
2606.52 -208.743 3853
2609.63 -208.255 3844
2618.82 -208.255 3844
2628.01 -208.255 3844
2624.86 -207.28 3826
2634 -207.28 3826
2655.59 -208.255 3844
2664.78 -208.255 3844
2673.97 -208.255 3844
2683.17 -208.255 3844
2661.54 -205.871 3800
2605.27 -200.833 3707
2614.13 -200.833 3707
2606.01 -199.533 3683
2603.46 -198.666 3667
2612.23 -198.666 3667
2632.44 -199.533 3683
2641.24 -199.533 3683
2650.05 -199.533 3683
2670.41 -200.4 3699
2679.25 -200.4 3699
2688.1 -200.4 3699
2679.45 -199.099 3675
2688.23 -199.099 3675
2720.51 -200.833 3707
2729.37 -200.833 3707
2738.23 -200.833 3707
2753.77 -201.321 3716
2762.66 -201.321 3716
2771.54 -201.321 3716
2780.43 -201.321 3716
2789.31 -201.321 3716
2816.27 -202.621 3740
2832.01 -203.108 3749
2859.92 -204.463 3774
2868.95 -204.463 3774
2877.97 -204.463 3774
2887 -204.463 3774
-2580.85 -178.49 3447
-2572.61 -178.49 3447
-2564.37 -178.49 3447
-2556.12 -178.49 3447
-2547.88 -178.49 3447
-2508.7 -176.315 3405
-2500.55 -176.315 3405
-2512.91 -177.765 3433
-2514.91 -178.49 3447
-2506.67 -178.49 3447
-2508.57 -179.215 3461
-2500.3 -179.215 3461
-2492.02 -179.215 3461
-2483.74 -179.215 3461
-2460.45 -178.127 3440
-2452.22 -178.127 3440
-2453.94 -178.852 3454
-2455.59 -179.577 3468
-2447.3 -179.577 3468
-2465.03 -181.493 3505
-2456.65 -181.493 3505
-2448.27 -181.493 3505
-2444.76 -181.855 3512
-2436.36 -181.855 3512
-2464.6 -184.6 3565
-2456.08 -184.6 3565
-2447.55 -184.6 3565
-2443.82 -184.962 3572
-2467.32 -187.396 3619
-2458.66 -187.396 3619
-2460.84 -188.225 3635
-2456.87 -188.587 3642
-2458.92 -189.416 3658
-2450.17 -189.416 3658
-2447.43 -189.882 3667
-2438.66 -189.882 3667
-2445.8 -191.124 3691
-2436.97 -191.124 3691
-2428.14 -191.124 3691
-2424.56 -191.539 3699
-2420.94 -191.953 3707
-2412.07 -191.953 3707
-2419.42 -193.247 3732
-2426.64 -194.542 3757
-2423.45 -195.008 3766
-2414.44 -195.008 3766
-2405.44 -195.008 3766
-2390.7 -194.542 3757
-2381.72 -194.542 3757
-2362 -193.662 3740
-2337.96 -192.419 3716
-2313.4 -191.124 3691
-2278.98 -189.001 3650
-2270.25 -189.001 3650
-1857.31 -181.079 3497
-1848.95 -181.079 3497
-1840.59 -181.079 3497
-1817.03 -179.577 3468
-1801.44 -178.852 3454
-1793.18 -178.852 3454
-1819.02 -182.27 3520
-1810.61 -182.27 3520
-1914.83 -193.662 3740
-1905.88 -193.662 3740
-1896.94 -193.662 3740
-1888 -193.662 3740
-1875.03 -193.247 3732
-1845.61 -191.124 3691
-1836.78 -191.124 3691
-1811.61 -189.416 3658
-1791.53 -188.225 3635
-1771.06 -186.982 3611
-1739.98 -184.6 3565
-1731.45 -184.6 3565
-1722.93 -184.6 3565
-1692.76 -182.27 3520
-1680.52 -181.855 3512
-1672.12 -181.855 3512
-1660.41 -181.493 3505
-1648.25 -181.079 3497
-1636.61 -180.716 3490
-1628.26 -180.716 3490
-1613.42 -179.991 3476
-1601.41 -179.577 3468
-1577.04 -177.765 3433
-1572.03 -178.127 3440
-1563.8 -178.127 3440
-1555.58 -178.127 3440
-1547.35 -178.127 3440
-1539.13 -178.127 3440
-1530.9 -178.127 3440
-1525.77 -178.49 3447
-1530.3 -179.991 3476
-1528.11 -180.716 3490
-1519.77 -180.716 3490
-1514.45 -181.079 3497
-1509.54 -181.493 3505
-1507.58 -182.27 3520
-1499.16 -182.27 3520
-1509.8 -184.6 3565
-1504.23 -184.962 3572
-1495.68 -184.962 3572
-1487.14 -184.962 3572
-1478.6 -184.962 3572
-1463.89 -184.186 3557
-1455.38 -184.186 3557
-1446.87 -184.186 3557
-1438.37 -184.186 3557
-1426.65 -183.771 3549
-1418.16 -183.771 3549
-1403.72 -182.995 3534
-1386.58 -181.855 3512
-1375.43 -181.493 3505
-1367.05 -181.493 3505
-1352.86 -180.716 3490
-1333.34 -179.215 3461
-1308.98 -177.04 3419
-1295.48 -176.315 3405
-1287.34 -176.315 3405
-1263.42 -174.14 3363
-1250.52 -173.467 3350
-1230.27 -171.758 3317
-1222.34 -171.758 3317
-1211.84 -171.396 3310
-1201.38 -171.033 3303
-1188.79 -170.36 3290
-1180.92 -170.36 3290
-1170.91 -170.049 3284
-1158.46 -169.376 3271
-1148.52 -169.066 3265
-1140.72 -169.066 3265
-1132.91 -169.066 3265
-1120.62 -168.392 3252
-1108.4 -167.719 3239
-1100.65 -167.719 3239
-1090.88 -167.409 3233
-1083.15 -167.409 3233
-1075.42 -167.409 3233
-1067.69 -167.409 3233
-558.01 -88.1315 1702
-553.94 -88.1315 1702
-549.87 -88.1315 1702
-544.196 -87.8726 1697
-537.91 -87.5102 1690
-533.869 -87.5102 1690
-529.514 -87.4584 1689
-525.475 -87.4584 1689
-520.201 -87.2513 1685
-516.172 -87.2513 1685
-511.535 -87.1477 1683
-505.098 -86.7335 1675
-500.195 -86.5781 1672
-492.042 -85.8532 1658
-488.077 -85.8532 1658
-478.564 -84.8693 1639
-471.749 -84.3515 1629
-466.992 -84.1962 1626
-463.104 -84.1962 1626
-456.109 -83.6266 1615
-451.687 -83.523 1613
-445.331 -83.057 1604
-441.495 -83.057 1604
-437.387 -83.0052 1603
-431.66 -82.6427 1596
-426.772 -82.4356 1592
-421.371 -82.1249 1586
-417.578 -82.1249 1586
-412.481 -81.866 1581
-407.925 -81.7107 1578
-403.383 -81.5553 1575
-399.617 -81.5553 1575
-394.845 -81.3482 1571
-391.088 -81.3482 1571
-386.592 -81.1929 1568
-382.842 -81.1929 1568
-378.367 -81.0375 1565
-374.386 -80.9857 1564
-369.935 -80.8304 1561
-366.202 -80.8304 1561
-361.772 -80.6751 1558
-357.587 -80.5715 1556
-353.184 -80.4162 1553
-349.92 -80.5197 1555
-346.202 -80.5197 1555
-342.704 -80.5715 1556
-338.983 -80.5715 1556
-335.693 -80.6751 1558
-331.967 -80.6751 1558
-329.506 -80.9857 1564
-326.182 -81.0893 1566
-323.673 -81.4 1572
-319.914 -81.4 1572
-317.16 -81.6589 1577
-314.581 -81.9696 1583
-311.385 -82.1249 1586
-307.592 -82.1249 1586
-304.949 -82.4356 1592
-301.331 -82.4874 1593
-298.456 -82.7463 1598
-294.634 -82.7463 1598
-291.723 -83.0052 1603
-288.608 -83.2123 1607
-285.829 -83.523 1613
-281.971 -83.523 1613
-278.976 -83.7819 1618
-275.447 -83.8855 1620
-272.244 -84.0926 1624
-268.36 -84.0926 1624
-265.128 -84.2997 1628
-261.717 -84.4551 1631
-258.291 -84.6104 1634
-254.85 -84.7658 1637
-250.936 -84.7658 1637
-247.474 -84.9211 1640
-244.146 -85.1282 1644
-240.653 -85.2836 1647
-236.715 -85.2836 1647
-233.2 -85.4389 1650
-229.949 -85.6978 1655
-226.948 -86.0603 1662
-222.973 -86.0603 1662
-219.394 -86.2156 1665
-215.801 -86.371 1668
-212.32 -86.5781 1672
-208.322 -86.5781 1672
-204.446 -86.6299 1673
-201.523 -87.0959 1682
-198.441 -87.5102 1690
-194.399 -87.5102 1690
-190.921 -87.7691 1695
-187.64 -88.1315 1702
-184.217 -88.4422 1708
-180.133 -88.4422 1708
-176.77 -88.8047 1715
-172.971 -88.96 1718
-169.55 -89.3225 1725
-165.425 -89.3225 1725
-161.487 -89.4261 1727
-157.358 -89.4261 1727
-153.583 -89.6332 1731
-149.443 -89.6332 1731
-145.724 -89.8921 1736
-142.47 -90.4617 1747
-139.558 -91.2902 1763
-135.343 -91.2902 1763
-131.871 -91.808 1773
-128.279 -92.274 1782
-124.157 -92.3776 1784
-119.89 -92.3776 1784
-115.884 -92.5847 1788
-111.608 -92.5847 1788
-107.332 -92.5847 1788
-103.057 -92.5847 1788
