ply
format ascii 1.0
comment File generated
element vertex 2258
property float x
property float y
property float z
end_header
1224.47 520.419 3853
1245.21 525.281 3889
1260.32 527.713 3907
1269.66 527.713 3907
1288.17 531.495 3935
1303.51 533.926 3953
1319.28 536.492 3972
1328.78 536.492 3972
1341.64 537.843 3982
1351.17 537.843 3982
1360.69 537.843 3982
1370.21 537.843 3982
1366.57 532.71 3944
1379.14 533.926 3953
1388.59 533.926 3953
1398.04 533.926 3953
1421.03 539.058 3991
1451.36 546.892 4049
1461.04 546.892 4049
1470.72 546.892 4049
1484.06 548.243 4059
1493.77 548.243 4059
1503.48 548.243 4059
1505.73 545.542 4039
1515.38 545.542 4039
1517.87 542.975 4020
1520.26 540.409 4001
1529.83 540.409 4001
1532.09 537.843 3982
1548.96 540.409 4001
1577.23 546.892 4049
1598.67 550.945 4079
1608.42 550.945 4079
1618.18 550.945 4079
1700.37 552.295 4089
1710.15 552.295 4089
1719.93 552.295 4089
1721.24 549.594 4069
1730.97 549.594 4069
1744.98 550.945 4079
1754.74 550.945 4079
1764.49 550.945 4079
1774.24 550.945 4079
1779.63 549.594 4069
1789.36 549.594 4069
1799.09 549.594 4069
1808.82 549.594 4069
1801.12 544.326 4030
1806.26 542.975 4020
1815.87 542.975 4020
1825.49 542.975 4020
1835.1 542.975 4020
1835.99 540.409 4001
1845.56 540.409 4001
1841.68 536.492 3972
1833.94 531.495 3935
1843.35 531.495 3935
1870.18 536.492 3972
1879.67 536.492 3972
1889.17 536.492 3972
1898.67 536.492 3972
1890.39 531.495 3935
1899.8 531.495 3935
1900 528.928 3916
1865.48 516.772 3826
1861.89 513.26 3800
1870.97 513.26 3800
1867.2 509.749 3774
1842.91 500.699 3707
1823.31 493 3650
1820.49 489.894 3627
1829.16 489.894 3627
1829.73 487.732 3611
1826.65 484.626 3588
1815.29 479.358 3549
1823.77 479.358 3549
1828.65 478.413 3542
1829.34 476.387 3527
1845.59 478.413 3542
1857.72 479.358 3549
1866.21 479.358 3549
1874.69 479.358 3549
1883.18 479.358 3549
1895.93 480.439 3557
1912.47 482.465 3572
1921.01 482.465 3572
1938.19 484.626 3588
1959.25 487.732 3611
1976.61 489.894 3627
1985.28 489.894 3627
2108.3 517.988 3835
2122.44 519.203 3844
2141.62 521.635 3862
2150.85 521.635 3862
2195.32 530.144 3925
2241.78 539.058 3991
2256.97 540.409 4001
2266.54 540.409 4001
2276.1 540.409 4001
2285.67 540.409 4001
2295.24 540.409 4001
2293.86 537.843 3982
2303.38 537.843 3982
2329.17 541.625 4010
2344.59 542.975 4020
2354.2 542.975 4020
2380.87 546.892 4049
2396.45 548.243 4059
2406.16 548.243 4059
2415.87 548.243 4059
2419.6 546.892 4049
2429.28 546.892 4049
2438.96 546.892 4049
2442.6 545.542 4039
2470.47 549.594 4069
2480.2 549.594 4069
2489.93 549.594 4069
2499.66 549.594 4069
2497.06 546.892 4049
2506.74 546.892 4049
2516.42 546.892 4049
2526.1 546.892 4049
2535.79 546.892 4049
2539.18 545.542 4039
2543.16 544.326 4030
2552.8 544.326 4030
2562.44 544.326 4030
2565.69 542.975 4020
2563.13 540.409 4001
2572.7 540.409 4001
2509.98 525.281 3889
2519.28 525.281 3889
2516.88 522.85 3871
2502.64 517.988 3835
2511.81 517.988 3835
2509.81 515.692 3818
2518.94 515.692 3818
2504.89 510.964 3783
2513.94 510.964 3783
524.316 100.086 741
526.088 100.086 741
527.86 100.086 741
529.632 100.086 741
531.404 100.086 741
533.176 100.086 741
534.226 99.9507 740
535.995 99.9507 740
537.765 99.9507 740
540.264 100.086 741
542.036 100.086 741
543.808 100.086 741
545.58 100.086 741
547.352 100.086 741
549.123 100.086 741
550.152 99.9507 740
551.922 99.9507 740
553.691 99.9507 740
555.461 99.9507 740
557.23 99.9507 740
559 99.9507 740
560.769 99.9507 740
563.299 100.086 741
565.071 100.086 741
566.843 100.086 741
-2317.3 425.451 3095
-2331.54 429.438 3124
-2324.07 429.438 3124
-2316.6 429.438 3124
-2309.13 429.438 3124
-2301.66 429.438 3124
-2289.79 428.613 3118
-2277.94 427.788 3112
-2288.01 431.087 3136
-2293.6 433.562 3154
-2286.06 433.562 3154
-2282.85 434.386 3160
-2301.21 439.335 3196
-2347.39 449.645 3271
-2339.57 449.645 3271
-2331.75 449.645 3271
-2474.54 478.787 3483
-2466.22 478.787 3483
-2493.88 485.798 3534
-2550.83 498.582 3627
-2547.77 499.682 3635
-2539.07 499.682 3635
-2580.5 509.579 3707
-2588.98 513.016 3732
-2580.06 513.016 3732
-2571.13 513.016 3732
-2562.21 513.016 3732
-2553.28 513.016 3732
-2544.36 513.016 3732
-2491.27 504.081 3667
-2471 501.744 3650
-2452.15 499.682 3635
-2443.46 499.682 3635
-2429.41 498.582 3627
-2415.39 497.482 3619
-2401.42 496.383 3611
-2392.78 496.383 3611
-2378.87 495.283 3603
-2355.12 492.121 3580
-2346.56 492.121 3580
-2338 492.121 3580
-2324.23 491.022 3572
-2311.15 490.059 3565
-2302.63 490.059 3565
-2298.61 491.022 3572
-2304.81 494.183 3595
-2296.21 494.183 3595
-2292.71 495.283 3603
-2289.16 496.383 3611
-2280.53 496.383 3611
-2301.47 502.843 3658
-2308.39 506.28 3683
-2309.57 508.479 3699
-2300.72 508.479 3699
-2307.37 511.916 3724
-2324.39 517.69 3766
-2347.35 524.838 3818
-2338.22 524.838 3818
-2355.93 530.886 3862
-2346.7 530.886 3862
-2337.46 530.886 3862
-1955.75 508.479 3699
-1946.91 508.479 3699
-1938.06 508.479 3699
-1933.39 509.579 3707
-1929.2 510.816 3716
-1928.58 513.016 3732
-1919.65 513.016 3732
-1945.55 522.363 3800
-1941.04 523.601 3809
-1931.94 523.601 3809
-1922.83 523.601 3809
-1935.83 529.649 3853
-1944.61 534.598 3889
-1935.31 534.598 3889
-1926.01 534.598 3889
-1916.71 534.598 3889
-1894.17 530.886 3862
-1884.94 530.886 3862
-1875.7 530.886 3862
-1892.56 538.309 3916
-1887.53 539.546 3925
-1891.54 543.395 3953
-1882.09 543.395 3953
-1872.63 543.395 3953
-1867.89 544.77 3963
-1858.42 544.77 3963
-1848.94 544.77 3963
-1826.47 540.921 3935
-1808.28 538.309 3916
-1798.92 538.309 3916
-1785.44 537.072 3907
-1755.64 530.886 3862
-1750.48 532.123 3871
-1741.22 532.123 3871
-1731.96 532.123 3871
-1718.7 530.886 3862
-1701.5 528.412 3844
-1692.31 528.412 3844
-1683.12 528.412 3844
-1685.68 532.123 3871
-1692.01 537.072 3907
-1682.67 537.072 3907
-1673.33 537.072 3907
-1644.82 530.886 3862
-1627.96 528.412 3844
-1614.98 527.175 3835
-1605.81 527.175 3835
-1596.64 527.175 3835
-1591.19 528.412 3844
-1619.45 540.921 3935
-1629.27 547.382 3982
-1619.75 547.382 3982
-1610.23 547.382 3982
-1596.69 546.007 3972
-1587.19 546.007 3972
-1577.69 546.007 3972
-1557.14 542.158 3944
-1547.71 542.158 3944
-1538.27 542.158 3944
-1511.01 535.835 3898
-1473.95 525.937 3826
-1475.14 529.649 3853
-1483.05 535.835 3898
-1473.73 535.835 3898
-1471.17 538.309 3916
-1461.8 538.309 3916
-1452.44 538.309 3916
-1439.76 537.072 3907
-1417.24 532.123 3871
-1398.16 528.412 3844
-1388.97 528.412 3844
-1373.31 525.937 3826
-1358.1 523.601 3809
-1352.18 524.838 3818
-1345.87 525.937 3826
-1336.72 525.937 3826
-1333.81 528.412 3844
-1355.98 540.921 3935
-1349.65 542.158 3944
-1340.22 542.158 3944
-1340.23 546.007 3972
-1330.74 546.007 3972
-1321.24 546.007 3972
-1293.25 538.309 3916
-1272.08 533.36 3880
-582.823 247.985 1804
-578.509 247.985 1804
-574.195 247.985 1804
-569.881 247.985 1804
-564.313 247.435 1800
-556.276 245.786 1788
-549.221 244.549 1779
-544.967 244.549 1779
-540.713 244.549 1779
-535.856 244.274 1777
-528.017 242.624 1765
-523.796 242.624 1765
-516.337 241.112 1754
-509.515 239.875 1745
-503.315 238.912 1738
-499.159 238.912 1738
-492.439 237.675 1729
-486.328 236.713 1722
-479.13 235.201 1711
-475.038 235.201 1711
-468.47 233.964 1702
-462.49 233.002 1695
-457.625 232.589 1692
-451.166 231.352 1683
-447.142 231.352 1683
-441.801 230.665 1678
-436.223 229.84 1672
-431.19 229.29 1668
-427.202 229.29 1668
-422.452 228.878 1665
-417.716 228.465 1662
-413.244 228.19 1660
-409.274 228.19 1660
-404.572 227.778 1657
-400.126 227.503 1655
-394.254 226.403 1647
-390.315 226.403 1647
-385.673 225.991 1644
-381.277 225.716 1642
-376.891 225.441 1640
-372.287 225.029 1637
-368.373 225.029 1637
-363.122 224.204 1631
-358.782 223.929 1629
-354.233 223.517 1626
-350.344 223.517 1626
-345.817 223.104 1623
-340.882 222.417 1618
-336.388 222.004 1615
-332.526 222.004 1615
-328.257 221.729 1613
-324.199 221.592 1612
-319.947 221.317 1610
-316.097 221.317 1610
-311.665 220.905 1607
-307.248 220.492 1604
-303.412 220.492 1604
-299.576 220.492 1604
-295.188 220.08 1601
-291.359 220.08 1601
-287.531 220.08 1601
-284.057 220.355 1603
-280.223 220.355 1603
-276.907 220.767 1606
-273.237 220.905 1607
-269.897 221.317 1610
-266.873 222.004 1615
-263.011 222.004 1615
-259.631 222.417 1618
-256.71 223.242 1624
-253.138 223.517 1626
-249.25 223.517 1626
-246.116 224.204 1631
-242.958 224.891 1636
-239.192 225.029 1637
-235.278 225.029 1637
-231.787 225.441 1640
-228.56 226.128 1645
-225.719 227.228 1653
-221.766 227.228 1653
-218.472 227.915 1658
-215.801 229.29 1668
-212.32 229.84 1672
-208.322 229.84 1672
-205.301 230.94 1680
-201.643 231.352 1683
-198.088 231.902 1687
-194.054 231.902 1687
-190.583 232.589 1692
-186.868 233.002 1695
-183.57 233.964 1702
-179.5 233.964 1702
-175.636 234.239 1704
-171.561 234.239 1704
-167.978 234.926 1709
-163.891 234.926 1709
-159.804 234.926 1709
-155.9 235.201 1711
-151.808 235.201 1711
-147.717 235.201 1711
-143.793 235.476 1713
-139.86 235.751 1715
-135.838 235.888 1716
-131.735 235.888 1716
-127.78 236.163 1718
-123.672 236.163 1718
-119.563 236.163 1718
-236.755 542.158 3944
-227.843 543.395 3953
-218.39 543.395 3953
-208.937 543.395 3953
-199.03 542.158 3944
-189.599 542.158 3944
-180.168 542.158 3944
-170.347 540.921 3935
-160.937 540.921 3935
-151.142 539.546 3925
-142.767 543.395 3953
-133.315 543.395 3953
-124.457 546.007 3972
-115.248 547.382 3982
-105.965 548.619 3991
-96.4213 548.619 3991
-87.7266 553.98 4030
-78.4578 556.592 4049
-69.4549 562.09 4089
-59.6768 562.09 4089
-49.8988 562.09 4089
268.841 553.98 4030
278.478 553.98 4030
288.115 553.98 4030
297.751 553.98 4030
302.278 544.77 3963
311.755 544.77 3963
321.231 544.77 3963
330.708 544.77 3963
339.327 543.395 3953
343.927 535.835 3898
352.432 534.598 3889
361.732 534.598 3889
371.032 534.598 3889
380.332 534.598 3889
386.926 530.886 3862
396.162 530.886 3862
400.778 524.838 3818
403.359 516.452 3757
405.977 508.479 3699
414.823 508.479 3699
418.972 502.843 3658
425.849 500.644 3642
430.859 496.383 3611
439.494 496.383 3611
443.289 491.022 3572
448.036 486.898 3542
453.671 483.873 3520
459.069 480.712 3497
467.431 480.712 3497
475.793 480.712 3497
480.141 476.725 3468
489.561 477.825 3476
500.881 480.712 3497
509.243 480.712 3497
517.605 480.712 3497
527.171 481.811 3505
538.914 484.836 3527
547.348 484.836 3527
559.249 487.86 3549
583.893 501.744 3650
608.695 515.353 3749
617.66 515.353 3749
630.804 518.789 3774
639.828 518.789 3774
692.866 553.98 4030
702.503 553.98 4030
712.14 553.98 4030
721.777 553.98 4030
731.414 553.98 4030
741.051 553.98 4030
750.688 553.98 4030
760.325 553.98 4030
769.962 553.98 4030
775.73 551.231 4010
785.319 551.231 4010
793.124 549.994 4001
802.692 549.994 4001
812.259 549.994 4001
815.87 546.007 3972
825.369 546.007 3972
834.867 546.007 3972
844.365 546.007 3972
853.863 546.007 3972
863.362 546.007 3972
875.057 547.382 3982
884.58 547.382 3982
894.102 547.382 3982
903.624 547.382 3982
917.503 549.994 4001
927.071 549.994 4001
936.638 549.994 4001
946.206 549.994 4001
953.385 548.619 3991
962.928 548.619 3991
965.649 544.77 3963
972.666 543.395 3953
979.882 542.158 3944
989.314 542.158 3944
991.654 538.309 3916
1003.32 539.546 3925
1012.71 539.546 3925
1022.09 539.546 3925
1031.48 539.546 3925
1040.86 539.546 3925
1043.02 535.835 3898
1045.06 532.123 3871
1054.31 532.123 3871
1063.57 532.123 3871
1060.35 525.937 3826
1064.75 523.601 3809
1073.86 523.601 3809
1082.97 523.601 3809
1087.2 521.264 3792
1096.27 521.264 3792
1107.67 522.363 3800
1116.76 522.363 3800
1125.84 522.363 3800
1134.93 522.363 3800
1144.02 522.363 3800
1153.11 522.363 3800
1162.19 522.363 3800
1171.28 522.363 3800
1183.16 523.601 3809
1203.23 528.412 3844
1212.42 528.412 3844
1224.47 529.649 3853
1245.21 534.598 3889
1260.32 537.072 3907
1269.66 537.072 3907
1288.17 540.921 3935
1303.51 543.395 3953
1319.28 546.007 3972
1328.78 546.007 3972
1341.64 547.382 3982
1351.17 547.382 3982
1360.69 547.382 3982
1370.21 547.382 3982
1366.57 542.158 3944
1379.14 543.395 3953
1388.59 543.395 3953
1398.04 543.395 3953
1421.03 548.619 3991
1451.36 556.592 4049
1461.04 556.592 4049
1470.72 556.592 4049
1484.06 557.966 4059
1493.77 557.966 4059
1503.48 557.966 4059
1505.73 555.217 4039
1515.38 555.217 4039
1517.87 552.605 4020
1520.26 549.994 4001
1529.83 549.994 4001
1532.09 547.382 3982
1526.9 542.158 3944
1565.93 552.605 4020
1590.83 557.966 4059
1600.54 557.966 4059
1614.21 559.341 4069
1623.94 559.341 4069
1633.67 559.341 4069
1680.81 562.09 4089
1690.59 562.09 4089
1700.37 562.09 4089
1705.97 560.716 4079
1715.72 560.716 4079
1721.24 559.341 4069
1730.97 559.341 4069
1740.7 559.341 4069
1750.43 559.341 4069
1760.16 559.341 4069
1769.9 559.341 4069
1779.63 559.341 4069
1789.36 559.341 4069
1799.09 559.341 4069
1808.82 559.341 4069
1796.65 552.605 4020
1806.26 552.605 4020
1815.87 552.605 4020
1825.49 552.605 4020
1830.53 551.231 4010
1835.99 549.994 4001
1845.56 549.994 4001
1832.87 543.395 3953
1829.28 539.546 3925
1838.66 539.546 3925
1856.99 542.158 3944
1866.42 542.158 3944
1875.86 542.158 3944
1885.29 542.158 3944
1881.27 538.309 3916
1890.63 538.309 3916
1873.8 530.886 3862
1861.58 524.838 3818
1853.56 520.026 3783
1862.6 520.026 3783
1858.79 516.452 3757
1830.98 506.28 3683
1815.81 499.682 3635
1816.47 497.482 3619
1825.13 497.482 3619
1825.67 495.283 3603
1818.51 491.022 3572
1819.38 488.96 3557
1827.88 488.96 3557
1828.65 486.898 3542
1840.75 487.86 3549
1853.4 488.96 3557
1873.95 492.121 3580
1882.51 492.121 3580
1891.07 492.121 3580
1899.63 492.121 3580
1908.19 492.121 3580
1921.03 493.221 3588
1929.61 493.221 3588
1946.3 495.283 3603
1967.93 498.582 3627
1993.5 502.843 3658
2002.25 502.843 3658
2103.36 525.937 3826
2127.41 529.649 3853
2141.62 530.886 3862
2150.85 530.886 3862
2195.32 539.546 3925
2241.78 548.619 3991
2256.97 549.994 4001
2266.54 549.994 4001
2276.1 549.994 4001
2285.67 549.994 4001
2295.24 549.994 4001
2299.04 548.619 3991
2308.59 548.619 3991
2329.17 551.231 4010
2344.59 552.605 4020
2354.2 552.605 4020
2380.87 556.592 4049
2390.55 556.592 4049
2400.23 556.592 4049
2409.92 556.592 4049
2419.6 556.592 4049
2429.28 556.592 4049
2438.96 556.592 4049
2448.65 556.592 4049
2470.47 559.341 4069
2480.2 559.341 4069
2489.93 559.341 4069
2499.66 559.341 4069
2497.06 556.592 4049
2512.93 557.966 4059
2522.64 557.966 4059
2532.34 557.966 4059
2542.05 557.966 4059
2545.47 556.592 4049
2555.15 556.592 4049
2564.83 556.592 4049
2574.52 556.592 4049
2577.82 555.217 4039
2581.71 553.98 4030
2591.35 553.98 4030
2582.27 549.994 4001
2554.91 542.158 3944
2558.49 540.921 3935
2555.5 538.309 3916
2564.86 538.309 3916
2550.56 533.36 3880
2542.03 529.649 3853
2551.24 529.649 3853
2560.46 529.649 3853
526.088 101.861 741
527.86 101.861 741
529.632 101.861 741
530.687 101.723 740
532.456 101.723 740
534.226 101.723 740
535.995 101.723 740
537.765 101.723 740
539.535 101.723 740
542.036 101.861 741
543.808 101.861 741
545.58 101.861 741
546.613 101.723 740
548.382 101.723 740
550.152 101.723 740
551.922 101.723 740
553.691 101.723 740
555.461 101.723 740
556.477 101.586 739
558.244 101.586 739
560.769 101.723 740
562.539 101.723 740
564.308 101.723 740
566.078 101.723 740
-2317.3 432.865 3095
-2318.86 434.544 3107
-2311.43 434.544 3107
-2312.15 436.082 3118
-2304.7 436.082 3118
-2297.24 436.082 3118
-2285.38 435.243 3112
-2277.94 435.243 3112
-2279.25 436.921 3124
-2289.23 440.278 3148
-2281.71 440.278 3148
-2291.52 443.634 3172
-2309.85 448.669 3208
-2347.39 457.481 3271
-2339.57 457.481 3271
-2331.75 457.481 3271
-2484.49 489.089 3497
-2476.13 489.089 3497
-2493.88 494.264 3534
-2550.83 507.271 3627
-2547.77 508.389 3635
-2539.07 508.389 3635
-2574.93 517.34 3699
-2571.64 518.459 3707
-2568.99 519.718 3716
-2560.11 519.718 3716
-2551.22 519.718 3716
-2542.34 519.718 3716
-2533.45 519.718 3716
-2502.14 515.103 3683
-2476.41 511.606 3658
-2462.27 510.487 3650
-2453.54 510.487 3650
-2434.76 508.389 3635
-2420.73 507.271 3627
-2406.74 506.152 3619
-2398.09 506.152 3619
-2384.15 505.033 3611
-2370.25 503.914 3603
-2361.64 503.914 3603
-2353.02 503.914 3603
-2329.44 500.697 3580
-2320.88 500.697 3580
-2307.15 499.578 3572
-2313.41 502.795 3595
-2309.94 503.914 3603
-2301.32 503.914 3603
-2302.89 506.152 3619
-2299.31 507.271 3627
-2290.63 507.271 3627
-2317.19 515.103 3683
-2308.39 515.103 3683
-2320.18 519.718 3716
-2311.3 519.718 3716
-2322.86 524.333 3749
-2324.39 526.711 3766
-2347.35 533.984 3818
-2338.22 533.984 3818
-2355.93 540.138 3862
-2346.7 540.138 3862
-2337.46 540.138 3862
-1955.75 517.34 3699
-1964.28 521.956 3732
-1955.35 521.956 3732
-1946.43 521.956 3732
-1937.5 521.956 3732
-1928.58 521.956 3732
-1919.65 521.956 3732
-1945.55 531.466 3800
-1941.04 532.725 3809
-1931.94 532.725 3809
-1922.83 532.725 3809
-1935.83 538.879 3853
-1944.61 543.914 3889
-1935.31 543.914 3889
-1926.01 543.914 3889
-1916.71 543.914 3889
-1894.17 540.138 3862
-1911.29 547.69 3916
-1901.93 547.69 3916
-1896.91 548.949 3925
-1900.99 552.865 3953
-1896.32 554.263 3963
-1886.85 554.263 3963
-1886.37 556.921 3982
-1876.85 556.921 3982
-1867.33 556.921 3982
-1857.81 556.921 3982
-1839.46 554.263 3963
-1817.06 550.347 3935
-1807.65 550.347 3935
-1789.56 547.69 3916
-1772.01 545.172 3898
-1750.48 541.396 3871
-1741.22 541.396 3871
-1731.96 541.396 3871
-1722.71 541.396 3871
-1713.45 541.396 3871
-1704.19 541.396 3871
-1691 540.138 3862
-1681.76 540.138 3862
-1672.53 540.138 3862
-1663.29 540.138 3862
-1646.35 537.62 3844
-1637.15 537.62 3844
-1616.95 533.984 3818
-1604.03 532.725 3809
-1598.69 533.984 3818
-1589.56 533.984 3818
-1591.19 537.62 3844
-1611.63 547.69 3916
-1613.72 551.606 3944
-1604.29 551.606 3944
-1594.86 551.606 3944
-1589.05 552.865 3953
-1579.6 552.865 3953
-1570.14 552.865 3953
-1579.64 559.578 4001
-1570.07 559.578 4001
-1560.51 559.578 4001
-1521.48 548.949 3925
-1477.42 536.361 3835
-1482.03 541.396 3871
-1479.62 543.914 3889
-1470.32 543.914 3889
-1461.02 543.914 3889
-1451.72 543.914 3889
-1442.42 543.914 3889
-1429.81 542.655 3880
-1413.94 540.138 3862
-1394.88 536.361 3835
-1385.71 536.361 3835
-1367.21 532.725 3809
-1348.83 529.089 3783
-1339.79 529.089 3783
-1339.89 532.725 3809
-1330.78 532.725 3809
-1324.79 533.984 3818
-1318.42 535.103 3826
-1340.07 547.69 3916
-1330.7 547.69 3916
-1321.34 547.69 3916
-1311.97 547.69 3916
-1302.61 547.69 3916
-1284.33 543.914 3889
-1272.08 542.655 3880
-583.792 252.726 1807
-581.395 253.565 1813
-577.06 253.565 1813
-572.724 253.565 1813
-565.567 252.307 1804
-560.009 251.747 1800
-552 250.069 1788
-547.724 250.069 1788
-540.713 248.81 1779
-535.856 248.53 1777
-528.017 246.852 1765
-523.796 246.852 1765
-516.337 245.314 1754
-509.515 244.055 1745
-503.315 243.076 1738
-499.159 243.076 1738
-492.439 241.817 1729
-486.328 240.838 1722
-479.13 239.3 1711
-475.038 239.3 1711
-468.47 238.041 1702
-462.49 237.062 1695
-457.625 236.642 1692
-451.166 235.384 1683
-447.142 235.384 1683
-441.801 234.684 1678
-436.223 233.845 1672
-431.19 233.286 1668
-427.202 233.286 1668
-422.452 232.866 1665
-417.716 232.447 1662
-413.244 232.167 1660
-409.274 232.167 1660
-404.572 231.747 1657
-400.126 231.468 1655
-394.254 230.349 1647
-390.315 230.349 1647
-385.673 229.929 1644
-381.277 229.649 1642
-376.891 229.37 1640
-372.287 228.95 1637
-368.373 228.95 1637
-363.122 228.111 1631
-358.782 227.831 1629
-354.233 227.412 1626
-350.344 227.412 1626
-345.817 226.992 1623
-340.882 226.293 1618
-336.388 225.873 1615
-332.526 225.873 1615
-328.257 225.593 1613
-324.199 225.454 1612
-319.947 225.174 1610
-316.097 225.174 1610
-311.665 224.754 1607
-307.248 224.335 1604
-303.412 224.335 1604
-299.576 224.335 1604
-295.188 223.915 1601
-291.359 223.915 1601
-287.531 223.915 1601
-284.057 224.195 1603
-280.223 224.195 1603
-276.907 224.614 1606
-273.237 224.754 1607
-269.897 225.174 1610
-266.873 225.873 1615
-263.011 225.873 1615
-259.631 226.293 1618
-256.71 227.132 1624
-253.138 227.412 1626
-249.25 227.412 1626
-246.116 228.111 1631
-242.958 228.81 1636
-239.192 228.95 1637
-235.278 228.95 1637
-231.787 229.37 1640
-228.56 230.069 1645
-225.719 231.188 1653
-221.766 231.188 1653
-218.472 231.887 1658
-215.801 233.286 1668
-212.32 233.845 1672
-208.322 233.845 1672
-205.301 234.964 1680
-201.643 235.384 1683
-198.088 235.943 1687
-194.054 235.943 1687
-190.583 236.642 1692
-186.868 237.062 1695
-183.57 238.041 1702
-179.5 238.041 1702
-175.636 238.321 1704
-171.561 238.321 1704
-167.978 239.02 1709
-163.891 239.02 1709
-159.804 239.02 1709
-155.9 239.3 1711
-151.808 239.3 1711
-147.717 239.3 1711
-143.793 239.579 1713
-139.86 239.859 1715
-135.838 239.999 1716
-131.735 239.999 1716
-127.78 240.279 1718
-123.672 240.279 1718
-119.563 240.279 1718
-235.074 547.69 3916
-226.229 548.949 3925
-216.843 548.949 3925
-207.457 548.949 3925
-198.071 548.949 3925
-188.685 548.949 3925
-179.756 550.347 3935
-170.347 550.347 3935
-160.937 550.347 3935
-151.142 548.949 3925
-142.442 551.606 3944
-133.011 551.606 3944
-123.862 552.865 3953
-114.959 555.522 3972
-105.726 556.921 3982
-96.2039 556.921 3982
-87.7266 563.634 4030
-78.4578 566.291 4049
-69.4549 571.886 4089
-59.6768 571.886 4089
-49.8988 571.886 4089
268.841 563.634 4030
278.478 563.634 4030
288.115 563.634 4030
297.013 562.235 4020
301.515 552.865 3953
310.968 552.865 3953
320.421 552.865 3953
329.123 551.606 3944
338.554 551.606 3944
342.338 542.655 3880
352.432 543.914 3889
361.732 543.914 3889
371.032 543.914 3889
377.691 540.138 3862
385.123 537.62 3844
394.315 537.62 3844
398.049 530.347 3792
402.5 524.333 3749
405.977 517.34 3699
414.823 517.34 3699
418.972 511.606 3658
425.849 509.368 3642
430.859 505.033 3611
439.494 505.033 3611
443.289 499.578 3572
448.036 495.382 3542
453.671 492.306 3520
459.069 489.089 3497
467.431 489.089 3497
472.936 486.152 3476
480.141 485.033 3468
489.561 486.152 3476
500.881 489.089 3497
509.243 489.089 3497
517.605 489.089 3497
527.171 490.208 3505
538.914 493.285 3527
547.348 493.285 3527
559.249 496.362 3549
580.214 507.271 3627
601.876 518.459 3707
610.74 518.459 3707
630.804 527.83 3774
639.828 527.83 3774
682.895 555.522 3972
692.393 555.522 3972
703.658 556.921 3982
716.583 559.578 4001
726.151 559.578 4001
735.719 559.578 4001
745.286 559.578 4001
754.854 559.578 4001
764.421 559.578 4001
770.313 556.921 3982
779.836 556.921 3982
787.375 555.522 3972
796.874 555.522 3972
806.372 555.522 3972
811.968 552.865 3953
821.42 552.865 3953
830.873 552.865 3953
838.413 551.606 3944
847.844 551.606 3944
853.146 548.949 3925
870.882 554.263 3963
882.358 555.522 3972
891.856 555.522 3972
903.624 556.921 3982
913.146 556.921 3982
922.668 556.921 3982
932.19 556.921 3982
941.713 556.921 3982
946.696 554.263 3963
956.173 554.263 3963
961.02 551.606 3944
965.776 548.949 3925
970.69 546.431 3907
980.033 546.431 3907
987.096 545.172 3898
991.816 542.655 3880
998.772 541.396 3871
1008.03 541.396 3871
1014.92 540.138 3862
1021.77 538.879 3853
1030.98 538.879 3853
1032.91 535.103 3826
1042.06 535.103 3826
1051.21 535.103 3826
1050.93 530.347 3792
1057.48 529.089 3783
1066.53 529.089 3783
1070.74 526.711 3766
1079.75 526.711 3766
1088.75 526.711 3766
1097.76 526.711 3766
1106.77 526.711 3766
1118.14 527.83 3774
1127.17 527.83 3774
1136.19 527.83 3774
1145.22 527.83 3774
1154.24 527.83 3774
1163.27 527.83 3774
1175.09 529.089 3783
1195.09 533.984 3818
1204.22 533.984 3818
1215.89 535.103 3826
1239.45 541.396 3871
1254.51 543.914 3889
1263.81 543.914 3889
1288.17 550.347 3935
1297.58 550.347 3935
1312.97 552.865 3953
1322.42 552.865 3953
1338.27 555.522 3972
1347.77 555.522 3972
1357.27 555.522 3972
1366.77 555.522 3972
1363.45 550.347 3935
1372.86 550.347 3935
1382.27 550.347 3935
1391.68 550.347 3935
1401.09 550.347 3935
1430.57 558.179 3991
1450.58 562.235 4020
1460.19 562.235 4020
1473.46 563.634 4030
1483.1 563.634 4030
1492.73 563.634 4030
1498.64 562.235 4020
1504.5 560.837 4010
1510.69 559.578 4001
1513.04 556.921 3982
1522.56 556.921 3982
1520.93 552.865 3953
1526.9 551.606 3944
1565.93 562.235 4020
1590.83 567.69 4059
1600.54 567.69 4059
1614.21 569.088 4069
1623.94 569.088 4069
1633.67 569.088 4069
1635.32 566.291 4049
1653.13 569.088 4069
1666.95 570.487 4079
1680.81 571.886 4089
1690.59 571.886 4089
1700.37 571.886 4089
1705.97 570.487 4079
1715.72 570.487 4079
1721.24 569.088 4069
1730.97 569.088 4069
1740.7 569.088 4069
1750.43 569.088 4069
1760.16 569.088 4069
1769.9 569.088 4069
1779.63 569.088 4069
1789.36 569.088 4069
1799.09 569.088 4069
1808.82 569.088 4069
1796.65 562.235 4020
1806.26 562.235 4020
1815.87 562.235 4020
1825.49 562.235 4020
1830.53 560.837 4010
1835.99 559.578 4001
1845.56 559.578 4001
1832.87 552.865 3953
1829.28 548.949 3925
1838.66 548.949 3925
1856.99 551.606 3944
1866.42 551.606 3944
1875.86 551.606 3944
1885.29 551.606 3944
1881.27 547.69 3916
1890.63 547.69 3916
1873.8 540.138 3862
1861.58 533.984 3818
1853.56 529.089 3783
1862.6 529.089 3783
1863.24 526.711 3766
1830.98 515.103 3683
1819.31 509.368 3642
1820.49 507.271 3627
1829.16 507.271 3627
1829.73 505.033 3611
1826.65 501.816 3588
1827.05 499.578 3572
1835.59 499.578 3572
1836.39 497.48 3557
1844.9 497.48 3557
1865.39 500.697 3580
1881.8 502.795 3595
1890.39 502.795 3595
1898.99 502.795 3595
1907.59 502.795 3595
1916.19 502.795 3595
1929.07 503.914 3603
1937.68 503.914 3603
1959.26 507.271 3627
1976.07 509.368 3642
1998.41 512.865 3667
2007.18 512.865 3667
2103.36 535.103 3826
2127.41 538.879 3853
2141.62 540.138 3862
2150.85 540.138 3862
2195.32 548.949 3925
2241.78 558.179 3991
2256.97 559.578 4001
2266.54 559.578 4001
2276.1 559.578 4001
2285.67 559.578 4001
2295.24 559.578 4001
2299.04 558.179 3991
2308.59 558.179 3991
2329.17 560.837 4010
2344.59 562.235 4020
2354.2 562.235 4020
2380.87 566.291 4049
2390.55 566.291 4049
2400.23 566.291 4049
2409.92 566.291 4049
2419.6 566.291 4049
2429.28 566.291 4049
2438.96 566.291 4049
2448.65 566.291 4049
2470.47 569.088 4069
2480.2 569.088 4069
2489.93 569.088 4069
2499.66 569.088 4069
2497.06 566.291 4049
2519.12 569.088 4069
2528.85 569.088 4069
2538.58 569.088 4069
2548.31 569.088 4069
2545.47 566.291 4049
2555.15 566.291 4049
2564.83 566.291 4049
2574.52 566.291 4049
2584.2 566.291 4049
2593.88 566.291 4049
2603.56 566.291 4049
2594.53 562.235 4020
2585.36 558.179 3991
2582.55 555.522 3972
2586.17 554.263 3963
2595.65 554.263 3963
2605.12 554.263 3963
2608 552.865 3953
2569.12 542.655 3880
2578.4 542.655 3880
526.088 103.636 741
527.86 103.636 741
529.632 103.636 741
530.687 103.496 740
532.456 103.496 740
534.226 103.496 740
535.995 103.496 740
537.765 103.496 740
539.535 103.496 740
542.036 103.636 741
543.808 103.636 741
545.58 103.636 741
546.613 103.496 740
548.382 103.496 740
550.152 103.496 740
551.922 103.496 740
553.691 103.496 740
555.461 103.496 740
556.477 103.356 739
558.244 103.356 739
560.769 103.496 740
562.539 103.496 740
564.308 103.496 740
566.078 103.496 740
-2304.57 437.861 3078
-2309.9 440.279 3095
-2302.5 440.279 3095
-2304 441.986 3107
-2296.57 441.986 3107
-2289.14 441.986 3107
-2272.9 440.279 3095
-2269.89 441.133 3101
-2279.25 444.405 3124
-2289.23 447.819 3148
-2281.71 447.819 3148
-2291.52 451.233 3172
-2309.85 456.354 3208
-2347.39 465.316 3271
-2339.57 465.316 3271
-2331.75 465.316 3271
-2484.49 497.466 3497
-2476.13 497.466 3497
-2493.88 502.729 3534
-2528.33 511.407 3595
-2547.77 517.097 3635
-2539.07 517.097 3635
-2546.39 520.369 3658
-2566.09 526.201 3699
-2562.77 527.339 3707
-2553.91 527.339 3707
-2545.04 527.339 3707
-2519.76 523.925 3683
-2510.95 523.925 3683
-2502.14 523.925 3683
-2482.51 521.649 3667
-2467.67 520.369 3658
-2458.92 520.369 3658
-2444.81 519.231 3650
-2430.74 518.093 3642
-2417.38 517.097 3635
-2408.69 517.097 3635
-2389.43 514.821 3619
-2380.78 514.821 3619
-2372.12 514.821 3619
-2363.47 514.821 3619
-2344.4 512.545 3603
-2330.6 511.407 3595
-2322.01 511.407 3595
-2318.56 512.545 3603
-2315.07 513.683 3611
-2306.43 513.683 3611
-2307.98 515.959 3627
-2299.31 515.959 3627
-2290.63 515.959 3627
-2317.19 523.925 3683
-2308.39 523.925 3683
-2320.18 528.62 3716
-2311.3 528.62 3716
-2322.86 533.314 3749
-2324.39 535.733 3766
-2347.35 543.13 3818
-2338.22 543.13 3818
-2355.93 549.389 3862
-2346.7 549.389 3862
-2337.46 549.389 3862
-1964.28 530.896 3732
-1955.35 530.896 3732
-1946.43 530.896 3732
-1937.5 530.896 3732
-1928.58 530.896 3732
-1919.65 530.896 3732
-1928.14 535.733 3766
-1936.46 540.569 3800
-1931.94 541.849 3809
-1922.83 541.849 3809
-1931.3 546.828 3844
-1940.11 551.95 3880
-1930.83 551.95 3880
-1921.56 551.95 3880
-1903.41 549.389 3862
-1894.17 549.389 3862
-1911.29 557.071 3916
-1901.93 557.071 3916
-1906.1 561.054 3944
-1900.99 562.334 3953
-1896.32 563.757 3963
-1886.85 563.757 3963
-1890.64 567.74 3991
-1881.09 567.74 3991
-1871.55 567.74 3991
-1862 567.74 3991
-1839.46 563.757 3963
-1825.37 562.334 3953
-1815.92 562.334 3953
-1793.67 558.351 3925
-1776.1 555.79 3907
-1758.62 553.23 3889
-1749.32 553.23 3889
-1740.02 553.23 3889
-1730.72 553.23 3889
-1713.45 550.669 3871
-1704.19 550.669 3871
-1691 549.389 3862
-1677.84 548.109 3853
-1668.63 548.109 3853
-1655.54 546.828 3844
-1646.35 546.828 3844
-1629.49 544.268 3826
-1613.14 541.849 3809
-1600.24 540.569 3800
-1594.92 541.849 3809
-1585.81 541.849 3809
-1591.19 546.828 3844
-1607.93 555.79 3907
-1602.27 557.071 3916
-1592.9 557.071 3916
-1583.54 557.071 3916
-1585.43 561.054 3944
-1591.18 566.46 3982
-1581.66 566.46 3982
-1579.64 569.162 4001
-1570.07 569.162 4001
-1560.51 569.162 4001
-1543.57 566.46 3982
-1484.35 548.109 3853
-1513.43 562.334 3953
-1503.97 562.334 3953
-1494.52 562.334 3953
-1485.07 562.334 3953
-1461.8 557.071 3916
-1452.44 557.071 3916
-1433.12 553.23 3889
-1413.94 549.389 3862
-1394.88 545.548 3835
-1385.71 545.548 3835
-1367.21 541.849 3809
-1348.83 538.151 3783
-1339.79 538.151 3783
-1336.72 540.569 3800
-1327.63 540.569 3800
-1321.67 541.849 3809
-1312.56 541.849 3809
-1303.45 541.849 3809
-1294.34 541.849 3809
-1285.23 541.849 3809
-1276.13 541.849 3809
-1284.65 549.389 3862
-1275.41 549.389 3862
-1266.18 549.389 3862
-585.731 257.908 1813
-582.678 258.477 1817
-578.333 258.477 1817
-573.988 258.477 1817
-568.389 257.908 1813
-562.809 257.339 1809
-556.322 256.344 1802
-552.013 256.344 1802
-546.488 255.775 1798
-540.982 255.206 1794
-533.102 253.499 1782
-528.841 253.499 1782
-520.753 251.649 1769
-512.143 249.515 1754
-504.763 247.951 1743
-500.595 247.951 1743
-493.864 246.67 1734
-487.74 245.674 1727
-480.53 244.11 1716
-476.427 244.11 1716
-470.121 242.972 1708
-464.127 241.976 1701
-458.436 241.122 1695
-452.238 239.984 1687
-448.204 239.984 1687
-442.327 238.988 1680
-437.527 238.562 1677
-432.224 237.85 1672
-428.226 237.85 1672
-423.213 237.281 1668
-417.968 236.57 1663
-413.244 236.143 1660
-409.274 236.143 1660
-404.572 235.717 1657
-400.126 235.432 1655
-394.493 234.436 1648
-390.552 234.436 1648
-385.673 233.867 1644
-381.742 233.867 1644
-376.891 233.298 1640
-372.742 233.156 1639
-368.823 233.156 1639
-363.122 232.018 1631
-358.782 231.733 1629
-354.233 231.307 1626
-350.344 231.307 1626
-346.03 231.022 1624
-341.304 230.453 1620
-336.805 230.026 1617
-332.938 230.026 1617
-328.664 229.742 1615
-324.4 229.457 1613
-320.344 229.315 1612
-316.49 229.315 1612
-312.247 229.031 1610
-307.822 228.604 1607
-303.412 228.177 1604
-299.576 228.177 1604
-295.741 228.177 1604
-291.905 228.177 1604
-288.069 228.177 1604
-284.588 228.462 1606
-280.748 228.462 1606
-277.08 228.604 1607
-273.747 229.031 1610
-270.232 229.315 1612
-266.873 229.742 1615
-263.337 230.026 1617
-260.112 230.595 1621
-257.026 231.307 1626
-253.605 231.733 1629
-249.71 231.733 1629
-246.116 232.018 1631
-242.958 232.729 1636
-239.192 232.872 1637
-235.278 232.872 1637
-231.787 233.298 1640
-228.56 234.01 1645
-225.719 235.148 1653
-221.766 235.148 1653
-218.999 236.428 1662
-215.801 237.281 1668
-212.447 237.993 1673
-208.446 237.993 1673
-205.301 238.988 1680
-201.883 239.7 1685
-198.323 240.269 1689
-194.284 240.269 1689
-190.583 240.696 1692
-186.868 241.122 1695
-183.57 242.118 1702
-179.5 242.118 1702
-175.636 242.403 1704
-171.561 242.403 1704
-167.978 243.114 1709
-163.891 243.114 1709
-159.804 243.114 1709
-155.9 243.398 1711
-151.808 243.398 1711
-147.717 243.398 1711
-143.793 243.683 1713
-139.86 243.967 1715
-135.996 244.394 1718
-131.888 244.394 1718
-127.78 244.394 1718
-123.672 244.394 1718
-119.563 244.394 1718
-233.454 553.23 3889
-224.673 554.51 3898
-215.351 554.51 3898
-206.03 554.51 3898
-198.071 558.351 3925
-188.685 558.351 3925
-179.3 558.351 3925
-169.914 558.351 3925
-160.528 558.351 3925
-150.795 557.071 3916
-142.442 561.054 3944
-133.011 561.054 3944
-123.58 561.054 3944
-114.959 565.037 3972
-105.726 566.46 3982
-96.2039 566.46 3982
-87.7266 573.288 4030
-78.4578 575.991 4049
-69.4549 581.681 4089
-59.6768 581.681 4089
-49.8988 581.681 4089
251.982 578.836 4069
261.712 578.836 4069
271.442 578.836 4069
278.478 573.288 4030
288.115 573.288 4030
294.87 567.74 3991
300.142 559.774 3935
309.552 559.774 3935
318.962 559.774 3935
328.372 559.774 3935
336.923 558.351 3925
341.544 550.669 3871
350.801 550.669 3871
360.058 550.669 3871
369.315 550.669 3871
377.691 549.389 3862
384.221 545.548 3835
393.392 545.548 3835
398.889 540.569 3800
402.5 533.314 3749
405.977 526.201 3699
414.823 526.201 3699
418.972 520.369 3658
425.849 518.093 3642
430.859 513.683 3611
439.494 513.683 3611
443.289 508.135 3572
448.036 503.867 3542
453.671 500.738 3520
460.119 498.604 3505
468.5 498.604 3505
472.936 494.479 3476
480.141 493.341 3468
489.561 494.479 3476
500.881 497.466 3497
509.243 497.466 3497
517.605 497.466 3497
527.171 498.604 3505
538.914 501.734 3527
547.348 501.734 3527
559.249 504.863 3549
578.934 514.821 3619
600.577 526.201 3699
609.422 526.201 3699
627.962 534.452 3757
636.946 534.452 3757
671.719 555.79 3907
681.062 555.79 3907
693.586 558.351 3925
704.763 559.774 3935
714.172 559.774 3935
723.582 559.774 3935
732.992 559.774 3935
742.402 559.774 3935
751.812 559.774 3935
761.221 559.774 3935
768.673 558.351 3925
778.059 558.351 3925
787.444 558.351 3925
796.83 558.351 3925
806.216 558.351 3925
817.68 559.774 3935
827.09 559.774 3935
836.5 559.774 3935
843.76 558.351 3925
851.189 557.071 3916
860.554 557.071 3916
878.137 562.334 3953
887.59 562.334 3953
899.312 563.757 3963
910.853 565.037 3972
920.351 565.037 3972
929.849 565.037 3972
937.219 563.757 3963
942.157 561.054 3944
951.588 561.054 3944
956.39 558.351 3925
961.347 555.79 3907
963.982 551.95 3880
973.26 551.95 3880
980.259 550.669 3871
987.215 549.389 3862
994.128 548.109 3853
1003.34 548.109 3853
1012.56 548.109 3853
1014.61 544.268 3826
1023.76 544.268 3826
1028.32 541.849 3809
1037.43 541.849 3809
1041.86 539.431 3792
1048.44 538.151 3783
1052.73 535.733 3766
1061.74 535.733 3766
1070.74 535.733 3766
1077.17 534.452 3757
1086.15 534.452 3757
1095.14 534.452 3757
1104.12 534.452 3757
1113.1 534.452 3757
1124.78 535.733 3766
1133.78 535.733 3766
1142.79 535.733 3766
1151.79 535.733 3766
1160.8 535.733 3766
1169.81 535.733 3766
1189.45 540.569 3800
1198.54 540.569 3800
1207.63 540.569 3800
1227.92 545.548 3835
1245.8 549.389 3862
1255.04 549.389 3862
1273.11 553.23 3889
1297.58 559.774 3935
1306.99 559.774 3935
1316.4 559.774 3935
1325.81 559.774 3935
1335.22 559.774 3935
1344.63 559.774 3935
1354.04 559.774 3935
1356.86 557.071 3916
1363.09 555.79 3907
1372.43 555.79 3907
1378.59 554.51 3898
1387.91 554.51 3898
1406.91 558.351 3925
1430.01 563.757 3963
1439.49 563.757 3963
1466.15 570.443 4010
1475.74 570.443 4010
1485.33 570.443 4010
1494.91 570.443 4010
1504.5 570.443 4010
1499.74 565.037 3972
1502.02 562.334 3953
1511.48 562.334 3953
1514 559.774 3935
1519.54 558.351 3925
1551.13 566.46 3982
1582.99 574.568 4039
1592.65 574.568 4039
1614.21 578.836 4069
1623.94 578.836 4069
1633.67 578.836 4069
1635.32 575.991 4049
1653.13 578.836 4069
1666.95 580.258 4079
1680.81 581.681 4089
1690.59 581.681 4089
1700.37 581.681 4089
1705.97 580.258 4079
1715.72 580.258 4079
1717.01 577.413 4059
1726.72 577.413 4059
1736.43 577.413 4059
1746.13 577.413 4059
1755.84 577.413 4059
1756.85 574.568 4039
1770.88 575.991 4049
1780.56 575.991 4049
1790.24 575.991 4049
1799.93 575.991 4049
1796.65 571.865 4020
1801.77 570.443 4010
1811.36 570.443 4010
1816.86 569.162 4001
1826.43 569.162 4001
1827.27 566.46 3982
1836.8 566.46 3982
1824.53 559.774 3935
1820.89 555.79 3907
1813.37 550.669 3871
1835.33 554.51 3898
1844.66 554.51 3898
1853.98 554.51 3898
1863.3 554.51 3898
1855.33 549.389 3862
1864.56 549.389 3862
1865.06 546.828 3844
1852.8 540.569 3800
1849.15 536.871 3774
1858.17 536.871 3774
1863.24 535.733 3766
1830.98 523.925 3683
1819.31 518.093 3642
1820.49 515.959 3627
1829.16 515.959 3627
1829.73 513.683 3611
1826.65 510.411 3588
1827.05 508.135 3572
1835.59 508.135 3572
1836.39 506.001 3557
1844.9 506.001 3557
1865.39 509.273 3580
1881.8 511.407 3595
1890.39 511.407 3595
1898.99 511.407 3595
1907.59 511.407 3595
1916.19 511.407 3595
1929.07 512.545 3603
1937.68 512.545 3603
1959.26 515.959 3627
1976.07 518.093 3642
1998.41 521.649 3667
2007.18 521.649 3667
2098.96 543.13 3818
2127.41 548.109 3853
2141.62 549.389 3862
2150.85 549.389 3862
2195.32 558.351 3925
2241.78 567.74 3991
2256.97 569.162 4001
2266.54 569.162 4001
2276.1 569.162 4001
2285.67 569.162 4001
2295.24 569.162 4001
2299.04 567.74 3991
2308.59 567.74 3991
2329.17 570.443 4010
2344.59 571.865 4020
2354.2 571.865 4020
2380.87 575.991 4049
2390.55 575.991 4049
2400.23 575.991 4049
2409.92 575.991 4049
2419.6 575.991 4049
2429.28 575.991 4049
2438.96 575.991 4049
2448.65 575.991 4049
2470.47 578.836 4069
2480.2 578.836 4069
2489.93 578.836 4069
2499.66 578.836 4069
2497.06 575.991 4049
2519.12 578.836 4069
2528.85 578.836 4069
2538.58 578.836 4069
2548.31 578.836 4069
2545.47 575.991 4049
2555.15 575.991 4049
2564.83 575.991 4049
2574.52 575.991 4049
2584.2 575.991 4049
2593.88 575.991 4049
2603.56 575.991 4049
2594.53 571.865 4020
2585.36 567.74 3991
2582.55 565.037 3972
2586.17 563.757 3963
2595.65 563.757 3963
2605.12 563.757 3963
2608 562.334 3953
2569.12 551.95 3880
2578.4 551.95 3880
528.917 105.269 740
530.687 105.269 740
532.456 105.269 740
534.226 105.269 740
535.271 105.126 739
537.038 105.126 739
539.535 105.269 740
541.304 105.269 740
543.074 105.269 740
544.843 105.269 740
546.613 105.269 740
548.382 105.269 740
549.409 105.126 739
551.176 105.126 739
552.943 105.126 739
554.71 105.126 739
556.477 105.126 739
558.244 105.126 739
560.012 105.126 739
562.539 105.269 740
564.308 105.269 740
566.078 105.269 740
-2304.57 445.234 3078
-2309.9 447.693 3095
-2302.5 447.693 3095
-2304 449.429 3107
-2296.57 449.429 3107
-2289.14 449.429 3107
-2272.9 447.693 3095
-2269.89 448.561 3101
-2279.25 451.888 3124
-2289.23 455.36 3148
-2281.71 455.36 3148
-2291.52 458.832 3172
-2309.85 464.039 3208
-2347.39 473.152 3271
-2339.57 473.152 3271
-2368.82 480.674 3323
-2484.49 505.843 3497
-2476.13 505.843 3497
-2493.88 511.195 3534
-2528.33 520.019 3595
-2547.77 525.805 3635
-2539.07 525.805 3635
-2546.39 529.132 3658
-2566.09 535.062 3699
-2562.77 536.22 3707
-2553.91 536.22 3707
-2545.04 536.22 3707
-2519.76 532.748 3683
-2510.95 532.748 3683
-2502.14 532.748 3683
-2482.51 530.434 3667
-2467.67 529.132 3658
-2458.92 529.132 3658
-2444.81 527.975 3650
-2430.74 526.817 3642
-2417.38 525.805 3635
-2408.69 525.805 3635
-2394.71 524.648 3627
-2380.78 523.49 3619
-2372.12 523.49 3619
-2363.47 523.49 3619
-2344.4 521.176 3603
-2335.79 521.176 3603
-2322.01 520.019 3595
-2323.7 522.333 3611
-2315.07 522.333 3611
-2311.54 523.49 3619
-2307.98 524.648 3627
-2299.31 524.648 3627
-2290.63 524.648 3627
-2317.19 532.748 3683
-2308.39 532.748 3683
-2320.18 537.521 3716
-2311.3 537.521 3716
-2322.86 542.295 3749
-2324.39 544.754 3766
-2347.35 552.276 3818
-2338.22 552.276 3818
-2355.93 558.64 3862
-2346.7 558.64 3862
-2337.46 558.64 3862
-2294.35 573.25 3963
-2284.87 573.25 3963
-2275.39 573.25 3963
-2265.92 573.25 3963
-1964.28 539.836 3732
-1955.35 539.836 3732
-1946.43 539.836 3732
-1937.5 539.836 3732
-1928.58 539.836 3732
-1919.65 539.836 3732
-1928.14 544.754 3766
-1936.46 549.672 3800
-1931.94 550.974 3809
-1922.83 550.974 3809
-1931.3 556.037 3844
-1949.11 563.848 3898
-1939.79 563.848 3898
-1930.47 563.848 3898
-1907.84 559.942 3871
-1898.59 559.942 3871
-1915.68 567.753 3925
-1906.3 567.753 3925
-1910.44 571.804 3953
-1905.8 573.25 3963
-1909.72 577.3 3991
-1900.18 577.3 3991
-1895.37 578.747 4001
-1894.76 581.495 4020
-1885.15 581.495 4020
-1875.53 581.495 4020
-1852.46 577.3 3991
-1842.92 577.3 3991
-1833.37 577.3 3991
-1806.46 571.804 3953
-1788.83 569.2 3935
-1770.83 566.452 3916
-1761.46 566.452 3916
-1752.1 566.452 3916
-1734.72 563.848 3898
-1725.4 563.848 3898
-1716.08 563.848 3898
-1694.94 559.942 3871
-1677.84 557.339 3853
-1668.63 557.339 3853
-1659.41 557.339 3853
-1646.35 556.037 3844
-1629.49 553.433 3826
-1613.14 550.974 3809
-1600.24 549.672 3800
-1594.92 550.974 3809
-1585.81 550.974 3809
-1591.19 556.037 3844
-1607.93 565.15 3907
-1602.27 566.452 3916
-1592.9 566.452 3916
-1583.54 566.452 3916
-1585.43 570.502 3944
-1591.18 575.999 3982
-1581.66 575.999 3982
-1579.64 578.747 4001
-1570.07 578.747 4001
-1560.51 578.747 4001
-1543.57 575.999 3982
-1484.35 557.339 3853
-1520.7 574.552 3972
-1511.2 574.552 3972
-1501.7 574.552 3972
-1488.82 573.25 3963
-1475.62 571.804 3953
-1466.16 571.804 3953
-1443.07 566.452 3916
-1423.83 562.546 3889
-1404.7 558.64 3862
-1395.47 558.64 3862
-1367.21 550.974 3809
-1352.04 548.515 3792
-1339.79 547.213 3783
-1336.72 549.672 3800
-1327.63 549.672 3800
-1321.67 550.974 3809
-1312.56 550.974 3809
-1303.45 550.974 3809
-1285.51 547.213 3783
-1273.42 545.911 3774
-1267.42 547.213 3783
-1258.37 547.213 3783
-1249.32 547.213 3783
-1240.28 547.213 3783
-593.972 263.987 1825
-589.607 263.987 1825
-583.961 263.409 1821
-579.606 263.409 1821
-574.62 263.119 1819
-568.389 262.251 1813
-564.053 262.251 1813
-557.866 261.384 1807
-553.545 261.384 1807
-547.704 260.66 1802
-542.188 260.082 1798
-536.692 259.503 1794
-532.402 259.503 1794
-524.58 257.767 1782
-516.523 255.887 1769
-507.08 253.283 1751
-502.893 253.283 1751
-495.857 251.837 1741
-488.87 250.39 1731
-481.65 248.799 1720
-477.537 248.799 1720
-470.396 247.208 1709
-464.4 246.195 1702
-458.977 245.472 1697
-452.775 244.315 1689
-448.736 244.315 1689
-443.644 243.736 1685
-437.788 242.724 1678
-432.483 242 1673
-428.482 242 1673
-423.72 241.566 1670
-418.47 240.843 1665
-413.742 240.409 1662
-409.768 240.409 1662
-405.305 240.12 1660
-400.61 239.686 1657
-394.493 238.384 1648
-390.552 238.384 1648
-385.908 237.95 1645
-381.742 237.806 1644
-376.891 237.227 1640
-372.742 237.082 1639
-368.823 237.082 1639
-363.122 235.925 1631
-358.782 235.636 1629
-354.233 235.202 1626
-350.344 235.202 1626
-346.03 234.913 1624
-341.304 234.334 1620
-337.013 234.045 1618
-333.144 234.045 1618
-328.664 233.611 1615
-324.803 233.611 1615
-320.344 233.177 1612
-316.49 233.177 1612
-312.635 233.177 1612
-308.397 232.887 1610
-303.979 232.453 1607
-300.137 232.453 1607
-296.294 232.453 1607
-292.451 232.453 1607
-288.608 232.453 1607
-284.765 232.453 1607
-280.923 232.453 1607
-277.597 232.887 1610
-274.087 233.177 1612
-270.4 233.321 1613
-266.543 233.321 1613
-263.5 234.045 1618
-260.433 234.768 1623
-257.026 235.202 1626
-253.916 235.925 1631
-250.016 235.925 1631
-246.267 236.07 1632
-243.107 236.793 1637
-239.484 237.082 1639
-235.565 237.082 1639
-231.787 237.227 1640
-228.838 238.239 1647
-225.719 239.107 1653
-221.766 239.107 1653
-218.999 240.409 1662
-216.06 241.566 1670
-212.447 242 1673
-208.446 242 1673
-205.546 243.302 1682
-201.883 243.736 1685
-198.323 244.315 1689
-194.284 244.315 1689
-190.583 244.749 1692
-186.868 245.183 1695
-183.57 246.195 1702
-179.5 246.195 1702
-175.636 246.485 1704
-171.964 247.063 1708
-167.978 247.208 1709
-163.891 247.208 1709
-159.804 247.208 1709
-155.9 247.497 1711
-151.808 247.497 1711
-147.717 247.497 1711
-143.961 248.076 1715
-139.86 248.076 1715
-136.155 248.799 1720
-132.042 248.799 1720
-127.929 248.799 1720
-123.815 248.799 1720
-119.702 248.799 1720
-232.913 561.244 3880
-224.154 562.546 3889
-214.854 562.546 3889
-205.554 562.546 3889
-197.163 565.15 3907
-188.253 566.452 3916
-178.888 566.452 3916
-169.524 566.452 3916
-160.16 566.452 3916
-150.795 566.452 3916
-141.756 567.753 3925
-132.37 567.753 3925
-123.58 570.502 3944
-114.959 574.552 3972
-106.231 578.747 4001
-96.6629 578.747 4001
-87.9225 584.244 4039
-78.6516 587.137 4059
-69.4549 591.476 4089
-59.6768 591.476 4089
-49.8988 591.476 4089
251.982 588.583 4069
261.712 588.583 4069
271.442 588.583 4069
277.096 580.049 4010
286.685 580.049 4010
291.397 570.502 3944
298.007 565.15 3907
308.765 567.753 3925
318.151 567.753 3925
327.537 567.753 3925
336.15 566.452 3916
341.544 559.942 3871
350.801 559.942 3871
360.058 559.942 3871
369.315 559.942 3871
377.691 558.64 3862
384.221 554.735 3835
393.392 554.735 3835
398.889 549.672 3800
402.5 542.295 3749
405.977 535.062 3699
414.823 535.062 3699
418.972 529.132 3658
425.849 526.817 3642
430.859 522.333 3611
439.494 522.333 3611
443.289 516.692 3572
448.036 512.352 3542
453.671 509.17 3520
460.119 507 3505
468.5 507 3505
472.936 502.805 3476
480.141 501.648 3468
489.561 502.805 3476
500.881 505.843 3497
509.243 505.843 3497
517.605 505.843 3497
527.171 507 3505
538.914 510.183 3527
547.348 510.183 3527
559.249 513.365 3549
578.934 523.49 3619
597.979 532.748 3683
606.786 532.748 3683
622.446 538.679 3724
632.708 539.836 3732
662.435 557.339 3853
671.649 557.339 3853
687.224 562.546 3889
696.524 562.546 3889
705.824 562.546 3889
715.124 562.546 3889
724.423 562.546 3889
733.723 562.546 3889
743.023 562.546 3889
750.582 561.244 3880
759.86 561.244 3880
769.138 561.244 3880
778.416 561.244 3880
787.695 561.244 3880
793.276 558.64 3862
804.381 559.942 3871
813.638 559.942 3871
822.895 559.942 3871
832.151 559.942 3871
839.452 558.64 3862
858.576 565.15 3907
867.919 565.15 3907
877.261 565.15 3907
888.647 566.452 3916
904.432 570.502 3944
913.863 570.502 3944
923.294 570.502 3944
932.726 570.502 3944
940.007 569.2 3935
949.417 569.2 3935
952.004 565.15 3907
952.489 559.942 3871
961.746 559.942 3871
971.002 559.942 3871
973.422 556.037 3844
980.313 554.735 3835
989.484 554.735 3835
996.311 553.433 3826
1005.46 553.433 3826
1012.49 552.276 3818
1021.62 552.276 3818
1023.73 548.515 3792
1032.8 548.515 3792
1039.39 547.213 3783
1045.94 545.911 3774
1052.73 544.754 3766
1061.74 544.754 3766
1070.74 544.754 3766
1077.17 543.452 3757
1083.84 542.295 3749
1092.8 542.295 3749
1101.77 542.295 3749
1113.1 543.452 3757
1122.09 543.452 3757
1133.78 544.754 3766
1142.79 544.754 3766
1151.79 544.754 3766
1160.8 544.754 3766
1169.81 544.754 3766
1184.13 547.213 3783
1193.18 547.213 3783
1207.63 549.672 3800
1222.48 552.276 3818
1245.8 558.64 3862
1255.04 558.64 3862
1267.22 559.942 3871
1279.44 561.244 3880
1300.68 566.452 3916
1310.04 566.452 3916
1319.41 566.452 3916
1328.77 566.452 3916
1338.14 566.452 3916
1347.5 566.452 3916
1347.51 562.546 3889
1356.81 562.546 3889
1366.11 562.546 3889
1372.22 561.244 3880
1378.3 559.942 3871
1377.88 556.037 3844
1416.3 567.753 3925
1425.68 567.753 3925
1445.31 571.804 3953
1458.44 573.25 3963
1467.92 573.25 3963
1477.39 573.25 3963
1486.87 573.25 3963
1492.57 571.804 3953
1495.18 569.2 3935
1504.59 569.2 3935
1503.23 565.15 3907
1502.12 561.244 3880
1543.73 573.25 3963
1571.63 580.049 4010
1581.22 580.049 4010
1602.31 584.244 4039
1615.96 585.69 4049
1625.64 585.69 4049
1635.32 585.69 4049
1653.13 588.583 4069
1666.95 590.03 4079
1676.7 590.03 4079
1686.46 590.03 4079
1696.21 590.03 4079
1689.24 584.244 4039
1698.9 584.244 4039
1704.75 582.942 4030
1714.38 582.942 4030
1724.02 582.942 4030
1733.66 582.942 4030
1743.29 582.942 4030
1752.93 582.942 4030
1766.5 584.244 4039
1776.16 584.244 4039
1785.82 584.244 4039
1787.03 581.495 4020
1796.65 581.495 4020
1797.72 578.747 4001
1807.29 578.747 4001
1812.32 577.3 3991
1817.75 575.999 3982
1809.84 570.502 3944
1819.27 570.502 3944
1819.89 567.753 3925
1804.11 559.942 3871
1809.15 558.64 3862
1818.38 558.64 3862
1827.62 558.64 3862
