ply
format ascii 1.0
comment File generated
element vertex 2248
property float x
property float y
property float z
end_header
404.954 288.778 3611
410.038 286.299 3580
413.221 282.62 3534
414.751 277.982 3476
417.83 274.543 3433
426.039 274.543 3433
427.165 270.065 3377
430.858 267.346 3343
434.52 264.707 3310
442.435 264.707 3310
449.398 264.147 3303
456.466 263.667 3297
464.35 263.667 3297
472.234 263.667 3297
477.352 262.148 3278
483.266 261.108 3265
495.887 263.667 3297
507.744 265.746 3323
515.69 265.746 3323
523.636 265.746 3323
557.178 278.542 3483
565.507 278.542 3483
573.836 278.542 3483
606.233 290.058 3627
625.757 295.176 3691
654.871 304.613 3809
663.979 304.613 3809
674.678 305.332 3818
683.808 305.332 3818
692.938 305.332 3818
702.068 305.332 3818
704.678 302.533 3783
710.517 301.174 3766
719.523 301.174 3766
726.787 300.454 3757
729.309 297.815 3724
738.214 297.815 3724
745.514 297.175 3716
754.4 297.175 3716
761.438 296.456 3707
768.64 295.816 3699
772.441 293.896 3675
781.229 293.896 3675
790.017 293.896 3675
795.11 292.537 3658
805.835 293.257 3667
818.158 294.536 3683
826.965 294.536 3683
835.773 294.536 3683
844.58 294.536 3683
855.241 295.176 3691
864.067 295.176 3691
880.698 297.815 3724
909.908 304.613 3809
919.016 304.613 3809
928.125 304.613 3809
939.448 305.332 3818
950.565 305.972 3826
961.972 306.692 3835
971.143 306.692 3835
989.516 309.571 3871
1001.09 310.291 3880
1010.37 310.291 3880
1019.65 310.291 3880
1028.93 310.291 3880
1038.21 310.291 3880
1047.49 310.291 3880
1056.76 310.291 3880
1066.04 310.291 3880
1072.83 309.571 3871
1077.05 308.131 3853
1086.27 308.131 3853
1095.48 308.131 3853
1102.11 307.412 3844
1108.7 306.692 3835
1117.87 306.692 3835
1124.4 305.972 3826
1133.55 305.972 3826
1142.7 305.972 3826
1157.27 307.412 3844
1166.46 307.412 3844
1175.65 307.412 3844
1182.07 306.692 3835
1191.24 306.692 3835
1200.41 306.692 3835
1209.58 306.692 3835
1227.33 308.851 3862
1242.33 310.291 3880
1251.61 310.291 3880
1260.89 310.291 3880
1270.16 310.291 3880
1276.47 309.571 3871
1294.7 311.73 3898
1304.02 311.73 3898
1316.37 312.45 3907
1331.82 313.889 3925
1341.21 313.889 3925
1350.6 313.889 3925
1353.75 312.45 3907
1363.09 312.45 3907
1382.27 314.689 3935
1391.68 314.689 3935
1407.5 316.129 3953
1420.53 316.928 3963
1430.01 316.928 3963
1439.49 316.928 3963
1448.96 316.928 3963
1465.43 318.448 3982
1481.99 319.967 4001
1491.56 319.967 4001
1501.13 319.967 4001
1510.69 319.967 4001
1527.48 321.487 4020
1544.36 323.006 4039
1554.02 323.006 4039
1567.55 323.806 4049
1581.13 324.606 4059
1590.83 324.606 4059
1600.54 324.606 4059
1614.21 325.405 4069
1627.93 326.205 4079
1637.69 326.205 4079
1647.44 326.205 4079
1661.26 327.005 4089
1671.04 327.005 4089
1680.81 327.005 4089
1690.59 327.005 4089
1683.74 323.806 4049
1689.24 323.006 4039
1698.9 323.006 4039
1700.52 321.487 4020
1689.71 317.648 3972
1695.36 316.928 3963
1688.49 313.889 3925
1697.87 313.889 3925
1707.26 313.889 3925
1704.84 311.73 3898
1690.41 307.412 3844
1699.6 307.412 3844
1681.68 302.533 3783
1713.97 306.692 3835
1723.14 306.692 3835
1732.31 306.692 3835
1741.48 306.692 3835
1750.65 306.692 3835
1747.89 304.613 3809
1757 304.613 3809
1766.1 304.613 3809
1775.21 304.613 3809
1780.11 303.893 3800
1776.95 301.814 3774
1785.98 301.814 3774
1791.19 301.174 3766
1792.07 299.814 3749
1801.04 299.814 3749
1810 299.814 3749
1810.72 298.455 3732
1803.56 295.816 3699
1820.73 297.175 3716
1829.62 297.175 3716
1838.5 297.175 3716
1827.01 293.896 3675
1823.31 291.897 3650
1800.91 286.939 3588
1809.49 286.939 3588
1806.42 285.1 3565
1803.24 283.26 3542
1792.78 280.301 3505
1801.16 280.301 3505
1794.57 277.982 3476
1802.88 277.982 3476
1818.49 279.102 3490
1842.54 281.501 3520
1850.96 281.501 3520
1863.07 282.061 3527
1871.51 282.061 3527
1887.94 283.26 3542
1900.15 283.82 3549
1908.64 283.82 3549
1917.13 283.82 3549
1929.95 284.46 3557
1946.63 285.659 3572
1955.18 285.659 3572
1998.35 290.698 3635
2015.33 291.897 3650
2042.35 294.536 3683
2051.16 294.536 3683
2078.43 297.175 3716
2149.1 305.972 3826
2246.25 318.448 3982
2255.77 318.448 3982
2276.1 319.967 4001
2285.67 319.967 4001
2295.24 319.967 4001
2299.04 319.168 3991
2308.59 319.168 3991
2329.17 320.687 4010
2350.42 322.286 4030
2360.06 322.286 4030
2369.7 322.286 4030
2379.33 322.286 4030
2388.97 322.286 4030
2398.61 322.286 4030
2408.24 322.286 4030
2405.88 320.687 4010
2415.47 320.687 4010
2408.13 318.448 3982
2417.65 318.448 3982
2432.66 319.168 3991
2448.32 319.967 4001
2475.7 322.286 4030
2485.34 322.286 4030
2506.74 323.806 4049
2516.42 323.806 4049
2526.1 323.806 4049
2535.79 323.806 4049
2558.04 325.405 4069
2567.77 325.405 4069
2577.5 325.405 4069
2587.23 325.405 4069
2565.69 321.487 4020
2563.13 319.967 4001
2578.49 320.687 4010
2588.07 320.687 4010
2597.66 320.687 4010
2613.75 321.487 4020
2635.77 323.006 4039
2645.43 323.006 4039
2655.08 323.006 4039
2664.74 323.006 4039
2674.4 323.006 4039
2684.06 323.006 4039
2687.72 322.286 4030
2697.35 322.286 4030
2618.32 311.73 3898
2627.65 311.73 3898
2636.97 311.73 3898
2664.62 313.889 3925
2699.89 316.928 3963
2709.37 316.928 3963
2718.85 316.928 3963
1961.48 217.283 2717
1967.97 217.283 2717
2003.54 220.482 2757
2034.19 223.121 2790
2051.1 224.241 2804
2057.81 224.241 2804
2074.82 225.361 2818
2085.25 225.76 2823
2102.38 226.88 2837
2109.16 226.88 2837
2115.95 226.88 2837
2116 226.16 2828
2122.76 226.16 2828
2129.52 226.16 2828
2136.29 226.16 2828
2139.26 225.76 2823
2149.81 226.16 2828
2156.57 226.16 2828
2163.34 226.16 2828
-2339.02 257.316 3124
-2331.54 257.316 3124
-2319.61 256.821 3118
-2307.71 256.327 3112
-2300.26 256.327 3112
-2297.24 256.821 3118
-2289.79 256.821 3118
-2291.11 257.81 3130
-2292.38 258.798 3142
-2289.23 259.292 3148
-2281.71 259.292 3148
-2274.18 259.292 3148
-2266.65 259.292 3148
-2259.12 259.292 3148
-2251.6 259.292 3148
-2252.62 260.281 3160
-2245.07 260.281 3160
-2237.51 260.281 3160
-2229.95 260.281 3160
-2222.4 260.281 3160
-2219.04 260.775 3166
-2228.24 262.752 3190
-2220.61 262.752 3190
-2221.31 263.74 3202
-2239.23 266.788 3239
-2280.4 272.636 3310
-2272.48 272.636 3310
-2278.25 274.283 3330
-2288.7 276.507 3357
-2294.26 278.154 3377
-2286.18 278.154 3377
-2311.16 282.19 3426
-2331.2 285.65 3468
-2332.95 286.885 3483
-2324.62 286.885 3483
-2316.3 286.885 3483
-2307.97 286.885 3483
-2299.64 286.885 3483
-2291.31 286.885 3483
-2278.39 286.309 3476
-2279.22 287.462 3490
-2290.4 289.933 3520
-2281.98 289.933 3520
-2273.56 289.933 3520
-2265.15 289.933 3520
-2256.73 289.933 3520
-2248.31 289.933 3520
-2244.35 290.51 3527
-2235.91 290.51 3527
-2227.48 290.51 3527
-2219.05 290.51 3527
-2215 291.086 3534
-2206.55 291.086 3534
-2198.1 291.086 3534
-2189.65 291.086 3534
-2176.87 290.51 3527
-2159.22 289.274 3512
-2150.82 289.274 3512
-2120.46 286.309 3476
-2113.59 291.086 3534
-2132.54 294.875 3580
-2128.72 295.534 3588
-2120.14 295.534 3588
-2111.56 295.534 3588
-2102.98 295.534 3588
-2098.49 296.111 3595
-2089.89 296.111 3595
-2095.19 298.087 3619
-2086.54 298.087 3619
-2077.88 298.087 3619
-2069.23 298.087 3619
-2051.46 296.769 3603
-2025.27 294.216 3572
-2016.73 294.216 3572
-1999.76 292.981 3557
-1982.85 291.745 3542
-1962.12 289.933 3520
-1953.7 289.933 3520
-1945.28 289.933 3520
-1936.87 289.933 3520
-1924.07 289.274 3512
-1915.67 289.274 3512
-1899.12 288.039 3497
-1915.09 291.745 3542
-1910.39 292.322 3549
-1901.9 292.322 3549
-1893.42 292.322 3549
-1893.43 293.64 3565
-1884.9 293.64 3565
-1876.38 293.64 3565
-1867.85 293.64 3565
-1859.33 293.64 3565
-1842.5 292.322 3549
-1834.01 292.322 3549
-1825.52 292.322 3549
-1828.81 294.216 3572
-1820.27 294.216 3572
-1823.39 296.111 3595
-1814.8 296.111 3595
-1810.22 296.769 3603
-1801.6 296.769 3603
-1792.99 296.769 3603
-1784.37 296.769 3603
-1783.64 298.087 3619
-1774.99 298.087 3619
-1766.33 298.087 3619
-1746.02 296.111 3595
-1726.31 294.216 3572
-1717.77 294.216 3572
-1713.06 294.875 3580
-1704.5 294.875 3580
-1695.93 294.875 3580
-1691.14 295.534 3588
-1682.56 295.534 3588
-1673.98 295.534 3588
-1665.4 295.534 3588
-1660.06 296.111 3595
-1651.46 296.111 3595
-1642.86 296.111 3595
-1634.27 296.111 3595
-1629.29 296.769 3603
-1627.87 298.087 3619
-1619.21 298.087 3619
-1610.56 298.087 3619
-1601.91 298.087 3619
-1589.73 297.428 3611
-1584.6 298.087 3619
-1575.94 298.087 3619
-1570.75 298.746 3627
-1562.08 298.746 3627
-1553.41 298.746 3627
-1544.73 298.746 3627
-1536.06 298.746 3627
-1527.39 298.746 3627
-1518.71 298.746 3627
-1510.04 298.746 3627
-1501.37 298.746 3627
-1492.69 298.746 3627
-1487.29 299.405 3635
-1478.6 299.405 3635
-1469.91 299.405 3635
-1461.22 299.405 3635
-1452.53 299.405 3635
-1443.83 299.405 3635
-1435.14 299.405 3635
-1426.45 299.405 3635
-1420.49 299.982 3642
-1411.78 299.982 3642
-1403.07 299.982 3642
-1391.68 299.405 3635
-1382.99 299.405 3635
-1371.27 298.746 3627
-1359.59 298.087 3619
-1339.36 295.534 3588
-1330.78 295.534 3588
-1316.31 294.216 3572
-1302.27 292.981 3557
-1290.86 292.322 3549
-1276.95 291.086 3534
-1268.5 291.086 3534
-1252.21 289.274 3512
-1238.5 288.039 3497
-1227.67 287.462 3490
-1219.33 287.462 3490
-1206.12 286.309 3476
-1192.64 285.073 3461
-571.563 138.542 1682
-569.228 138.954 1687
-565.864 139.118 1689
-561.825 139.118 1689
-558.117 139.201 1690
-554.075 139.201 1690
-550.034 139.201 1690
-545.993 139.201 1690
-541.951 139.201 1690
-537.592 139.118 1689
-533.553 139.118 1689
-529.514 139.118 1689
-524.853 138.954 1687
-520.201 138.789 1685
-516.172 138.789 1685
-511.535 138.624 1683
-507.51 138.624 1683
-503.186 138.542 1682
-498.571 138.377 1680
-494.553 138.377 1680
-489.952 138.212 1678
-485.65 138.13 1677
-481.065 137.965 1675
-477.06 137.965 1675
-473.054 137.965 1675
-467.649 137.553 1670
-463.1 137.389 1668
-459.111 137.389 1668
-455.122 137.389 1668
-449.781 136.977 1663
-445.001 136.73 1660
-441.031 136.73 1660
-436.272 136.483 1657
-431.787 136.318 1655
-426.02 135.741 1648
-422.079 135.741 1648
-417.885 135.659 1647
-413.444 135.494 1645
-409.261 135.412 1644
-405.33 135.412 1644
-400.422 135.082 1640
-395.775 134.835 1637
-391.142 134.588 1634
-387.235 134.588 1634
-383.327 134.588 1634
-378.955 134.423 1632
-374.823 134.341 1631
-370.468 134.176 1629
-366.572 134.176 1629
-362.009 133.929 1626
-357.46 133.682 1623
-352.926 133.435 1620
-349.052 133.435 1620
-344.752 133.27 1618
-340.882 133.27 1618
-336.388 133.023 1615
-332.526 133.023 1615
-328.054 132.776 1612
-324.199 132.776 1612
-319.748 132.529 1609
-315.901 132.529 1609
-312.053 132.529 1609
-307.822 132.364 1607
-303.79 132.282 1606
-299.95 132.282 1606
-295.556 132.035 1603
-290.995 131.705 1599
-287.171 131.705 1599
-284.057 132.035 1603
-280.398 132.117 1604
-276.562 132.117 1604
-273.067 132.282 1606
-269.394 132.364 1607
-265.882 132.529 1609
-262.034 132.529 1609
-258.668 132.776 1612
-255.287 133.023 1615
-251.737 133.188 1617
-247.87 133.188 1617
-244.456 133.435 1620
-241.176 133.765 1624
-238.023 134.176 1629
-234.128 134.176 1629
-230.939 134.588 1634
-227.726 135 1639
-224.217 135.247 1642
-220.29 135.247 1642
-217.154 135.741 1648
-213.86 136.153 1653
-210.542 136.565 1658
-206.578 136.565 1658
-203.713 137.306 1667
-200.325 137.718 1672
-196.914 138.13 1677
-192.904 138.13 1677
-189.232 138.377 1680
-185.766 138.789 1685
-182.275 139.201 1690
-178.234 139.201 1690
-174.399 139.366 1692
-170.655 139.613 1695
-166.798 139.777 1697
-162.74 139.777 1697
-158.869 139.942 1699
-154.989 140.107 1701
-151.808 140.93 1711
-147.717 140.93 1711
-144.045 141.342 1716
-140.268 141.672 1720
-136.155 141.672 1720
-132.042 141.672 1720
-127.929 141.672 1720
-246.868 313.737 3809
-237.76 313.737 3809
-228.651 313.737 3809
-218.044 311.596 3783
-208.998 311.596 3783
-199.053 310.195 3766
-188.332 307.395 3732
-178.206 305.336 3707
-169.341 305.336 3707
-160.476 305.336 3707
-151.612 305.336 3707
-142.747 305.336 3707
-133.883 305.336 3707
-125.018 305.336 3707
-116.686 306.736 3724
-108.736 309.454 3757
-99.7521 309.454 3757
-90.768 309.454 3757
-81.7838 309.454 3757
-72.7997 309.454 3757
-63.8156 309.454 3757
-54.8315 309.454 3757
-45.8473 309.454 3757
-36.7847 308.795 3749
-28.1388 312.337 3792
-19.071 312.337 3792
-10.0243 312.996 3800
-0.939534 313.737 3809
8.2247 315.879 3835
17.3953 315.879 3835
26.8154 318.844 3871
36.5753 323.292 3925
45.9612 323.292 3925
55.347 323.292 3925
65.3596 326.422 3963
75.0063 327.163 3972
85.5258 331.117 4020
95.1388 331.117 4020
104.752 331.117 4020
320.88 335.976 4079
331.445 336.8 4089
341.223 336.8 4089
351.001 336.8 4089
359.014 335.153 4069
368.744 335.153 4069
374.847 331.94 4030
368.993 303.359 3683
377.8 303.359 3683
386.607 303.359 3683
395.414 303.359 3683
397.197 298.087 3619
405.851 298.087 3619
410.038 294.875 3580
414.156 291.745 3542
414.751 286.309 3476
417.83 282.767 3433
426.039 282.767 3433
427.165 278.154 3377
428.281 273.707 3323
433.601 272.059 3303
441.5 272.059 3303
448.582 271.565 3297
456.466 271.565 3297
464.35 271.565 3297
472.234 271.565 3297
477.352 270 3278
484.154 269.424 3271
495.887 271.565 3297
507.744 273.707 3323
515.69 273.707 3323
523.636 273.707 3323
671.719 321.809 3907
681.062 321.809 3907
691.995 322.55 3916
701.36 322.55 3916
710.724 322.55 3916
716.779 321.068 3898
719.394 318.103 3862
725.233 316.62 3844
734.425 316.62 3844
740.135 315.137 3826
744.193 312.996 3800
749.91 311.596 3783
758.956 311.596 3783
768.002 311.596 3783
773.557 310.195 3766
782.562 310.195 3766
786.103 308.054 3740
795.047 308.054 3740
800.551 306.736 3724
807.717 306.077 3716
818.361 306.736 3724
827.266 306.736 3724
836.171 306.736 3724
845.077 306.736 3724
853.982 306.736 3724
866.594 308.054 3740
875.538 308.054 3740
896.779 312.337 3792
909.908 313.737 3809
919.016 313.737 3809
928.125 313.737 3809
939.448 314.478 3818
950.565 315.137 3826
961.972 315.879 3835
971.143 315.879 3835
989.516 318.844 3871
1001.09 319.585 3880
1010.37 319.585 3880
1019.65 319.585 3880
1028.93 319.585 3880
1038.21 319.585 3880
1047.49 319.585 3880
1056.76 319.585 3880
1066.04 319.585 3880
1072.83 318.844 3871
1077.05 317.361 3853
1086.27 317.361 3853
1095.48 317.361 3853
1102.11 316.62 3844
1108.7 315.879 3835
1117.87 315.879 3835
1124.4 315.137 3826
1133.55 315.137 3826
1142.7 315.137 3826
1157.27 316.62 3844
1166.46 316.62 3844
1175.65 316.62 3844
1182.07 315.879 3835
1191.24 315.879 3835
1200.41 315.879 3835
1209.58 315.879 3835
1227.33 318.103 3862
1242.33 319.585 3880
1251.61 319.585 3880
1260.89 319.585 3880
1270.16 319.585 3880
1276.47 318.844 3871
1294.7 321.068 3898
1304.02 321.068 3898
1316.37 321.809 3907
1331.82 323.292 3925
1341.21 323.292 3925
1350.6 323.292 3925
1353.75 321.809 3907
1363.09 321.809 3907
1382.27 324.115 3935
1391.68 324.115 3935
1407.5 325.598 3953
1420.53 326.422 3963
1430.01 326.422 3963
1439.49 326.422 3963
1448.96 326.422 3963
1465.43 327.987 3982
1481.99 329.552 4001
1491.56 329.552 4001
1501.13 329.552 4001
1510.69 329.552 4001
1527.48 331.117 4020
1544.36 332.682 4039
1554.02 332.682 4039
1567.55 333.505 4049
1581.13 334.329 4059
1590.83 334.329 4059
1600.54 334.329 4059
1614.21 335.153 4069
1627.93 335.976 4079
1637.69 335.976 4079
1647.44 335.976 4079
1661.26 336.8 4089
1671.04 336.8 4089
1680.81 336.8 4089
1690.59 336.8 4089
1683.74 333.505 4049
1689.24 332.682 4039
1698.9 332.682 4039
1700.52 331.117 4020
1689.71 327.163 3972
1695.36 326.422 3963
1688.49 323.292 3925
1697.87 323.292 3925
1707.26 323.292 3925
1704.84 321.068 3898
1690.41 316.62 3844
1699.6 316.62 3844
1681.68 311.596 3783
1713.97 315.879 3835
1723.14 315.879 3835
1732.31 315.879 3835
1741.48 315.879 3835
1750.65 315.879 3835
1747.89 313.737 3809
1757 313.737 3809
1766.1 313.737 3809
1775.21 313.737 3809
1780.11 312.996 3800
1776.95 310.854 3774
1785.98 310.854 3774
1791.19 310.195 3766
1792.07 308.795 3749
1801.04 308.795 3749
1810 308.795 3749
1810.72 307.395 3732
1803.56 304.677 3699
1820.73 306.077 3716
1829.62 306.077 3716
1838.5 306.077 3716
1827.01 302.7 3675
1823.31 300.641 3650
1800.91 295.534 3588
1809.49 295.534 3588
1806.42 293.64 3565
1803.24 291.745 3542
1792.78 288.697 3505
1801.16 288.697 3505
1790.44 285.65 3468
1798.73 285.65 3468
1814.84 286.885 3483
1842.54 289.933 3520
1850.96 289.933 3520
1859.37 289.933 3520
1871.51 290.51 3527
1883.67 291.086 3534
1900.15 292.322 3549
1908.64 292.322 3549
1917.13 292.322 3549
1929.95 292.981 3557
1946.63 294.216 3572
1955.18 294.216 3572
1998.35 299.405 3635
2015.33 300.641 3650
2042.35 303.359 3683
2051.16 303.359 3683
2078.43 306.077 3716
2149.1 315.137 3826
2246.25 327.987 3982
2255.77 327.987 3982
2276.1 329.552 4001
2285.67 329.552 4001
2295.24 329.552 4001
2299.04 328.728 3991
2308.59 328.728 3991
2329.17 330.293 4010
2350.42 331.94 4030
2360.06 331.94 4030
2369.7 331.94 4030
2379.33 331.94 4030
2388.97 331.94 4030
2398.61 331.94 4030
2408.24 331.94 4030
2405.88 330.293 4010
2415.47 330.293 4010
2408.13 327.987 3982
2417.65 327.987 3982
2432.66 328.728 3991
2448.32 329.552 4001
2475.7 331.94 4030
2485.34 331.94 4030
2506.74 333.505 4049
2516.42 333.505 4049
2526.1 333.505 4049
2535.79 333.505 4049
2558.04 335.153 4069
2567.77 335.153 4069
2577.5 335.153 4069
2587.23 335.153 4069
2565.69 331.117 4020
2563.13 329.552 4001
2578.49 330.293 4010
2588.07 330.293 4010
2597.66 330.293 4010
2613.75 331.117 4020
2635.77 332.682 4039
2645.43 332.682 4039
2655.08 332.682 4039
2664.74 332.682 4039
2674.4 332.682 4039
2684.06 332.682 4039
2687.72 331.94 4030
2697.35 331.94 4030
2003.54 227.087 2757
2034.19 229.805 2790
2051.1 230.958 2804
2057.81 230.958 2804
2074.82 232.111 2818
2085.25 232.523 2823
2102.38 233.676 2837
2109.16 233.676 2837
2115.95 233.676 2837
2116 232.935 2828
2122.76 232.935 2828
2129.52 232.935 2828
2136.29 232.935 2828
2139.26 232.523 2823
2146.01 232.523 2823
2148.95 232.111 2818
2155.69 232.111 2818
-2343.51 265.308 3130
-2336.02 265.308 3130
-2319.61 264.291 3118
-2312.15 264.291 3118
-2304.7 264.291 3118
-2301.66 264.799 3124
-2294.19 264.799 3124
-2299.9 266.325 3142
-2292.38 266.325 3142
-2289.23 266.833 3148
-2281.71 266.833 3148
-2274.18 266.833 3148
-2266.65 266.833 3148
-2259.12 266.833 3148
-2251.6 266.833 3148
-2252.62 267.851 3160
-2245.07 267.851 3160
-2237.51 267.851 3160
-2229.95 267.851 3160
-2222.4 267.851 3160
-2219.04 268.359 3166
-2228.24 270.393 3190
-2220.61 270.393 3190
-2242.81 274.038 3233
-2244.07 275.14 3246
-2285.22 281.158 3317
-2277.29 281.158 3317
-2305.62 285.651 3370
-2297.56 285.651 3370
-2327.54 290.397 3426
-2319.35 290.397 3426
-2330.05 292.771 3454
-2345.99 295.822 3490
-2342.33 296.416 3497
-2333.97 296.416 3497
-2325.61 296.416 3497
-2307.97 295.229 3483
-2299.64 295.229 3483
-2291.31 295.229 3483
-2282.98 295.229 3483
-2289.02 297.094 3505
-2290.4 298.365 3520
-2281.98 298.365 3520
-2273.56 298.365 3520
-2265.15 298.365 3520
-2256.73 298.365 3520
-2248.31 298.365 3520
-2244.35 298.959 3527
-2245.42 300.23 3542
-2236.95 300.23 3542
-2228.48 300.23 3542
-2215 299.552 3534
-2206.55 299.552 3534
-2198.1 299.552 3534
-2189.65 299.552 3534
-2176.87 298.959 3527
-2159.22 297.687 3512
-2150.82 297.687 3512
-2165.3 308.113 3635
-2160.76 308.706 3642
-2152.05 308.706 3642
-2143.34 308.706 3642
-2144.01 310.062 3658
-2135.26 310.062 3658
-2126.52 310.062 3658
-2141.51 313.538 3699
-2132.66 313.538 3699
-2123.82 313.538 3699
-2101.25 311.503 3675
-2078.23 309.384 3650
-2056.46 307.435 3627
-2047.78 307.435 3627
-2034.61 306.757 3619
-2021.48 306.079 3611
-2012.84 306.079 3611
-2004.21 306.079 3611
-1982.86 304.129 3588
-1969.88 303.451 3580
-1953.1 302.18 3565
-1944.58 302.18 3565
-1923.56 300.23 3542
-1927.53 302.18 3565
-1931.38 304.129 3588
-1922.8 304.129 3588
-1914.22 304.129 3588
-1905.64 304.129 3588
-1897.06 304.129 3588
-1888.48 304.129 3588
-1879.9 304.129 3588
-1871.32 304.129 3588
-1862.74 304.129 3588
-1857.78 304.722 3595
-1849.18 304.722 3595
-1848.78 306.079 3611
-1844.22 306.757 3619
-1835.57 306.757 3619
-1826.91 306.757 3619
-1818.26 306.757 3619
-1813.61 307.435 3627
-1804.93 307.435 3627
-1796.26 307.435 3627
-1787.59 307.435 3627
-1778.91 307.435 3627
-1770.24 307.435 3627
-1757.68 306.757 3619
-1749.03 306.757 3619
-1725.46 304.129 3588
-1716.88 304.129 3588
-1708.3 304.129 3588
-1699.72 304.129 3588
-1694.44 304.722 3595
-1689.6 305.401 3603
-1680.98 305.401 3603
-1672.37 305.401 3603
-1667.44 306.079 3611
-1666.16 307.435 3627
-1657.49 307.435 3627
-1648.81 307.435 3627
-1640.14 307.435 3627
-1638.21 308.706 3642
-1629.5 308.706 3642
-1620.8 308.706 3642
-1619.17 310.062 3658
-1610.42 310.062 3658
-1605.61 310.825 3667
-1596.85 310.825 3667
-1601.94 313.538 3699
-1593.09 313.538 3699
-1584.24 313.538 3699
-1575.4 313.538 3699
-1559.78 312.182 3683
-1550.97 312.182 3683
-1542.16 312.182 3683
-1533.36 312.182 3683
-1517.93 310.825 3667
-1509.16 310.825 3667
-1503.66 311.503 3675
-1494.87 311.503 3675
-1486.09 311.503 3675
-1477.3 311.503 3675
-1468.51 311.503 3675
-1459.72 311.503 3675
-1447.77 310.825 3667
-1439.01 310.825 3667
-1430.24 310.825 3667
-1414.88 309.384 3650
-1406.15 309.384 3650
-1394.36 308.706 3642
-1385.65 308.706 3642
-1371.27 307.435 3627
-1359.59 306.757 3619
-1339.36 304.129 3588
-1330.78 304.129 3588
-1319.26 303.451 3580
-1305.2 302.18 3565
-1290.86 300.823 3549
-1279.84 300.23 3542
-1271.37 300.23 3542
-1255.06 298.365 3520
-1238.5 296.416 3497
-1227.67 295.822 3490
-1219.33 295.822 3490
-1210.98 295.822 3490
-1202.63 295.822 3490
-566.806 141.384 1668
-569.228 142.995 1687
-565.864 143.164 1689
-561.825 143.164 1689
-558.117 143.249 1690
-554.075 143.249 1690
-550.034 143.249 1690
-545.993 143.249 1690
-541.951 143.249 1690
-536.955 142.995 1687
-532.921 142.995 1687
-528.887 142.995 1687
-524.853 142.995 1687
-520.201 142.825 1685
-516.172 142.825 1685
-511.535 142.656 1683
-507.209 142.571 1682
-503.186 142.571 1682
-498.571 142.402 1680
-494.553 142.402 1680
-489.952 142.232 1678
-485.65 142.147 1677
-481.065 141.978 1675
-477.06 141.978 1675
-473.054 141.978 1675
-467.649 141.554 1670
-463.1 141.384 1668
-459.111 141.384 1668
-455.122 141.384 1668
-449.781 140.961 1663
-445.537 140.876 1662
-441.562 140.876 1662
-436.535 140.537 1658
-432.309 140.452 1657
-426.537 139.859 1650
-422.592 139.859 1650
-417.885 139.604 1647
-413.946 139.604 1647
-409.261 139.35 1644
-405.33 139.35 1644
-400.422 139.011 1640
-395.775 138.757 1637
-391.142 138.502 1634
-387.235 138.502 1634
-383.327 138.502 1634
-378.955 138.333 1632
-374.823 138.248 1631
-370.468 138.079 1629
-366.572 138.079 1629
-362.009 137.824 1626
-357.46 137.57 1623
-352.926 137.316 1620
-349.052 137.316 1620
-344.752 137.146 1618
-340.672 137.062 1617
-336.388 136.892 1615
-332.526 136.892 1615
-328.054 136.638 1612
-323.797 136.468 1610
-319.748 136.383 1609
-315.901 136.383 1609
-311.665 136.214 1607
-307.822 136.214 1607
-303.79 136.129 1606
-299.95 136.129 1606
-295.556 135.875 1603
-290.995 135.536 1599
-287.171 135.536 1599
-284.234 135.96 1604
-280.398 135.96 1604
-276.907 136.129 1606
-273.237 136.214 1607
-269.729 136.383 1609
-266.047 136.468 1610
-262.197 136.468 1610
-258.828 136.722 1613
-255.287 136.892 1615
-252.204 137.316 1620
-248.33 137.316 1620
-244.909 137.57 1623
-241.77 137.994 1628
-238.754 138.502 1634
-234.846 138.502 1634
-231.363 138.757 1637
-228.143 139.181 1642
-225.036 139.689 1648
-221.095 139.689 1648
-217.681 140.028 1652
-214.507 140.537 1658
-211.177 140.961 1663
-207.201 140.961 1663
-203.835 141.384 1668
-200.685 141.978 1675
-197.266 142.402 1680
-193.249 142.402 1680
-189.57 142.656 1683
-186.207 143.164 1689
-182.491 143.419 1692
-178.445 143.419 1692
-174.605 143.588 1694
-170.655 143.673 1695
-166.995 144.012 1699
-162.932 144.012 1699
-159.056 144.182 1701
-154.989 144.182 1701
-151.808 145.029 1711
-147.717 145.029 1711
-144.045 145.453 1716
-140.268 145.792 1720
-136.155 145.792 1720
-132.042 145.792 1720
-127.929 145.792 1720
-247.97 324.303 3826
-238.821 324.303 3826
-229.672 324.303 3826
-219.024 322.099 3800
-209.937 322.099 3800
-200.427 321.421 3792
-190.451 319.895 3774
-179.792 317.013 3740
-170.849 317.013 3740
-161.905 317.013 3740
-152.962 317.013 3740
-144.018 317.013 3740
-135.075 317.013 3740
-126.131 317.013 3740
-117.72 318.454 3757
-109.489 320.658 3783
-100.681 321.421 3792
-91.6136 321.421 3792
-82.5457 321.421 3792
-73.4779 321.421 3792
-64.4101 321.421 3792
-55.3423 321.421 3792
-46.3721 322.099 3800
-37.2851 322.099 3800
-28.4579 325.065 3835
-19.2872 325.065 3835
-10.1403 325.828 3844
-0.952607 327.354 3862
8.37912 331.168 3907
17.7219 331.168 3907
27.2587 333.542 3935
36.9294 335.915 3963
46.6286 337.526 3982
56.1508 337.526 3982
66.1348 339.899 4010
76.4604 343.205 4049
86.1427 343.205 4049
95.8251 343.205 4049
104.752 340.747 4020
331.445 346.595 4089
341.223 346.595 4089
351.001 346.595 4089
359.014 344.9 4069
368.744 344.9 4069
378.475 344.9 4069
383.53 340.747 4020
386.591 335.068 3953
381.185 314.979 3716
390.071 314.979 3716
398.957 314.979 3716
398.953 308.113 3635
407.646 308.113 3635
411.757 304.722 3595
414.975 300.823 3549
414.751 294.636 3476
417.83 290.991 3433
426.039 290.991 3433
427.165 286.244 3377
428.281 281.667 3323
434.52 280.565 3310
442.435 280.565 3310
450.351 280.565 3310
456.466 279.463 3297
464.35 279.463 3297
472.234 279.463 3297
479.099 278.87 3290
486.966 278.87 3290
498.895 281.158 3317
510.799 283.362 3343
518.794 283.362 3343
526.788 283.362 3343
636.654 322.862 3809
663.902 331.931 3916
674.814 332.694 3925
684.2 332.694 3925
701.891 336.678 3972
711.389 336.678 3972
720.888 336.678 3972
723.582 333.542 3935
727.776 331.168 3907
730.327 328.117 3871
739.584 328.117 3871
748.841 328.117 3871
754.572 326.591 3853
762.002 325.828 3844
771.194 325.828 3844
780.386 325.828 3844
787.73 325.065 3835
796.9 325.065 3835
806.071 325.065 3835
815.242 325.065 3835
818.823 322.862 3809
822.28 320.658 3783
837.04 322.862 3809
846.148 322.862 3809
855.257 322.862 3809
864.365 322.862 3809
873.474 322.862 3809
882.582 322.862 3809
891.691 322.862 3809
911.205 326.591 3853
940.007 333.542 3935
949.417 333.542 3935
958.827 333.542 3935
972.666 335.068 3953
982.118 335.068 3953
991.571 335.068 3953
1001.02 335.068 3953
1015.33 336.678 3972
1024.83 336.678 3972
1034.33 336.678 3972
1041.46 335.915 3963
1045.9 334.305 3944
1052.92 333.542 3935
1062.33 333.542 3935
1071.74 333.542 3935
1081.15 333.542 3935
1090.56 333.542 3935
1092.15 331.168 3907
1101.49 331.168 3907
1110.83 331.168 3907
1117.59 330.406 3898
1126.92 330.406 3898
1136.24 330.406 3898
1140.27 328.88 3880
1149.55 328.88 3880
1161.51 329.643 3889
1176.23 331.168 3907
1185.57 331.168 3907
1194.92 331.168 3907
1201.49 330.406 3898
1210.81 330.406 3898
1222.95 331.168 3907
1232.29 331.168 3907
1247.35 332.694 3925
1256.74 332.694 3925
1266.12 332.694 3925
1275.51 332.694 3925
1281.95 331.931 3916
1285.38 330.406 3898
1294.7 330.406 3898
1304.02 330.406 3898
1325.81 333.542 3935
1335.22 333.542 3935
1344.63 333.542 3935
1354.04 333.542 3935
1359.98 332.694 3925
1363.09 331.168 3907
1382.27 333.542 3935
1391.68 333.542 3935
1407.5 335.068 3953
1420.53 335.915 3963
1430.01 335.915 3963
1439.49 335.915 3963
1448.96 335.915 3963
1472.42 339.136 4001
1485.33 339.899 4010
1498.64 340.747 4020
1508.26 340.747 4020
1517.87 340.747 4020
1538.5 343.205 4049
1555.83 344.9 4069
1565.56 344.9 4069
1575.29 344.9 4069
1581.13 344.052 4059
1590.83 344.052 4059
1600.54 344.052 4059
1661.26 346.595 4089
1671.04 346.595 4089
1680.81 346.595 4089
1690.59 346.595 4089
1700.37 346.595 4089
1710.15 346.595 4089
1719.93 346.595 4089
1721.24 344.9 4069
1718.21 342.357 4039
1711.61 339.136 4001
1716.88 338.288 3991
1726.42 338.288 3991
1723.79 335.915 3963
1716.65 332.694 3925
1714.16 330.406 3898
1723.48 330.406 3898
1689.24 322.099 3800
1713.97 325.065 3835
1723.14 325.065 3835
1732.31 325.065 3835
1741.48 325.065 3835
1750.65 325.065 3835
1752.02 323.625 3818
1761.15 323.625 3818
1770.28 323.625 3818
1775.21 322.862 3809
1780.11 322.099 3800
1776.95 319.895 3774
1785.98 319.895 3774
1795 319.895 3774
1800.2 319.217 3766
1809.21 319.217 3766
1818.21 319.217 3766
1818.97 317.776 3749
1811.84 314.979 3716
1820.73 314.979 3716
1829.62 314.979 3716
1838.5 314.979 3716
1834.96 312.86 3691
1823.31 309.384 3650
1808.44 305.401 3603
1817.06 305.401 3603
1814.02 303.451 3580
1810.87 301.501 3557
1796.36 297.687 3512
1804.76 297.687 3512
1794.57 294.636 3476
1798.73 293.958 3468
1818.49 295.822 3490
1838.35 297.687 3512
1846.75 297.687 3512
1859.37 298.365 3520
1867.79 298.365 3520
1883.67 299.552 3534
1900.15 300.823 3549
1908.64 300.823 3549
1917.13 300.823 3549
1929.95 301.501 3557
1946.63 302.773 3572
1955.18 302.773 3572
1998.35 308.113 3635
2019.74 310.062 3658
2042.35 312.182 3683
2051.16 312.182 3683
2078.43 314.979 3716
2174.38 328.117 3871
2262.04 339.899 4010
2271.63 339.899 4010
2292.6 341.594 4030
2302.24 341.594 4030
2311.87 341.594 4030
2315.75 340.747 4020
2308.59 338.288 3991
2340.79 341.594 4030
2350.42 341.594 4030
2360.06 341.594 4030
2369.7 341.594 4030
2379.33 341.594 4030
2406.16 344.052 4059
2415.87 344.052 4059
2425.57 344.052 4059
2417.88 341.594 4030
2427.52 341.594 4030
2425.06 339.899 4010
2429.18 339.136 4001
2438.75 339.136 4001
2448.32 339.136 4001
2487.37 343.205 4049
2497.06 343.205 4049
2506.74 343.205 4049
2516.42 343.205 4049
2532.34 344.052 4059
2542.05 344.052 4059
2564.33 345.748 4079
2574.08 345.748 4079
2583.84 345.748 4079
2593.59 345.748 4079
2572.07 341.594 4030
2575.3 340.747 4020
2584.92 340.747 4020
2594.53 340.747 4020
2604.14 340.747 4020
2620.26 341.594 4030
2655.34 344.9 4069
2665.07 344.9 4069
2674.8 344.9 4069
2684.53 344.9 4069
2674.4 342.357 4039
2684.06 342.357 4039
2681.05 340.747 4020
2007.17 234.115 2762
2040.75 237.251 2799
2051.1 237.675 2804
2057.81 237.675 2804
2085.13 240.048 2832
2095.6 240.472 2837
2102.38 240.472 2837
2109.16 240.472 2837
2115.95 240.472 2837
2122.73 240.472 2837
2129.52 240.472 2837
2136.3 240.472 2837
2143.08 240.472 2837
2139.26 239.285 2823
2146.01 239.285 2823
2148.95 238.862 2818
576.788 63.9112 754
-2343.51 272.806 3130
-2336.02 272.806 3130
-2319.61 271.76 3118
-2312.15 271.76 3118
-2304.7 271.76 3118
-2301.66 272.283 3124
-2294.19 272.283 3124
-2299.9 273.852 3142
-2292.38 273.852 3142
-2289.23 274.374 3148
-2281.71 274.374 3148
-2274.18 274.374 3148
-2266.65 274.374 3148
-2259.12 274.374 3148
-2251.6 274.374 3148
-2252.62 275.42 3160
-2245.07 275.42 3160
-2237.51 275.42 3160
-2229.95 275.42 3160
-2222.4 275.42 3160
-2219.04 275.943 3166
-2228.24 278.035 3190
-2220.61 278.035 3190
-2242.81 281.783 3233
-2244.07 282.916 3246
-2345.85 296.774 3405
-2337.71 296.774 3405
-2353.51 299.825 3440
-2345.28 299.825 3440
-2341.81 300.435 3447
-2333.57 300.435 3447
-2359.06 304.793 3497
-2356.07 305.49 3505
-2347.69 305.49 3505
-2339.31 305.49 3505
-2330.93 305.49 3505
-2322.54 305.49 3505
-2314.16 305.49 3505
-2295.91 304.183 3490
-2282.98 303.573 3483
-2289.02 305.49 3505
-2290.4 306.797 3520
-2281.98 306.797 3520
-2273.56 306.797 3520
-2265.15 306.797 3520
-2256.73 306.797 3520
-2248.31 306.797 3520
-2244.35 307.408 3527
-2245.42 308.715 3542
-2236.95 308.715 3542
-2228.48 308.715 3542
-2234.43 310.72 3565
-2225.9 310.72 3565
-2217.38 310.72 3565
-2194.6 308.715 3542
-2176.87 307.408 3527
-2159.22 306.1 3512
-2150.82 306.1 3512
-2165.3 316.821 3635
-2160.76 317.431 3642
-2152.05 317.431 3642
-2143.34 317.431 3642
-2144.01 318.825 3658
-2178.46 325.275 3732
-2169.54 325.275 3732
-2160.61 325.275 3732
-2151.69 325.275 3732
-2142.76 325.275 3732
-2124.69 323.88 3716
-2092.46 320.307 3675
-2069.5 318.128 3650
-2060.77 318.128 3650
-2034.61 315.426 3619
-2025.96 315.426 3619
-2012.84 314.729 3611
-2004.21 314.729 3611
-1995.57 314.729 3611
-1974.28 312.724 3588
-1953.1 310.72 3565
-1944.58 310.72 3565
-1936.05 310.72 3565
-1935.64 312.027 3580
-1935.15 313.334 3595
-1926.56 313.334 3595
-1917.96 313.334 3595
-1909.36 313.334 3595
-1900.77 313.334 3595
-1892.17 313.334 3595
-1883.57 313.334 3595
-1871.32 312.724 3588
-1866.38 313.334 3595
-1870.18 315.426 3619
-1861.53 315.426 3619
-1856.97 316.123 3627
-1848.3 316.123 3627
-1839.62 316.123 3627
-1830.95 316.123 3627
-1826.3 316.821 3635
-1817.61 316.821 3635
-1824.84 319.61 3667
-1816.07 319.61 3667
-1807.3 319.61 3667
-1798.53 319.61 3667
-1789.76 319.61 3667
-1765.45 316.821 3635
-1756.76 316.821 3635
-1751.43 317.431 3642
-1742.72 317.431 3642
-1734.01 317.431 3642
-1725.31 317.431 3642
-1720.37 318.128 3650
-1715.39 318.825 3658
-1710.84 319.61 3667
-1702.07 319.61 3667
-1697 320.307 3675
-1688.21 320.307 3675
-1679.42 320.307 3675
-1670.63 320.307 3675
-1661.85 320.307 3675
-1656.66 321.004 3683
-1647.85 321.004 3683
-1639.04 321.004 3683
-1630.23 321.004 3683
-1621.43 321.004 3683
-1619.63 322.399 3699
-1610.78 322.399 3699
-1609.3 323.88 3716
-1607.3 325.275 3732
-1598.38 325.275 3732
-1589.45 325.275 3732
-1577.14 324.578 3724
-1568.24 324.578 3724
-1559.33 324.578 3724
-1550.43 324.578 3724
-1538.21 323.88 3716
-1529.32 323.88 3716
-1520.44 323.88 3716
-1511.55 323.88 3716
-1499.03 323.096 3707
-1490.16 323.096 3707
-1481.3 323.096 3707
-1472.43 323.096 3707
-1463.57 323.096 3707
-1451.56 322.399 3699
-1442.72 322.399 3699
-1424.57 320.307 3675
-1415.78 320.307 3675
-1403.93 319.61 3667
-1395.16 319.61 3667
-1376.94 317.431 3642
-1362.6 316.123 3627
-1344.96 314.032 3603
-1336.35 314.032 3603
-1319.26 312.027 3580
-1307.77 311.33 3572
-1293.77 310.022 3557
-1282.37 309.325 3549
-1273.89 309.325 3549
-1255.06 306.797 3520
-1243.81 306.1 3512
-1227.67 304.183 3490
-1219.33 304.183 3490
-1210.98 304.183 3490
-1202.63 304.183 3490
-560.871 142.853 1639
-566.806 145.38 1668
-569.228 147.036 1687
-565.864 147.21 1689
-561.825 147.21 1689
-558.117 147.298 1690
-554.075 147.298 1690
-550.034 147.298 1690
-545.993 147.298 1690
-541.951 147.298 1690
-536.955 147.036 1687
-532.921 147.036 1687
-528.887 147.036 1687
-524.853 147.036 1687
-520.201 146.862 1685
-516.172 146.862 1685
-511.535 146.688 1683
-507.209 146.6 1682
-503.186 146.6 1682
-498.571 146.426 1680
-494.553 146.426 1680
-489.952 146.252 1678
-485.65 146.165 1677
-481.065 145.99 1675
-477.06 145.99 1675
-473.054 145.99 1675
-467.649 145.554 1670
-463.655 145.554 1670
-459.662 145.554 1670
-455.122 145.38 1668
-450.322 145.119 1665
-445.537 144.857 1662
-441.562 144.857 1662
-436.535 144.509 1658
-432.309 144.421 1657
-426.537 143.811 1650
-422.592 143.811 1650
-418.646 143.811 1650
-413.946 143.55 1647
-409.51 143.375 1645
-405.576 143.375 1645
-400.422 142.94 1640
-396.258 142.853 1639
-391.621 142.591 1636
-387.709 142.591 1636
-383.327 142.417 1634
-379.42 142.417 1634
-375.053 142.242 1632
-370.468 141.981 1629
-366.572 141.981 1629
-362.009 141.719 1626
-357.46 141.458 1623
-352.926 141.197 1620
-349.052 141.197 1620
-344.752 141.022 1618
-340.672 140.935 1617
-336.388 140.761 1615
-332.526 140.761 1615
-328.054 140.499 1612
-323.797 140.325 1610
-319.748 140.238 1609
-315.901 140.238 1609
-311.665 140.063 1607
-307.822 140.063 1607
-303.79 139.976 1606
-299.95 139.976 1606
-295.556 139.715 1603
-290.995 139.366 1599
-287.171 139.366 1599
-284.588 139.976 1606
-280.748 139.976 1606
-276.907 139.976 1606
-273.237 140.063 1607
-269.897 140.325 1610
-266.377 140.499 1612
-262.523 140.499 1612
-259.149 140.761 1615
-255.762 141.022 1618
-252.359 141.284 1621
-248.483 141.284 1621
-245.361 141.719 1626
-242.216 142.155 1631
-239.192 142.678 1637
-235.278 142.678 1637
-231.787 142.94 1640
-228.56 143.375 1645
-225.309 143.811 1650
-221.363 143.811 1650
-217.813 144.073 1653
-214.766 144.683 1660
-211.685 145.293 1667
-207.699 145.293 1667
-204.079 145.554 1670
-201.044 146.252 1678
-197.266 146.426 1680
-193.249 146.426 1680
-189.795 146.862 1685
-186.207 147.21 1689
-182.707 147.646 1694
-178.656 147.646 1694
-174.708 147.733 1695
-170.655 147.733 1695
-166.995 148.082 1699
-162.932 148.082 1699
-159.056 148.256 1701
-154.989 148.256 1701
-151.808 149.128 1711
-147.717 149.128 1711
-144.045 149.564 1716
-140.268 149.912 1720
-136.155 149.912 1720
-132.042 149.912 1720
-127.929 149.912 1720
-249.137 335.037 3844
-239.945 335.037 3844
-230.752 335.037 3844
-221.041 334.252 3835
-211.871 334.252 3835
-201.802 332.771 3818
-191.36 330.504 3792
-181.426 328.936 3774
-172.402 328.936 3774
-163.377 328.936 3774
-153.657 327.454 3757
-144.673 327.454 3757
-135.689 327.454 3757
-126.704 327.454 3757
-118.817 330.504 3792
-110.241 331.986 3809
-101.133 331.986 3809
-92.0243 331.986 3809
-82.9158 331.986 3809
-73.8073 331.986 3809
-64.8517 332.771 3818
-55.7217 332.771 3818
-46.5917 332.771 3818
-37.7168 335.037 3844
-28.7918 338.174 3880
-19.5136 338.174 3880
-10.2828 339.743 3898
-0.968146 342.096 3925
8.45847 343.753 3944
17.8898 343.753 3944
27.3211 343.753 3944
36.9294 345.409 3963
46.6286 347.065 3982
56.1508 347.065 3982
66.1348 349.505 4010
76.4604 352.904 4049
86.1427 352.904 4049
95.8251 352.904 4049
104.752 350.377 4020
331.445 356.39 4089
341.223 356.39 4089
351.001 356.39 4089
359.014 354.647 4069
368.744 354.647 4069
378.475 354.647 4069
386.297 352.904 4049
389.427 347.065 3982
396.043 344.537 3953
405.496 344.537 3953
407.286 338.174 3880
403.359 327.454 3757
402.465 319.61 3667
411.234 319.61 3667
413.589 314.729 3611
415.91 310.022 3557
416.422 304.183 3490
418.682 299.825 3440
426.908 299.825 3440
428.936 295.554 3391
431.76 291.98 3350
436.227 289.627 3323
444.173 289.627 3323
452.119 289.627 3323
458.266 288.494 3310
466.181 288.494 3310
474.096 288.494 3310
483.031 289.104 3317
490.963 289.104 3317
502.805 291.37 3343
522.412 297.994 3419
530.588 297.994 3419
538.764 297.994 3419
642.504 335.037 3844
665.428 342.096 3925
682.895 346.193 3972
692.393 346.193 3972
703.658 347.065 3982
713.18 347.065 3982
722.703 347.065 3982
730.386 346.193 3972
731.129 342.096 3925
735.421 339.743 3898
744.742 339.743 3898
752.323 338.959 3889
758.097 337.39 3871
767.354 337.39 3871
776.611 337.39 3871
789.522 338.959 3889
798.822 338.959 3889
808.121 338.959 3889
817.421 338.959 3889
826.721 338.959 3889
830.217 336.606 3862
831.627 333.468 3826
846.709 335.821 3853
855.923 335.821 3853
865.137 335.821 3853
874.35 335.821 3853
883.564 335.821 3853
892.778 335.821 3853
901.991 335.821 3853
930.597 342.968 3935
948.846 346.193 3972
965.341 348.721 4001
974.909 348.721 4001
984.476 348.721 4001
991.559 347.849 3991
1001.1 347.849 3991
1010.65 347.849 3991
1025.05 349.505 4010
1034.64 349.505 4010
1044.23 349.505 4010
1046.46 347.065 3982
1055.98 347.065 3982
1060.42 345.409 3963
1069.89 345.409 3963
1079.37 345.409 3963
1088.85 345.409 3963
1093.06 343.753 3944
1099.97 342.968 3935
1109.38 342.968 3935
1113.39 341.312 3916
1122.76 341.312 3916
1132.12 341.312 3916
1141.48 341.312 3916
1148.2 340.528 3907
1157.55 340.528 3907
1166.89 340.528 3907
1178.94 341.312 3916
1188.31 341.312 3916
1197.67 341.312 3916
1209.81 342.096 3925
1219.19 342.096 3925
1228.58 342.096 3925
1237.97 342.096 3925
1256.25 344.537 3953
1265.7 344.537 3953
1275.16 344.537 3953
1284.61 344.537 3953
1291.12 343.753 3944
1294.28 342.096 3925
1306.99 342.968 3935
1316.4 342.968 3935
1325.81 342.968 3935
1335.22 342.968 3935
1344.63 342.968 3935
1354.04 342.968 3935
1363.45 342.968 3935
1359.95 339.743 3898
1388.59 344.537 3953
1398.04 344.537 3953
1414.26 346.193 3972
1423.76 346.193 3972
1433.26 346.193 3972
1442.76 346.193 3972
1466.15 349.505 4010
1475.74 349.505 4010
1489.03 350.377 4020
1505.73 352.033 4039
1515.38 352.033 4039
1532.59 353.776 4059
1549.9 355.519 4079
1559.65 355.519 4079
1569.41 355.519 4079
1575.29 354.647 4069
1700.37 356.39 4089
1710.15 356.39 4089
1719.93 356.39 4089
1725.47 355.519 4079
1722.47 352.904 4049
1727.87 352.033 4039
1721.18 348.721 4001
1730.75 348.721 4001
1735.97 347.849 3991
1733.26 345.409 3963
1726.03 342.096 3925
1735.42 342.096 3925
1697.24 332.771 3818
1713.97 334.252 3835
1723.14 334.252 3835
1732.31 334.252 3835
1741.48 334.252 3835
1750.65 334.252 3835
1752.02 332.771 3818
1761.15 332.771 3818
1770.28 332.771 3818
1775.21 331.986 3809
1780.11 331.202 3800
1776.95 328.936 3774
1785.98 328.936 3774
1795 328.936 3774
1804.02 328.936 3774
1813.05 328.936 3774
1822.07 328.936 3774
1818.97 326.757 3749
1811.84 323.88 3716
1820.73 323.88 3716
1829.62 323.88 3716
1838.5 323.88 3716
1834.96 321.701 3691
1823.31 318.128 3650
1808.44 314.032 3603
1817.06 314.032 3603
1818.07 312.724 3588
1818.51 311.33 3572
1804.03 307.408 3527
1812.47 307.408 3527
1798.19 303.573 3483
1802.88 302.962 3476
1818.49 304.183 3490
1838.35 306.1 3512
1846.75 306.1 3512
1855.15 306.1 3512
1867.79 306.797 3520
1883.67 308.018 3534
1896.41 308.715 3542
1904.88 308.715 3542
1917.13 309.325 3549
1929.95 310.022 3557
1946.63 311.33 3572
1955.18 311.33 3572
1998.35 316.821 3635
2019.74 318.825 3658
2042.35 321.004 3683
2051.16 321.004 3683
2078.43 323.88 3716
2179.43 338.174 3880
2284.04 352.904 4049
2293.73 352.904 4049
2303.41 352.904 4049
2313.09 352.904 4049
2322.77 352.904 4049
2321.51 351.248 4030
2325.36 350.377 4020
2363.44 354.647 4069
2373.17 354.647 4069
2382.9 354.647 4069
2392.63 354.647 4069
2402.36 354.647 4069
2412.09 354.647 4069
2421.82 354.647 4069
2431.55 354.647 4069
2435.28 353.776 4059
2444.99 353.776 4059
2425.06 349.505 4010
2429.18 348.721 4001
2438.75 348.721 4001
2448.32 348.721 4001
2487.37 352.904 4049
2497.06 352.904 4049
2512.93 353.776 4059
2528.85 354.647 4069
2538.58 354.647 4069
2548.31 354.647 4069
2564.33 355.519 4079
2574.08 355.519 4079
2583.84 355.519 4079
2593.59 355.519 4079
2584.2 352.904 4049
2581.71 351.248 4030
2591.35 351.248 4030
2600.98 351.248 4030
2616.45 352.033 4039
2645.61 354.647 4069
2655.34 354.647 4069
2665.07 354.647 4069
2674.8 354.647 4069
2684.53 354.647 4069
2674.4 352.033 4039
2684.06 352.033 4039
2007.17 240.731 2762
2040.75 243.956 2799
2051.1 244.392 2804
2057.81 244.392 2804
2085.13 246.832 2832
2095.6 247.268 2837
2102.38 247.268 2837
2109.16 247.268 2837
2115.95 247.268 2837
2122.73 247.268 2837
2129.52 247.268 2837
2136.3 247.268 2837
2143.08 247.268 2837
569.105 65.4559 751
573.182 65.7174 754
574.985 65.7174 754
576.788 65.7174 754
-2343.51 280.304 3130
-2336.02 280.304 3130
-2324.07 279.766 3124
-2312.15 279.229 3118
-2304.7 279.229 3118
-2301.66 279.766 3124
-2294.19 279.766 3124
-2299.9 281.378 3142
-2292.38 281.378 3142
-2289.23 281.916 3148
-2281.71 281.916 3148
-2274.18 281.916 3148
-2266.65 281.916 3148
-2259.12 281.916 3148
-2251.6 281.916 3148
-2252.62 282.99 3160
-2245.07 282.99 3160
-2237.51 282.99 3160
-2229.95 282.99 3160
-2222.4 282.99 3160
-2219.04 283.527 3166
-2228.24 285.677 3190
-2220.61 285.677 3190
-2242.81 289.528 3233
-2244.07 290.692 3246
-2345.85 304.931 3405
-2337.71 304.931 3405
-2353.51 308.065 3440
-2345.28 308.065 3440
-2341.81 308.692 3447
-2333.57 308.692 3447
-2359.06 313.17 3497
-2356.07 313.886 3505
-2347.69 313.886 3505
-2339.31 313.886 3505
-2330.93 313.886 3505
-2322.54 313.886 3505
-2314.16 313.886 3505
-2295.91 312.543 3490
-2282.98 311.916 3483
-2289.02 313.886 3505
-2285.19 314.513 3512
-2276.79 314.513 3512
-2268.4 314.513 3512
-2260 314.513 3512
-2256.73 315.23 3520
-2248.31 315.23 3520
-2244.35 315.856 3527
-2245.42 317.2 3542
-2236.95 317.2 3542
-2228.48 317.2 3542
-2234.43 319.259 3565
-2225.9 319.259 3565
-2217.38 319.259 3565
-2194.6 317.2 3542
-2176.87 315.856 3527
-2165.3 325.528 3635
-2160.76 326.155 3642
-2152.05 326.155 3642
-2143.34 326.155 3642
-2144.01 327.588 3658
-2178.46 334.215 3732
-2169.54 334.215 3732
-2160.61 334.215 3732
-2151.69 334.215 3732
-2142.76 334.215 3732
-2124.69 332.782 3716
-2092.46 329.11 3675
-2069.5 326.872 3650
-2060.77 326.872 3650
-2034.61 324.095 3619
-2025.96 324.095 3619
-2012.84 323.379 3611
-2004.21 323.379 3611
-1995.57 323.379 3611
-1974.28 321.319 3588
-1953.1 319.259 3565
-1944.58 319.259 3565
-1936.05 319.259 3565
-1935.64 320.603 3580
-1935.15 321.946 3595
-1926.56 321.946 3595
-1917.96 321.946 3595
-1909.36 321.946 3595
-1900.77 321.946 3595
-1892.17 321.946 3595
-1883.57 321.946 3595
-1871.32 321.319 3588
-1866.38 321.946 3595
-1870.18 324.095 3619
-1861.53 324.095 3619
-1856.97 324.812 3627
-1848.3 324.812 3627
-1839.62 324.812 3627
-1830.95 324.812 3627
-1826.3 325.528 3635
-1817.61 325.528 3635
-1824.84 328.394 3667
-1816.07 328.394 3667
-1807.3 328.394 3667
-1798.53 328.394 3667
-1789.76 328.394 3667
-1765.45 325.528 3635
-1756.76 325.528 3635
-1751.43 326.155 3642
-1742.72 326.155 3642
-1734.01 326.155 3642
-1725.31 326.155 3642
-1720.37 326.872 3650
-1715.39 327.588 3658
-1710.84 328.394 3667
-1702.07 328.394 3667
-1697 329.11 3675
-1688.21 329.11 3675
-1679.42 329.11 3675
-1670.63 329.11 3675
-1661.85 329.11 3675
-1656.66 329.827 3683
-1647.85 329.827 3683
-1639.04 329.827 3683
-1630.23 329.827 3683
-1621.43 329.827 3683
-1619.63 331.26 3699
-1610.78 331.26 3699
-1609.3 332.782 3716
-1607.3 334.215 3732
-1598.38 334.215 3732
-1589.45 334.215 3732
-1577.14 333.499 3724
-1568.24 333.499 3724
-1559.33 333.499 3724
-1550.43 333.499 3724
-1538.21 332.782 3716
-1529.32 332.782 3716
-1520.44 332.782 3716
-1511.55 332.782 3716
-1499.03 331.976 3707
-1490.16 331.976 3707
-1481.3 331.976 3707
-1472.43 331.976 3707
-1463.57 331.976 3707
-1451.56 331.26 3699
-1442.72 331.26 3699
-1424.57 329.11 3675
-1415.78 329.11 3675
-1403.93 328.394 3667
-1395.16 328.394 3667
-1376.94 326.155 3642
-1362.6 324.812 3627
-1344.96 322.663 3603
-1336.35 322.663 3603
-1319.26 320.603 3580
-1307.77 319.886 3572
-1293.77 318.543 3557
-1282.37 317.827 3549
-1273.89 317.827 3549
-1255.06 315.23 3520
-1243.81 314.513 3512
-1227.67 312.543 3490
-1219.33 312.543 3490
-1210.98 312.543 3490
-1202.63 312.543 3490
-560.871 146.779 1639
-566.806 149.376 1668
-567.541 150.63 1682
-564.524 150.898 1685
-560.495 150.898 1685
-557.786 151.256 1689
-553.747 151.256 1689
-549.708 151.256 1689
-545.023 151.077 1687
-540.989 151.077 1687
-536.955 151.077 1687
-532.921 151.077 1687
-528.26 150.898 1685
-524.231 150.898 1685
-519.584 150.719 1683
-515.559 150.719 1683
-511.231 150.63 1682
-507.209 150.63 1682
-502.588 150.45 1680
-497.977 150.271 1678
-493.965 150.271 1678
-489.952 150.271 1678
-485.65 150.182 1677
-481.065 150.003 1675
-477.06 150.003 1675
-473.054 150.003 1675
-467.649 149.555 1670
-463.655 149.555 1670
-459.662 149.555 1670
-455.122 149.376 1668
-450.322 149.107 1665
-445.537 148.839 1662
-441.562 148.839 1662
-436.535 148.48 1658
-432.309 148.391 1657
-426.537 147.764 1650
-422.592 147.764 1650
-418.646 147.764 1650
-413.946 147.495 1647
-409.51 147.316 1645
-405.576 147.316 1645
-400.422 146.868 1640
-396.258 146.779 1639
-391.621 146.51 1636
-387.709 146.51 1636
-383.327 146.331 1634
-379.42 146.331 1634
-375.053 146.152 1632
-370.468 145.883 1629
-366.572 145.883 1629
-362.009 145.615 1626
-357.02 145.167 1621
-352.49 144.898 1618
-348.621 144.898 1618
-344.752 144.898 1618
-340.25 144.629 1615
-335.972 144.45 1613
-332.115 144.45 1613
-327.647 144.182 1610
-323.596 144.092 1609
-319.748 144.092 1609
-315.901 144.092 1609
-311.665 143.913 1607
-307.631 143.823 1606
-303.412 143.644 1604
-299.576 143.644 1604
-295.556 143.555 1603
-290.995 143.197 1599
-287.171 143.197 1599
-284.588 143.823 1606
-280.748 143.823 1606
-276.907 143.823 1606
-273.237 143.913 1607
-269.897 144.182 1610
-266.377 144.361 1612
-262.523 144.361 1612
-259.149 144.629 1615
-255.762 144.898 1618
-252.359 145.167 1621
-248.483 145.167 1621
-245.361 145.615 1626
-242.216 146.062 1631
-239.192 146.6 1637
-235.278 146.6 1637
-231.787 146.868 1640
-228.56 147.316 1645
-225.309 147.764 1650
-221.363 147.764 1650
-217.813 148.033 1653
-214.766 148.659 1660
-211.685 149.286 1667
-207.699 149.286 1667
-204.079 149.555 1670
-201.044 150.271 1678
-197.266 150.45 1680
-193.249 150.45 1680
-189.795 150.898 1685
-186.207 151.256 1689
-182.707 151.704 1694
-178.656 151.704 1694
-174.708 151.794 1695
-170.655 151.794 1695
-166.995 152.152 1699
-162.932 152.152 1699
-159.056 152.331 1701
-154.989 152.331 1701
-151.808 153.227 1711
-147.717 153.227 1711
-144.045 153.674 1716
-140.268 154.033 1720
-136.155 154.033 1720
-132.042 154.033 1720
-127.929 154.033 1720
-249.137 344.245 3844
-239.945 344.245 3844
-230.752 344.245 3844
-221.041 343.439 3835
