ply
format ascii 1.0
comment File generated
element vertex 2134
property float x
property float y
property float z
end_header
-365.42 -795.432 1715
-360.897 -794.504 1713
-356.801 -794.504 1713
-352.705 -794.504 1713
-348.201 -793.577 1711
-344.11 -793.577 1711
-340.018 -793.577 1711
-335.927 -793.577 1711
-331.835 -793.577 1711
-327.361 -792.649 1709
-323.274 -792.649 1709
-319.187 -792.649 1709
-315.1 -792.649 1709
-311.014 -792.649 1709
-307.286 -793.577 1711
-303.194 -793.577 1711
-299.103 -793.577 1711
-295.356 -794.504 1713
-291.6 -795.432 1715
-287.499 -795.432 1715
-283.398 -795.432 1715
-279.46 -795.896 1716
-275.677 -796.823 1718
-272.201 -798.679 1722
-268.083 -798.679 1722
-264.119 -799.142 1723
-260.3 -800.07 1725
-257.066 -802.853 1731
-252.927 -802.853 1731
-249.794 -806.099 1738
-246.344 -808.419 1743
-243.288 -812.129 1751
-239.101 -812.129 1751
-235.316 -813.52 1754
-231.385 -814.448 1756
-227.186 -814.448 1756
-222.987 -814.448 1756
-218.788 -814.448 1756
-214.833 -815.376 1758
-211.228 -817.695 1763
-207.012 -817.695 1763
-202.796 -817.695 1763
-198.581 -817.695 1763
-194.365 -817.695 1763
1763.41 -1859.87 4010
1773 -1859.87 4010
1782.59 -1859.87 4010
1792.18 -1859.87 4010
1806.26 -1864.51 4020
1828.97 -1877.96 4049
1838.65 -1877.96 4049
1848.34 -1877.96 4049
1858.02 -1877.96 4049
1867.7 -1877.96 4049
1850.49 -1851.06 3991
1851.18 -1842.25 3972
1856.46 -1838.07 3963
1843.81 -1816.27 3916
1853.17 -1816.27 3916
1849.7 -1803.75 3889
1854.69 -1799.58 3880
1855.33 -1791.23 3862
1864.56 -1791.23 3862
2810.09 -1758.76 3792
2819.16 -1758.76 3792
2828.22 -1758.76 3792
2837.29 -1758.76 3792
2807.33 -1734.64 3740
2816.27 -1734.64 3740
2825.22 -1734.64 3740
2828.1 -1730.93 3732
2837.02 -1730.93 3732
2858.91 -1738.82 3749
2867.87 -1738.82 3749
-487.865 -825.007 1788
-483.589 -825.007 1788
-479.314 -825.007 1788
-472.116 -819.931 1777
-466.813 -818.086 1773
-461.008 -815.317 1767
-455.749 -813.471 1763
-451.533 -813.471 1763
-446.048 -811.164 1758
-440.085 -807.934 1751
-435.4 -807.012 1749
-431.217 -807.012 1749
-426.547 -806.089 1747
-419.71 -801.013 1736
-415.08 -800.09 1734
-410.933 -800.09 1734
-405.614 -797.783 1729
-401.015 -796.861 1727
-396.425 -795.938 1725
-392.3 -795.938 1725
-387.5 -794.553 1722
-383.382 -794.553 1722
-378.384 -792.708 1718
-374.275 -792.708 1718
-369.736 -791.785 1716
-365.42 -791.324 1715
-360.897 -790.401 1713
-356.801 -790.401 1713
-352.705 -790.401 1713
-348.201 -789.478 1711
-344.11 -789.478 1711
-340.018 -789.478 1711
-335.927 -789.478 1711
-331.447 -788.555 1709
-327.361 -788.555 1709
-323.274 -788.555 1709
-319.187 -788.555 1709
-315.1 -788.555 1709
-311.014 -788.555 1709
-306.927 -788.555 1709
-303.194 -789.478 1711
-299.103 -789.478 1711
-295.356 -790.401 1713
-291.26 -790.401 1713
-287.499 -791.324 1715
-283.398 -791.324 1715
-279.46 -791.785 1716
-275.677 -792.708 1718
-271.885 -793.631 1720
-267.772 -793.631 1720
-263.965 -794.553 1722
-260.3 -795.938 1725
-256.769 -797.783 1729
-252.635 -797.783 1729
-249.219 -800.09 1734
-245.638 -801.936 1738
-242.454 -805.166 1745
-238.281 -805.166 1745
-234.645 -807.012 1749
-230.726 -807.934 1751
-226.539 -807.934 1751
-222.352 -807.934 1751
-218.165 -807.934 1751
-214.344 -809.319 1754
-210.39 -810.242 1756
-206.19 -810.242 1756
-202.221 -811.164 1758
-198.017 -811.164 1758
-193.814 -811.164 1758
1763.41 -1850.27 4010
1773 -1850.27 4010
1782.59 -1850.27 4010
1792.18 -1850.27 4010
1806.26 -1854.88 4020
1828.97 -1868.26 4049
1838.65 -1868.26 4049
1848.34 -1868.26 4049
1858.02 -1868.26 4049
1867.7 -1868.26 4049
1855.13 -1846.11 4001
1855.84 -1837.35 3982
1856.46 -1828.58 3963
1843.81 -1806.89 3916
1853.17 -1806.89 3916
1849.7 -1794.44 3889
1854.69 -1790.28 3880
1855.33 -1781.98 3862
1864.56 -1781.98 3862
2810.09 -1749.68 3792
2819.16 -1749.68 3792
2828.22 -1749.68 3792
2837.29 -1749.68 3792
2807.33 -1725.69 3740
2816.27 -1725.69 3740
2825.22 -1725.69 3740
2828.1 -1721.99 3732
2837.02 -1721.99 3732
2858.91 -1729.84 3749
2867.87 -1729.84 3749
-488.411 -821.642 1790
-484.13 -821.642 1790
-479.85 -821.642 1790
-475.038 -820.724 1788
-467.866 -815.674 1777
-462.573 -813.838 1773
-456.266 -810.166 1765
-452.045 -810.166 1765
-446.048 -806.953 1758
-440.085 -803.74 1751
-435.898 -803.74 1751
-431.711 -803.74 1751
-426.547 -801.904 1747
-420.193 -797.773 1738
-415.08 -795.937 1734
-410.933 -795.937 1734
-405.614 -793.642 1729
-401.015 -792.724 1727
-395.966 -790.887 1723
-391.845 -790.887 1723
-387.5 -790.428 1722
-382.937 -789.51 1720
-378.384 -788.592 1718
-374.275 -788.592 1718
-369.736 -787.674 1716
-365.42 -787.215 1715
-361.318 -787.215 1715
-357.217 -787.215 1715
-352.705 -786.297 1713
-348.608 -786.297 1713
-344.11 -785.379 1711
-340.018 -785.379 1711
-335.927 -785.379 1711
-331.835 -785.379 1711
-327.361 -784.461 1709
-323.652 -785.379 1711
-319.561 -785.379 1711
-315.469 -785.379 1711
-311.378 -785.379 1711
-307.286 -785.379 1711
-303.194 -785.379 1711
-299.103 -785.379 1711
-295.011 -785.379 1711
-291.26 -786.297 1713
-287.499 -787.215 1715
-283.398 -787.215 1715
-279.46 -787.674 1716
-275.677 -788.592 1718
-271.885 -789.51 1720
-267.772 -789.51 1720
-263.965 -790.428 1722
-259.999 -790.887 1723
-256.769 -793.642 1729
-252.635 -793.642 1729
-249.219 -795.937 1734
-245.638 -797.773 1738
-241.898 -799.15 1741
-237.735 -799.15 1741
-234.109 -800.986 1745
-230.199 -801.904 1747
-226.022 -801.904 1747
-221.844 -801.904 1747
-217.666 -801.904 1747
-213.733 -802.822 1749
-209.79 -803.74 1751
-205.603 -803.74 1751
-201.761 -805.117 1754
-197.567 -805.117 1754
-193.373 -805.117 1754
1751.1 -1827.81 3982
1769.02 -1836.53 4001
1778.59 -1836.53 4001
1792.18 -1840.66 4010
1806.26 -1845.25 4020
1828.97 -1858.56 4049
1838.65 -1858.56 4049
1848.34 -1858.56 4049
1858.02 -1858.56 4049
1867.7 -1858.56 4049
1863.94 -1845.25 4020
1855.84 -1827.81 3982
1856.46 -1819.09 3963
1852.76 -1806.23 3935
1862.17 -1806.23 3935
1858.26 -1793.38 3907
1863.3 -1789.25 3898
1842.35 -1760.33 3835
1851.52 -1760.33 3835
2778.22 -1720.86 3749
2787.19 -1720.86 3749
2796.15 -1720.86 3749
2805.12 -1720.86 3749
2807.33 -1716.73 3740
2816.27 -1716.73 3740
2825.22 -1716.73 3740
2828.1 -1713.05 3732
2837.02 -1713.05 3732
2852.05 -1716.73 3740
2860.99 -1716.73 3740
-488.411 -817.354 1790
-484.13 -817.354 1790
-479.85 -817.354 1790
-475.038 -816.44 1788
-468.656 -812.787 1780
-463.617 -811.418 1777
-459.368 -811.418 1777
-453.069 -807.765 1769
-446.048 -802.742 1758
-440.336 -800.002 1752
-435.898 -799.545 1751
-431.711 -799.545 1751
-426.547 -797.719 1747
-420.919 -794.979 1741
-415.558 -792.696 1736
-411.407 -792.696 1736
-406.317 -790.87 1732
-401.479 -789.5 1729
-396.425 -787.673 1725
-392.3 -787.673 1725
-387.5 -786.303 1722
-382.937 -785.39 1720
-378.384 -784.477 1718
-374.275 -784.477 1718
-369.736 -783.564 1716
-365.42 -783.107 1715
-361.318 -783.107 1715
-357.217 -783.107 1715
-352.705 -782.194 1713
-348.608 -782.194 1713
-344.512 -782.194 1713
-340.416 -782.194 1713
-336.319 -782.194 1713
-331.835 -781.281 1711
-327.744 -781.281 1711
-323.652 -781.281 1711
-319.561 -781.281 1711
-315.469 -781.281 1711
-311.378 -781.281 1711
-307.286 -781.281 1711
-303.194 -781.281 1711
-299.103 -781.281 1711
-295.356 -782.194 1713
-291.77 -783.564 1716
-287.667 -783.564 1716
-283.563 -783.564 1716
-279.785 -784.477 1718
-275.677 -784.477 1718
-272.201 -786.303 1722
-268.083 -786.303 1722
-263.965 -786.303 1722
-260.602 -788.586 1727
-257.066 -790.413 1731
-252.927 -790.413 1731
-249.219 -791.783 1734
-245.638 -793.609 1738
-241.898 -794.979 1741
-237.735 -794.979 1741
-234.109 -796.806 1745
-230.199 -797.719 1747
-226.022 -797.719 1747
-221.844 -797.719 1747
-217.666 -797.719 1747
-213.733 -798.632 1749
-209.79 -799.545 1751
-205.603 -799.545 1751
-201.761 -800.915 1754
-197.567 -800.915 1754
-193.373 -800.915 1754
1751.1 -1818.27 3982
1760.62 -1818.27 3982
1770.14 -1818.27 3982
1775.19 -1813.7 3972
1806.26 -1835.62 4020
1828.97 -1848.86 4049
1838.65 -1848.86 4049
1848.34 -1848.86 4049
1858.02 -1848.86 4049
1867.7 -1848.86 4049
1863.94 -1835.62 4020
1855.84 -1818.27 3982
1856.46 -1809.59 3963
1852.76 -1796.81 3935
1862.17 -1796.81 3935
1858.26 -1784.02 3907
1863.3 -1779.91 3898
1842.35 -1751.15 3835
1851.52 -1751.15 3835
2789.44 -1707.77 3740
2798.38 -1707.77 3740
2807.33 -1707.77 3740
2816.27 -1707.77 3740
2825.22 -1707.77 3740
2834.16 -1707.77 3740
2843.1 -1707.77 3740
2871.87 -1719.64 3766
2880.88 -1719.64 3766
-488.411 -813.066 1790
-484.13 -813.066 1790
-479.85 -813.066 1790
-475.038 -812.157 1788
-469.709 -810.34 1784
-464.4 -808.523 1780
-460.143 -808.523 1780
-454.606 -806.252 1775
-447.063 -800.347 1762
-440.839 -796.714 1754
-436.645 -796.714 1754
-432.45 -796.714 1754
-427.523 -795.351 1751
-420.919 -790.809 1741
-416.037 -789.446 1738
-411.881 -789.446 1738
-406.787 -787.629 1734
-401.944 -786.266 1731
-396.425 -783.541 1725
-392.3 -783.541 1725
-387.5 -782.178 1722
-382.937 -781.27 1720
-378.384 -780.361 1718
-374.275 -780.361 1718
-369.736 -779.453 1716
-365.42 -778.999 1715
-361.318 -778.999 1715
-357.217 -778.999 1715
-352.705 -778.09 1713
-348.608 -778.09 1713
-344.512 -778.09 1713
-340.416 -778.09 1713
-336.319 -778.09 1713
-331.835 -777.182 1711
-327.744 -777.182 1711
-323.652 -777.182 1711
-319.561 -777.182 1711
-315.469 -777.182 1711
-311.378 -777.182 1711
-307.286 -777.182 1711
-303.194 -777.182 1711
-299.103 -777.182 1711
-295.356 -778.09 1713
-291.77 -779.453 1716
-287.667 -779.453 1716
-283.563 -779.453 1716
-279.785 -780.361 1718
-275.677 -780.361 1718
-272.201 -782.178 1722
-268.083 -782.178 1722
-263.965 -782.178 1722
-260.602 -784.449 1727
-257.066 -786.266 1731
-252.927 -786.266 1731
-248.931 -786.721 1732
-245.355 -788.537 1736
-241.76 -790.354 1740
-237.599 -790.354 1740
-233.84 -791.717 1743
-229.936 -792.625 1745
-225.763 -792.625 1745
-221.59 -792.625 1745
-217.417 -792.625 1745
-213.244 -792.625 1745
-209.311 -793.534 1747
-205.134 -793.534 1747
-200.956 -793.534 1747
-196.778 -793.534 1747
-192.601 -793.534 1747
1751.1 -1808.73 3982
1760.62 -1808.73 3982
1770.14 -1808.73 3982
1779.66 -1808.73 3982
1806.26 -1825.99 4020
1815.87 -1825.99 4020
1825.49 -1825.99 4020
1848.34 -1839.16 4049
1858.02 -1839.16 4049
1867.7 -1839.16 4049
1868.57 -1830.53 4030
1873.55 -1825.99 4020
1865.36 -1808.73 3982
1856.99 -1791.47 3944
1866.42 -1791.47 3944
1866.82 -1782.84 3925
1867.6 -1774.66 3907
1872.62 -1770.58 3898
1881.94 -1770.58 3898
2807.33 -1698.81 3740
2816.27 -1698.81 3740
2825.22 -1698.81 3740
2840.98 -1702.9 3749
2849.94 -1702.9 3749
2871.87 -1710.62 3766
2880.88 -1710.62 3766
-483.589 -807.874 1788
-479.314 -807.874 1788
-475.038 -807.874 1788
-469.709 -806.067 1784
-464.4 -804.259 1780
-460.143 -804.259 1780
-454.606 -802 1775
-447.063 -796.126 1762
-440.839 -792.512 1754
-436.645 -792.512 1754
-432.45 -792.512 1754
-427.523 -791.156 1751
-420.919 -786.638 1741
-416.037 -785.283 1738
-411.881 -785.283 1738
-406.787 -783.475 1734
-401.944 -782.12 1731
-396.885 -780.312 1727
-392.755 -780.312 1727
-387.725 -778.505 1723
-382.937 -777.15 1720
-378.824 -777.15 1720
-374.711 -777.15 1720
-369.736 -775.342 1716
-365.42 -774.89 1715
-361.318 -774.89 1715
-357.217 -774.89 1715
-353.116 -774.89 1715
-348.608 -773.987 1713
-344.512 -773.987 1713
-340.416 -773.987 1713
-336.319 -773.987 1713
-332.223 -773.987 1713
-328.127 -773.987 1713
-324.03 -773.987 1713
-319.934 -773.987 1713
-315.838 -773.987 1713
-311.741 -773.987 1713
-307.645 -773.987 1713
-303.549 -773.987 1713
-299.453 -773.987 1713
-295.874 -775.342 1716
-291.77 -775.342 1716
-288.337 -777.15 1720
-284.224 -777.15 1720
-280.437 -778.053 1722
-276.319 -778.053 1722
-272.359 -778.505 1723
-268.239 -778.505 1723
-264.119 -778.505 1723
-260.904 -781.216 1729
-257.215 -782.572 1732
-253.073 -782.572 1732
-249.506 -784.379 1736
-245.92 -786.186 1740
-241.76 -786.186 1740
-237.599 -786.186 1740
-233.572 -786.638 1741
-229.936 -788.445 1745
-225.763 -788.445 1745
-221.59 -788.445 1745
-217.417 -788.445 1745
-213.244 -788.445 1745
-209.072 -788.445 1745
-204.664 -787.542 1743
-200.496 -787.542 1743
-196.328 -787.542 1743
-192.16 -787.542 1743
1751.1 -1799.19 3982
1760.62 -1799.19 3982
1770.14 -1799.19 3982
1779.66 -1799.19 3982
1797.72 -1807.78 4001
1815.87 -1816.36 4020
1825.49 -1816.36 4020
1839.66 -1820.88 4030
1858.02 -1829.46 4049
1867.7 -1829.46 4049
1877.38 -1829.46 4049
1878.21 -1820.88 4030
1865.36 -1799.19 3982
1874.89 -1799.19 3982
1884.41 -1799.19 3982
1875.86 -1782.02 3944
1880.98 -1777.96 3935
1881.27 -1769.37 3916
1890.63 -1769.37 3916
2814.08 -1693.91 3749
2823.05 -1693.91 3749
2832.01 -1693.91 3749
2840.98 -1693.91 3749
2849.94 -1693.91 3749
2871.87 -1701.6 3766
2880.88 -1701.6 3766
-478.242 -801.793 1784
-473.975 -801.793 1784
-469.709 -801.793 1784
-465.443 -801.793 1784
-461.177 -801.793 1784
-455.631 -799.546 1779
-447.063 -791.906 1762
-440.839 -788.31 1754
-436.645 -788.31 1754
-432.45 -788.31 1754
-427.523 -786.962 1751
-420.919 -782.467 1741
-416.037 -781.119 1738
-411.881 -781.119 1738
-406.787 -779.321 1734
-402.176 -778.422 1732
-397.345 -777.074 1729
-393.21 -777.074 1729
-388.175 -775.276 1725
-383.382 -773.928 1722
-378.824 -773.029 1720
-374.711 -773.029 1720
-370.167 -772.13 1718
-365.633 -771.232 1716
-361.318 -770.782 1715
-357.217 -770.782 1715
-353.116 -770.782 1715
-349.015 -770.782 1715
-344.512 -769.883 1713
-340.416 -769.883 1713
-336.319 -769.883 1713
-332.223 -769.883 1713
-328.127 -769.883 1713
-324.409 -770.782 1715
-320.308 -770.782 1715
-316.207 -770.782 1715
-312.105 -770.782 1715
-308.004 -770.782 1715
-303.903 -770.782 1715
-299.802 -770.782 1715
-295.874 -771.232 1716
-292.45 -773.029 1720
-288.672 -773.928 1722
-284.555 -773.928 1722
-280.437 -773.928 1722
-276.479 -774.378 1723
-272.675 -775.276 1725
-268.55 -775.276 1725
-264.732 -776.175 1727
-261.206 -777.973 1731
-257.512 -779.321 1734
-253.365 -779.321 1734
-249.794 -781.119 1738
-245.92 -782.018 1740
-241.898 -782.467 1741
-237.735 -782.467 1741
-233.572 -782.467 1741
-230.199 -785.164 1747
-226.022 -785.164 1747
-221.844 -785.164 1747
-217.666 -785.164 1747
-213.244 -784.265 1745
-209.072 -784.265 1745
-204.899 -784.265 1745
-200.496 -783.366 1743
-196.328 -783.366 1743
-192.16 -783.366 1743
1745.51 -1793.7 3991
1755.05 -1793.7 3991
1764.6 -1793.7 3991
1770.14 -1789.65 3982
1779.66 -1789.65 3982
1797.72 -1798.19 4001
1815.87 -1806.73 4020
1825.49 -1806.73 4020
1843.77 -1815.27 4039
1858.02 -1819.76 4049
1867.7 -1819.76 4049
1877.38 -1819.76 4049
1887.07 -1819.76 4049
1883.16 -1806.73 4020
1879.12 -1793.7 3991
1888.67 -1793.7 3991
1884.89 -1781.11 3963
1889.59 -1776.62 3953
1885.59 -1764.03 3925
1894.98 -1764.03 3925
2814.08 -1684.93 3749
2823.05 -1684.93 3749
2832.01 -1684.93 3749
2840.98 -1684.93 3749
2849.94 -1684.93 3749
2871.87 -1692.57 3766
2880.88 -1692.57 3766
-478.242 -797.52 1784
-473.975 -797.52 1784
-470.763 -799.308 1788
-466.487 -799.308 1788
-462.211 -799.308 1788
-457.423 -798.414 1786
-447.317 -788.132 1763
-442.347 -786.791 1760
-437.142 -785.002 1756
-432.943 -785.002 1756
-427.768 -783.214 1752
-421.402 -779.191 1743
-416.037 -776.956 1738
-411.881 -776.956 1738
-407.256 -776.062 1736
-402.176 -774.273 1732
-397.345 -772.932 1729
-393.21 -772.932 1729
-388.175 -771.144 1725
-383.382 -769.803 1722
-378.824 -768.909 1720
-374.711 -768.909 1720
-370.167 -768.015 1718
-365.633 -767.121 1716
-361.529 -767.121 1716
-357.426 -767.121 1716
-353.116 -766.674 1715
-349.015 -766.674 1715
-344.914 -766.674 1715
-340.813 -766.674 1715
-336.712 -766.674 1715
-332.611 -766.674 1715
-328.51 -766.674 1715
-324.409 -766.674 1715
-320.308 -766.674 1715
-316.207 -766.674 1715
-312.105 -766.674 1715
-308.004 -766.674 1715
-303.903 -766.674 1715
-299.802 -766.674 1715
-296.218 -768.015 1718
-292.45 -768.909 1720
-288.672 -769.803 1722
-284.555 -769.803 1722
-280.6 -770.25 1723
-276.8 -771.144 1725
-272.675 -771.144 1725
-268.55 -771.144 1725
-265.039 -772.932 1729
-261.357 -774.273 1732
-257.809 -776.062 1736
-253.658 -776.062 1736
-250.081 -777.85 1740
-246.062 -778.297 1741
-242.176 -779.191 1743
-238.008 -779.191 1743
-233.84 -779.191 1743
-230.199 -780.979 1747
-226.28 -781.873 1749
-222.098 -781.873 1749
-217.916 -781.873 1749
-213.733 -781.873 1749
-209.551 -781.873 1749
-204.899 -780.085 1745
-200.726 -780.085 1745
-196.553 -780.085 1745
-192.38 -780.085 1745
-187.992 -779.191 1743
1745.51 -1784.14 3991
1755.05 -1784.14 3991
1764.6 -1784.14 3991
1770.14 -1780.11 3982
1779.66 -1780.11 3982
1797.72 -1788.61 4001
1815.87 -1797.1 4020
1825.49 -1797.1 4020
1843.77 -1805.6 4039
1858.02 -1810.07 4049
1867.7 -1810.07 4049
1877.38 -1810.07 4049
1887.07 -1810.07 4049
1883.16 -1797.1 4020
1879.12 -1784.14 3991
1888.67 -1784.14 3991
1884.89 -1771.62 3963
1889.59 -1767.15 3953
1885.59 -1754.63 3925
1894.98 -1754.63 3925
2820.09 -1679.53 3757
2829.07 -1679.53 3757
2838.06 -1679.53 3757
2847.04 -1679.53 3757
2856.03 -1679.53 3757
2871.87 -1683.55 3766
2880.88 -1683.55 3766
-478.242 -793.246 1784
-473.975 -793.246 1784
-471.816 -796.803 1792
-467.53 -796.803 1792
-463.245 -796.803 1792
-457.423 -794.135 1786
-448.332 -785.687 1767
-442.347 -782.575 1760
-437.64 -781.685 1758
-433.436 -781.685 1758
-427.768 -779.017 1752
-421.402 -775.016 1743
-416.037 -772.792 1738
-411.881 -772.792 1738
-407.725 -772.792 1738
-402.64 -771.014 1734
-398.034 -770.124 1732
-393.892 -770.124 1732
-388.175 -767.012 1725
-383.605 -766.123 1723
-378.824 -764.789 1720
-374.711 -764.789 1720
-370.167 -763.899 1718
-365.633 -763.01 1716
-361.529 -763.01 1716
-357.426 -763.01 1716
-353.322 -763.01 1716
-349.015 -762.565 1715
-344.914 -762.565 1715
-340.813 -762.565 1715
-336.712 -762.565 1715
-332.611 -762.565 1715
-328.51 -762.565 1715
-324.409 -762.565 1715
-320.308 -762.565 1715
-316.207 -762.565 1715
-312.105 -762.565 1715
-308.004 -762.565 1715
-303.903 -762.565 1715
-299.802 -762.565 1715
-296.218 -763.899 1718
-292.45 -764.789 1720
-288.672 -765.678 1722
-284.555 -765.678 1722
-280.6 -766.123 1723
-276.8 -767.012 1725
-272.675 -767.012 1725
-268.55 -767.012 1725
-265.039 -768.791 1729
-261.357 -770.124 1732
-257.809 -771.903 1736
-253.658 -771.903 1736
-250.081 -773.682 1740
-246.062 -774.126 1741
-242.176 -775.016 1743
-238.008 -775.016 1743
-233.84 -775.016 1743
-230.199 -776.794 1747
-226.28 -777.683 1749
-222.098 -777.683 1749
-217.916 -777.683 1749
-213.733 -777.683 1749
-209.551 -777.683 1749
-204.899 -775.905 1745
-200.726 -775.905 1745
-196.553 -775.905 1745
-192.38 -775.905 1745
-187.992 -775.016 1743
1714.31 -1762.13 3963
1723.79 -1762.13 3963
1745.51 -1774.58 3991
1755.05 -1774.58 3991
1764.6 -1774.58 3991
1774.14 -1774.58 3991
1779.66 -1770.57 3982
1806.26 -1787.47 4020
1824.46 -1795.92 4039
1834.11 -1795.92 4039
1857.47 -1809.26 4069
1867.2 -1809.26 4069
1876.93 -1809.26 4069
1886.66 -1809.26 4069
1896.39 -1809.26 4069
1896.75 -1800.37 4049
1892.78 -1787.47 4020
1902.39 -1787.47 4020
1907.25 -1783.02 4010
1907.75 -1774.58 3991
1885.59 -1745.23 3925
1894.98 -1745.23 3925
2820.09 -1670.53 3757
2829.07 -1670.53 3757
2844.86 -1674.53 3766
2853.86 -1674.53 3766
2862.87 -1674.53 3766
2877.97 -1678.09 3774
2887 -1678.09 3774
-471.816 -792.51 1792
-467.53 -792.51 1792
-463.245 -792.51 1792
-457.423 -789.857 1786
-448.332 -781.454 1767
-442.347 -778.358 1760
-437.64 -777.474 1758
-433.436 -777.474 1758
-427.768 -774.82 1752
-421.402 -770.84 1743
-416.037 -768.629 1738
-411.881 -768.629 1738
-407.725 -768.629 1738
-402.64 -766.86 1734
-398.034 -765.975 1732
-393.892 -765.975 1732
-388.175 -762.88 1725
-383.605 -761.995 1723
-378.824 -760.668 1720
-374.711 -760.668 1720
-370.167 -759.784 1718
-365.633 -758.899 1716
-361.529 -758.899 1716
-357.426 -758.899 1716
-353.322 -758.899 1716
-349.015 -758.457 1715
-344.914 -758.457 1715
-340.813 -758.457 1715
-336.712 -758.457 1715
-332.611 -758.457 1715
-328.51 -758.457 1715
-324.598 -758.899 1716
-320.494 -758.899 1716
-316.391 -758.899 1716
-312.287 -758.899 1716
-308.184 -758.899 1716
-304.081 -758.899 1716
-299.977 -758.899 1716
-296.563 -760.668 1720
-292.79 -761.553 1722
-288.84 -761.995 1723
-284.72 -761.995 1723
-280.925 -762.88 1725
-276.8 -762.88 1725
-272.675 -762.88 1725
-268.55 -762.88 1725
-265.345 -765.533 1731
-261.357 -765.975 1732
-258.106 -768.629 1738
-253.95 -768.629 1738
-250.225 -769.956 1741
-246.627 -771.725 1745
-242.454 -771.725 1745
-238.281 -771.725 1745
-234.377 -772.609 1747
-230.463 -773.494 1749
-226.539 -774.378 1751
-222.352 -774.378 1751
-218.165 -774.378 1751
-213.978 -774.378 1751
-209.79 -774.378 1751
-205.368 -773.494 1749
-201.186 -773.494 1749
-197.229 -774.378 1751
-193.042 -774.378 1751
-188.855 -774.378 1751
1714.31 -1752.63 3963
1723.79 -1752.63 3963
1745.51 -1765.02 3991
1755.05 -1765.02 3991
1764.6 -1765.02 3991
1774.14 -1765.02 3991
1788.16 -1769.44 4001
1810.75 -1782.26 4030
1828.97 -1790.67 4049
1838.65 -1790.67 4049
1857.47 -1799.51 4069
1871.79 -1803.93 4079
1881.54 -1803.93 4079
1891.29 -1803.93 4079
1901.05 -1803.93 4079
1901.43 -1795.09 4059
1911.14 -1795.09 4059
1907.12 -1782.26 4030
1912 -1777.84 4020
1907.75 -1765.02 3991
2832.85 -1669.05 3774
2848.65 -1673.03 3783
2857.7 -1673.03 3783
2873.56 -1677.01 3792
2882.63 -1677.01 3792
2891.7 -1677.01 3792
2900.77 -1677.01 3792
-471.816 -788.218 1792
-467.53 -788.218 1792
-463.245 -788.218 1792
-457.423 -785.579 1786
-449.854 -779.86 1773
-442.347 -774.142 1760
-437.64 -773.263 1758
-433.436 -773.263 1758
-427.768 -770.623 1752
-421.402 -766.665 1743
-416.516 -765.345 1740
-412.355 -765.345 1740
-407.725 -764.466 1738
-402.64 -762.706 1734
-398.034 -761.826 1732
-393.892 -761.826 1732
-388.175 -758.747 1725
-383.605 -757.868 1723
-378.824 -756.548 1720
-374.711 -756.548 1720
-370.167 -755.668 1718
-365.633 -754.789 1716
-361.529 -754.789 1716
-357.426 -754.789 1716
-353.322 -754.789 1716
-349.015 -754.349 1715
-344.914 -754.349 1715
-340.813 -754.349 1715
-336.712 -754.349 1715
-332.611 -754.349 1715
-328.701 -754.789 1716
-324.598 -754.789 1716
-320.494 -754.789 1716
-316.391 -754.789 1716
-312.287 -754.789 1716
-308.184 -754.789 1716
-304.789 -756.548 1720
-300.676 -756.548 1720
-296.908 -757.428 1722
-292.96 -757.868 1723
-289.175 -758.747 1725
-285.05 -758.747 1725
-280.925 -758.747 1725
-276.8 -758.747 1725
-272.991 -759.627 1727
-268.862 -759.627 1727
-265.498 -761.826 1732
-261.658 -762.706 1734
-258.403 -765.345 1740
-254.242 -765.345 1740
-250.8 -767.545 1745
-247.192 -769.304 1749
-243.01 -769.304 1749
-238.828 -769.304 1749
-234.914 -770.184 1751
-230.858 -770.623 1752
-226.927 -771.503 1754
-222.733 -771.503 1754
-218.539 -771.503 1754
-214.344 -771.503 1754
-210.15 -771.503 1754
-205.603 -770.184 1751
-201.186 -769.304 1749
-197.229 -770.184 1751
-193.042 -770.184 1751
-188.855 -770.184 1751
1714.31 -1743.14 3963
1723.79 -1743.14 3963
1745.51 -1755.46 3991
1759.45 -1759.85 4001
1769.02 -1759.85 4001
1778.59 -1759.85 4001
1788.16 -1759.85 4001
1819.29 -1780.97 4049
1838.01 -1789.76 4069
1847.74 -1789.76 4069
1857.47 -1789.76 4069
1876.37 -1798.56 4089
1886.15 -1798.56 4089
1895.93 -1798.56 4089
1905.71 -1798.56 4089
1901.43 -1785.37 4059
1911.14 -1785.37 4059
1911.38 -1776.57 4039
1916.76 -1772.61 4030
1907.75 -1755.46 3991
2832.85 -1660.01 3774
2848.65 -1663.97 3783
2857.7 -1663.97 3783
2873.56 -1667.92 3792
2882.63 -1667.92 3792
2891.7 -1667.92 3792
2900.77 -1667.92 3792
-471.816 -783.925 1792
-467.53 -783.925 1792
-463.245 -783.925 1792
-457.423 -781.3 1786
-450.362 -776.488 1775
-442.347 -769.926 1760
-437.64 -769.051 1758
-433.436 -769.051 1758
-427.768 -766.427 1752
-421.402 -762.489 1743
-416.755 -761.615 1741
-412.592 -761.615 1741
-407.725 -760.302 1738
-402.64 -758.552 1734
-398.034 -757.677 1732
-393.892 -757.677 1732
-388.175 -754.615 1725
-383.605 -753.74 1723
-379.265 -753.303 1722
-375.147 -753.303 1722
-370.167 -751.553 1718
-366.059 -751.553 1718
-361.529 -750.678 1716
-357.426 -750.678 1716
-353.322 -750.678 1716
-349.219 -750.678 1716
-345.115 -750.678 1716
-341.012 -750.678 1716
-336.908 -750.678 1716
-332.805 -750.678 1716
-329.084 -751.553 1718
-324.976 -751.553 1718
-320.868 -751.553 1718
-316.76 -751.553 1718
-312.651 -751.553 1718
-308.902 -752.428 1720
-305.144 -753.303 1722
-301.026 -753.303 1722
-297.081 -753.74 1723
-293.3 -754.615 1725
-289.511 -755.49 1727
-285.381 -755.49 1727
-281.577 -756.365 1729
-277.442 -756.365 1729
-273.624 -757.24 1731
-269.484 -757.24 1731
-265.805 -758.552 1734
-261.96 -759.427 1736
-258.403 -761.177 1740
-254.242 -761.177 1740
-251.087 -764.239 1747
-247.192 -765.114 1749
-243.01 -765.114 1749
-238.828 -765.114 1749
-235.048 -766.427 1752
-231.122 -767.302 1754
-226.927 -767.302 1754
-222.733 -767.302 1754
-218.539 -767.302 1754
-214.344 -767.302 1754
-210.15 -767.302 1754
-205.603 -765.989 1751
-201.186 -765.114 1749
-197.229 -765.989 1751
-193.042 -765.989 1751
-188.855 -765.989 1751
1714.31 -1733.65 3963
1723.79 -1733.65 3963
1741.57 -1741.96 3982
1759.45 -1750.27 4001
1769.02 -1750.27 4001
1778.59 -1750.27 4001
1788.16 -1750.27 4001
1819.29 -1771.27 4049
1838.01 -1780.02 4069
1847.74 -1780.02 4069
1857.47 -1780.02 4069
1876.37 -1788.77 4089
1886.15 -1788.77 4089
1895.93 -1788.77 4089
1905.71 -1788.77 4089
1901.43 -1775.64 4059
1911.14 -1775.64 4059
1911.38 -1766.89 4039
1916.76 -1762.96 4030
2840.9 -1666.28 3809
2850.01 -1666.28 3809
2859.12 -1666.28 3809
2848.65 -1654.9 3783
2864.5 -1658.84 3792
2879.63 -1662.34 3800
2888.71 -1662.34 3800
2897.8 -1662.34 3800
2906.89 -1662.34 3800
-471.816 -779.632 1792
-467.53 -779.632 1792
-463.245 -779.632 1792
-458.448 -778.762 1790
-450.362 -772.236 1775
-443.604 -767.885 1765
-438.885 -767.015 1763
-434.669 -767.015 1763
-429.233 -764.84 1758
-422.369 -760.054 1747
-417.234 -758.314 1743
-413.066 -758.314 1743
-408.194 -757.009 1740
-403.105 -755.269 1736
-398.034 -753.528 1732
-393.892 -753.528 1732
-388.175 -750.483 1725
-383.605 -749.613 1723
-379.265 -749.178 1722
-375.147 -749.178 1722
-370.167 -747.438 1718
-366.059 -747.438 1718
-361.529 -746.567 1716
-357.426 -746.567 1716
-353.322 -746.567 1716
-349.219 -746.567 1716
-345.115 -746.567 1716
-341.012 -746.567 1716
-337.301 -747.438 1718
-333.193 -747.438 1718
-329.084 -747.438 1718
-324.976 -747.438 1718
-321.241 -748.308 1720
-317.128 -748.308 1720
-313.015 -748.308 1720
-309.262 -749.178 1722
-305.321 -749.613 1723
-301.201 -749.613 1723
-297.425 -750.483 1725
-293.64 -751.353 1727
-289.846 -752.223 1729
-285.711 -752.223 1729
-281.902 -753.093 1731
-277.763 -753.093 1731
-273.782 -753.528 1732
-269.64 -753.528 1732
-266.112 -755.269 1736
-262.262 -756.139 1738
-258.403 -757.009 1740
-254.242 -757.009 1740
-251.087 -760.054 1747
-247.192 -760.924 1749
-243.01 -760.924 1749
-238.828 -760.924 1749
-235.048 -762.23 1752
-231.122 -763.1 1754
-226.927 -763.1 1754
-222.733 -763.1 1754
-218.539 -763.1 1754
-214.344 -763.1 1754
-210.15 -763.1 1754
-205.603 -761.795 1751
-201.186 -760.924 1749
-197.229 -761.795 1751
-193.042 -761.795 1751
-188.855 -761.795 1751
1696.66 -1715.89 3944
1718.2 -1728.07 3972
1727.7 -1728.07 3972
1737.2 -1728.07 3972
1759.45 -1740.69 4001
1769.02 -1740.69 4001
1778.59 -1740.69 4001
1788.16 -1740.69 4001
1819.29 -1761.57 4049
1838.01 -1770.27 4069
1847.74 -1770.27 4069
1857.47 -1770.27 4069
1876.37 -1778.97 4089
1886.15 -1778.97 4089
1895.93 -1778.97 4089
1905.71 -1778.97 4089
1901.43 -1765.92 4059
1911.14 -1765.92 4059
1911.38 -1757.22 4039
1921.04 -1757.22 4039
2840.9 -1657.15 3809
2850.01 -1657.15 3809
2859.12 -1657.15 3809
2868.23 -1657.15 3809
2903.78 -1672.38 3844
2912.97 -1672.38 3844
2922.16 -1672.38 3844
2931.35 -1672.38 3844
2940.55 -1672.38 3844
-471.289 -774.474 1790
-467.009 -774.474 1790
-462.728 -774.474 1790
-458.448 -774.474 1790
-450.362 -767.984 1775
-443.604 -763.657 1765
-438.885 -762.792 1763
-434.669 -762.792 1763
-429.233 -760.629 1758
-422.369 -755.869 1747
-417.234 -754.139 1743
-413.066 -754.139 1743
-408.194 -752.841 1740
-403.105 -751.11 1736
-397.804 -748.947 1731
-393.665 -748.947 1731
-388.175 -746.351 1725
-383.605 -745.485 1723
-379.265 -745.053 1722
-375.147 -745.053 1722
-370.167 -743.322 1718
-366.059 -743.322 1718
-361.529 -742.457 1716
-357.426 -742.457 1716
-353.322 -742.457 1716
-349.219 -742.457 1716
-345.115 -742.457 1716
-341.012 -742.457 1716
-337.301 -743.322 1718
-333.193 -743.322 1718
-329.084 -743.322 1718
-324.976 -743.322 1718
-321.241 -744.187 1720
-317.128 -744.187 1720
-313.015 -744.187 1720
-309.262 -745.053 1722
-305.321 -745.485 1723
-301.201 -745.485 1723
-297.425 -746.351 1725
-293.64 -747.216 1727
-289.846 -748.081 1729
-285.711 -748.081 1729
-281.902 -748.947 1731
-277.763 -748.947 1731
-273.782 -749.379 1732
-269.64 -749.379 1732
-266.112 -751.11 1736
-262.262 -751.975 1738
-258.403 -752.841 1740
-254.242 -752.841 1740
-251.087 -755.869 1747
-247.192 -756.735 1749
-243.01 -756.735 1749
-238.828 -756.735 1749
-235.048 -758.033 1752
-231.122 -758.898 1754
-226.927 -758.898 1754
-222.733 -758.898 1754
-218.539 -758.898 1754
-214.344 -758.898 1754
-210.15 -758.898 1754
-205.603 -757.6 1751
-201.186 -756.735 1749
-196.778 -755.869 1747
-192.601 -755.869 1747
-188.423 -755.869 1747
1708.71 -1718.55 3972
1718.2 -1718.55 3972
1727.7 -1718.55 3972
1737.2 -1718.55 3972
1755.05 -1726.77 3991
1764.6 -1726.77 3991
1774.14 -1726.77 3991
1783.69 -1726.77 3991
1819.29 -1751.87 4049
1833.49 -1756.2 4059
1843.2 -1756.2 4059
1857.47 -1760.52 4069
1871.79 -1764.85 4079
1881.54 -1764.85 4079
1891.29 -1764.85 4079
1901.05 -1764.85 4079
1901.43 -1756.2 4059
1911.14 -1756.2 4059
1911.38 -1747.54 4039
1921.04 -1747.54 4039
2840.9 -1648.03 3809
2850.01 -1648.03 3809
2878.64 -1659.28 3835
2887.81 -1659.28 3835
2910.58 -1667.07 3853
2926.61 -1670.96 3862
2935.84 -1670.96 3862
2945.08 -1670.96 3862
2940.55 -1663.17 3844
-467.53 -771.047 1792
-463.245 -771.047 1792
-458.96 -771.047 1792
-453.152 -768.465 1786
-446.62 -764.593 1777
-440.379 -761.15 1769
-436.148 -761.15 1769
-430.942 -759.429 1765
-423.578 -753.836 1752
-418.192 -751.684 1747
-414.014 -751.684 1747
-408.898 -749.963 1743
-403.569 -747.812 1738
-398.034 -745.23 1732
-393.892 -745.23 1732
-389.525 -744.8 1731
-384.05 -742.218 1725
-379.485 -741.358 1723
-375.365 -741.358 1723
-371.029 -740.928 1722
-366.059 -739.207 1718
-361.951 -739.207 1718
-357.842 -739.207 1718
-353.734 -739.207 1718
-349.626 -739.207 1718
-345.517 -739.207 1718
-341.409 -739.207 1718
-337.301 -739.207 1718
-333.193 -739.207 1718
-329.468 -740.067 1720
-325.355 -740.067 1720
-321.615 -740.928 1722
-317.497 -740.928 1722
-313.379 -740.928 1722
-309.441 -741.358 1723
-305.675 -742.218 1725
-301.55 -742.218 1725
-297.77 -743.079 1727
-293.98 -743.94 1729
-290.181 -744.8 1731
-286.042 -744.8 1731
-282.065 -745.23 1732
-277.924 -745.23 1732
-274.098 -746.091 1734
-269.951 -746.091 1734
-266.418 -747.812 1738
-262.564 -748.673 1740
-258.551 -749.103 1741
-254.388 -749.103 1741
-251.087 -751.684 1747
-247.475 -753.406 1751
-243.288 -753.406 1751
-239.101 -753.406 1751
-235.048 -753.836 1752
-231.122 -754.696 1754
-226.927 -754.696 1754
-222.733 -754.696 1754
-218.539 -754.696 1754
-214.344 -754.696 1754
-210.15 -754.696 1754
-205.603 -753.406 1751
-200.726 -750.824 1745
-196.328 -749.963 1743
-192.16 -749.963 1743
1708.71 -1709.04 3972
1718.2 -1709.04 3972
1727.7 -1709.04 3972
1737.2 -1709.04 3972
1755.05 -1717.21 3991
1764.6 -1717.21 3991
1774.14 -1717.21 3991
1783.69 -1717.21 3991
1819.29 -1742.17 4049
1833.49 -1746.47 4059
1843.2 -1746.47 4059
1857.47 -1750.78 4069
1871.79 -1755.08 4079
1881.54 -1755.08 4079
1891.29 -1755.08 4079
1901.05 -1755.08 4079
1901.43 -1746.47 4059
1911.14 -1746.47 4059
1911.38 -1737.87 4039
1921.04 -1737.87 4039
2878.64 -1650.09 3835
2887.81 -1650.09 3835
2910.58 -1657.84 3853
2926.61 -1661.71 3862
2935.84 -1661.71 3862
2945.08 -1661.71 3862
2940.55 -1653.96 3844
-467.53 -766.754 1792
-463.245 -766.754 1792
-458.96 -766.754 1792
-453.66 -765.042 1788
-449.384 -765.042 1788
-442.868 -761.191 1779
-438.614 -761.191 1779
-431.918 -756.913 1769
-425.029 -752.206 1758
-419.388 -749.639 1752
-415.199 -749.639 1752
-409.836 -747.499 1747
-404.266 -744.932 1741
-398.953 -742.793 1736
-394.802 -742.793 1736
-389.75 -741.081 1732
-384.496 -738.942 1727
-379.925 -738.086 1725
-375.8 -738.086 1725
-371.244 -737.23 1723
-367.124 -737.23 1723
-363.004 -737.23 1723
-358.884 -737.23 1723
-354.558 -736.803 1722
-350.44 -736.803 1722
-346.322 -736.803 1722
-342.204 -736.803 1722
-338.086 -736.803 1722
-333.968 -736.803 1722
-330.042 -737.23 1723
-325.922 -737.23 1723
-322.175 -738.086 1725
-318.05 -738.086 1725
-313.925 -738.086 1725
-310.16 -738.942 1727
-306.03 -738.942 1727
-301.9 -738.942 1727
-298.115 -739.798 1729
-294.491 -741.081 1732
-290.684 -741.937 1734
-286.538 -741.937 1734
-282.391 -741.937 1734
-278.565 -742.793 1736
-274.73 -743.649 1738
-270.574 -743.649 1738
-266.725 -744.504 1740
-262.715 -744.932 1741
-259.443 -747.499 1747
-255.265 -747.499 1747
-251.375 -748.355 1749
-247.616 -749.639 1752
-243.427 -749.639 1752
-239.237 -749.639 1752
-235.584 -751.35 1756
-231.385 -751.35 1756
-227.186 -751.35 1756
-222.987 -751.35 1756
-218.788 -751.35 1756
-214.344 -750.495 1754
-210.15 -750.495 1754
-205.956 -750.495 1754
-201.761 -750.495 1754
-196.328 -745.788 1743
-192.16 -745.788 1743
1708.71 -1699.52 3972
1718.2 -1699.52 3972
1727.7 -1699.52 3972
1737.2 -1699.52 3972
1746.7 -1699.52 3972
1756.2 -1699.52 3972
1765.7 -1699.52 3972
1775.19 -1699.52 3972
1806.26 -1720.06 4020
1828.97 -1732.47 4049
1838.65 -1732.47 4049
1852.9 -1736.75 4059
1867.2 -1741.03 4069
1876.93 -1741.03 4069
1886.66 -1741.03 4069
1896.39 -1741.03 4069
1896.75 -1732.47 4049
1906.43 -1732.47 4049
1911.38 -1728.19 4039
1921.04 -1728.19 4039
2885.39 -1644.76 3844
2894.59 -1644.76 3844
2924.17 -1656.31 3871
2933.43 -1656.31 3871
2970.05 -1671.71 3907
2979.4 -1671.71 3907
2988.74 -1671.71 3907
-467.53 -762.461 1792
-463.245 -762.461 1792
-458.96 -762.461 1792
-453.66 -760.759 1788
-449.384 -760.759 1788
-444.611 -759.908 1786
-440.34 -759.908 1786
-434.36 -756.93 1779
-426.721 -750.973 1765
-420.825 -747.995 1758
-416.621 -747.995 1758
-411.009 -745.442 1752
-405.194 -742.464 1745
-399.872 -740.336 1740
-395.712 -740.336 1740
-390.651 -738.634 1736
-385.386 -736.507 1731
-380.366 -734.805 1727
-376.236 -734.805 1727
-372.106 -734.805 1727
-367.976 -734.805 1727
-363.847 -734.805 1727
-359.717 -734.805 1727
-355.175 -733.954 1725
-350.643 -733.103 1723
-346.523 -733.103 1723
-342.8 -733.954 1725
-338.675 -733.954 1725
-334.55 -733.954 1725
-330.425 -733.954 1725
-327.057 -735.656 1729
-322.922 -735.656 1729
-318.788 -735.656 1729
-314.653 -735.656 1729
-310.878 -736.507 1731
-306.739 -736.507 1731
-302.599 -736.507 1731
-298.977 -737.783 1734
-295.171 -738.634 1736
-291.355 -739.485 1738
-287.199 -739.485 1738
-283.368 -740.336 1740
-279.207 -740.336 1740
-275.046 -740.336 1740
-270.886 -740.336 1740
-266.878 -740.762 1741
-263.318 -742.464 1745
-259.74 -744.165 1749
-255.557 -744.165 1749
-251.806 -745.442 1752
-248.182 -747.144 1756
-243.983 -747.144 1756
-239.783 -747.144 1756
-236.121 -748.846 1760
-231.912 -748.846 1760
-227.704 -748.846 1760
-223.495 -748.846 1760
-219.286 -748.846 1760
-215.077 -748.846 1760
-210.869 -748.846 1760
-206.66 -748.846 1760
-201.991 -747.144 1756
-195.99 -740.336 1740
-191.829 -740.336 1740
1708.71 -1690.01 3972
1718.2 -1690.01 3972
1727.7 -1690.01 3972
1733.26 -1686.18 3963
1742.74 -1686.18 3963
1752.22 -1686.18 3963
1761.7 -1686.18 3963
1771.17 -1686.18 3963
1793.23 -1698.09 3991
1815.87 -1710.43 4020
1825.49 -1710.43 4020
1839.66 -1714.69 4030
1858.02 -1722.77 4049
1867.7 -1722.77 4049
1877.38 -1722.77 4049
1887.07 -1722.77 4049
1896.75 -1722.77 4049
1906.43 -1722.77 4049
1907.12 -1714.69 4030
1916.76 -1714.69 4030
2885.39 -1635.55 3844
2894.59 -1635.55 3844
2924.17 -1647.04 3871
2933.43 -1647.04 3871
2970.05 -1662.35 3907
2979.4 -1662.35 3907
2988.74 -1662.35 3907
-462.211 -756.476 1788
-457.936 -756.476 1788
-453.66 -756.476 1788
-449.384 -756.476 1788
-444.611 -755.63 1786
-440.34 -755.63 1786
-434.36 -752.668 1779
-426.721 -746.745 1765
-420.825 -743.784 1758
-416.621 -743.784 1758
-411.009 -741.245 1752
-405.194 -738.283 1745
-399.872 -736.168 1740
-395.712 -736.168 1740
-390.651 -734.476 1736
-385.386 -732.36 1731
-380.366 -730.668 1727
-376.236 -730.668 1727
-372.106 -730.668 1727
-367.976 -730.668 1727
-363.847 -730.668 1727
-359.717 -730.668 1727
-355.175 -729.822 1725
-350.643 -728.976 1723
-346.523 -728.976 1723
-342.8 -729.822 1725
-338.675 -729.822 1725
-334.55 -729.822 1725
-330.425 -729.822 1725
-327.057 -731.514 1729
-322.922 -731.514 1729
-318.788 -731.514 1729
-314.653 -731.514 1729
-310.878 -732.36 1731
-306.739 -732.36 1731
-302.599 -732.36 1731
-298.977 -733.629 1734
-295.171 -734.476 1736
-291.355 -735.322 1738
-287.199 -735.322 1738
-283.368 -736.168 1740
-279.207 -736.168 1740
-275.046 -736.168 1740
-270.886 -736.168 1740
-266.878 -736.591 1741
-263.318 -738.283 1745
-259.74 -739.976 1749
-255.557 -739.976 1749
-251.806 -741.245 1752
-248.182 -742.937 1756
-243.983 -742.937 1756
-239.783 -742.937 1756
-236.121 -744.63 1760
-231.912 -744.63 1760
-227.704 -744.63 1760
-223.495 -744.63 1760
-219.286 -744.63 1760
-215.077 -744.63 1760
-210.869 -744.63 1760
-206.66 -744.63 1760
-201.991 -742.937 1756
1688.49 -1660.61 3925
1706.09 -1668.65 3944
1715.52 -1668.65 3944
1724.95 -1668.65 3944
1726.03 -1660.61 3925
1735.42 -1660.61 3925
1740.8 -1656.8 3916
1750.17 -1656.8 3916
1789.19 -1684.72 3982
1802.77 -1688.53 3991
1812.32 -1688.53 3991
1835.1 -1700.8 4020
1849.3 -1705.03 4030
1858.94 -1705.03 4030
1868.57 -1705.03 4030
1878.21 -1705.03 4030
1887.85 -1705.03 4030
1897.49 -1705.03 4030
1907.12 -1705.03 4030
1916.76 -1705.03 4030
2880.43 -1633.95 3862
2889.67 -1633.95 3862
2898.9 -1633.95 3862
2894.59 -1626.34 3844
2924.17 -1637.76 3871
2933.43 -1637.76 3871
2970.05 -1652.99 3907
2979.4 -1652.99 3907
2988.74 -1652.99 3907
-464.796 -756.4 1798
-460.497 -756.4 1798
-456.197 -756.4 1798
-450.892 -754.717 1794
-446.602 -754.717 1794
-440.833 -752.193 1788
-436.557 -752.193 1788
-427.205 -743.358 1767
-421.303 -740.414 1760
-417.095 -740.414 1760
-411.479 -737.889 1754
-405.194 -734.103 1745
-399.872 -732 1740
-395.712 -732 1740
-391.101 -731.158 1738
-386.054 -729.476 1734
-381.247 -728.214 1731
-377.107 -728.214 1731
-372.106 -726.531 1727
-367.976 -726.531 1727
-363.847 -726.531 1727
-359.717 -726.531 1727
-355.587 -726.531 1727
-351.457 -726.531 1727
-346.925 -725.689 1725
-342.8 -725.689 1725
-339.068 -726.531 1727
-334.938 -726.531 1727
-331.192 -727.372 1729
-327.435 -728.214 1731
-323.296 -728.214 1731
-319.157 -728.214 1731
-315.017 -728.214 1731
-311.057 -728.634 1732
-307.27 -729.476 1734
-303.124 -729.476 1734
-299.322 -730.317 1736
-295.851 -732 1740
-291.858 -732.42 1741
-287.694 -732.42 1741
-283.531 -732.42 1741
-279.368 -732.42 1741
-275.204 -732.42 1741
-271.041 -732.42 1741
-267.491 -734.103 1745
-263.922 -735.786 1749
-260.037 -736.627 1751
-255.849 -736.627 1751
-252.093 -737.889 1754
-248.182 -738.731 1756
-243.983 -738.731 1756
-239.783 -738.731 1756
-236.389 -741.255 1762
-232.176 -741.255 1762
-227.962 -741.255 1762
-223.749 -741.255 1762
-219.535 -741.255 1762
-215.077 -740.414 1760
-210.869 -740.414 1760
-206.66 -740.414 1760
-201.991 -738.731 1756
1688.49 -1651.21 3925
1706.09 -1659.2 3944
1715.52 -1659.2 3944
1724.95 -1659.2 3944
1726.03 -1651.21 3925
1735.42 -1651.21 3925
1740.8 -1647.42 3916
1750.17 -1647.42 3916
1789.19 -1675.19 3982
1802.77 -1678.97 3991
1812.32 -1678.97 3991
1835.1 -1691.17 4020
1849.3 -1695.38 4030
1858.94 -1695.38 4030
1868.57 -1695.38 4030
1878.21 -1695.38 4030
1887.85 -1695.38 4030
1897.49 -1695.38 4030
1907.12 -1695.38 4030
1916.76 -1695.38 4030
2880.43 -1624.7 3862
2889.67 -1624.7 3862
2898.9 -1624.7 3862
2894.59 -1617.13 3844
2924.17 -1628.49 3871
2933.43 -1628.49 3871
2970.05 -1643.63 3907
2979.4 -1643.63 3907
2988.74 -1643.63 3907
-465.83 -753.766 1802
-461.521 -753.766 1802
-457.212 -753.766 1802
-452.903 -753.766 1802
-448.594 -753.766 1802
-442.312 -750.419 1794
-436.557 -747.91 1788
-429.622 -743.308 1777
-422.979 -739.126 1767
-418.754 -739.126 1767
-412.886 -736.197 1760
-406.123 -731.596 1749
-400.562 -729.086 1743
-396.394 -729.086 1743
-391.551 -727.832 1740
-386.499 -726.158 1736
-381.908 -725.322 1734
-377.761 -725.322 1734
-372.968 -724.067 1731
-368.829 -724.067 1731
-364.689 -724.067 1731
-360.55 -724.067 1731
-355.999 -723.23 1729
-351.457 -722.394 1727
-347.73 -723.23 1729
-343.595 -723.23 1729
-339.461 -723.23 1729
-335.326 -723.23 1729
-331.575 -724.067 1731
-327.624 -724.485 1732
-323.856 -725.322 1734
-319.71 -725.322 1734
-315.563 -725.322 1734
-311.417 -725.322 1734
-307.625 -726.158 1736
-303.473 -726.158 1736
-299.667 -726.995 1738
-296.361 -729.086 1743
-292.193 -729.086 1743
-288.025 -729.086 1743
-283.857 -729.086 1743
-279.689 -729.086 1743
-275.521 -729.086 1743
-271.353 -729.086 1743
-267.798 -730.76 1747
-264.224 -732.433 1751
-260.037 -732.433 1751
-255.849 -732.433 1751
-252.093 -733.688 1754
-248.182 -734.524 1756
-243.983 -734.524 1756
-239.783 -734.524 1756
-236.389 -737.034 1762
-232.176 -737.034 1762
-227.962 -737.034 1762
-223.749 -737.034 1762
-219.535 -737.034 1762
-215.322 -737.034 1762
-211.108 -737.034 1762
-206.895 -737.034 1762
1686.19 -1630.51 3898
1695.52 -1630.51 3898
1704.84 -1630.51 3898
1714.16 -1630.51 3898
1723.48 -1630.51 3898
1712.8 -1611.69 3853
1738.1 -1626.75 3889
1789.19 -1665.65 3982
1802.77 -1669.41 3991
1812.32 -1669.41 3991
1821.86 -1669.41 3991
1840.12 -1677.36 4010
1849.71 -1677.36 4010
1859.3 -1677.36 4010
1868.89 -1677.36 4010
1878.48 -1677.36 4010
1892.78 -1681.54 4020
1902.39 -1681.54 4020
1912 -1681.54 4020
2880.43 -1615.45 3862
2889.67 -1615.45 3862
2898.9 -1615.45 3862
2894.59 -1607.92 3844
2903.78 -1607.92 3844
2912.97 -1607.92 3844
2942.69 -1619.22 3871
2951.94 -1619.22 3871
2961.2 -1619.22 3871
-467.64 -752.36 1809
-463.314 -752.36 1809
-458.988 -752.36 1809
-454.16 -751.529 1807
-449.839 -751.529 1807
-443.792 -748.617 1800
-438.022 -746.122 1794
-430.106 -739.883 1779
-423.937 -736.556 1771
-419.702 -736.556 1771
-413.59 -733.229 1763
-406.588 -728.238 1751
-401.022 -725.743 1745
-396.849 -725.743 1745
-391.551 -723.663 1740
-386.945 -722.832 1738
-381.908 -721.168 1734
-377.761 -721.168 1734
-373.614 -721.168 1734
-369.468 -721.168 1734
-365.321 -721.168 1734
-361.175 -721.168 1734
-356.411 -719.92 1731
-352.271 -719.92 1731
-348.132 -719.92 1731
-344.191 -720.336 1732
-340.05 -720.336 1732
-335.908 -720.336 1732
-332.149 -721.168 1734
-328.381 -722 1736
-324.23 -722 1736
-320.078 -722 1736
-315.927 -722 1736
-312.135 -722.832 1738
-308.333 -723.663 1740
-304.173 -723.663 1740
-300.529 -724.911 1743
-296.701 -725.743 1745
-292.863 -726.575 1747
-288.686 -726.575 1747
-284.508 -726.575 1747
-280.331 -726.575 1747
-276.153 -726.575 1747
-271.975 -726.575 1747
-268.411 -728.238 1751
-264.224 -728.238 1751
-260.482 -729.486 1754
-256.288 -729.486 1754
-252.093 -729.486 1754
-249.03 -732.813 1762
-244.816 -732.813 1762
-240.603 -732.813 1762
-236.523 -733.229 1763
-232.308 -733.229 1763
-228.092 -733.229 1763
-223.876 -733.229 1763
-219.66 -733.229 1763
-215.444 -733.229 1763
-211.228 -733.229 1763
-206.895 -732.813 1762
1697.87 -1632.4 3925
1707.26 -1632.4 3925
1716.65 -1632.4 3925
1714.16 -1621.17 3898
1723.48 -1621.17 3898
1708.8 -1598.71 3844
1746.14 -1624.92 3907
1784.69 -1651.95 3972
1802.77 -1659.85 3991
1812.32 -1659.85 3991
1830.53 -1667.75 4010
1840.12 -1667.75 4010
1849.71 -1667.75 4010
1859.3 -1667.75 4010
1868.89 -1667.75 4010
1878.48 -1667.75 4010
1892.78 -1671.91 4020
1902.39 -1671.91 4020
1912 -1671.91 4020
1912.53 -1664.01 4001
2873.72 -1602.46 3853
2882.93 -1602.46 3853
2892.15 -1602.46 3853
2868.23 -1584.16 3809
2877.34 -1584.16 3809
2906.15 -1594.97 3835
2915.32 -1594.97 3835
2924.49 -1594.97 3835
2933.66 -1594.97 3835
-467.64 -748.027 1809
-463.314 -748.027 1809
-458.988 -748.027 1809
-454.16 -747.2 1807
-449.839 -747.2 1807
-443.792 -744.305 1800
-438.022 -741.824 1794
-430.106 -735.622 1779
-423.937 -732.314 1771
-419.702 -732.314 1771
-413.59 -729.006 1763
-406.588 -724.044 1751
-401.022 -721.563 1745
-396.849 -721.563 1745
-391.551 -719.495 1740
-386.945 -718.668 1738
-381.908 -717.014 1734
-377.761 -717.014 1734
-373.614 -717.014 1734
-369.468 -717.014 1734
-365.321 -717.014 1734
-361.175 -717.014 1734
-356.411 -715.774 1731
-352.271 -715.774 1731
-348.132 -715.774 1731
-344.191 -716.187 1732
-340.05 -716.187 1732
-335.908 -716.187 1732
-332.149 -717.014 1734
-328.381 -717.841 1736
-324.23 -717.841 1736
-320.078 -717.841 1736
-315.927 -717.841 1736
-312.135 -718.668 1738
-308.333 -719.495 1740
-304.173 -719.495 1740
-300.529 -720.736 1743
-296.701 -721.563 1745
-292.863 -722.39 1747
-288.686 -722.39 1747
-284.508 -722.39 1747
-280.331 -722.39 1747
-276.153 -722.39 1747
-271.975 -722.39 1747
-268.411 -724.044 1751
-264.224 -724.044 1751
-260.482 -725.284 1754
-256.288 -725.284 1754
-252.093 -725.284 1754
-249.03 -728.592 1762
-244.816 -728.592 1762
-240.603 -728.592 1762
-236.523 -729.006 1763
-232.308 -729.006 1763
-228.092 -729.006 1763
-223.876 -729.006 1763
-219.66 -729.006 1763
-215.444 -729.006 1763
-211.228 -729.006 1763
-206.895 -728.592 1762
1697.87 -1623 3925
1707.26 -1623 3925
1716.65 -1623 3925
1714.16 -1611.83 3898
1723.48 -1611.83 3898
1708.8 -1589.51 3844
1746.14 -1615.56 3907
1784.69 -1642.43 3972
1802.77 -1650.29 3991
1812.32 -1650.29 3991
1830.53 -1658.15 4010
1840.12 -1658.15 4010
1849.71 -1658.15 4010
1859.3 -1658.15 4010
1868.89 -1658.15 4010
1878.48 -1658.15 4010
1892.78 -1662.28 4020
1902.39 -1662.28 4020
1912 -1662.28 4020
1912.53 -1654.43 4001
2873.72 -1593.23 3853
2882.93 -1593.23 3853
2892.15 -1593.23 3853
2881.03 -1582.06 3826
2896.98 -1585.78 3835
2926.61 -1596.95 3862
2935.84 -1596.95 3862
2945.08 -1596.95 3862
2954.32 -1596.95 3862
-467.64 -743.693 1809
-463.314 -743.693 1809
-458.988 -743.693 1809
-454.16 -742.871 1807
-449.839 -742.871 1807
-444.778 -741.638 1804
-439.487 -739.993 1800
-430.831 -732.594 1782
-425.373 -730.538 1777
-421.124 -730.538 1777
-414.059 -725.605 1765
-406.82 -720.26 1752
-401.022 -717.383 1745
-396.849 -717.383 1745
-392.676 -717.383 1745
-387.39 -715.327 1740
-382.788 -714.505 1738
-378.632 -714.505 1738
-373.614 -712.86 1734
-369.468 -712.86 1734
-365.321 -712.86 1734
-361.175 -712.86 1734
-357.028 -712.86 1734
-352.475 -712.038 1732
-348.333 -712.038 1732
-344.191 -712.038 1732
-340.442 -712.86 1734
-336.296 -712.86 1734
-332.915 -714.505 1738
-329.138 -715.327 1740
-324.977 -715.327 1740
-320.816 -715.327 1740
-316.837 -715.738 1741
-313.033 -716.56 1743
-308.865 -716.56 1743
-304.697 -716.56 1743
-301.219 -718.205 1747
-297.721 -719.849 1751
-293.702 -720.26 1752
-289.512 -720.26 1752
-285.648 -721.083 1754
-281.454 -721.083 1754
-277.259 -721.083 1754
-272.754 -720.26 1752
-268.871 -721.083 1754
-265.28 -722.727 1758
-261.373 -723.549 1760
-257.164 -723.549 1760
-252.956 -723.549 1760
-249.171 -724.783 1763
-244.955 -724.783 1763
-240.739 -724.783 1763
-237.06 -726.427 1767
-232.835 -726.427 1767
-228.609 -726.427 1767
-224.384 -726.427 1767
-220.158 -726.427 1767
-215.689 -725.605 1765
-211.468 -725.605 1765
1697.87 -1613.6 3925
1707.26 -1613.6 3925
1716.65 -1613.6 3925
1714.16 -1602.5 3898
1723.48 -1602.5 3898
1712.8 -1584 3853
1746.14 -1606.2 3907
1784.69 -1632.92 3972
1802.77 -1640.73 3991
1812.32 -1640.73 3991
1830.53 -1648.54 4010
1840.12 -1648.54 4010
1849.71 -1648.54 4010
1859.3 -1648.54 4010
1868.89 -1648.54 4010
1878.48 -1648.54 4010
1892.78 -1652.65 4020
1902.39 -1652.65 4020
1912 -1652.65 4020
1912.53 -1644.84 4001
2998.28 -1652.65 4020
3007.89 -1652.65 4020
3017.5 -1652.65 4020
3005.28 -1640.73 3991
3022.38 -1644.84 4001
3031.94 -1644.84 4001
3048.35 -1648.54 4010
3057.94 -1648.54 4010
3067.53 -1648.54 4010
-453.406 -737.316 1804
-449.092 -737.316 1804
-444.778 -737.316 1804
-439.487 -735.682 1800
-430.831 -728.325 1782
-425.373 -726.281 1777
-421.124 -726.281 1777
-415.467 -723.829 1771
-408.677 -719.333 1760
-402.4 -715.655 1751
-398.213 -715.655 1751
-392.676 -713.202 1745
-388.058 -712.385 1743
