ply
format ascii 1.0
comment File generated
element vertex 2248
property float x
property float y
property float z
end_header
-104.871 22.5321 1747
-100.693 22.5321 1747
-96.5159 22.5321 1747
-92.444 22.5579 1749
-88.2616 22.5579 1749
-84.0792 22.5579 1749
-79.9882 22.5836 1751
-75.8443 22.5965 1752
-71.6547 22.5965 1752
-67.4652 22.5965 1752
-63.4201 22.6481 1756
-59.2884 22.6739 1758
-55.2098 22.7255 1762
-50.9963 22.7255 1762
-46.7829 22.7255 1762
-42.5694 22.7255 1762
-38.3559 22.7255 1762
-34.1424 22.7255 1762
-29.895 22.6997 1760
-25.6863 22.6997 1760
-21.4776 22.6997 1760
-17.2689 22.6997 1760
-13.0454 22.6739 1758
-8.88672 22.79 1767
-4.66128 22.79 1767
-0.435851 22.79 1767
3.78958 22.79 1767
72.8884 44.1871 3426
81.9093 44.6385 3461
90.1856 44.6385 3461
98.4619 44.6385 3461
106.738 44.6385 3461
115.015 44.6385 3461
123.291 44.6385 3461
133.81 45.3995 3520
142.51 45.4897 3527
150.944 45.4897 3527
160.373 45.7735 3549
168.859 45.7735 3549
178.146 45.9798 3565
186.671 45.9798 3565
198.152 46.6763 3619
206.806 46.6763 3619
216.413 46.8827 3635
225.539 46.973 3642
235.856 47.2954 3667
244.625 47.2954 3667
255.052 47.6049 3691
266.81 48.1337 3732
276.325 48.2369 3740
285.269 48.2369 3740
295.549 48.4562 3757
304.534 48.4562 3757
314.269 48.5723 3766
323.274 48.5723 3766
335.28 49.0108 3800
344.367 49.0108 3800
353.454 49.0108 3800
361.778 48.9076 3792
364.978 48.1337 3732
373.1 48.0306 3724
382.006 48.0306 3724
386.607 47.5018 3683
392.73 47.1793 3658
401.478 47.1793 3658
410.225 47.1793 3658
413.589 46.5731 3611
421.289 46.47 3603
427.16 46.1733 3580
433.895 45.9798 3565
442.42 45.9798 3565
449.933 45.8767 3557
455.475 45.58 3534
463.926 45.58 3534
472.377 45.58 3534
479.875 45.4897 3527
487.34 45.3995 3520
493.645 45.206 3505
502.026 45.206 3505
506.185 44.832 3476
512.277 44.6385 3461
518.448 44.4579 3447
526.69 44.4579 3447
531.674 44.1871 3426
539.867 44.1871 3426
548.059 44.1871 3426
557.389 44.2774 3433
570.211 44.6385 3461
578.487 44.6385 3461
587.95 44.7288 3468
597.619 44.832 3476
605.931 44.832 3476
614.243 44.832 3476
630.436 45.3995 3520
640.124 45.4897 3527
648.558 45.4897 3527
656.992 45.4897 3527
666.747 45.58 3534
679.592 45.8767 3557
692.547 46.1733 3580
701.108 46.1733 3580
709.669 46.1733 3580
718.23 46.1733 3580
726.79 46.1733 3580
735.351 46.1733 3580
743.912 46.1733 3580
755.626 46.3668 3595
764.223 46.3668 3595
772.819 46.3668 3595
781.416 46.3668 3595
790.013 46.3668 3595
802.164 46.5731 3611
810.799 46.5731 3611
819.434 46.5731 3611
828.069 46.5731 3611
836.704 46.5731 3611
839.955 46.2765 3588
848.535 46.2765 3588
858.787 46.3668 3595
867.383 46.3668 3595
875.98 46.3668 3595
884.577 46.3668 3595
893.174 46.3668 3595
907.791 46.6763 3619
926.321 47.1793 3658
935.068 47.1793 3658
952.33 47.6049 3691
976.26 48.353 3749
989.692 48.5723 3766
998.698 48.5723 3766
1007.7 48.5723 3766
1016.71 48.5723 3766
1025.71 48.5723 3766
1032.25 48.4562 3757
1041.23 48.4562 3757
1050.22 48.4562 3757
1059.2 48.4562 3757
1068.18 48.4562 3757
1331.86 47.6049 3691
1340.69 47.6049 3691
1349.51 47.6049 3691
1355.4 47.5018 3683
1358.28 47.2954 3667
1367.05 47.2954 3667
1375.81 47.2954 3667
1387.6 47.3986 3675
1396.39 47.3986 3675
1405.18 47.3986 3675
1410.89 47.2954 3667
1428.95 47.6049 3691
1444.01 47.8113 3707
1452.87 47.8113 3707
1461.74 47.8113 3707
1483.69 48.2369 3740
1492.64 48.2369 3740
1501.58 48.2369 3740
1504.06 48.0306 3724
1502.81 47.7081 3699
1501.85 47.3986 3675
1494.19 46.8827 3635
1502.89 46.8827 3635
1504.93 46.6763 3619
1503.54 46.3668 3595
1509.19 46.2765 3588
1517.77 46.2765 3588
1519.55 46.0701 3572
1521.67 45.8767 3557
1501.36 45.0125 3490
1509.7 45.0125 3490
1515 44.9222 3483
1516.77 44.7288 3468
1521.99 44.6385 3461
1524.07 44.4579 3447
1532.31 44.4579 3447
1540.56 44.4579 3447
1548.8 44.4579 3447
1544.4 44.0968 3419
1552.57 44.0968 3419
1538.38 43.4648 3370
1546.44 43.4648 3370
1551.27 43.3745 3363
1559.31 43.3745 3363
1567.35 43.3745 3363
1566.02 43.1166 3343
1571.19 43.0392 3337
2343.4 47.1793 3658
2352.14 47.1793 3658
2360.89 47.1793 3658
2364.46 47.0761 3650
2337.43 46.3668 3595
2331.01 46.0701 3572
2339.55 46.0701 3572
2308.65 45.2963 3512
2312.43 45.206 3505
2320.82 45.206 3505
2329.2 45.206 3505
2337.58 45.206 3505
2345.96 45.206 3505
1913.7 36.2293 2809
1926.57 36.3454 2818
1933.31 36.3454 2818
1940.05 36.3454 2818
1946.79 36.3454 2818
1950.06 36.2809 2813
1956.79 36.2809 2813
1960.72 36.2293 2809
1967.44 36.2293 2809
1970.64 36.1648 2804
1977.35 36.1648 2804
1984.05 36.1648 2804
1997.15 36.2809 2813
2003.87 36.2809 2813
2010.6 36.2809 2813
2017.33 36.2809 2813
2027.65 36.3454 2818
2034.39 36.3454 2818
2044.75 36.4098 2823
2055.13 36.4743 2828
2064.81 36.5259 2832
2071.59 36.5259 2832
2078.36 36.5259 2832
2088.81 36.5904 2837
2095.6 36.5904 2837
2102.38 36.5904 2837
2109.16 36.5904 2837
2123.41 36.7194 2847
2133.96 36.7839 2852
2148.28 36.9129 2862
2155.13 36.9129 2862
2180.1 37.2224 2886
2194.58 37.3514 2896
2221.27 37.6867 2922
2228.26 37.6867 2922
2235.24 37.6867 2922
-2444.59 49.9319 3265
-2446.48 50.1307 3278
-2438.64 50.1307 3278
-2430.8 50.1307 3278
-2437.01 50.4213 3297
-2438.7 50.6201 3310
-2430.79 50.6201 3310
-2422.87 50.6201 3310
-2405.47 50.4213 3297
-2407.04 50.6201 3310
-2399.13 50.6201 3310
-2405.66 50.926 3330
-2407.06 51.1248 3343
-2404.09 51.2318 3350
-2396.07 51.2318 3350
-2393.05 51.3389 3357
-2385.03 51.3389 3357
-2377 51.3389 3357
-2368.97 51.3389 3357
-2360.94 51.3389 3357
-2352.92 51.3389 3357
-2344.89 51.3389 3357
-2336.86 51.3389 3357
-2323.98 51.2318 3350
-2315.97 51.2318 3350
-2307.96 51.2318 3350
-2295.14 51.1248 3343
-2296.72 51.3389 3357
-2288.7 51.3389 3357
-2299.01 51.7518 3384
-2290.92 51.7518 3384
-2292.27 51.9659 3398
-2288.85 52.0729 3405
-2290.09 52.287 3419
-2281.91 52.287 3419
-2283.04 52.5011 3433
-2284.11 52.7153 3447
-2280.49 52.8223 3454
-2272.23 52.8223 3454
-2297.4 53.6022 3505
-2303.39 53.9387 3527
-2309.27 54.2751 3549
-2300.78 54.2751 3549
-2297.46 54.3975 3557
-2288.96 54.3975 3557
-2280.45 54.3975 3557
-2266.83 54.2751 3549
-2258.35 54.2751 3549
-2245.42 54.1681 3542
-2241.37 54.2751 3549
-2232.89 54.2751 3549
-2234.43 54.5198 3565
-2225.9 54.5198 3565
-2217.38 54.5198 3565
-2208.85 54.5198 3565
-2195.39 54.3975 3557
-2186.88 54.3975 3557
-2183.28 54.5198 3565
-2174.75 54.5198 3565
-2166.23 54.5198 3565
-2148.02 54.2751 3549
-2139.53 54.2751 3549
-2122.04 54.0457 3534
-2113.59 54.0457 3534
-2065.82 53.0364 3468
-2057.53 53.0364 3468
-2049.24 53.0364 3468
-2084.49 54.1681 3542
-2076.02 54.1681 3542
-2067.55 54.1681 3542
-2059.08 54.1681 3542
-2050.61 54.1681 3542
-2042.14 54.1681 3542
-2033.67 54.1681 3542
-2008.05 53.7093 3512
-1966.63 52.8223 3454
-1958.37 52.8223 3454
-1950.11 52.8223 3454
-1937.91 52.7153 3447
-1929.67 52.7153 3447
-1905.82 52.287 3419
-1897.64 52.287 3419
-1858.52 51.4306 3363
-1821.32 50.6201 3310
-1809.57 50.513 3303
-1798.39 50.4213 3297
-1790.51 50.4213 3297
-1782.63 50.4213 3297
-1767.74 50.2225 3284
-1742.74 49.7331 3252
-1734.97 49.7331 3252
-1717.1 49.4425 3233
-1709.37 49.4425 3233
-1701.64 49.4425 3233
-1693.9 49.4425 3233
-1683.04 49.3508 3227
-1672.21 49.259 3221
-1660.89 49.152 3214
-1656.81 49.259 3221
-1649.11 49.259 3221
-1641.4 49.259 3221
-1633.7 49.259 3221
-1632.06 49.4425 3233
-1624.32 49.4425 3233
-1616.59 49.4425 3233
-1611.85 49.5343 3239
-1604.1 49.5343 3239
-1596.36 49.5343 3239
-1592.05 49.6413 3246
-1584.28 49.6413 3246
-1582.35 49.8249 3258
-1574.56 49.8249 3258
-1566.77 49.8249 3258
-1558.98 49.8249 3258
-1551.19 49.8249 3258
-1543.4 49.8249 3258
-1535.6 49.8249 3258
-1527.81 49.8249 3258
-1520.02 49.8249 3258
-1512.23 49.8249 3258
-1504.44 49.8249 3258
-1496.65 49.8249 3258
-1488.86 49.8249 3258
-1481.07 49.8249 3258
-1476.44 49.9319 3265
-1477.18 50.2225 3284
-1475.14 50.4213 3297
-1467.26 50.4213 3297
-1459.38 50.4213 3297
-1451.49 50.4213 3297
-1443.61 50.4213 3297
-1435.72 50.4213 3297
-1424.81 50.3142 3290
-1411.77 50.1307 3278
-1400.94 50.0237 3271
-1393.11 50.0237 3271
-1385.29 50.0237 3271
-1377.47 50.0237 3271
-1369.65 50.0237 3271
-1364.74 50.1307 3278
-1356.9 50.1307 3278
-1349.06 50.1307 3278
-1341.22 50.1307 3278
-1333.39 50.1307 3278
-1325.55 50.1307 3278
-720.129 27.7264 1813
-715.794 27.7264 1813
-711.458 27.7264 1813
-706.343 27.6958 1811
-702.012 27.6958 1811
-697.681 27.6958 1811
-693.351 27.6958 1811
-689.02 27.6958 1811
-684.689 27.6958 1811
-680.359 27.6958 1811
-674.535 27.6346 1807
-670.214 27.6346 1807
-665.156 27.604 1805
-660.839 27.604 1805
-655.432 27.5581 1802
-650.4 27.5275 1800
-645.378 27.497 1798
-641.078 27.497 1798
-636.07 27.4664 1796
-631.776 27.4664 1796
-625.385 27.3746 1790
-621.104 27.3746 1790
-616.135 27.344 1788
-609.806 27.2523 1782
-603.845 27.1758 1777
-594.872 26.9617 1763
-590.656 26.9617 1763
-586.108 26.9464 1762
-578.592 26.7935 1752
-571.452 26.6558 1743
-567.284 26.6558 1743
-560.854 26.5488 1736
-555.099 26.4723 1731
-548.414 26.35 1723
-544.293 26.35 1723
-539.86 26.3347 1722
-534.497 26.2735 1718
-529.463 26.2276 1715
-525.362 26.2276 1715
-520.045 26.1665 1711
-514.446 26.09 1706
-510.366 26.09 1706
-506.287 26.09 1706
-501.618 26.0594 1704
-496.96 26.0288 1702
-492.6 26.0135 1701
-488.532 26.0135 1701
-484.465 26.0135 1701
-479.267 25.9524 1697
-475.209 25.9524 1697
-470.596 25.9218 1695
-466.543 25.9218 1695
-462.49 25.9218 1695
-458.166 25.9065 1694
-454.115 25.9065 1694
-450.064 25.9065 1694
-446.013 25.9065 1694
-441.962 25.9065 1694
-437.395 25.8759 1692
-433.348 25.8759 1692
-428.795 25.8453 1690
-424.502 25.83 1689
-420.463 25.83 1689
-416.424 25.83 1689
-412.386 25.83 1689
-407.863 25.7994 1687
-403.35 25.7688 1685
-399.321 25.7688 1685
-394.822 25.7383 1683
-390.566 25.723 1682
-386.084 25.6924 1680
-382.066 25.6924 1680
-377.374 25.6465 1677
-372.473 25.5853 1673
-368.472 25.5853 1673
-364.472 25.5853 1673
-359.825 25.5394 1670
-355.405 25.5089 1668
-351.416 25.5089 1668
-347.219 25.4936 1667
-343.233 25.4936 1667
-339.247 25.4936 1667
-335.261 25.4936 1667
-330.877 25.463 1665
-326.895 25.463 1665
-322.526 25.4324 1663
-317.975 25.3865 1660
-314.005 25.3865 1660
-310.596 25.4324 1663
-306.619 25.4324 1663
-303.006 25.463 1665
-299.384 25.4936 1667
-295.929 25.5394 1670
-291.936 25.5394 1670
-288.287 25.57 1672
-284.799 25.6159 1675
-281.129 25.6465 1677
-277.118 25.6465 1677
-273.923 25.723 1682
-270.061 25.7383 1683
-266.036 25.7383 1683
-262.012 25.7383 1683
-258.294 25.7688 1685
-254.566 25.7994 1687
-250.978 25.8453 1690
-246.936 25.8453 1690
-243.182 25.8759 1692
-239.136 25.8759 1692
-235.368 25.9065 1694
-231.317 25.9065 1694
-227.401 25.9218 1695
-223.611 25.9524 1697
-219.812 25.9829 1699
-215.749 25.9829 1699
-211.686 25.9829 1699
-207.868 26.0135 1701
-203.8 26.0135 1701
-199.732 26.0135 1701
-195.665 26.0135 1701
-191.935 26.0594 1704
-188.081 26.09 1706
-184.54 26.1665 1711
-180.449 26.1665 1711
-176.357 26.1665 1711
-172.769 26.2429 1716
-168.666 26.2429 1716
-164.562 26.2429 1716
-160.646 26.2735 1718
-156.902 26.3347 1722
-153.05 26.3806 1725
-148.925 26.3806 1725
-144.8 26.3806 1725
-141.002 26.4417 1729
-137.105 26.4876 1732
-132.963 26.4876 1732
-128.821 26.4876 1732
-124.823 26.5182 1734
-120.816 26.5488 1736
-116.665 26.5488 1736
-112.967 26.6558 1743
-109.049 26.717 1747
-104.871 26.717 1747
-100.693 26.717 1747
-96.5159 26.717 1747
-92.444 26.7476 1749
-88.2616 26.7476 1749
-84.0792 26.7476 1749
-79.9882 26.7782 1751
-75.8443 26.7935 1752
-71.6547 26.7935 1752
-67.4652 26.7935 1752
-63.4201 26.8547 1756
-59.2209 26.8547 1756
-55.2098 26.9464 1762
-50.9963 26.9464 1762
-46.7829 26.9464 1762
-42.5694 26.9464 1762
-38.3559 26.9464 1762
-34.1424 26.9464 1762
-29.895 26.9158 1760
-25.6863 26.9158 1760
-21.4776 26.9158 1760
-17.2885 26.9464 1762
-13.075 26.9464 1762
-8.88672 27.0229 1767
-4.66128 27.0229 1767
-0.435851 27.0229 1767
47.2389 51.2318 3350
55.2497 51.2318 3350
63.3928 51.3389 3357
72.8884 52.3941 3426
81.081 52.3941 3426
89.2736 52.3941 3426
97.4662 52.3941 3426
105.227 52.18 3412
112.921 51.9659 3398
121.296 52.0729 3405
129.438 52.0729 3405
137.581 52.0729 3405
145.723 52.0729 3405
153.865 52.0729 3405
162.008 52.0729 3405
174.398 53.3729 3490
183.895 53.7093 3512
194.758 54.3975 3557
203.263 54.3975 3557
212.662 54.6269 3572
223.619 55.2233 3611
232.254 55.2233 3611
240.889 55.2233 3611
250.63 55.468 3627
261.519 55.9421 3658
270.932 56.0797 3667
279.701 56.0797 3667
289.728 56.3244 3683
299.184 56.4468 3691
312.85 57.3338 3749
321.815 57.3338 3749
330.78 57.3338 3749
339.745 57.3338 3749
348.71 57.3338 3749
356.053 57.0738 3732
364.195 56.9514 3724
366.488 55.9421 3658
375.235 55.9421 3658
383.983 55.9421 3658
389.402 55.468 3627
395.441 55.101 3603
404.057 55.101 3603
412.673 55.101 3603
416.845 54.5198 3565
423.461 54.2751 3549
431.096 54.1681 3542
439.566 54.1681 3542
447.024 54.0457 3534
455.475 54.0457 3534
461.038 53.7093 3512
469.436 53.7093 3512
477.834 53.7093 3512
484.156 53.4799 3497
491.532 53.3729 3490
499.878 53.3729 3490
505.02 53.0364 3468
510.205 52.7153 3447
517.395 52.6082 3440
525.621 52.6082 3440
531.674 52.3941 3426
538.764 52.287 3419
548.059 52.3941 3426
556.252 52.3941 3426
570.211 52.9294 3461
578.487 52.9294 3461
586.764 52.9294 3461
596.243 53.0364 3468
605.931 53.1587 3476
614.243 53.1587 3476
625.063 53.3729 3490
638.853 53.8316 3520
647.271 53.8316 3520
655.688 53.8316 3520
664.105 53.8316 3520
675.198 54.0457 3534
686.55 54.2751 3549
695.037 54.2751 3549
706.695 54.5198 3565
715.22 54.5198 3565
723.745 54.5198 3565
732.27 54.5198 3565
740.795 54.5198 3565
750.792 54.6269 3572
759.333 54.6269 3572
767.875 54.6269 3572
776.417 54.6269 3572
788.475 54.8716 3588
797.055 54.8716 3588
805.635 54.8716 3588
814.215 54.8716 3588
817.52 54.5198 3565
826.045 54.5198 3565
834.57 54.5198 3565
843.095 54.5198 3565
858.787 54.9786 3595
867.383 54.9786 3595
875.98 54.9786 3595
877.195 54.5198 3565
881.745 54.2751 3549
892.238 54.3975 3557
908.594 54.8716 3588
917.174 54.8716 3588
933.753 55.3457 3619
944.49 55.468 3627
961.31 55.9421 3658
970.058 55.9421 3658
978.805 55.9421 3658
979.183 55.468 3627
987.857 55.468 3627
996.53 55.468 3627
971.391 53.6022 3505
973.623 53.2658 3483
981.952 53.2658 3483
1262.61 55.3457 3619
1271.26 55.3457 3619
1279.92 55.3457 3619
1280.03 54.9786 3595
1291.49 55.101 3603
1319.95 55.9421 3658
1328.7 55.9421 3658
1337.45 55.9421 3658
1346.2 55.9421 3658
1351.98 55.8197 3650
1360.71 55.8197 3650
1369.44 55.8197 3650
1378.16 55.8197 3650
1386.89 55.8197 3650
1395.62 55.8197 3650
1404.35 55.8197 3650
1419.66 56.0797 3667
1437.78 56.4468 3691
1452.87 56.6915 3707
1461.74 56.6915 3707
1477.35 56.9514 3724
1486.25 56.9514 3724
1495.16 56.9514 3724
1497.2 56.6915 3707
1493.06 56.2021 3675
1491.63 55.8197 3650
1490.91 55.468 3627
1499.58 55.468 3627
1494.95 54.9786 3595
1497.27 54.7492 3580
1502.46 54.6269 3572
1511.01 54.6269 3572
1519.55 54.6269 3572
1518.25 54.2751 3549
1501.36 53.3729 3490
1509.7 53.3729 3490
1508.48 53.0364 3468
1513.71 52.9294 3461
1518.91 52.8223 3454
1520.98 52.6082 3440
1529.2 52.6082 3440
1537.43 52.6082 3440
1545.66 52.6082 3440
1528.59 51.7518 3384
1536.68 51.7518 3384
1532.44 51.3389 3357
1534.05 51.1248 3343
1532.82 50.8189 3323
1540.76 50.8189 3323
1545.91 50.7271 3317
1544.48 50.4213 3297
1543.41 50.1307 3278
2093.88 55.8197 3650
2102.61 55.8197 3650
2111.34 55.8197 3650
2120.07 55.8197 3650
2128.79 55.8197 3650
2137.52 55.8197 3650
2123.32 55.2233 3611
2205.68 54.2751 3549
2214.16 54.2751 3549
2222.65 54.2751 3549
2226.74 54.1681 3542
2221.32 53.8316 3520
2234.17 53.9387 3527
2306.19 55.468 3627
2314.86 55.468 3627
2343.4 55.9421 3658
2352.14 55.9421 3658
2360.89 55.9421 3658
2364.46 55.8197 3650
2337.43 54.9786 3595
2336.23 54.7492 3580
2344.79 54.7492 3580
2332.98 54.2751 3549
2322.33 53.8316 3520
2330.75 53.8316 3520
2339.17 53.8316 3520
2347.58 53.8316 3520
2356 53.8316 3520
1933.41 43.2488 2828
1940.17 43.2488 2828
1946.93 43.2488 2828
1950.24 43.1724 2823
1953.53 43.0959 2818
1956.79 43.0194 2813
1960.72 42.9583 2809
1967.44 42.9583 2809
1974.16 42.9583 2809
1977.35 42.8818 2804
1984.05 42.8818 2804
1990.76 42.8818 2804
1997.46 42.8818 2804
2004.17 42.8818 2804
2010.87 42.8818 2804
2021.18 42.9583 2809
2027.89 42.9583 2809
2041.13 43.0959 2818
2047.87 43.0959 2818
2054.61 43.0959 2818
2065 43.1724 2823
2071.75 43.1724 2823
2078.5 43.1724 2823
2091.9 43.31 2832
2102.38 43.3865 2837
2109.16 43.3865 2837
2123.41 43.5394 2847
2133.96 43.6159 2852
2144.53 43.6923 2857
2151.36 43.6923 2857
2180.1 44.1358 2886
2194.58 44.2888 2896
2221.27 44.6864 2922
2228.26 44.6864 2922
2235.24 44.6864 2922
-2444.59 57.7532 3265
-2446.48 57.9832 3278
-2438.64 57.9832 3278
-2430.8 57.9832 3278
-2437.01 58.3193 3297
-2438.7 58.5492 3310
-2430.79 58.5492 3310
-2422.87 58.5492 3310
-2405.47 58.3193 3297
-2407.04 58.5492 3310
-2399.13 58.5492 3310
-2405.66 58.903 3330
-2407.06 59.133 3343
-2404.09 59.2568 3350
-2396.07 59.2568 3350
-2393.05 59.3806 3357
-2385.03 59.3806 3357
-2377 59.3806 3357
-2368.97 59.3806 3357
-2360.94 59.3806 3357
-2352.92 59.3806 3357
-2344.89 59.3806 3357
-2336.86 59.3806 3357
-2323.98 59.2568 3350
-2315.97 59.2568 3350
-2307.96 59.2568 3350
-2295.14 59.133 3343
-2296.72 59.3806 3357
-2288.7 59.3806 3357
-2299.01 59.8582 3384
-2290.92 59.8582 3384
-2292.27 60.1058 3398
-2288.85 60.2296 3405
-2290.09 60.4773 3419
-2281.91 60.4773 3419
-2283.04 60.7249 3433
-2284.11 60.9726 3447
-2280.49 61.0964 3454
-2272.23 61.0964 3454
-2297.4 61.9985 3505
-2303.39 62.3877 3527
-2309.27 62.7768 3549
-2300.78 62.7768 3549
-2297.46 62.9183 3557
-2288.96 62.9183 3557
-2280.45 62.9183 3557
-2266.83 62.7768 3549
-2258.35 62.7768 3549
-2245.42 62.653 3542
-2241.37 62.7768 3549
-2232.89 62.7768 3549
-2234.43 63.0598 3565
-2225.9 63.0598 3565
-2217.38 63.0598 3565
-2208.85 63.0598 3565
-2195.39 62.9183 3557
-2186.88 62.9183 3557
-2183.28 63.0598 3565
-2174.75 63.0598 3565
-2166.23 63.0598 3565
-2148.02 62.7768 3549
-2139.53 62.7768 3549
-2122.04 62.5115 3534
-2113.59 62.5115 3534
-2065.82 61.344 3468
-2057.53 61.344 3468
-2049.24 61.344 3468
-2084.49 62.653 3542
-2076.02 62.653 3542
-2067.55 62.653 3542
-2059.08 62.653 3542
-2050.61 62.653 3542
-2042.14 62.653 3542
-2033.67 62.653 3542
-2008.05 62.1223 3512
-1966.63 61.0964 3454
-1958.37 61.0964 3454
-1950.11 61.0964 3454
-1937.91 60.9726 3447
-1929.67 60.9726 3447
-1905.82 60.4773 3419
-1897.64 60.4773 3419
-1858.52 59.4867 3363
-1821.32 58.5492 3310
-1809.57 58.4254 3303
-1798.39 58.3193 3297
-1790.51 58.3193 3297
-1782.63 58.3193 3297
-1767.74 58.0893 3284
-1742.74 57.5233 3252
-1734.97 57.5233 3252
-1717.1 57.1872 3233
-1709.37 57.1872 3233
-1701.64 57.1872 3233
-1693.9 57.1872 3233
-1683.04 57.0811 3227
-1672.21 56.9749 3221
-1660.89 56.8511 3214
-1656.81 56.9749 3221
-1649.11 56.9749 3221
-1641.4 56.9749 3221
-1633.7 56.9749 3221
-1632.06 57.1872 3233
-1624.32 57.1872 3233
-1616.59 57.1872 3233
-1611.85 57.2933 3239
-1604.1 57.2933 3239
-1596.36 57.2933 3239
-1592.05 57.4172 3246
-1584.28 57.4172 3246
-1582.35 57.6294 3258
-1574.56 57.6294 3258
-1566.77 57.6294 3258
-1558.98 57.6294 3258
-1551.19 57.6294 3258
-1543.4 57.6294 3258
-1535.6 57.6294 3258
-1527.81 57.6294 3258
-1520.02 57.6294 3258
-1512.23 57.6294 3258
-1504.44 57.6294 3258
-1496.65 57.6294 3258
-1488.86 57.6294 3258
-1481.07 57.6294 3258
-1476.44 57.7532 3265
-1477.18 58.0893 3284
-1475.14 58.3193 3297
-1467.26 58.3193 3297
-1459.38 58.3193 3297
-1451.49 58.3193 3297
-1443.61 58.3193 3297
-1435.72 58.3193 3297
-1424.81 58.1955 3290
-1411.77 57.9832 3278
-1400.94 57.8594 3271
-1393.11 57.8594 3271
-1385.29 57.8594 3271
-1377.47 57.8594 3271
-1369.65 57.8594 3271
-1364.74 57.9832 3278
-1356.9 57.9832 3278
-1349.06 57.9832 3278
-1359.64 58.7792 3323
-1351.69 58.7792 3323
-1343.74 58.7792 3323
-722.866 31.9987 1809
-720.129 32.0694 1813
-715.794 32.0694 1813
-711.458 32.0694 1813
-706.343 32.034 1811
-702.012 32.034 1811
-697.681 32.034 1811
-693.351 32.034 1811
-689.02 32.034 1811
-684.689 32.034 1811
-680.359 32.034 1811
-674.535 31.9633 1807
-670.214 31.9633 1807
-665.156 31.9279 1805
-660.839 31.9279 1805
-655.432 31.8748 1802
-650.4 31.8395 1800
-645.378 31.8041 1798
-641.078 31.8041 1798
-636.07 31.7687 1796
-631.776 31.7687 1796
-625.385 31.6626 1790
-621.104 31.6626 1790
-616.135 31.6272 1788
-609.806 31.5211 1782
-603.845 31.4326 1777
-594.872 31.185 1763
-590.656 31.185 1763
-586.108 31.1673 1762
-578.592 30.9904 1752
-571.452 30.8312 1743
-567.284 30.8312 1743
-560.854 30.7074 1736
-555.099 30.6189 1731
-549.05 30.5128 1725
-544.925 30.5128 1725
-539.86 30.4598 1722
-534.497 30.389 1718
-529.463 30.3359 1715
-525.362 30.3359 1715
-520.045 30.2652 1711
-515.049 30.2121 1708
-510.366 30.1767 1706
-506.287 30.1767 1706
-501.618 30.1414 1704
-496.96 30.106 1702
-492.89 30.106 1702
-488.532 30.0883 1701
-484.465 30.0883 1701
-479.832 30.0529 1699
-475.209 30.0175 1697
-471.151 30.0175 1697
-467.093 30.0175 1697
-462.49 29.9822 1695
-458.436 29.9822 1695
-454.115 29.9645 1694
-450.064 29.9645 1694
-446.013 29.9645 1694
-441.962 29.9645 1694
-437.395 29.9291 1692
-433.348 29.9291 1692
-428.795 29.8937 1690
-424.502 29.876 1689
-420.463 29.876 1689
-416.424 29.876 1689
-412.386 29.876 1689
-407.863 29.8407 1687
-403.35 29.8053 1685
-399.321 29.8053 1685
-394.822 29.7699 1683
-390.566 29.7522 1682
-386.084 29.7168 1680
-382.066 29.7168 1680
-377.374 29.6638 1677
-372.473 29.593 1673
-368.472 29.593 1673
-364.472 29.593 1673
-359.825 29.5399 1670
-355.405 29.5046 1668
-351.416 29.5046 1668
-347.219 29.4869 1667
-343.233 29.4869 1667
-339.247 29.4869 1667
-335.261 29.4869 1667
-330.877 29.4515 1665
-326.895 29.4515 1665
-322.526 29.4161 1663
-317.975 29.3631 1660
-314.005 29.3631 1660
-310.596 29.4161 1663
-306.619 29.4161 1663
-303.006 29.4515 1665
-299.384 29.4869 1667
-295.929 29.5399 1670
-291.936 29.5399 1670
-288.287 29.5753 1672
-284.799 29.6284 1675
-281.129 29.6638 1677
-277.118 29.6638 1677
-273.923 29.7522 1682
-270.061 29.7699 1683
-266.352 29.8053 1685
-262.323 29.8053 1685
-258.294 29.8053 1685
-254.566 29.8407 1687
-250.978 29.8937 1690
-246.936 29.8937 1690
-243.182 29.9291 1692
-239.419 29.9645 1694
-235.368 29.9645 1694
-231.317 29.9645 1694
-227.401 29.9822 1695
-223.611 30.0175 1697
-219.812 30.0529 1699
-215.749 30.0529 1699
-211.686 30.0529 1699
-207.868 30.0883 1701
-203.8 30.0883 1701
-199.732 30.0883 1701
-195.665 30.0883 1701
-191.935 30.1414 1704
-188.081 30.1767 1706
-184.54 30.2652 1711
-180.449 30.2652 1711
-176.357 30.2652 1711
-172.769 30.3536 1716
-168.666 30.3536 1716
-164.562 30.3536 1716
-160.646 30.389 1718
-156.902 30.4598 1722
-153.05 30.5128 1725
-148.925 30.5128 1725
-144.8 30.5128 1725
-141.002 30.5836 1729
-137.105 30.6366 1732
-132.963 30.6366 1732
-128.821 30.6366 1732
-124.823 30.672 1734
-120.816 30.7074 1736
-116.665 30.7074 1736
-112.967 30.8312 1743
-109.049 30.902 1747
-104.871 30.902 1747
-100.693 30.902 1747
-96.5159 30.902 1747
-92.444 30.9373 1749
-88.2616 30.9373 1749
-84.0792 30.9373 1749
-79.9882 30.9727 1751
-75.8443 30.9904 1752
-71.6547 30.9904 1752
-67.4652 30.9904 1752
-63.4201 31.0612 1756
-59.2209 31.0612 1756
-55.2098 31.1673 1762
-50.9963 31.1673 1762
-46.7829 31.1673 1762
-42.5694 31.1673 1762
-38.3559 31.1673 1762
-34.1424 31.1673 1762
-29.895 31.1319 1760
-25.6863 31.1319 1760
-21.502 31.1673 1762
-17.2885 31.1673 1762
-13.075 31.1673 1762
-8.88672 31.2557 1767
-4.66128 31.2557 1767
-0.435851 31.2557 1767
15.2272 59.3806 3357
23.2548 59.3806 3357
31.2824 59.3806 3357
39.31 59.3806 3357
47.3376 59.3806 3357
55.3652 59.3806 3357
63.3928 59.3806 3357
72.8884 60.6011 3426
81.081 60.6011 3426
89.2736 60.6011 3426
97.4662 60.6011 3426
105.227 60.3535 3412
112.921 60.1058 3398
121.296 60.2296 3405
129.438 60.2296 3405
137.581 60.2296 3405
145.723 60.2296 3405
153.865 60.2296 3405
162.008 60.2296 3405
174.398 61.7332 3490
183.895 62.1223 3512
194.758 62.9183 3557
203.263 62.9183 3557
212.662 63.1836 3572
223.619 63.8735 3611
232.254 63.8735 3611
240.889 63.8735 3611
250.63 64.1565 3627
261.519 64.7049 3658
270.932 64.8641 3667
279.701 64.8641 3667
289.728 65.1471 3683
299.184 65.2886 3691
312.85 66.3145 3749
321.815 66.3145 3749
330.78 66.3145 3749
339.745 66.3145 3749
348.71 66.3145 3749
356.053 66.0138 3732
364.195 65.8723 3724
366.488 64.7049 3658
375.235 64.7049 3658
383.983 64.7049 3658
389.402 64.1565 3627
395.441 63.732 3603
404.057 63.732 3603
412.673 63.732 3603
416.845 63.0598 3565
423.461 62.7768 3549
431.096 62.653 3542
439.566 62.653 3542
447.024 62.5115 3534
455.475 62.5115 3534
461.038 62.1223 3512
469.436 62.1223 3512
477.834 62.1223 3512
484.156 61.857 3497
491.532 61.7332 3490
499.878 61.7332 3490
505.02 61.344 3468
510.205 60.9726 3447
517.395 60.8487 3440
525.621 60.8487 3440
531.674 60.6011 3426
538.764 60.4773 3419
548.059 60.6011 3426
556.252 60.6011 3426
570.211 61.2202 3461
578.487 61.2202 3461
586.764 61.2202 3461
596.243 61.344 3468
605.931 61.4855 3476
614.243 61.4855 3476
625.063 61.7332 3490
638.853 62.2638 3520
647.271 62.2638 3520
655.688 62.2638 3520
664.105 62.2638 3520
675.198 62.5115 3534
686.55 62.7768 3549
695.037 62.7768 3549
706.695 63.0598 3565
715.22 63.0598 3565
723.745 63.0598 3565
732.27 63.0598 3565
740.795 63.0598 3565
750.792 63.1836 3572
759.333 63.1836 3572
767.875 63.1836 3572
776.417 63.1836 3572
788.475 63.4667 3588
797.055 63.4667 3588
805.635 63.4667 3588
814.215 63.4667 3588
817.52 63.0598 3565
826.045 63.0598 3565
834.57 63.0598 3565
843.095 63.0598 3565
858.787 63.5905 3595
867.383 63.5905 3595
875.98 63.5905 3595
877.195 63.0598 3565
881.745 62.7768 3549
892.238 62.9183 3557
908.594 63.4667 3588
917.174 63.4667 3588
933.753 64.015 3619
944.49 64.1565 3627
961.31 64.7049 3658
970.058 64.7049 3658
978.805 64.7049 3658
979.183 64.1565 3627
987.857 64.1565 3627
996.53 64.1565 3627
971.391 61.9985 3505
973.623 61.6094 3483
992.383 62.2638 3520
1000.8 62.2638 3520
1009.22 62.2638 3520
1017.64 62.2638 3520
1023.72 62.1223 3512
1032.12 62.1223 3512
1040.52 62.1223 3512
1104.77 65.4301 3699
1118.73 65.7308 3716
1132.47 66.0138 3732
1141.4 66.0138 3732
1150.32 66.0138 3732
1159.24 66.0138 3732
1168.17 66.0138 3732
1177.09 66.0138 3732
1180.93 65.7308 3716
1176.69 65.0056 3675
1185.48 65.0056 3675
1194.27 65.0056 3675
1203.05 65.0056 3675
1211.84 65.0056 3675
1220.63 65.0056 3675
1223.73 64.7049 3658
1229.78 64.5634 3650
1227.99 64.015 3619
1236.65 64.015 3619
1242.55 63.8735 3611
1251.18 63.8735 3611
1262.61 64.015 3619
1271.26 64.015 3619
1279.92 64.015 3619
1280.03 63.5905 3595
1291.49 63.732 3603
1319.95 64.7049 3658
1328.7 64.7049 3658
1337.45 64.7049 3658
1346.2 64.7049 3658
1346.42 64.298 3635
1355.12 64.298 3635
1360.81 64.1565 3627
1372.5 64.298 3635
1381.19 64.298 3635
1389.89 64.298 3635
1395.5 64.1565 3627
1404.17 64.1565 3627
1428.43 64.8641 3667
1446.6 65.2886 3691
1455.43 65.2886 3691
1467.43 65.4301 3699
1476.27 65.4301 3699
1485.12 65.4301 3699
1484.27 65.0056 3675
1482.9 64.5634 3650
1482.23 64.1565 3627
1474.87 63.4667 3588
1483.45 63.4667 3588
1485.38 63.1836 3572
1493.92 63.1836 3572
1502.46 63.1836 3572
1511.01 63.1836 3572
1509.76 62.7768 3549
1508.84 62.3877 3527
1495.33 61.4855 3476
1503.65 61.4855 3476
1505.43 61.2202 3461
1513.71 61.2202 3461
1518.91 61.0964 3454
1520.98 60.8487 3440
1529.2 60.8487 3440
1537.43 60.8487 3440
1545.66 60.8487 3440
1528.59 59.8582 3384
1536.68 59.8582 3384
1538.38 59.6105 3370
1540.47 59.3806 3357
1542.04 59.133 3343
1550.04 59.133 3343
1545.91 58.6731 3317
1553.84 58.6731 3317
1561.78 58.6731 3317
2028.33 63.8735 3611
2036.97 63.8735 3611
2045.6 63.8735 3611
2054.24 63.8735 3611
2067.44 64.015 3619
2093.88 64.5634 3650
2102.61 64.5634 3650
2111.34 64.5634 3650
2120.07 64.5634 3650
2128.79 64.5634 3650
2137.52 64.5634 3650
2123.32 63.8735 3611
2108.93 63.1836 3572
2117.47 63.1836 3572
2126.01 63.1836 3572
2134.55 63.1836 3572
2116.1 62.3877 3527
2102.24 61.7332 3490
2110.59 61.7332 3490
2118.93 61.7332 3490
2131.55 61.857 3497
2139.91 61.857 3497
2148.27 61.857 3497
2170.82 62.2638 3520
2179.23 62.2638 3520
2205.68 62.7768 3549
2214.16 62.7768 3549
2222.65 62.7768 3549
2226.74 62.653 3542
2225.74 62.3877 3527
2238.61 62.5115 3534
2306.19 64.1565 3627
2314.86 64.1565 3627
2338.27 64.5634 3650
2347 64.5634 3650
2355.73 64.5634 3650
2339.19 63.8735 3611
2332.87 63.4667 3588
2336.23 63.3252 3580
2344.79 63.3252 3580
2348.1 63.1836 3572
2346.74 62.9183 3557
2355.25 62.9183 3557
2373.72 63.1836 3572
2382.26 63.1836 3572
2390.8 63.1836 3572
2389.27 62.9183 3557
1956.65 50.6247 2862
1963.5 50.6247 2862
1970.34 50.6247 2862
1963.37 50.271 2842
1966.7 50.1825 2837
1967.22 50.0233 2828
1967 49.8464 2818
1973.74 49.8464 2818
1976.97 49.758 2813
1983.69 49.758 2813
1990.42 49.758 2813
1997.15 49.758 2813
2003.87 49.758 2813
2010.6 49.758 2813
2017.33 49.758 2813
2024.05 49.758 2813
2027.89 49.6872 2809
2037.51 49.758 2813
2047.87 49.8464 2818
2054.61 49.8464 2818
2061.34 49.8464 2818
2068.08 49.8464 2818
2078.5 49.9349 2823
2088.95 50.0233 2828
2098.67 50.0941 2832
2105.45 50.0941 2832
2123.41 50.3594 2847
2133.96 50.4479 2852
2144.53 50.5363 2857
2151.36 50.5363 2857
2176.32 50.9608 2881
2190.79 51.1377 2891
2209.11 51.403 2906
2216.05 51.403 2906
2223 51.403 2906
-2434.85 65.3135 3252
-2431.55 65.434 3258
-2423.76 65.434 3258
-2430.8 65.8357 3278
-2427.4 65.9562 3284
-2429.12 66.2173 3297
-2421.24 66.2173 3297
-2413.36 66.2173 3297
-2405.47 66.2173 3297
-2397.59 66.2173 3297
-2389.7 66.2173 3297
-2400.6 66.7395 3323
-2407.06 67.1411 3343
-2404.09 67.2817 3350
-2396.07 67.2817 3350
-2393.05 67.4223 3357
-2385.03 67.4223 3357
-2377 67.4223 3357
-2368.97 67.4223 3357
-2360.94 67.4223 3357
-2352.92 67.4223 3357
-2344.89 67.4223 3357
-2331.99 67.2817 3350
-2314.96 67.0206 3337
-2306.98 67.0206 3337
-2299 67.0206 3337
-2286.21 66.8801 3330
-2278.25 66.8801 3330
-2270.29 66.8801 3330
-2275.91 67.2817 3350
-2267.9 67.2817 3350
-2264.61 67.4223 3357
-2284.15 68.2458 3398
-2276.02 68.2458 3398
-2267.89 68.2458 3398
-2264.42 68.3864 3405
-2256.28 68.3864 3405
-2266.63 68.9487 3433
-2258.42 68.9487 3433
-2250.21 68.9487 3433
-2264.86 69.6517 3468
-2290.4 70.696 3520
-2281.98 70.696 3520
-2287.77 71.1379 3542
-2279.3 71.1379 3542
-2270.83 71.1379 3542
-2257.25 70.9772 3534
-2234.8 70.5354 3512
-2221.97 70.3948 3505
-2218.01 70.5354 3512
-2209.61 70.5354 3512
-2201.21 70.5354 3512
-2192.81 70.5354 3512
-2184.41 70.5354 3512
-2176.01 70.5354 3512
-2167.62 70.5354 3512
-1999.37 65.3135 3252
-2150.82 70.5354 3512
-2142.42 70.5354 3512
-2134.02 70.5354 3512
-2125.63 70.5354 3512
-2117.23 70.5354 3512
-2087.21 69.8123 3476
-2069.93 69.5111 3461
-2032.46 68.5269 3412
-2024.3 68.5269 3412
-2016.15 68.5269 3412
-2036.82 69.5111 3461
-2063.13 70.696 3520
-2054.71 70.696 3520
-2046.29 70.696 3520
-2037.88 70.696 3520
-2008.13 69.9529 3483
-1999.8 69.9529 3483
-1987.47 69.8123 3476
-1966.63 69.3705 3454
-1934.55 68.5269 3412
-1926.4 68.5269 3412
-1902.49 67.9646 3384
-1894.4 67.9646 3384
-1878.51 67.6834 3370
-1870.45 67.6834 3370
-1840.28 66.8801 3330
-1817.46 66.3378 3303
-1806.28 66.2173 3297
-1798.39 66.2173 3297
-1790.51 66.2173 3297
-1775.6 65.9562 3284
-1764.51 65.8357 3278
-1742.74 65.3135 3252
-1734.97 65.3135 3252
-1717.1 64.9319 3233
-1706.19 64.8114 3227
-1698.48 64.8114 3227
-1690.76 64.8114 3227
-1679.91 64.6909 3221
-1672.21 64.6909 3221
-1660.89 64.5503 3214
-1653.21 64.5503 3214
-1645.52 64.5503 3214
-1641.4 64.6909 3221
-1633.7 64.6909 3221
-1626 64.6909 3221
-1618.3 64.6909 3221
-1613.59 64.8114 3227
-1605.88 64.8114 3227
-1598.16 64.8114 3227
-1590.44 64.8114 3227
-1582.73 64.8114 3227
-1575.01 64.8114 3227
-1576.52 65.193 3246
-1568.76 65.193 3246
-1561 65.193 3246
-1556.11 65.3135 3252
-1548.33 65.3135 3252
-1540.55 65.3135 3252
-1529.95 65.193 3246
-1522.19 65.193 3246
-1514.42 65.193 3246
-1506.66 65.193 3246
-1498.9 65.193 3246
-1491.14 65.193 3246
-1483.38 65.193 3246
-1475.61 65.193 3246
-1473.28 65.434 3258
-1468.64 65.5746 3265
-1469.33 65.9562 3284
-1461.48 65.9562 3284
-1453.62 65.9562 3284
-1448.41 66.0767 3290
-1440.54 66.0767 3290
-1432.68 66.0767 3290
-1419.61 65.8357 3278
-1408.76 65.6951 3271
-1398.37 65.5746 3265
-1390.56 65.5746 3265
-1382.75 65.5746 3265
-1374.94 65.5746 3265
-1367.14 65.5746 3265
-1364.74 65.8357 3278
-1356.9 65.8357 3278
-1349.06 65.8357 3278
-1359.64 66.7395 3323
-1351.69 66.7395 3323
-1343.74 66.7395 3323
-722.866 36.3321 1809
-720.129 36.4125 1813
-715.794 36.4125 1813
-711.458 36.4125 1813
-706.343 36.3723 1811
-702.012 36.3723 1811
-697.681 36.3723 1811
-693.351 36.3723 1811
-689.02 36.3723 1811
-683.933 36.3321 1809
-679.607 36.3321 1809
-674.535 36.292 1807
-669.472 36.2518 1805
-664.787 36.2317 1804
-660.473 36.2317 1804
-655.432 36.1915 1802
-649.677 36.1112 1798
-645.378 36.1112 1798
-641.078 36.1112 1798
-636.07 36.071 1796
-631.072 36.0309 1794
-625.385 35.9505 1790
-621.104 35.9505 1790
-616.135 35.9104 1788
-609.121 35.7497 1780
-603.845 35.6894 1777
-594.872 35.4083 1763
-590.656 35.4083 1763
-586.108 35.3882 1762
-578.592 35.1873 1752
-571.452 35.0066 1743
-567.284 35.0066 1743
-560.854 34.866 1736
-555.099 34.7656 1731
-549.05 34.6451 1725
-544.925 34.6451 1725
-539.86 34.5848 1722
-534.497 34.5045 1718
-529.463 34.4442 1715
-525.362 34.4442 1715
-520.045 34.3639 1711
-515.049 34.3036 1708
-510.366 34.2635 1706
-506.287 34.2635 1706
-501.618 34.2233 1704
-496.96 34.1831 1702
-492.89 34.1831 1702
-488.532 34.1631 1701
-484.465 34.1631 1701
-479.832 34.1229 1699
-475.209 34.0827 1697
-471.151 34.0827 1697
-467.093 34.0827 1697
-462.49 34.0425 1695
-458.436 34.0425 1695
-454.115 34.0225 1694
-450.064 34.0225 1694
-446.013 34.0225 1694
-441.962 34.0225 1694
-437.395 33.9823 1692
-433.348 33.9823 1692
-428.795 33.9421 1690
-424.502 33.922 1689
-420.463 33.922 1689
-416.424 33.922 1689
-412.386 33.922 1689
-407.863 33.8819 1687
-403.35 33.8417 1685
-399.321 33.8417 1685
-394.822 33.8015 1683
-390.566 33.7815 1682
-385.624 33.7011 1678
-381.612 33.7011 1678
-377.374 33.681 1677
-372.473 33.6007 1673
-368.472 33.6007 1673
-364.472 33.6007 1673
-359.825 33.5404 1670
-355.405 33.5003 1668
-351.416 33.5003 1668
-347.219 33.4802 1667
-343.233 33.4802 1667
-339.247 33.4802 1667
-335.261 33.4802 1667
-330.877 33.44 1665
-326.895 33.44 1665
-322.526 33.3999 1663
-317.975 33.3396 1660
-314.005 33.3396 1660
-310.596 33.3999 1663
-306.619 33.3999 1663
-303.006 33.44 1665
-299.384 33.4802 1667
-295.929 33.5404 1670
-291.936 33.5404 1670
-288.287 33.5806 1672
-284.799 33.6409 1675
-281.129 33.681 1677
-277.118 33.681 1677
-273.923 33.7815 1682
-270.061 33.8015 1683
-266.352 33.8417 1685
-262.323 33.8417 1685
-258.294 33.8417 1685
-254.566 33.8819 1687
-250.978 33.9421 1690
-246.936 33.9421 1690
-243.182 33.9823 1692
-239.419 34.0225 1694
-235.368 34.0225 1694
-231.317 34.0225 1694
-227.401 34.0425 1695
-223.611 34.0827 1697
-219.812 34.1229 1699
-215.749 34.1229 1699
-211.686 34.1229 1699
-207.868 34.1631 1701
-203.8 34.1631 1701
-199.732 34.1631 1701
-195.665 34.1631 1701
-191.935 34.2233 1704
-188.081 34.2635 1706
-184.325 34.3237 1709
-180.238 34.3237 1709
-176.357 34.3639 1711
-172.669 34.4442 1715
-168.666 34.4643 1716
-164.562 34.4643 1716
-160.646 34.5045 1718
-156.72 34.5447 1720
-152.873 34.6049 1723
-148.753 34.6049 1723
-144.8 34.6451 1725
-141.002 34.7254 1729
-137.025 34.7656 1731
-132.886 34.7656 1731
-128.821 34.7857 1732
-124.823 34.8258 1734
-120.816 34.866 1736
-116.665 34.866 1736
-112.967 35.0066 1743
-108.924 35.0468 1745
-104.871 35.0869 1747
-100.693 35.0869 1747
-96.5159 35.0869 1747
-92.444 35.1271 1749
-88.2616 35.1271 1749
-84.0792 35.1271 1749
-79.9882 35.1673 1751
-75.801 35.1673 1751
-71.6547 35.1873 1752
-67.4652 35.1873 1752
-63.2756 35.1873 1752
-59.2209 35.2677 1756
-55.0218 35.2677 1756
-50.8227 35.2677 1756
-46.6767 35.3078 1758
-42.4727 35.3078 1758
-38.2688 35.3078 1758
-34.0649 35.3078 1758
-29.895 35.348 1760
-25.6863 35.348 1760
-21.502 35.3882 1762
-17.2885 35.3882 1762
-13.075 35.3882 1762
-8.86157 35.3882 1762
15.2272 67.4223 3357
23.2548 67.4223 3357
31.2824 67.4223 3357
39.31 67.4223 3357
47.3376 67.4223 3357
55.3652 67.4223 3357
63.3928 67.4223 3357
72.4416 68.3864 3405
80.7496 68.5269 3412
88.9088 68.5269 3412
97.0679 68.5269 3412
104.579 68.1052 3391
112.456 67.9646 3384
121.047 68.2458 3398
129.172 68.2458 3398
137.581 68.3864 3405
145.723 68.3864 3405
153.865 68.3864 3405
160.676 67.824 3377
171.899 69.0893 3440
181.225 69.5111 3461
192.294 70.5354 3512
200.692 70.5354 3512
210.4 70.9772 3534
220.771 71.5998 3565
229.296 71.5998 3565
237.821 71.5998 3565
245.793 71.4391 3557
255.371 71.7404 3572
264.504 71.9011 3580
273.065 71.9011 3580
281.625 71.9011 3580
290.835 72.0617 3588
301.334 72.5237 3611
309.969 72.5237 3611
320.722 73.0057 3635
329.414 73.0057 3635
338.106 73.0057 3635
346.799 73.0057 3635
355.491 73.0057 3635
360.978 72.363 3603
369.593 72.363 3603
377.37 72.2023 3595
385.215 72.0617 3588
391.27 71.5998 3565
399.795 71.5998 3565
407.404 71.4391 3557
414.156 71.1379 3542
420.836 70.8366 3527
429.27 70.8366 3527
437.705 70.8366 3527
446.139 70.8366 3527
452.64 70.5354 3512
459.069 70.2341 3497
467.431 70.2341 3497
475.793 70.2341 3497
483.187 70.0935 3490
491.532 70.0935 3490
499.878 70.0935 3490
505.02 69.6517 3468
509.169 69.0893 3440
515.289 68.8081 3426
523.482 68.8081 3426
531.674 68.8081 3426
537.661 68.5269 3412
548.059 68.8081 3426
556.252 68.8081 3426
570.211 69.5111 3461
578.487 69.5111 3461
586.764 69.5111 3461
595.04 69.5111 3461
604.536 69.6517 3468
612.829 69.6517 3468
622.555 69.8123 3476
633.408 70.0935 3490
641.754 70.0935 3490
650.1 70.0935 3490
658.445 70.0935 3490
668.128 70.2341 3497
679.393 70.5354 3512
687.791 70.5354 3512
697.775 70.696 3520
706.192 70.696 3520
714.61 70.696 3520
723.027 70.696 3520
731.444 70.696 3520
739.862 70.696 3520
748.279 70.696 3520
756.697 70.696 3520
765.114 70.696 3520
775.07 70.8366 3527
783.504 70.8366 3527
791.938 70.8366 3527
800.372 70.8366 3527
807.201 70.696 3520
815.618 70.696 3520
824.036 70.696 3520
830.561 70.5354 3512
838.959 70.5354 3512
845.669 70.3948 3505
854.05 70.3948 3505
862.432 70.3948 3505
865.347 69.9529 3483
875.432 70.0935 3490
889.349 70.5354 3512
897.747 70.5354 3512
913.886 71.1379 3542
922.356 71.1379 3542
936.87 71.5998 3565
945.395 71.5998 3565
953.92 71.5998 3565
956.236 71.1379 3542
964.706 71.1379 3542
973.176 71.1379 3542
971.391 70.3948 3505
973.623 69.9529 3483
992.383 70.696 3520
1000.8 70.696 3520
1009.22 70.696 3520
1017.64 70.696 3520
1023.72 70.5354 3512
1032.12 70.5354 3512
1040.52 70.5354 3512
1104.77 74.2911 3699
1118.73 74.6325 3716
1132.47 74.9539 3732
1141.4 74.9539 3732
1150.32 74.9539 3732
1159.24 74.9539 3732
1168.17 74.9539 3732
1177.09 74.9539 3732
1180.93 74.6325 3716
1176.69 73.8091 3675
1185.48 73.8091 3675
1194.27 73.8091 3675
1203.05 73.8091 3675
1211.84 73.8091 3675
1220.63 73.8091 3675
1223.73 73.4676 3658
1229.78 73.307 3650
1227.99 72.6844 3619
1236.65 72.6844 3619
1242.55 72.5237 3611
1251.18 72.5237 3611
1262.61 72.6844 3619
1271.26 72.6844 3619
1279.92 72.6844 3619
1280.03 72.2023 3595
1291.49 72.363 3603
1302.99 72.5237 3611
1311.63 72.5237 3611
1320.26 72.5237 3611
1328.9 72.5237 3611
1340.5 72.6844 3619
1352.13 72.845 3627
1360.81 72.845 3627
1372.5 73.0057 3635
1381.19 73.0057 3635
1389.89 73.0057 3635
1395.5 72.845 3627
1404.17 72.845 3627
1428.43 73.6484 3667
1446.6 74.1304 3691
1455.43 74.1304 3691
1467.43 74.2911 3699
1476.27 74.2911 3699
1485.12 74.2911 3699
1484.27 73.8091 3675
1482.9 73.307 3650
1482.23 72.845 3627
1474.87 72.0617 3588
1483.45 72.0617 3588
1485.38 71.7404 3572
1493.92 71.7404 3572
1502.46 71.7404 3572
1511.01 71.7404 3572
1509.76 71.2785 3549
1508.84 70.8366 3527
1495.33 69.8123 3476
1503.65 69.8123 3476
1505.43 69.5111 3461
1513.71 69.5111 3461
1518.91 69.3705 3454
1520.98 69.0893 3440
1529.2 69.0893 3440
1537.43 69.0893 3440
1545.66 69.0893 3440
1541.23 68.5269 3412
1549.39 68.5269 3412
1544.77 67.9646 3384
1549.65 67.824 3377
1548.5 67.4223 3357
1556.53 67.4223 3357
1564.55 67.4223 3357
1563.21 67.0206 3337
1561.78 66.619 3317
1989.67 72.0617 3588
1998.25 72.0617 3588
2006.83 72.0617 3588
2028.33 72.5237 3611
2036.97 72.5237 3611
2045.6 72.5237 3611
2054.24 72.5237 3611
2067.44 72.6844 3619
2093.88 73.307 3650
2102.61 73.307 3650
2111.34 73.307 3650
2120.07 73.307 3650
2128.79 73.307 3650
2137.52 73.307 3650
2123.32 72.5237 3611
2108.93 71.7404 3572
2117.47 71.7404 3572
2126.01 71.7404 3572
2134.55 71.7404 3572
2116.1 70.8366 3527
2102.24 70.0935 3490
2110.59 70.0935 3490
2118.93 70.0935 3490
2131.55 70.2341 3497
2139.91 70.2341 3497
2153.19 70.3948 3505
2170.82 70.696 3520
2179.23 70.696 3520
2205.68 71.2785 3549
2214.16 71.2785 3549
2222.65 71.2785 3549
2226.74 71.1379 3542
2225.74 70.8366 3527
2243.68 71.1379 3542
2306.19 72.845 3627
2314.86 72.845 3627
2338.27 73.307 3650
2347 73.307 3650
2355.73 73.307 3650
2339.19 72.5237 3611
2332.87 72.0617 3588
2336.23 71.9011 3580
2344.79 71.9011 3580
2353.35 71.9011 3580
2356.64 71.7404 3572
2365.18 71.7404 3572
2373.72 71.7404 3572
2382.26 71.7404 3572
2390.8 71.7404 3572
2399.35 71.7404 3572
2387.67 71.1379 3542
2396.14 71.1379 3542
2389.67 70.696 3520
1956.65 57.4807 2862
1966.24 57.561 2866
1973.09 57.561 2866
1979.95 57.561 2866
1984.03 57.4807 2862
1973.48 56.9786 2837
1973.98 56.7978 2828
1980.75 56.7978 2828
1980.48 56.597 2818
1983.69 56.4966 2813
1990.42 56.4966 2813
1997.15 56.4966 2813
2003.87 56.4966 2813
2010.6 56.4966 2813
2017.33 56.4966 2813
2024.05 56.4966 2813
2027.89 56.4162 2809
2037.51 56.4966 2813
2047.87 56.597 2818
2054.61 56.597 2818
2061.34 56.597 2818
2068.08 56.597 2818
2078.5 56.6974 2823
2088.95 56.7978 2828
2098.67 56.8782 2832
2105.45 56.8782 2832
2123.41 57.1794 2847
2133.96 57.2799 2852
2144.53 57.3803 2857
2151.36 57.3803 2857
2176.32 57.8623 2881
2190.79 58.0631 2891
2209.11 58.3644 2906
2216.05 58.3644 2906
2223 58.3644 2906
-2430.36 72.9688 3246
-2427.08 73.1037 3252
-2419.3 73.1037 3252
-2415.97 73.2386 3258
-2422.96 73.6882 3278
-2423.97 73.9579 3290
-2416.1 73.9579 3290
-2408.23 73.9579 3290
-2400.36 73.9579 3290
-2397.59 74.1153 3297
-2389.7 74.1153 3297
-2391.21 74.4075 3310
-2392.66 74.6997 3323
-2394.76 75.0145 3337
-2386.78 75.0145 3337
-2378.8 75.0145 3337
-2385.03 75.464 3357
-2377 75.464 3357
-2368.97 75.464 3357
-2360.94 75.464 3357
-2348.01 75.3067 3350
-2340 75.3067 3350
-2322.94 75.0145 3337
-2310.1 74.8571 3330
-2283.47 74.2501 3303
-2275.58 74.2501 3303
-2267.68 74.2501 3303
-2255.67 74.1153 3297
-2247.79 74.1153 3297
-2257.57 74.6997 3323
-2249.62 74.6997 3323
-2241.68 74.6997 3323
-2256.58 75.464 3357
-2257.26 75.7563 3370
-2249.21 75.7563 3370
-2241.15 75.7563 3370
-2233.09 75.7563 3370
-2225.03 75.7563 3370
-2212.37 75.5989 3363
-2187.28 75.0145 3337
-2210 76.071 3384
-2224.68 76.8578 3419
-2216.5 76.8578 3419
-2212.85 77.0151 3426
-2204.66 77.0151 3426
-2196.46 77.0151 3426
-2183.8 76.8578 3419
-2148.9 75.9136 3377
-2136.38 75.7563 3370
-2128.33 75.7563 3370
-2107.68 75.3067 3350
-2099.67 75.3067 3350
-2091.66 75.3067 3350
-2083.65 75.3067 3350
-2050.86 74.4075 3310
-2042.94 74.4075 3310
-1999.37 73.1037 3252
-2007.51 73.6882 3278
-1999.67 73.6882 3278
-1999.13 73.9579 3290
-2003.37 74.4075 3310
-1995.45 74.4075 3310
-1987.54 74.4075 3310
-1967.66 73.9579 3290
-1956.22 73.823 3284
-1967.94 74.5649 3317
-1960.01 74.5649 3317
-2032.7 77.6446 3454
-2028.55 77.8019 3461
-2020.27 77.8019 3461
-2011.99 77.8019 3461
-2003.72 77.8019 3461
-1995.44 77.8019 3461
-1987.17 77.8019 3461
-1974.89 77.6446 3454
-1962.64 77.4872 3447
-1895.43 75.1493 3343
-1891.39 75.3067 3350
-1883.38 75.3067 3350
-1875.37 75.3067 3350
-1863.46 75.1493 3343
-1855.46 75.1493 3343
-1818.18 73.9579 3290
-1803.71 73.6882 3278
-1795.87 73.6882 3278
-1788.03 73.6882 3278
-1780.19 73.6882 3278
-1772.35 73.6882 3278
-1757.52 73.3959 3265
-1735.78 72.8114 3239
-1728.03 72.8114 3239
-1713.91 72.5417 3227
-1703.02 72.4068 3221
-1695.32 72.4068 3221
-1687.62 72.4068 3221
-1679.91 72.4068 3221
-1672.21 72.4068 3221
-1657.79 72.1146 3208
-1653.21 72.2495 3214
-1645.52 72.2495 3214
-1637.84 72.2495 3214
-1633.7 72.4068 3221
-1629.03 72.5417 3227
-1621.31 72.5417 3227
-1616.59 72.6766 3233
-1608.86 72.6766 3233
-1601.13 72.6766 3233
-1593.4 72.6766 3233
-1579.78 72.4068 3221
-1572.08 72.4068 3221
-1567.29 72.5417 3227
-1559.58 72.5417 3227
-1554.75 72.6766 3233
-1549.89 72.8114 3239
-1542.14 72.8114 3239
-1534.39 72.8114 3239
-1526.65 72.8114 3239
-1518.9 72.8114 3239
-1511.16 72.8114 3239
-1503.41 72.8114 3239
-1495.67 72.8114 3239
-1487.92 72.8114 3239
-1480.18 72.8114 3239
-1469.7 72.6766 3233
-1464.69 72.8114 3239
-1460.09 72.9688 3246
-1460.83 73.3959 3265
-1453.02 73.3959 3265
-1445.21 73.3959 3265
-1440.05 73.5308 3271
-1432.22 73.5308 3271
-1424.4 73.5308 3271
-1413.98 73.3959 3265
-1406.17 73.3959 3265
-1395.37 73.2386 3258
-1387.58 73.2386 3258
-1379.79 73.2386 3258
-1372 73.2386 3258
-1364.21 73.2386 3258
-1359.33 73.3959 3265
-1351.52 73.3959 3265
-1349.06 73.6882 3278
-1359.64 74.6997 3323
-1351.69 74.6997 3323
-1343.74 74.6997 3323
-727.192 40.6656 1809
-722.866 40.6656 1809
-720.129 40.7555 1813
-715.794 40.7555 1813
-711.458 40.7555 1813
-706.343 40.7106 1811
-702.012 40.7106 1811
-697.681 40.7106 1811
-692.585 40.6656 1809
-688.259 40.6656 1809
-683.933 40.6656 1809
-679.607 40.6656 1809
-674.535 40.6207 1807
-669.472 40.5757 1805
-664.05 40.5083 1802
-659.741 40.5083 1802
-654.705 40.4633 1800
-649.677 40.4183 1798
-644.66 40.3734 1796
-640.365 40.3734 1796
-636.07 40.3734 1796
-631.072 40.3284 1794
-625.385 40.2385 1790
-621.104 40.2385 1790
-616.135 40.1935 1788
-609.121 40.0137 1780
-603.845 39.9463 1777
-594.872 39.6315 1763
-590.656 39.6315 1763
-586.108 39.6091 1762
-578.592 39.3843 1752
-571.452 39.182 1743
-567.284 39.182 1743
-560.854 39.0246 1736
-555.099 38.9122 1731
-549.05 38.7773 1725
-544.925 38.7773 1725
-539.86 38.7099 1722
-534.497 38.62 1718
-529.463 38.5525 1715
-525.362 38.5525 1715
-520.045 38.4626 1711
-515.35 38.4176 1709
-510.965 38.3952 1708
-506.88 38.3952 1708
-502.207 38.3502 1706
-497.544 38.3053 1704
-492.89 38.2603 1702
-488.532 38.2378 1701
-484.465 38.2378 1701
-480.397 38.2378 1701
-475.209 38.1479 1697
-471.151 38.1479 1697
-467.093 38.1479 1697
-463.035 38.1479 1697
-458.436 38.1029 1695
-454.115 38.0805 1694
-450.064 38.0805 1694
-446.013 38.0805 1694
-441.962 38.0805 1694
-437.395 38.0355 1692
-433.348 38.0355 1692
-428.795 37.9905 1690
-424.502 37.9681 1689
-420.463 37.9681 1689
-416.424 37.9681 1689
-412.386 37.9681 1689
-407.863 37.9231 1687
-403.35 37.8781 1685
-399.321 37.8781 1685
-394.588 37.8107 1682
-390.566 37.8107 1682
-385.624 37.7208 1678
-381.612 37.7208 1678
-377.374 37.6983 1677
-372.473 37.6084 1673
-368.252 37.5859 1672
-364.254 37.5859 1672
-359.825 37.5409 1670
-355.405 37.496 1668
-351.206 37.4735 1667
-347.219 37.4735 1667
-343.233 37.4735 1667
-339.247 37.4735 1667
-335.261 37.4735 1667
-330.479 37.3836 1663
-326.503 37.3836 1663
-322.332 37.3611 1662
-317.975 37.3161 1660
-314.005 37.3161 1660
-310.409 37.3611 1662
-306.435 37.3611 1662
-303.006 37.4285 1665
-299.384 37.4735 1667
-295.929 37.5409 1670
-291.936 37.5409 1670
-288.287 37.5859 1672
-284.799 37.6533 1675
-281.129 37.6983 1677
-277.118 37.6983 1677
-273.923 37.8107 1682
-270.061 37.8332 1683
-266.352 37.8781 1685
-262.323 37.8781 1685
-258.294 37.8781 1685
-254.566 37.9231 1687
-250.978 37.9905 1690
-246.936 37.9905 1690
-243.182 38.0355 1692
-239.419 38.0805 1694
-235.368 38.0805 1694
-231.317 38.0805 1694
-227.401 38.1029 1695
-223.611 38.1479 1697
-219.812 38.1929 1699
-215.749 38.1929 1699
-211.686 38.1929 1699
-207.868 38.2378 1701
-203.8 38.2378 1701
-199.732 38.2378 1701
-195.665 38.2378 1701
-191.935 38.3053 1704
-188.081 38.3502 1706
-184.217 38.3952 1708
-180.133 38.3952 1708
-176.357 38.4626 1711
-172.669 38.5525 1715
-168.666 38.575 1716
-164.562 38.575 1716
-160.459 38.575 1716
-156.72 38.6649 1720
-152.873 38.7324 1723
-148.753 38.7324 1723
-144.633 38.7324 1723
-140.675 38.7773 1725
-136.867 38.8672 1729
-132.732 38.8672 1729
-128.747 38.9122 1731
-124.679 38.9347 1732
-120.677 38.9796 1734
-116.53 38.9796 1734
-112.837 39.137 1741
-108.799 39.182 1743
