ply
format ascii 1.0
comment File generated
element vertex 2148
property float x
property float y
property float z
end_header
-412.497 -169.158 1657
-408.535 -169.158 1657
-404.084 -168.954 1655
-400.126 -168.954 1655
-395.69 -168.75 1653
-391.737 -168.75 1653
-387.784 -168.75 1653
-383.599 -168.647 1652
-379.649 -168.647 1652
-375.244 -168.443 1650
-371.298 -168.443 1650
-366.239 -167.933 1645
-362.085 -167.831 1644
-356.629 -167.116 1637
-352.714 -167.116 1637
-347.735 -166.606 1632
-342.146 -165.789 1624
-337.43 -165.381 1620
-333.556 -165.381 1620
-328.054 -164.564 1612
-322.992 -163.951 1606
-318.556 -163.645 1603
-314.723 -163.645 1603
-309.532 -162.931 1596
-304.566 -162.318 1590
-300.196 -162.012 1587
-296.401 -162.012 1587
-291.869 -161.603 1583
-287.719 -161.399 1581
-283.22 -160.991 1577
-279.095 -160.787 1575
-275.329 -160.787 1575
-271.045 -160.481 1572
-267.286 -160.481 1572
-263.024 -160.174 1569
-259.272 -160.174 1569
-255.357 -160.072 1568
-252.089 -160.378 1571
-248.49 -160.481 1572
-245.198 -160.787 1575
-241.432 -160.787 1575
-237.967 -160.991 1577
-234.345 -161.093 1578
-231.01 -161.399 1581
-227.229 -161.399 1581
-223.872 -161.706 1584
-220.362 -161.91 1586
-217.526 -162.624 1593
-213.716 -162.624 1593
-210.302 -162.931 1596
-207.391 -163.645 1603
-204.066 -164.054 1607
-200.223 -164.054 1607
-196.991 -164.564 1612
-194.095 -165.381 1620
-191.161 -166.197 1628
-187.268 -166.197 1628
-184.276 -167.014 1636
-181.576 -168.137 1647
-178.824 -169.26 1658
-174.859 -169.26 1658
-171.822 -170.179 1667
-169.145 -171.506 1680
-166.307 -172.731 1692
-162.261 -172.731 1692
-158.495 -173.037 1695
-154.442 -173.037 1695
-150.744 -173.446 1699
-146.681 -173.446 1699
-142.618 -173.446 1699
-138.718 -173.65 1701
-135.205 -174.364 1708
-131.12 -174.364 1708
-127.036 -174.364 1708
-123.312 -174.875 1713
-119.702 -175.589 1720
-115.589 -175.589 1720
-112.189 -176.712 1731
-108.112 -176.814 1732
-103.971 -176.814 1732
-99.8289 -176.814 1732
-181.042 -384.459 3766
-172.036 -384.459 3766
-163.031 -384.459 3766
-153.33 -382.724 3749
-144.365 -382.724 3749
-135.4 -382.724 3749
-126.435 -382.724 3749
-117.72 -383.54 3757
-108.736 -383.54 3757
-99.7521 -383.54 3757
-90.768 -383.54 3757
-81.4138 -381.805 3740
-72.4703 -381.805 3740
-63.6797 -382.724 3749
-54.7147 -382.724 3749
-45.7497 -382.724 3749
-36.7847 -382.724 3749
-27.8197 -382.724 3749
-18.8547 -382.724 3749
-9.88973 -382.724 3749
-0.924734 -382.724 3749
8.0038 -380.988 3732
16.9281 -380.988 3732
25.8525 -380.988 3732
34.7768 -380.988 3732
43.7012 -380.988 3732
52.6255 -380.988 3732
61.4179 -380.171 3724
70.3231 -380.171 3724
79.0581 -379.355 3716
87.9442 -379.355 3716
96.8303 -379.355 3716
105.716 -379.355 3716
114.325 -378.436 3707
123.189 -378.436 3707
131.769 -377.619 3699
140.614 -377.619 3699
148.813 -375.986 3683
157.621 -375.986 3683
166.066 -375.169 3675
174.854 -375.169 3675
183.642 -375.169 3675
192.43 -375.169 3675
200.78 -374.352 3667
209.549 -374.352 3667
218.318 -374.352 3667
227.087 -374.352 3667
235.856 -374.352 3667
244.025 -373.434 3658
252.772 -373.434 3658
261.519 -373.434 3658
270.267 -373.434 3658
278.404 -372.617 3650
287.132 -372.617 3650
295.86 -372.617 3650
304.589 -372.617 3650
313.317 -372.617 3650
322.045 -372.617 3650
330.773 -372.617 3650
339.502 -372.617 3650
347.467 -371.8 3642
356.176 -371.8 3642
364.184 -371.086 3635
372.876 -371.086 3635
381.568 -371.086 3635
389.402 -370.269 3627
397.197 -369.452 3619
405.851 -369.452 3619
413.589 -368.636 3611
421.289 -367.819 3603
429.905 -367.819 3603
439.494 -368.636 3611
448.129 -368.636 3611
456.764 -368.636 3611
465.399 -368.636 3611
472.984 -367.819 3603
481.6 -367.819 3603
489.127 -367.002 3595
496.755 -366.288 3588
506.321 -367.002 3595
518.355 -369.452 3619
527.009 -369.452 3619
535.663 -369.452 3619
1231.02 -417.433 4089
1240.8 -417.433 4089
1250.58 -417.433 4089
1260.36 -417.433 4089
1270.14 -417.433 4089
1270.52 -414.371 4059
1267.93 -410.389 4020
1271.5 -408.449 4001
1281.07 -408.449 4001
1287.41 -407.429 3991
1294.03 -406.51 3982
1306.5 -407.429 3991
1319.34 -408.449 4001
1328.91 -408.449 4001
1338.48 -408.449 4001
1344.68 -407.429 3991
1344.72 -404.57 3963
1354.2 -404.57 3963
1360.23 -403.549 3953
1347.51 -397.016 3889
1337.97 -391.503 3835
1347.14 -391.503 3835
1356.31 -391.503 3835
1365.48 -391.503 3835
1374.65 -391.503 3835
1383.82 -391.503 3835
1392.99 -391.503 3835
1402.16 -391.503 3835
1411.33 -391.503 3835
1423.84 -392.422 3844
1436.39 -393.341 3853
1445.6 -393.341 3853
1468.41 -397.016 3889
1477.71 -397.016 3889
1487.01 -397.016 3889
1496.3 -397.016 3889
1523.41 -401.712 3935
1539.83 -403.549 3953
1556.73 -405.489 3972
1566.23 -405.489 3972
1575.73 -405.489 3972
1717.01 -414.371 4059
1726.72 -414.371 4059
1736.43 -414.371 4059
1746.13 -414.371 4059
1755.84 -414.371 4059
1765.55 -414.371 4059
1770.88 -413.35 4049
1755.05 -407.429 3991
1764.6 -407.429 3991
1765.7 -405.489 3972
1752.63 -396.097 3880
1761.91 -396.097 3880
1783.52 -398.853 3907
1796.99 -399.772 3916
1806.35 -399.772 3916
1815.72 -399.772 3916
1825.08 -399.772 3916
2280.14 -394.259 3862
2337.99 -402.631 3944
2347.42 -402.631 3944
2379.56 -406.51 3982
2394.48 -407.429 3991
2404.03 -407.429 3991
2413.57 -407.429 3991
2423.11 -407.429 3991
2427.17 -406.51 3982
2407.93 -401.712 3935
2417.34 -401.712 3935
2415.03 -399.772 3916
2418.83 -398.853 3907
2451.17 -402.631 3944
2460.6 -402.631 3944
2470.03 -402.631 3944
2467.51 -400.691 3925
2471.22 -399.772 3916
2480.58 -399.772 3916
2489.95 -399.772 3916
2493.57 -398.853 3907
2497.15 -397.935 3898
2506.47 -397.935 3898
2521.6 -398.853 3907
2530.94 -398.853 3907
2540.28 -398.853 3907
2549.63 -398.853 3907
2558.97 -398.853 3907
2544.65 -395.178 3871
2565.78 -397.016 3889
2581.04 -397.935 3898
2590.36 -397.935 3898
2599.68 -397.935 3898
2602.98 -397.016 3889
2594.14 -394.259 3862
2603.38 -394.259 3862
2570.67 -387.93 3800
2574.33 -387.113 3792
2554.1 -382.724 3749
2551.44 -380.988 3732
2560.37 -380.988 3732
2558.28 -379.355 3716
2567.16 -379.355 3716
2587.14 -380.988 3732
2596.06 -380.988 3732
2604.99 -380.988 3732
2613.91 -380.988 3732
2611.59 -379.355 3716
2620.48 -379.355 3716
2629.36 -379.355 3716
2638.25 -379.355 3716
2647.14 -379.355 3716
2667.46 -380.988 3732
2688.57 -382.724 3749
2697.54 -382.724 3749
2712.28 -383.54 3757
2733.58 -385.276 3774
2768.04 -388.849 3809
2777.14 -388.849 3809
2805.27 -391.503 3835
2887.83 -401.712 3935
2981.18 -413.35 4049
2990.86 -413.35 4049
3015.36 -415.391 4069
3025.09 -415.391 4069
3034.82 -415.391 4069
3037.07 -414.371 4059
3046.78 -414.371 4059
3064.01 -415.391 4069
3073.74 -415.391 4069
3083.47 -415.391 4069
3093.2 -415.391 4069
3102.93 -415.391 4069
3112.66 -415.391 4069
-2424.44 -331.274 3323
-2431.04 -333.268 3343
-2423.04 -333.268 3343
-2415.05 -333.268 3343
-2388.34 -330.676 3317
-2389.73 -331.972 3330
-2381.77 -331.972 3330
-2402.32 -335.96 3370
-2414.16 -338.751 3398
-2406.03 -338.751 3398
-2397.9 -338.751 3398
-2389.78 -338.751 3398
-2376.75 -338.053 3391
-2368.64 -338.053 3391
-2336.86 -334.664 3357
-2301.08 -330.676 3317
-2378.19 -342.938 3440
-2369.96 -342.938 3440
-2361.73 -342.938 3440
-2358.3 -343.636 3447
-2354.83 -344.334 3454
-2371.02 -347.923 3490
-2362.68 -347.923 3490
-2369.17 -350.116 3512
-2370.86 -351.611 3527
-2372.47 -353.107 3542
-2364 -353.107 3542
-2375.48 -356.097 3572
-2398.09 -360.783 3619
-2394.71 -361.581 3627
-2395.91 -363.076 3642
-2387.2 -363.076 3642
-2383.71 -363.873 3650
-2380.19 -364.671 3658
-2392.84 -367.961 3691
-2421.47 -373.743 3749
-2412.51 -373.743 3749
-2403.54 -373.743 3749
-2394.58 -373.743 3749
-2385.61 -373.743 3749
-2376.65 -373.743 3749
-2310.21 -364.671 3658
-2301.47 -364.671 3658
-2292.72 -364.671 3658
-1288.12 -331.274 3323
-1280.17 -331.274 3323
-1272.23 -331.274 3323
-1259.34 -329.978 3310
-1251.42 -329.978 3310
-1243.5 -329.978 3310
-1228.12 -327.985 3290
-1208.39 -324.794 3258
-1200.6 -324.794 3258
-1190.61 -324.196 3252
-1180.65 -323.598 3246
-1170.36 -322.9 3239
-1162.61 -322.9 3239
-1154.87 -322.9 3239
-1147.12 -322.9 3239
-1135.16 -321.704 3227
-1127.44 -321.704 3227
-1115.21 -320.408 3214
-1103.39 -319.212 3202
-1091.63 -318.015 3190
-1084 -318.015 3190
-1076.37 -318.015 3190
-1068.74 -318.015 3190
-1061.11 -318.015 3190
-1053.49 -318.015 3190
-1045.86 -318.015 3190
-1030.42 -315.623 3166
-1018.97 -314.426 3154
-1011.43 -314.426 3154
-1005.8 -315.025 3160
-998.24 -315.025 3160
-990.683 -315.025 3160
-538.542 -172.566 1731
-534.403 -172.566 1731
-530.263 -172.566 1731
-525.516 -172.366 1729
-517.461 -171.07 1716
-512.46 -170.771 1713
-508.364 -170.771 1713
-502.796 -170.273 1708
-494.04 -168.678 1692
-489.125 -168.379 1689
-483.076 -167.681 1682
-479.053 -167.681 1682
-471.642 -166.485 1670
-468.209 -166.684 1672
-464.21 -166.684 1672
-460.212 -166.684 1672
-456.214 -166.684 1672
-451.675 -166.485 1670
-447.681 -166.485 1670
-443.688 -166.485 1670
-439.168 -166.285 1668
-434.396 -165.986 1665
-430.415 -165.986 1665
-426.433 -165.986 1665
-422.452 -165.986 1665
-416.46 -165.189 1657
-412.497 -165.189 1657
-408.535 -165.189 1657
-404.084 -164.989 1655
-400.126 -164.989 1655
-395.69 -164.79 1653
-391.737 -164.79 1653
-387.784 -164.79 1653
-383.599 -164.69 1652
-379.649 -164.69 1652
-375.244 -164.491 1650
-371.298 -164.491 1650
-366.239 -163.992 1645
-362.085 -163.893 1644
-356.629 -163.195 1637
-352.714 -163.195 1637
-347.735 -162.696 1632
-342.146 -161.899 1624
-337.43 -161.5 1620
-333.556 -161.5 1620
-328.054 -160.702 1612
-322.992 -160.104 1606
-318.556 -159.805 1603
-314.723 -159.805 1603
-309.532 -159.107 1596
-304.566 -158.509 1590
-300.196 -158.21 1587
-296.401 -158.21 1587
-291.869 -157.811 1583
-287.719 -157.612 1581
-283.22 -157.213 1577
-279.095 -157.014 1575
-275.329 -157.014 1575
-271.045 -156.715 1572
-267.286 -156.715 1572
-263.024 -156.416 1569
-259.272 -156.416 1569
-255.357 -156.316 1568
-252.089 -156.615 1571
-248.49 -156.715 1572
-245.198 -157.014 1575
-241.432 -157.014 1575
-237.967 -157.213 1577
-234.345 -157.313 1578
-231.302 -157.811 1583
-227.516 -157.811 1583
-223.872 -157.911 1584
-220.362 -158.11 1586
-217.799 -159.008 1595
-213.985 -159.008 1595
-210.566 -159.307 1598
-207.521 -159.905 1604
-204.066 -160.204 1607
-200.223 -160.204 1607
-197.114 -160.802 1613
-194.215 -161.6 1621
-191.278 -162.397 1629
-187.383 -162.397 1629
-184.388 -163.195 1637
-181.576 -164.192 1647
-178.824 -165.288 1658
-174.859 -165.288 1658
-171.822 -166.185 1667
-169.346 -167.681 1682
-166.307 -168.678 1692
-162.261 -168.678 1692
-158.495 -168.977 1695
-154.442 -168.977 1695
-150.744 -169.376 1699
-146.681 -169.376 1699
-142.618 -169.376 1699
-138.8 -169.675 1702
-135.205 -170.273 1708
-131.12 -170.273 1708
-127.408 -170.771 1713
-123.456 -170.971 1715
-119.842 -171.668 1722
-115.724 -171.668 1722
-112.189 -172.566 1731
-108.112 -172.665 1732
-103.971 -172.665 1732
-99.8289 -172.665 1732
-190.048 -375.438 3766
-181.042 -375.438 3766
-172.036 -375.438 3766
-163.031 -375.438 3766
-153.33 -373.743 3749
-144.365 -373.743 3749
-135.4 -373.743 3749
-126.435 -373.743 3749
-117.72 -374.54 3757
-108.736 -374.54 3757
-99.7521 -374.54 3757
-90.768 -374.54 3757
-81.4138 -372.846 3740
-72.4703 -372.846 3740
-63.6797 -373.743 3749
-54.7147 -373.743 3749
-45.7497 -373.743 3749
-36.7847 -373.743 3749
-27.8197 -373.743 3749
-18.8547 -373.743 3749
-9.88973 -373.743 3749
-0.924734 -373.743 3749
8.0038 -372.048 3732
16.9281 -372.048 3732
25.8525 -372.048 3732
34.7768 -372.048 3732
43.7012 -372.048 3732
52.6255 -372.048 3732
61.4179 -371.251 3724
70.3231 -371.251 3724
79.0581 -370.453 3716
87.9442 -370.453 3716
96.8303 -370.453 3716
105.716 -370.453 3716
114.325 -369.556 3707
123.189 -369.556 3707
131.769 -368.758 3699
140.614 -368.758 3699
148.813 -367.163 3683
157.621 -367.163 3683
166.066 -366.366 3675
174.854 -366.366 3675
183.642 -366.366 3675
192.43 -366.366 3675
200.78 -365.568 3667
209.549 -365.568 3667
218.318 -365.568 3667
227.087 -365.568 3667
235.856 -365.568 3667
244.625 -365.568 3667
253.394 -365.568 3667
262.163 -365.568 3667
270.932 -365.568 3667
278.404 -363.873 3650
287.132 -363.873 3650
295.86 -363.873 3650
304.589 -363.873 3650
313.317 -363.873 3650
322.045 -363.873 3650
330.773 -363.873 3650
339.502 -363.873 3650
347.467 -363.076 3642
356.176 -363.076 3642
364.184 -362.378 3635
372.876 -362.378 3635
381.568 -362.378 3635
389.402 -361.581 3627
398.075 -361.581 3627
406.748 -361.581 3627
414.505 -360.783 3619
422.224 -359.985 3611
431.814 -360.783 3619
440.468 -360.783 3619
449.122 -360.783 3619
457.776 -360.783 3619
466.43 -360.783 3619
474.034 -359.985 3611
482.669 -359.985 3611
491.304 -359.985 3611
498.831 -359.188 3603
511.954 -362.378 3635
520.647 -362.378 3635
529.339 -362.378 3635
538.031 -362.378 3635
1231.02 -407.638 4089
1240.8 -407.638 4089
1250.58 -407.638 4089
1260.36 -407.638 4089
1270.14 -407.638 4089
1273.65 -405.644 4069
1271.08 -401.756 4030
1277.54 -400.759 4020
1287.16 -400.759 4020
1293.54 -399.762 4010
1296.96 -397.868 3991
1312.72 -399.762 4010
1322.31 -399.762 4010
1331.9 -399.762 4010
1338.48 -398.865 4001
1344.68 -397.868 3991
1344.72 -395.077 3963
1354.2 -395.077 3963
1360.23 -394.08 3953
1347.51 -387.7 3889
1337.97 -382.316 3835
1347.14 -382.316 3835
1356.31 -382.316 3835
1365.48 -382.316 3835
1374.65 -382.316 3835
1383.82 -382.316 3835
1392.99 -382.316 3835
1402.16 -382.316 3835
1411.33 -382.316 3835
1423.84 -383.214 3844
1436.39 -384.111 3853
1445.6 -384.111 3853
1468.41 -387.7 3889
1477.71 -387.7 3889
1487.01 -387.7 3889
1496.3 -387.7 3889
1523.41 -392.285 3935
1539.83 -394.08 3953
1556.73 -395.974 3972
1566.23 -395.974 3972
1575.73 -395.974 3972
1585.23 -395.974 3972
1594.73 -395.974 3972
1717.01 -404.647 4059
1726.72 -404.647 4059
1736.43 -404.647 4059
1746.13 -404.647 4059
1755.84 -404.647 4059
1765.55 -404.647 4059
1770.88 -403.65 4049
1755.05 -397.868 3991
1764.6 -397.868 3991
1765.7 -395.974 3972
1752.63 -386.802 3880
1761.91 -386.802 3880
1783.52 -389.494 3907
1796.99 -390.391 3916
1806.35 -390.391 3916
1815.72 -390.391 3916
1825.08 -390.391 3916
2280.14 -385.008 3862
2326.73 -391.289 3925
2336.11 -391.289 3925
2356.85 -393.183 3944
2389.08 -396.971 3982
2398.6 -396.971 3982
2408.13 -396.971 3982
2417.65 -396.971 3982
2398.52 -392.285 3935
2407.93 -392.285 3935
2417.34 -392.285 3935
2415.03 -390.391 3916
2418.83 -389.494 3907
2451.17 -393.183 3944
2460.6 -393.183 3944
2470.03 -393.183 3944
2467.51 -391.289 3925
2471.22 -390.391 3916
2480.58 -390.391 3916
2489.95 -390.391 3916
2493.57 -389.494 3907
2497.15 -388.597 3898
2506.47 -388.597 3898
2521.6 -389.494 3907
2530.94 -389.494 3907
2540.28 -389.494 3907
2549.63 -389.494 3907
2558.97 -389.494 3907
2544.65 -385.905 3871
2565.78 -387.7 3889
2575.08 -387.7 3889
2584.38 -387.7 3889
2593.68 -387.7 3889
2590.93 -385.905 3871
2594.14 -385.008 3862
2603.38 -385.008 3862
2576.76 -379.724 3809
2574.33 -378.03 3792
2559.55 -374.54 3757
2556.91 -372.846 3740
2565.85 -372.846 3740
2563.78 -371.251 3724
2572.69 -371.251 3724
2587.14 -372.048 3732
2596.06 -372.048 3732
2604.99 -372.048 3732
2613.91 -372.048 3732
2611.59 -370.453 3716
2620.48 -370.453 3716
2629.36 -370.453 3716
2649.61 -372.048 3732
2658.53 -372.048 3732
2673.18 -372.846 3740
2688.57 -373.743 3749
2697.54 -373.743 3749
2712.28 -374.54 3757
2746.61 -378.03 3792
2774.58 -380.622 3818
2783.71 -380.622 3818
2805.27 -382.316 3835
2887.83 -392.285 3935
2945.83 -398.865 4001
2955.4 -398.865 4001
2993.13 -402.653 4039
3002.79 -402.653 4039
3012.45 -402.653 4039
3015.37 -401.756 4030
3025.01 -401.756 4030
3027.12 -400.759 4020
3044.28 -401.756 4030
3053.92 -401.756 4030
3085.6 -404.647 4059
3095.31 -404.647 4059
3105.01 -404.647 4059
-2424.44 -323.314 3323
-2431.04 -325.26 3343
-2423.04 -325.26 3343
-2415.05 -325.26 3343
-2383.3 -322.049 3310
-2389.73 -323.995 3330
-2381.77 -323.995 3330
-2402.32 -327.887 3370
-2414.16 -330.611 3398
-2406.03 -330.611 3398
-2397.9 -330.611 3398
-2389.78 -330.611 3398
-2376.75 -329.93 3391
-2368.64 -329.93 3391
-2336.86 -326.622 3357
-2301.08 -322.73 3317
-2378.19 -334.698 3440
-2369.96 -334.698 3440
-2361.73 -334.698 3440
-2358.3 -335.379 3447
-2354.83 -336.06 3454
-2371.02 -339.562 3490
-2362.68 -339.562 3490
-2369.17 -341.703 3512
-2370.86 -343.162 3527
-2372.47 -344.622 3542
-2364 -344.622 3542
-2375.48 -347.541 3572
-2387.48 -350.557 3603
-2394.71 -352.892 3627
-2391.3 -353.67 3635
-2382.61 -353.67 3635
-2378.49 -354.351 3642
-2380.19 -355.908 3658
-2387.65 -358.341 3683
-2421.47 -364.762 3749
-2412.51 -364.762 3749
-2403.54 -364.762 3749
-2394.58 -364.762 3749
-2385.61 -364.762 3749
-2376.65 -364.762 3749
-2310.21 -355.908 3658
-2301.47 -355.908 3658
-2292.72 -355.908 3658
-1288.12 -323.314 3323
-1280.17 -323.314 3323
-1272.23 -323.314 3323
-1259.34 -322.049 3310
-1251.42 -322.049 3310
-1243.5 -322.049 3310
-1228.12 -320.103 3290
-1208.39 -316.99 3258
-1200.6 -316.99 3258
-1188.41 -315.822 3246
-1180.65 -315.822 3246
-1170.36 -315.141 3239
-1162.61 -315.141 3239
-1152.73 -314.557 3233
-1145 -314.557 3233
-1133.05 -313.39 3221
-1125.34 -313.39 3221
-1115.21 -312.709 3214
-1103.39 -311.541 3202
-1091.63 -310.374 3190
-1084 -310.374 3190
-1076.37 -310.374 3190
-1068.74 -310.374 3190
-1061.11 -310.374 3190
-1053.49 -310.374 3190
-1045.86 -310.374 3190
-1030.42 -308.039 3166
-1018.97 -306.871 3154
-1011.43 -306.871 3154
-1005.8 -307.455 3160
-998.24 -307.455 3160
-990.683 -307.455 3160
-537.92 -168.225 1729
-533.785 -168.225 1729
-529.651 -168.225 1729
-524.908 -168.03 1727
-517.461 -166.96 1716
-511.862 -166.473 1711
-507.77 -166.473 1711
-502.796 -166.181 1708
-493.164 -164.333 1689
-487.966 -163.943 1685
-482.501 -163.457 1680
-478.484 -163.457 1680
-471.077 -162.289 1668
-467.649 -162.484 1670
-463.655 -162.484 1670
-459.662 -162.484 1670
-455.668 -162.484 1670
-451.675 -162.484 1670
-447.681 -162.484 1670
-443.688 -162.484 1670
-439.168 -162.289 1668
-434.396 -161.998 1665
-430.415 -161.998 1665
-426.433 -161.998 1665
-421.944 -161.803 1663
-416.46 -161.219 1657
-412.497 -161.219 1657
-408.535 -161.219 1657
-404.084 -161.025 1655
-400.126 -161.025 1655
-395.69 -160.83 1653
-391.737 -160.83 1653
-387.784 -160.83 1653
-383.599 -160.733 1652
-379.189 -160.538 1650
-374.789 -160.344 1648
-370.848 -160.344 1648
-366.017 -159.954 1644
-360.984 -159.468 1639
-356.411 -159.176 1636
-352.499 -159.176 1636
-347.521 -158.689 1631
-341.936 -157.911 1623
-337.013 -157.425 1618
-333.144 -157.425 1618
-327.647 -156.646 1610
-322.59 -156.063 1604
-318.158 -155.771 1601
-314.33 -155.771 1601
-309.532 -155.284 1596
-304.566 -154.7 1590
-300.196 -154.408 1587
-296.401 -154.408 1587
-291.5 -153.825 1581
-287.719 -153.825 1581
-283.22 -153.436 1577
-278.918 -153.144 1574
-275.154 -153.144 1574
-271.045 -152.949 1572
-267.116 -152.852 1571
-263.024 -152.657 1569
-259.272 -152.657 1569
-255.357 -152.56 1568
-252.089 -152.852 1571
-248.49 -152.949 1572
-245.198 -153.241 1575
-241.432 -153.241 1575
-237.967 -153.436 1577
-234.345 -153.533 1578
-231.302 -154.019 1583
-227.516 -154.019 1583
-223.872 -154.117 1584
-220.362 -154.311 1586
-217.799 -155.187 1595
-213.985 -155.187 1595
-210.566 -155.479 1598
-207.521 -156.063 1604
-204.066 -156.354 1607
-200.223 -156.354 1607
-197.114 -156.938 1613
-194.215 -157.717 1621
-191.278 -158.495 1629
-187.383 -158.495 1629
-184.388 -159.273 1637
-181.576 -160.246 1647
-178.824 -161.316 1658
-174.859 -161.316 1658
-171.822 -162.192 1667
-169.346 -163.652 1682
-166.307 -164.625 1692
-162.261 -164.625 1692
-158.495 -164.916 1695
-154.442 -164.916 1695
-150.744 -165.306 1699
-146.681 -165.306 1699
-142.618 -165.306 1699
-138.8 -165.598 1702
-135.205 -166.181 1708
-131.12 -166.181 1708
-127.408 -166.668 1713
-123.456 -166.862 1715
-119.842 -167.543 1722
-115.724 -167.543 1722
-112.189 -168.419 1731
-108.05 -168.419 1731
-103.911 -168.419 1731
-99.7713 -168.419 1731
-190.048 -366.416 3766
-181.042 -366.416 3766
-172.036 -366.416 3766
-163.031 -366.416 3766
-153.33 -364.762 3749
-144.018 -363.886 3740
-135.075 -363.886 3740
-126.131 -363.886 3740
-117.47 -364.762 3749
-108.505 -364.762 3749
-99.5397 -364.762 3749
-90.5747 -364.762 3749
-81.4138 -363.886 3740
-72.3153 -363.108 3732
-63.5268 -363.886 3740
-54.5834 -363.886 3740
-45.6399 -363.886 3740
-36.7847 -364.762 3749
-27.8197 -364.762 3749
-18.8547 -364.762 3749
-9.86599 -363.886 3740
-0.920541 -363.108 3732
8.0038 -363.108 3732
16.9281 -363.108 3732
25.8525 -363.108 3732
34.7768 -363.108 3732
43.7012 -363.108 3732
52.6255 -363.108 3732
61.4179 -362.33 3724
70.3231 -362.33 3724
79.0581 -361.551 3716
87.9442 -361.551 3716
96.8303 -361.551 3716
105.716 -361.551 3716
114.325 -360.676 3707
123.189 -360.676 3707
131.769 -359.897 3699
140.31 -359.119 3691
148.813 -358.341 3683
157.621 -358.341 3683
166.066 -357.562 3675
174.854 -357.562 3675
183.642 -357.562 3675
192.43 -357.562 3675
200.78 -356.784 3667
209.549 -356.784 3667
218.318 -356.784 3667
227.087 -356.784 3667
235.856 -356.784 3667
244.625 -356.784 3667
253.394 -356.784 3667
262.163 -356.784 3667
270.932 -356.784 3667
278.404 -355.13 3650
286.503 -354.351 3642
295.86 -355.13 3650
304.589 -355.13 3650
313.317 -355.13 3650
322.045 -355.13 3650
330.048 -354.351 3642
338.758 -354.351 3642
347.467 -354.351 3642
356.176 -354.351 3642
364.184 -353.67 3635
372.876 -353.67 3635
381.568 -353.67 3635
389.402 -352.892 3627
398.075 -352.892 3627
406.748 -352.892 3627
414.505 -352.114 3619
422.224 -351.335 3611
431.814 -352.114 3619
440.468 -352.114 3619
449.122 -352.114 3619
457.776 -352.114 3619
466.43 -352.114 3619
474.034 -351.335 3611
482.669 -351.335 3611
491.304 -351.335 3611
498.831 -350.557 3603
511.954 -353.67 3635
520.647 -353.67 3635
529.339 -353.67 3635
538.031 -353.67 3635
1231.02 -397.843 4089
1240.8 -397.843 4089
1250.58 -397.843 4089
1260.36 -397.843 4089
1270.14 -397.843 4089
1273.65 -395.897 4069
1271.08 -392.102 4030
1277.54 -391.129 4020
1287.16 -391.129 4020
1293.54 -390.156 4010
1296.96 -388.308 3991
1312.72 -390.156 4010
1322.31 -390.156 4010
1331.9 -390.156 4010
1338.48 -389.281 4001
1344.68 -388.308 3991
1344.72 -385.583 3963
1354.2 -385.583 3963
1357.13 -383.735 3944
1344.39 -377.508 3880
1337.97 -373.13 3835
1347.14 -373.13 3835
1350.3 -371.475 3818
1362.28 -372.254 3826
1371.43 -372.254 3826
1380.57 -372.254 3826
1383.55 -370.6 3809
1392.66 -370.6 3809
1411.33 -373.13 3835
1420.5 -373.13 3835
1433.03 -374.005 3844
1442.22 -374.005 3844
1468.41 -378.383 3889
1477.71 -378.383 3889
1487.01 -378.383 3889
1489.38 -376.632 3871
1523.41 -382.859 3935
1536.33 -383.735 3944
1556.73 -386.459 3972
1566.23 -386.459 3972
1575.73 -386.459 3972
1585.23 -386.459 3972
1594.73 -386.459 3972
1717.01 -394.924 4059
1726.72 -394.924 4059
1736.43 -394.924 4059
1746.13 -394.924 4059
1755.84 -394.924 4059
1765.55 -394.924 4059
1770.88 -393.951 4049
1755.05 -388.308 3991
1764.6 -388.308 3991
1748.57 -376.632 3871
1757.82 -376.632 3871
1771.19 -377.508 3880
1796.99 -381.01 3916
1806.35 -381.01 3916
1815.72 -381.01 3916
1825.08 -381.01 3916
2280.14 -375.757 3862
2305.39 -378.383 3889
2314.69 -378.383 3889
2345.5 -381.886 3925
2366.28 -383.735 3944
2381.14 -384.61 3953
2390.59 -384.61 3953
2400.04 -384.61 3953
2398.52 -382.859 3935
2407.93 -382.859 3935
2417.34 -382.859 3935
2409.48 -380.135 3907
2418.83 -380.135 3907
2445.57 -382.859 3935
2454.98 -382.859 3935
2464.39 -382.859 3935
2467.51 -381.886 3925
2471.22 -381.01 3916
2480.58 -381.01 3916
2484.23 -380.135 3907
2487.83 -379.259 3898
2479.85 -376.632 3871
2489.11 -376.632 3871
2521.6 -380.135 3907
2530.94 -380.135 3907
2540.28 -380.135 3907
2549.63 -380.135 3907
2558.97 -380.135 3907
2544.65 -376.632 3871
2553.9 -376.632 3871
2569.12 -377.508 3880
2578.4 -377.508 3880
2587.68 -377.508 3880
2590.93 -376.632 3871
2588.1 -374.881 3853
2597.31 -374.881 3853
2576.76 -370.6 3809
2574.33 -368.946 3792
2559.55 -365.54 3757
2556.91 -363.886 3740
2565.85 -363.886 3740
2563.78 -362.33 3724
2572.69 -362.33 3724
2587.14 -363.108 3732
2596.06 -363.108 3732
2604.99 -363.108 3732
2613.91 -363.108 3732
2611.59 -361.551 3716
2620.48 -361.551 3716
2629.36 -361.551 3716
2649.61 -363.108 3732
2658.53 -363.108 3732
2673.18 -363.886 3740
2688.57 -364.762 3749
2697.54 -364.762 3749
2712.28 -365.54 3757
2746.61 -368.946 3792
2774.58 -371.475 3818
2783.71 -371.475 3818
2798.69 -372.254 3826
2854.07 -378.383 3889
2931.85 -387.432 3982
2941.37 -387.432 3982
2964.97 -389.281 4001
2974.54 -389.281 4001
2984.11 -389.281 4001
2986.19 -388.308 3991
2995.73 -388.308 3991
3019.59 -390.156 4010
3029.17 -390.156 4010
3038.76 -390.156 4010
3048.35 -390.156 4010
3073.19 -392.102 4030
3082.83 -392.102 4030
-2421.46 -319.15 3363
-2418.44 -319.814 3370
-2410.38 -319.814 3370
-2407.31 -320.478 3377
-2424.1 -323.8 3412
-2415.94 -323.8 3412
-2407.78 -323.8 3412
-2399.62 -323.8 3412
-2381.65 -322.471 3398
-2373.53 -322.471 3398
-2345.91 -319.814 3370
-2301.08 -314.784 3317
-2320.81 -318.58 3357
-2369.96 -326.457 3440
-2361.73 -326.457 3440
-2358.3 -327.121 3447
-2354.83 -327.786 3454
-2371.02 -331.202 3490
-2362.68 -331.202 3490
-2369.17 -333.29 3512
-2360.78 -333.29 3512
-2372.47 -336.137 3542
-2364 -336.137 3542
-2375.48 -338.984 3572
-2382.18 -341.167 3595
-2394.71 -344.203 3627
-2386.04 -344.203 3627
-2377.37 -344.203 3627
-2378.49 -345.627 3642
-2380.19 -347.145 3658
-2371.44 -347.145 3658
-2394.35 -351.796 3707
-2412.51 -355.781 3749
-2403.54 -355.781 3749
-2394.58 -355.781 3749
-2385.61 -355.781 3749
-2376.65 -355.781 3749
-2310.21 -347.145 3658
-2301.47 -347.145 3658
-2292.72 -347.145 3658
-1285.79 -314.784 3317
-1277.86 -314.784 3317
-1269.93 -314.784 3317
-1259.34 -314.12 3310
-1251.42 -314.12 3310
-1240.88 -313.456 3303
-1228.12 -312.222 3290
-1206.16 -308.616 3252
-1198.39 -308.616 3252
-1188.41 -308.046 3246
-1180.65 -308.046 3246
-1170.36 -307.382 3239
-1162.61 -307.382 3239
-1150.59 -306.243 3227
-1142.87 -306.243 3227
-1133.05 -305.674 3221
-1125.34 -305.674 3221
-1115.21 -305.01 3214
-1103.39 -303.871 3202
-1093.68 -303.301 3196
-1086.04 -303.301 3196
-1078.4 -303.301 3196
-1070.75 -303.301 3196
-1061.11 -302.732 3190
-1051.5 -302.163 3184
-1043.89 -302.163 3184
-1030.42 -300.454 3166
-1018.97 -299.316 3154
-1011.43 -299.316 3154
-1005.8 -299.885 3160
-998.24 -299.885 3160
-990.683 -299.885 3160
-537.297 -163.893 1727
-533.168 -163.893 1727
-529.038 -163.893 1727
-524.3 -163.703 1725
-517.16 -162.754 1715
-510.965 -162.09 1708
-506.88 -162.09 1708
-500.735 -161.425 1701
-492.58 -160.097 1687
-487.098 -159.622 1682
-481.927 -159.243 1678
-477.914 -159.243 1678
-471.077 -158.294 1668
-467.649 -158.484 1670
-463.655 -158.484 1670
-459.662 -158.484 1670
-455.668 -158.484 1670
-451.675 -158.484 1670
-447.145 -158.294 1668
-443.156 -158.294 1668
-438.378 -158.009 1665
-434.396 -158.009 1665
-429.898 -157.819 1663
-425.921 -157.819 1663
-421.691 -157.724 1662
-416.46 -157.25 1657
-411.999 -157.06 1655
-408.042 -157.06 1655
-404.084 -157.06 1655
-400.126 -157.06 1655
-395.69 -156.87 1653
-391.737 -156.87 1653
-387.55 -156.775 1652
-383.135 -156.586 1650
-378.73 -156.396 1648
-374.107 -156.111 1645
-370.173 -156.111 1645
-365.571 -155.826 1642
-360.544 -155.352 1637
-355.54 -154.877 1632
-351.637 -154.877 1632
-346.456 -154.308 1626
-341.514 -153.833 1621
-336.388 -153.264 1615
-332.526 -153.264 1615
-327.647 -152.79 1610
-322.59 -152.22 1604
-318.158 -151.935 1601
-314.33 -151.935 1601
-309.338 -151.366 1595
-304.566 -150.892 1590
-300.196 -150.607 1587
-296.401 -150.607 1587
-291.5 -150.037 1581
-287.719 -150.037 1581
-283.22 -149.658 1577
-278.918 -149.373 1574
-275.154 -149.373 1574
-271.045 -149.183 1572
-267.116 -149.088 1571
-263.024 -148.899 1569
-259.272 -148.899 1569
-255.52 -148.899 1569
-252.089 -149.088 1571
-248.49 -149.183 1572
-245.198 -149.468 1575
-241.432 -149.468 1575
-238.118 -149.753 1578
-234.345 -149.753 1578
-231.302 -150.227 1583
-227.516 -150.227 1583
-223.872 -150.322 1584
-220.362 -150.512 1586
-217.799 -151.366 1595
-213.985 -151.366 1595
-210.566 -151.651 1598
-207.78 -152.41 1606
-204.32 -152.695 1609
-200.472 -152.695 1609
-197.358 -153.264 1615
-194.215 -153.833 1621
-191.513 -154.782 1631
-187.613 -154.782 1631
-184.388 -155.352 1637
-181.576 -156.301 1647
-178.824 -157.345 1658
-174.859 -157.345 1658
-171.822 -158.199 1667
-169.346 -159.622 1682
-166.11 -160.382 1690
-162.069 -160.382 1690
-158.495 -160.856 1695
-154.806 -161.236 1699
-150.921 -161.425 1701
-146.853 -161.425 1701
-142.87 -161.52 1702
-138.963 -161.71 1704
-135.205 -162.09 1708
-131.12 -162.09 1708
-127.557 -162.754 1715
-123.815 -163.229 1720
-120.19 -163.893 1727
-116.06 -163.893 1727
-112.06 -164.083 1729
-107.925 -164.083 1729
-103.791 -164.083 1729
-192.217 -361.475 3809
-183.109 -361.475 3809
-174.001 -361.475 3809
-163.377 -358.154 3774
-153.657 -356.541 3757
-144.365 -355.781 3749
-135.4 -355.781 3749
-126.131 -354.927 3740
-117.47 -355.781 3749
-108.505 -355.781 3749
-99.5397 -355.781 3749
-90.5747 -355.781 3749
-81.4138 -354.927 3740
-72.3153 -354.168 3732
-63.5268 -354.927 3740
-54.5834 -354.927 3740
-45.6399 -354.927 3740
-36.6964 -354.927 3740
-27.7529 -354.927 3740
-18.8095 -354.927 3740
-9.86599 -354.927 3740
-0.920541 -354.168 3732
8.0038 -354.168 3732
16.9281 -354.168 3732
25.8525 -354.168 3732
34.7768 -354.168 3732
43.7012 -354.168 3732
52.6255 -354.168 3732
61.4179 -353.409 3724
70.3231 -353.409 3724
79.0581 -352.65 3716
87.9442 -352.65 3716
96.8303 -352.65 3716
105.716 -352.65 3716
114.078 -351.036 3699
122.924 -351.036 3699
131.769 -351.036 3699
140.31 -350.277 3691
148.813 -349.518 3683
157.621 -349.518 3683
166.066 -348.759 3675
174.854 -348.759 3675
183.642 -348.759 3675
192.43 -348.759 3675
200.78 -347.999 3667
209.549 -347.999 3667
218.318 -347.999 3667
227.087 -347.999 3667
235.856 -347.999 3667
244.625 -347.999 3667
253.394 -347.999 3667
262.163 -347.999 3667
270.932 -347.999 3667
278.404 -346.386 3650
286.503 -345.627 3642
295.86 -346.386 3650
304.589 -346.386 3650
313.317 -346.386 3650
322.045 -346.386 3650
330.048 -345.627 3642
338.758 -345.627 3642
347.467 -345.627 3642
356.176 -345.627 3642
364.885 -345.627 3642
373.594 -345.627 3642
381.568 -344.963 3635
390.261 -344.963 3635
398.075 -344.203 3627
406.748 -344.203 3627
415.422 -344.203 3627
423.16 -343.444 3619
432.768 -344.203 3627
442.415 -344.963 3635
451.107 -344.963 3635
459.8 -344.963 3635
468.492 -344.963 3635
476.134 -344.203 3627
484.808 -344.203 3627
492.393 -343.444 3619
502.154 -344.203 3627
515.194 -347.145 3658
526.376 -348.759 3675
535.164 -348.759 3675
543.952 -348.759 3675
1250.58 -388.047 4089
1260.36 -388.047 4089
1270.14 -388.047 4089
1273.65 -386.149 4069
1271.08 -382.448 4030
1277.54 -381.499 4020
1287.16 -381.499 4020
1296.77 -381.499 4020
1300.21 -379.696 4001
1312.72 -380.55 4010
1322.31 -380.55 4010
1331.9 -380.55 4010
1338.48 -379.696 4001
1344.68 -378.747 3991
1341.33 -375.141 3953
1350.78 -375.141 3953
1347.5 -371.63 3916
1338.15 -366.505 3862
1337.97 -363.943 3835
1347.14 -363.943 3835
1347.11 -361.475 3809
1356.22 -361.475 3809
1365.33 -361.475 3809
1374.44 -361.475 3809
1383.55 -361.475 3809
1389.37 -360.621 3800
1398.45 -360.621 3800
1410.87 -361.475 3809
1426.32 -363.089 3826
1435.47 -363.089 3826
1444.62 -363.089 3826
1453.77 -363.089 3826
1462.92 -363.089 3826
1468.99 -362.329 3818
1488.18 -364.797 3844
1532.82 -373.433 3935
1542.23 -373.433 3935
1551.64 -373.433 3935
1579.7 -377.893 3982
1589.22 -377.893 3982
1598.74 -377.893 3982
1712.78 -384.251 4049
1722.47 -384.251 4049
1736.43 -385.2 4059
1746.13 -385.2 4059
1755.84 -385.2 4059
1761.2 -384.251 4049
1753.82 -380.55 4010
1767.08 -367.359 3871
1780.47 -368.213 3880
1789.75 -368.213 3880
1799.02 -368.213 3880
2260.33 -364.797 3844
2280.14 -366.505 3862
2300.05 -368.213 3880
2309.33 -368.213 3880
2329.36 -369.921 3898
2354.88 -372.484 3925
2375.71 -374.287 3944
2385.15 -374.287 3944
2394.58 -374.287 3944
2398.52 -373.433 3935
2396.31 -371.63 3916
2405.67 -371.63 3916
2409.48 -370.776 3907
2418.83 -370.776 3907
2433.76 -371.63 3916
2443.13 -371.63 3916
2452.49 -371.63 3916
2456.2 -370.776 3907
2459.86 -369.921 3898
2469.18 -369.921 3898
2472.78 -369.067 3889
2482.08 -369.067 3889
2479.85 -367.359 3871
2489.11 -367.359 3871
2515.79 -369.921 3898
2525.11 -369.921 3898
2534.43 -369.921 3898
2543.75 -369.921 3898
2553.07 -369.921 3898
2538.73 -366.505 3862
2547.97 -366.505 3862
2563.16 -367.359 3871
2572.42 -367.359 3871
2581.67 -367.359 3871
2590.93 -367.359 3871
2588.1 -365.651 3853
2597.31 -365.651 3853
2576.76 -361.475 3809
2579.76 -360.621 3800
2565.68 -357.395 3766
2563.06 -355.781 3749
2572.03 -355.781 3749
2574.8 -354.927 3740
2572.69 -353.409 3724
2587.14 -354.168 3732
2596.06 -354.168 3732
2604.99 -354.168 3732
2613.91 -354.168 3732
2611.59 -352.65 3716
2620.48 -352.65 3716
2629.36 -352.65 3716
2649.61 -354.168 3732
2658.53 -354.168 3732
2673.18 -354.927 3740
2688.57 -355.781 3749
2697.54 -355.781 3749
2712.28 -356.541 3757
2746.61 -359.862 3792
2774.58 -362.329 3818
2783.71 -362.329 3818
2798.69 -363.089 3826
2847.47 -368.213 3880
2910.49 -375.141 3953
2919.95 -375.141 3953
2943.48 -376.944 3972
2952.98 -376.944 3972
2962.48 -376.944 3972
2971.97 -376.944 3972
2967.21 -375.141 3953
2963.11 -373.433 3935
2972.52 -373.433 3935
2981.93 -373.433 3935
3048.35 -380.55 4010
3057.94 -380.55 4010
3067.53 -380.55 4010
-2490.18 -318.864 3447
-2481.94 -318.864 3447
-2473.7 -318.864 3447
-2445.43 -316.274 3419
-2437.25 -316.274 3419
-2429.08 -316.274 3419
-2420.9 -316.274 3419
-2412.72 -316.274 3419
-2404.55 -316.274 3419
-2391.47 -315.626 3412
-2383.31 -315.626 3412
-2355.66 -313.036 3384
-2333 -311.094 3363
-2324.95 -311.094 3363
-2369.96 -318.217 3440
-2361.73 -318.217 3440
-2363.09 -319.512 3454
-2369.83 -321.547 3476
-2366.27 -322.194 3483
-2357.94 -322.194 3483
-2369.17 -324.877 3512
-2360.78 -324.877 3512
-2382.52 -329.04 3557
-2374.01 -329.04 3557
-2375.48 -330.427 3572
-2387.48 -333.295 3603
-2389.43 -334.775 3619
-2391.3 -336.255 3635
-2382.61 -336.255 3635
-2388.94 -338.383 3658
-2380.19 -338.383 3658
-2387.65 -340.695 3683
-2405.33 -344.488 3724
-2417.66 -347.541 3757
-2408.67 -347.541 3757
-2399.69 -347.541 3757
-2385.61 -346.801 3749
-2376.65 -346.801 3749
-2346.84 -343.748 3716
-2363.75 -347.541 3757
-2354.77 -347.541 3757
-2345.78 -347.541 3757
-1293.73 -306.838 3317
-1285.79 -306.838 3317
-1277.86 -306.838 3317
-1269.93 -306.838 3317
-1256.67 -305.543 3303
-1248.77 -305.543 3303
-1235.99 -304.341 3290
-1223.64 -303.231 3278
-1208.39 -301.381 3258
-1200.6 -301.381 3258
-1188.41 -300.271 3246
-1178.1 -299.623 3239
-1168.19 -299.068 3233
-1160.46 -299.068 3233
-1152.73 -299.068 3233
-1142.87 -298.513 3227
-1133.05 -297.958 3221
-1125.34 -297.958 3221
-1111.05 -296.2 3202
-1101.32 -295.645 3196
-1093.68 -295.645 3196
-1086.04 -295.645 3196
-1078.4 -295.645 3196
-1070.75 -295.645 3196
-1061.11 -295.09 3190
-1051.5 -294.535 3184
-1043.89 -294.535 3184
-1030.42 -292.87 3166
-1018.97 -291.76 3154
-1011.43 -291.76 3154
-1005.8 -292.315 3160
-998.24 -292.315 3160
-990.683 -292.315 3160
-536.675 -159.571 1725
-532.55 -159.571 1725
-528.425 -159.571 1725
-522.173 -158.923 1718
-515.953 -158.276 1711
-510.366 -157.813 1706
-506.287 -157.813 1706
-498.969 -156.796 1695
-491.412 -155.686 1683
-486.518 -155.408 1680
-481.639 -155.131 1677
-477.629 -155.131 1677
-471.077 -154.298 1668
-467.649 -154.483 1670
-463.655 -154.483 1670
-459.662 -154.483 1670
-455.668 -154.483 1670
-451.134 -154.298 1668
-446.341 -154.021 1665
-442.359 -154.021 1665
-437.588 -153.743 1662
-433.614 -153.743 1662
-429.122 -153.558 1660
-425.153 -153.558 1660
-420.676 -153.373 1658
-415.957 -153.095 1655
-411.501 -152.91 1653
-407.549 -152.91 1653
-403.596 -152.91 1653
-399.643 -152.91 1653
-395.451 -152.818 1652
-391.5 -152.818 1652
-387.081 -152.633 1650
-382.671 -152.448 1648
-378.5 -152.355 1647
-373.879 -152.078 1644
-369.948 -152.078 1644
-364.903 -151.615 1639
-360.323 -151.338 1636
-355.322 -150.875 1631
-351.422 -150.875 1631
-346.03 -150.228 1624
-341.304 -149.858 1620
-336.388 -149.395 1615
-332.526 -149.395 1615
-327.647 -148.933 1610
-322.59 -148.378 1604
-318.158 -148.1 1601
-314.33 -148.1 1601
-309.338 -147.545 1595
-304.566 -147.083 1590
-300.196 -146.805 1587
-296.401 -146.805 1587
-291.5 -146.25 1581
-287.719 -146.25 1581
-282.861 -145.695 1575
-278.918 -145.603 1574
-275.154 -145.603 1574
-271.045 -145.418 1572
-267.116 -145.325 1571
-263.024 -145.14 1569
-259.272 -145.14 1569
-255.52 -145.14 1569
-252.089 -145.325 1571
-248.49 -145.418 1572
-245.042 -145.603 1574
-241.279 -145.603 1574
-238.118 -145.973 1578
-234.345 -145.973 1578
-231.302 -146.435 1583
-227.516 -146.435 1583
-223.872 -146.528 1584
-220.362 -146.713 1586
-217.799 -147.545 1595
-213.985 -147.545 1595
-210.566 -147.823 1598
-207.78 -148.563 1606
-204.32 -148.84 1609
-200.472 -148.84 1609
-197.358 -149.395 1615
-194.215 -149.95 1621
-191.63 -150.968 1632
-187.728 -150.968 1632
-184.614 -151.615 1639
-182.127 -152.818 1652
-179.256 -153.743 1662
-175.281 -153.743 1662
-172.131 -154.483 1670
-169.447 -155.686 1683
-166.307 -156.518 1692
-162.261 -156.518 1692
-158.869 -157.166 1699
-154.989 -157.351 1701
-151.01 -157.443 1702
-146.94 -157.443 1702
-143.038 -157.628 1704
-138.963 -157.628 1704
-135.759 -158.646 1715
-131.658 -158.646 1715
-127.631 -158.738 1716
-123.959 -159.293 1722
-120.19 -159.756 1727
-116.06 -159.756 1727
-112.06 -159.941 1729
-107.925 -159.941 1729
-103.791 -159.941 1729
-192.217 -352.351 3809
-183.109 -352.351 3809
-174.001 -352.351 3809
-164.502 -351.518 3800
-154.352 -349.113 3774
-144.673 -347.541 3757
-135.689 -347.541 3757
-126.435 -346.801 3749
-117.188 -345.968 3740
-108.505 -346.801 3749
-99.5397 -346.801 3749
-90.5747 -346.801 3749
-81.4138 -345.968 3740
-72.3153 -345.228 3732
-63.3909 -345.228 3732
-54.4666 -345.228 3732
-45.6399 -345.968 3740
-36.6964 -345.968 3740
-27.7529 -345.968 3740
-18.8095 -345.968 3740
-9.84488 -345.228 3732
-0.920541 -345.228 3732
8.0038 -345.228 3732
16.9281 -345.228 3732
25.8525 -345.228 3732
34.7768 -345.228 3732
43.7012 -345.228 3732
52.6255 -345.228 3732
61.4179 -344.488 3724
70.1721 -343.748 3716
79.0581 -343.748 3716
87.9442 -343.748 3716
96.8303 -343.748 3716
105.46 -342.915 3707
114.078 -342.175 3699
122.924 -342.175 3699
131.769 -342.175 3699
140.31 -341.435 3691
148.813 -340.695 3683
157.621 -340.695 3683
166.066 -339.955 3675
174.854 -339.955 3675
183.243 -339.215 3667
192.011 -339.215 3667
200.78 -339.215 3667
209.549 -339.215 3667
217.782 -338.383 3658
226.53 -338.383 3658
235.277 -338.383 3658
244.025 -338.383 3658
252.772 -338.383 3658
261.519 -338.383 3658
270.267 -338.383 3658
278.404 -337.643 3650
287.132 -337.643 3650
295.86 -337.643 3650
304.589 -337.643 3650
313.317 -337.643 3650
322.045 -337.643 3650
330.773 -337.643 3650
339.502 -337.643 3650
347.467 -336.903 3642
356.176 -336.903 3642
364.885 -336.903 3642
373.594 -336.903 3642
382.303 -336.903 3642
390.261 -336.255 3635
398.953 -336.255 3635
407.646 -336.255 3635
415.422 -335.515 3627
424.095 -335.515 3627
432.768 -335.515 3627
442.415 -336.255 3635
451.107 -336.255 3635
459.8 -336.255 3635
468.492 -336.255 3635
476.134 -335.515 3627
484.808 -335.515 3627
493.481 -335.515 3627
503.262 -336.255 3635
515.194 -338.383 3658
526.376 -339.955 3675
535.164 -339.955 3675
543.952 -339.955 3675
1247.52 -377.327 4079
1257.28 -377.327 4079
1267.03 -377.327 4079
1270.52 -375.477 4059
1271.08 -372.794 4030
1277.54 -371.869 4020
1287.16 -371.869 4020
1296.77 -371.869 4020
1300.21 -370.112 4001
1312.72 -370.944 4010
1322.31 -370.944 4010
1331.9 -370.944 4010
1338.48 -370.112 4001
1344.68 -369.187 3991
1338.27 -364.839 3944
1347.7 -364.839 3944
1344.4 -361.416 3907
1331.92 -355.589 3844
1328.9 -352.351 3809
1338.01 -352.351 3809
1337.92 -349.946 3783
1340.91 -348.373 3766
1346.69 -347.541 3757
1358.92 -348.373 3766
1367.93 -348.373 3766
1376.94 -348.373 3766
1398.45 -351.518 3800
1407.54 -351.518 3800
1416.63 -351.518 3800
1425.71 -351.518 3800
1441.6 -353.183 3818
1450.73 -353.183 3818
1459.86 -353.183 3818
1468.99 -353.183 3818
1484.7 -354.756 3835
1521.92 -361.416 3907
1538.31 -363.081 3925
1547.7 -363.081 3925
1579.7 -368.354 3982
1589.22 -368.354 3982
1598.74 -368.354 3982
1721.24 -376.402 4069
1730.97 -376.402 4069
1740.7 -376.402 4069
1750.43 -376.402 4069
1760.16 -376.402 4069
1761.2 -374.552 4049
1758.19 -371.869 4020
2186.53 -346.801 3749
2195.5 -346.801 3749
2260.33 -355.589 3844
2280.14 -357.254 3862
2300.05 -358.919 3880
2314.69 -359.751 3889
2329.36 -360.584 3898
2354.88 -363.081 3925
2364.27 -363.081 3925
2373.66 -363.081 3925
2383.04 -363.081 3925
2386.94 -362.249 3916
2396.31 -362.249 3916
2405.67 -362.249 3916
2409.48 -361.416 3907
2418.83 -361.416 3907
2428.17 -361.416 3907
2437.51 -361.416 3907
2446.86 -361.416 3907
2439.22 -358.919 3880
2437.14 -357.254 3862
2446.38 -357.254 3862
2455.61 -357.254 3862
2464.85 -357.254 3862
2474.08 -357.254 3862
2483.32 -357.254 3862
2504.17 -358.919 3880
2513.45 -358.919 3880
2522.73 -358.919 3880
2532.01 -358.919 3880
2541.29 -358.919 3880
2538.73 -357.254 3862
2547.97 -357.254 3862
2557.2 -357.254 3862
2566.44 -357.254 3862
2575.67 -357.254 3862
2584.91 -357.254 3862
2582.05 -355.589 3844
2591.24 -355.589 3844
2576.76 -352.351 3809
2579.76 -351.518 3800
2565.68 -348.373 3766
2563.06 -346.801 3749
2572.03 -346.801 3749
2574.8 -345.968 3740
2572.69 -344.488 3724
2587.14 -345.228 3732
2596.06 -345.228 3732
2604.99 -345.228 3732
2613.91 -345.228 3732
2611.59 -343.748 3716
2620.48 -343.748 3716
2629.36 -343.748 3716
2649.61 -345.228 3732
2658.53 -345.228 3732
2673.18 -345.968 3740
2688.57 -346.801 3749
2697.54 -346.801 3749
2706.5 -346.801 3749
2733.58 -349.113 3774
2755.68 -350.778 3792
2764.75 -350.778 3792
2773.82 -350.778 3792
2827.65 -356.421 3853
2856.75 -358.919 3880
2866.02 -358.919 3880
2922.73 -364.839 3944
2932.16 -364.839 3944
2941.59 -364.839 3944
2930.07 -362.249 3916
2925.93 -360.584 3898
2948.8 -362.249 3916
2958.17 -362.249 3916
2967.53 -362.249 3916
2991.34 -364.006 3935
3007.61 -364.839 3944
3017.04 -364.839 3944
-2421.59 -300.064 3330
-2413.62 -300.064 3330
-2490.18 -310.607 3447
-2481.94 -310.607 3447
-2473.7 -310.607 3447
-2445.43 -308.084 3419
-2437.25 -308.084 3419
-2429.08 -308.084 3419
-2420.9 -308.084 3419
-2412.72 -308.084 3419
-2404.55 -308.084 3419
-2391.47 -307.453 3412
-2383.31 -307.453 3412
-2355.66 -304.93 3384
-2333 -303.038 3363
-2334.63 -304.299 3377
-2374.78 -310.607 3447
-2366.54 -310.607 3447
-2372.66 -312.499 3468
-2369.83 -313.22 3476
-2375.78 -315.112 3497
-2367.42 -315.112 3497
-2374.57 -317.185 3520
-2385.65 -319.798 3549
-2392.57 -321.87 3572
-2384.03 -321.87 3572
-2396.1 -324.664 3603
-2398.09 -326.106 3619
-2389.43 -326.106 3619
-2395.91 -328.178 3642
-2392.44 -328.899 3650
-2405.27 -331.873 3683
-2396.46 -331.873 3683
-2398.02 -333.314 3699
-2410.49 -336.288 3732
-2423.45 -339.352 3766
-2414.44 -339.352 3766
-2405.44 -339.352 3766
-2390.7 -338.541 3757
-2381.72 -338.541 3757
-2346.84 -334.846 3716
-2363.75 -338.541 3757
-2354.77 -338.541 3757
-2345.78 -338.541 3757
-1301.53 -300.695 3337
-1293.55 -300.695 3337
-1285.57 -300.695 3337
-1269.93 -298.893 3317
-1262 -298.893 3317
-1254.07 -298.893 3317
-1243.5 -298.262 3310
-1223.64 -295.378 3278
-1210.98 -294.207 3265
-1203.18 -294.207 3265
-1190.61 -293.035 3252
-1178.1 -291.864 3239
-1170.36 -291.864 3239
-1162.61 -291.864 3239
-1152.73 -291.323 3233
-1145 -291.323 3233
-1133.05 -290.242 3221
-1125.34 -290.242 3221
-1113.13 -289.071 3208
-1103.39 -288.53 3202
-1093.68 -287.989 3196
-1086.04 -287.989 3196
-1078.4 -287.989 3196
-1070.75 -287.989 3196
-1061.11 -287.449 3190
-1051.5 -286.908 3184
-1043.89 -286.908 3184
-1030.42 -285.286 3166
-1018.97 -284.205 3154
-1011.43 -284.205 3154
-1005.8 -284.745 3160
-998.24 -284.745 3160
-990.683 -284.745 3160
-536.675 -155.439 1725
-532.55 -155.439 1725
-528.425 -155.439 1725
-522.173 -154.808 1718
-515.953 -154.177 1711
-510.366 -153.726 1706
-506.287 -153.726 1706
-498.969 -152.735 1695
-491.412 -151.654 1683
-486.518 -151.384 1680
-481.639 -151.113 1677
-477.629 -151.113 1677
-471.077 -150.302 1668
-467.649 -150.483 1670
-463.655 -150.483 1670
-459.662 -150.483 1670
-455.668 -150.483 1670
-451.134 -150.302 1668
-446.341 -150.032 1665
-442.359 -150.032 1665
-437.588 -149.762 1662
-433.614 -149.762 1662
-429.122 -149.581 1660
-425.153 -149.581 1660
-420.676 -149.401 1658
-415.957 -149.131 1655
-411.501 -148.951 1653
-407.549 -148.951 1653
-403.596 -148.951 1653
-399.643 -148.951 1653
-395.451 -148.861 1652
-391.5 -148.861 1652
-387.081 -148.68 1650
-382.671 -148.5 1648
-378.5 -148.41 1647
-373.879 -148.14 1644
-369.948 -148.14 1644
-364.903 -147.689 1639
-360.323 -147.419 1636
-355.322 -146.968 1631
-351.422 -146.968 1631
-346.03 -146.338 1624
-341.304 -145.977 1620
-336.388 -145.527 1615
-332.526 -145.527 1615
-327.647 -145.076 1610
-322.59 -144.535 1604
-318.158 -144.265 1601
-314.33 -144.265 1601
-309.338 -143.724 1595
-304.566 -143.274 1590
-300.196 -143.003 1587
-296.401 -143.003 1587
-291.5 -142.463 1581
-287.719 -142.463 1581
-282.861 -141.922 1575
-278.918 -141.832 1574
-275.154 -141.832 1574
-271.045 -141.652 1572
-267.286 -141.652 1572
-263.359 -141.562 1571
-259.602 -141.562 1571
-255.52 -141.382 1569
-252.089 -141.562 1571
-248.49 -141.652 1572
-245.042 -141.832 1574
-241.279 -141.832 1574
-238.118 -142.192 1578
-234.345 -142.192 1578
-231.302 -142.643 1583
-227.516 -142.643 1583
-223.872 -142.733 1584
-220.501 -143.003 1587
-217.799 -143.724 1595
-213.985 -143.724 1595
-210.698 -144.085 1599
-207.78 -144.716 1606
-204.447 -145.076 1610
-200.597 -145.076 1610
-197.358 -145.527 1615
-194.215 -146.067 1621
-192.1 -147.419 1636
-188.188 -147.419 1636
-184.614 -147.689 1639
-182.458 -149.131 1655
-179.363 -149.852 1663
-175.387 -149.852 1663
-172.441 -150.753 1673
-169.447 -151.654 1683
-166.503 -152.645 1694
-162.453 -152.645 1694
-158.869 -153.096 1699
-155.08 -153.366 1702
-151.01 -153.366 1702
-146.94 -153.366 1702
-143.038 -153.546 1704
-138.963 -153.546 1704
-135.759 -154.537 1715
-131.658 -154.537 1715
-127.631 -154.628 1716
-123.959 -155.168 1722
-120.19 -155.619 1727
-116.06 -155.619 1727
-112.06 -155.799 1729
-107.925 -155.799 1729
-103.791 -155.799 1729
-192.217 -343.226 3809
-183.109 -343.226 3809
-174.001 -343.226 3809
-164.502 -342.415 3800
-154.352 -340.073 3774
-144.673 -338.541 3757
-135.689 -338.541 3757
-126.435 -337.82 3749
-117.188 -337.009 3740
-108.505 -337.82 3749
-99.5397 -337.82 3749
-90.5747 -337.82 3749
-81.4138 -337.009 3740
-72.3153 -336.288 3732
-63.3909 -336.288 3732
-54.4666 -336.288 3732
-45.6399 -337.009 3740
-36.6964 -337.009 3740
-27.7529 -337.009 3740
-18.8095 -337.009 3740
-9.84488 -336.288 3732
-0.920541 -336.288 3732
8.0038 -336.288 3732
16.9281 -336.288 3732
25.8525 -336.288 3732
34.7768 -336.288 3732
43.7012 -336.288 3732
52.6255 -336.288 3732
61.4179 -335.567 3724
70.1721 -334.846 3716
79.0581 -334.846 3716
87.9442 -334.846 3716
96.8303 -334.846 3716
105.46 -334.035 3707
114.078 -333.314 3699
122.924 -333.314 3699
131.769 -333.314 3699
140.31 -332.593 3691
148.813 -331.873 3683
157.621 -331.873 3683
166.066 -331.152 3675
174.854 -331.152 3675
183.243 -330.431 3667
192.011 -330.431 3667
200.78 -330.431 3667
209.549 -330.431 3667
217.782 -329.62 3658
226.53 -329.62 3658
235.277 -329.62 3658
244.025 -329.62 3658
252.772 -329.62 3658
261.519 -329.62 3658
270.267 -329.62 3658
279.014 -329.62 3658
287.132 -328.899 3650
296.509 -329.62 3658
305.256 -329.62 3658
314.004 -329.62 3658
322.751 -329.62 3658
330.773 -328.899 3650
339.502 -328.899 3650
348.23 -328.899 3650
356.958 -328.899 3650
364.885 -328.178 3642
373.594 -328.178 3642
382.303 -328.178 3642
391.012 -328.178 3642
398.953 -327.547 3635
407.646 -327.547 3635
415.422 -326.826 3627
424.095 -326.826 3627
432.768 -326.826 3627
442.415 -327.547 3635
451.107 -327.547 3635
459.8 -327.547 3635
468.492 -327.547 3635
476.134 -326.826 3627
484.808 -326.826 3627
493.481 -326.826 3627
503.262 -327.547 3635
515.194 -329.62 3658
526.376 -331.152 3675
535.164 -331.152 3675
543.952 -331.152 3675
1228.01 -367.556 4079
1237.77 -367.556 4079
1247.52 -367.556 4079
1257.28 -367.556 4079
1267.03 -367.556 4079
