ply
format ascii 1.0
comment File generated
element vertex 2246
property float x
property float y
property float z
end_header
1434.46 1223.22 2317
1440 1223.22 2317
1441.79 1220.05 2311
1447.32 1220.05 2311
1454.73 1221.63 2314
1460.27 1221.63 2314
1465.8 1221.63 2314
1469.43 1220.05 2311
1476.87 1221.63 2314
1482.4 1221.63 2314
1491.79 1224.8 2320
1497.34 1224.8 2320
1502.89 1224.8 2320
1508.44 1224.8 2320
1513.98 1224.8 2320
1519.53 1224.8 2320
1521.14 1221.63 2314
1520.07 1216.36 2304
1525.58 1216.36 2304
1523.12 1210.02 2292
1523.93 1206.32 2285
1529.39 1206.32 2285
1541.57 1211.6 2295
1547.06 1211.6 2295
1552.55 1211.6 2295
1553.29 1207.91 2288
1556.71 1206.32 2285
1571.06 1213.19 2298
1576.56 1213.19 2298
1584.12 1214.77 2301
1598.6 1221.63 2314
1613.15 1228.5 2327
1618.71 1228.5 2327
1640.33 1240.64 2350
1650.15 1243.81 2356
1658.6 1245.92 2360
1664.24 1245.92 2360
1669.89 1245.92 2360
1672.69 1243.81 2356
1678.32 1243.81 2356
1674.67 1236.94 2343
1680.27 1236.94 2343
1693.07 1242.22 2353
1698.69 1242.22 2353
1704.32 1242.22 2353
1709.95 1242.22 2353
1710.47 1238.53 2346
1711.69 1235.36 2340
1721.69 1238.53 2346
1727.3 1238.53 2346
1732.91 1238.53 2346
1738.52 1238.53 2346
1744.13 1238.53 2346
1749.74 1238.53 2346
1753.11 1236.94 2343
1756.46 1235.36 2340
1762.05 1235.36 2340
1757.83 1228.5 2327
1755.81 1223.22 2317
1753.75 1217.94 2307
1759.27 1217.94 2307
1764.79 1217.94 2307
-1734.79 1228.77 2317
-1729.25 1228.77 2317
-1719.25 1225.59 2311
-1713.72 1225.59 2311
-1705.24 1223.47 2307
-1697.51 1221.87 2304
-1692 1221.87 2304
-1686.49 1221.87 2304
-1680.98 1221.87 2304
-1671.11 1218.69 2298
-1663.44 1217.1 2295
-1657.95 1217.1 2295
-1647.43 1213.39 2288
-1644.83 1215.51 2292
-1641.49 1217.1 2295
-1640.28 1220.28 2301
-1634.78 1220.28 2301
-1629.27 1220.28 2301
-1623.77 1220.28 2301
-1618.27 1220.28 2301
-1612.77 1220.28 2301
-1603.07 1217.1 2295
-1584.36 1207.03 2276
-1578.92 1207.03 2276
-1565.18 1200.66 2264
-1559.76 1200.66 2264
-1560.53 1205.43 2273
-1555.09 1205.43 2273
-1549.66 1205.43 2273
-1557.13 1215.51 2292
-1551.65 1215.51 2292
-1546.17 1215.51 2292
-1540.69 1215.51 2292
-1543.25 1221.87 2304
-1544.41 1227.18 2314
-1547.52 1234.07 2327
-1541.96 1234.07 2327
-1536.39 1234.07 2327
-1530.83 1234.07 2327
-1525.26 1234.07 2327
-1519.7 1234.07 2327
-1504.06 1244.15 2346
-1498.45 1244.15 2346
-1492.84 1244.15 2346
-1487.23 1244.15 2346
-1477.83 1240.97 2340
-1472.23 1240.97 2340
-1468.52 1242.56 2343
-1462.91 1242.56 2343
-1457.31 1242.56 2343
-1451.71 1242.56 2343
-1446.11 1242.56 2343
-1440.5 1242.56 2343
-1431.23 1239.38 2337
-1423.2 1237.25 2333
-1415.8 1235.66 2330
-1410.22 1235.66 2330
-1379.33 1213.39 2288
-1376.62 1225.59 2311
-1371.09 1225.59 2311
-1384.48 1242.56 2343
-1382.99 1246.27 2350
-1377.37 1246.27 2350
-1371.75 1246.27 2350
-1362.06 1242.56 2343
-1354.72 1240.97 2340
-1349.13 1240.97 2340
-1339.51 1237.25 2333
-1312.21 1217.1 2295
-1306.72 1217.1 2295
-1301.23 1217.1 2295
-1295.74 1217.1 2295
-1290.26 1217.1 2295
-1279.17 1211.8 2285
-1273.71 1211.8 2285
-1268.24 1211.8 2285
-1273.28 1221.87 2304
-1267.77 1221.87 2304
-1262.26 1221.87 2304
-1246.38 1211.8 2285
-1237.66 1208.62 2279
-1232.21 1208.62 2279
-1226.76 1208.62 2279
-1221.31 1208.62 2279
-1217.46 1210.21 2282
-1212.01 1210.21 2282
-1218.18 1221.87 2304
-1212.67 1221.87 2304
-1212.4 1227.18 2314
-1213.65 1234.07 2327
-1209.64 1235.66 2330
-1204.07 1235.66 2330
-1198.5 1235.66 2330
-1192.93 1235.66 2330
-1188.88 1237.25 2333
-1183.3 1237.25 2333
-1177.73 1237.25 2333
-1172.15 1237.25 2333
-1166.57 1237.25 2333
-1160.99 1237.25 2333
-1161.85 1244.15 2346
-1159.69 1247.86 2353
-1157.49 1251.57 2360
-1151.85 1251.57 2360
-1149.12 1254.75 2366
-1145.4 1256.88 2370
-1142.61 1260.06 2376
-1136.93 1260.06 2376
-1131.25 1260.06 2376
-1125.57 1260.06 2376
-1119.89 1260.06 2376
-1108.11 1253.16 2363
-1105.73 1256.88 2370
-1100.06 1256.88 2370
-1094.39 1256.88 2370
-1088.72 1256.88 2370
-1081.23 1254.75 2366
-1074.21 1253.16 2363
-1068.56 1253.16 2363
-1055.26 1244.15 2346
-1046.96 1240.97 2340
-1035.58 1234.07 2327
-1026.92 1230.36 2320
-1021.37 1230.36 2320
-1010.13 1223.47 2307
-1003.31 1221.87 2304
-996.5 1220.28 2301
-990.997 1220.28 2301
-985.495 1220.28 2301
-979.993 1220.28 2301
-974.49 1220.28 2301
-968.988 1220.28 2301
-963.486 1220.28 2301
-957.983 1220.28 2301
-952.481 1220.28 2301
-946.978 1220.28 2301
-940.249 1218.69 2298
-933.533 1217.1 2295
-930.471 1220.28 2301
-927.381 1223.47 2307
-921.864 1223.47 2307
-919.128 1227.18 2314
-913.594 1227.18 2314
-908.061 1227.18 2314
-902.527 1227.18 2314
-898.157 1228.77 2317
-896.469 1234.07 2327
-894.732 1239.38 2337
-889.144 1239.38 2337
-884.69 1240.97 2340
-879.094 1240.97 2340
-878.351 1247.86 2353
-872.724 1247.86 2353
-869.677 1251.57 2360
-866.231 1254.75 2366
-860.573 1254.75 2366
-854.915 1254.75 2366
-849.257 1254.75 2366
-842.53 1253.16 2363
-836.879 1253.16 2363
-831.228 1253.16 2363
-825.578 1253.16 2363
-819.927 1253.16 2363
-814.276 1253.16 2363
-808.626 1253.16 2363
-799.577 1247.86 2353
-790.576 1242.56 2343
-781.623 1237.25 2333
-776.044 1237.25 2333
-769.474 1235.66 2330
-760.624 1230.36 2320
-754.1 1228.77 2317
-748.559 1228.77 2317
-743.018 1228.77 2317
-737.478 1228.77 2317
-730.99 1227.18 2314
-725.456 1227.18 2314
-716.811 1221.87 2304
-709.45 1218.69 2298
-702.116 1215.51 2292
-697.547 1217.1 2295
-692.059 1217.1 2295
-686.571 1217.1 2295
-681.083 1217.1 2295
-676.478 1218.69 2298
-670.983 1218.69 2298
-670.99 1228.77 2317
-670.045 1237.25 2333
-664.466 1237.25 2333
-658.887 1237.25 2333
-653.308 1237.25 2333
-646.063 1234.07 2327
-641.324 1235.66 2330
-635.753 1235.66 2330
-630.181 1235.66 2330
-624.609 1235.66 2330
-619.037 1235.66 2330
-455.79 926.482 1747
-451.612 926.482 1747
-447.435 926.482 1747
-441.735 923.3 1741
-437.572 923.3 1741
-433.906 924.361 1743
-429.738 924.361 1743
-425.57 924.361 1743
-420.919 923.3 1741
-416.037 921.709 1738
-411.881 921.709 1738
-407.725 921.709 1738
-403.569 921.709 1738
-399.413 921.709 1738
-395.257 921.709 1738
-391.101 921.709 1738
-386.499 920.648 1736
-381.908 919.588 1734
-377.761 919.588 1734
-373.614 919.588 1734
-369.468 919.588 1734
-364.9 918.527 1732
-360.758 918.527 1732
-356.617 918.527 1732
-352.271 917.997 1731
-348.132 917.997 1731
-343.993 917.997 1731
-339.461 916.936 1729
-335.326 916.936 1729
-331.192 916.936 1729
-327.057 916.936 1729
-322.922 916.936 1729
-318.788 916.936 1729
-314.653 916.936 1729
-310.519 916.936 1729
-306.03 915.876 1727
-301.9 915.876 1727
-298.115 916.936 1729
-293.98 916.936 1729
-289.846 916.936 1729
-285.711 916.936 1729
-281.577 916.936 1729
-277.442 916.936 1729
-273.308 916.936 1729
-268.862 915.876 1727
-265.039 916.936 1729
-260.904 916.936 1729
-257.066 917.997 1731
-252.927 917.997 1731
-248.788 917.997 1731
-244.79 918.527 1732
-241.204 920.648 1736
-237.052 920.648 1736
-233.438 922.77 1740
-229.409 923.3 1741
-225.763 925.421 1745
-221.59 925.421 1745
-217.666 926.482 1747
-214.1 929.134 1752
-210.39 931.255 1756
-206.19 931.255 1756
-202.681 934.437 1762
-198.806 936.028 1765
-195.026 938.149 1769
-190.796 938.149 1769
-186.988 940.271 1773
-183.469 943.983 1780
-179.213 943.983 1780
-174.956 943.983 1780
-168.398 931.255 1756
-218.041 1269.07 2393
-212.319 1269.07 2393
-206.596 1269.07 2393
-200.034 1263.77 2383
-194.336 1263.77 2383
-188.637 1263.77 2383
-182.171 1258.47 2373
-176.274 1256.88 2370
-170.102 1253.16 2363
-163.965 1249.45 2356
-158.331 1249.45 2356
-152.049 1244.15 2346
-146.064 1240.97 2340
-140.829 1244.15 2346
-135.219 1244.15 2346
-129.609 1244.15 2346
-123.999 1244.15 2346
-118.389 1244.15 2346
-112.779 1244.15 2346
-107.169 1244.15 2346
-101.559 1244.15 2346
-95.9486 1244.15 2346
-90.3386 1244.15 2346
-84.7286 1244.15 2346
-79.1186 1244.15 2346
-73.5086 1244.15 2346
-68.0144 1246.27 2350
-62.3948 1246.27 2350
-56.7753 1246.27 2350
-51.221 1247.86 2353
-45.5943 1247.86 2353
-39.9675 1247.86 2353
-34.3408 1247.86 2353
-28.6775 1246.27 2350
-23.0579 1246.27 2350
-17.3641 1240.97 2340
-11.7685 1240.97 2340
-6.14646 1235.66 2330
-0.573981 1234.07 2327
4.99058 1234.07 2327
10.5098 1228.77 2317
16.0089 1225.59 2311
21.4979 1223.47 2307
27.0146 1223.47 2307
32.5314 1223.47 2307
38.1636 1227.18 2314
43.7537 1228.77 2317
49.2943 1228.77 2317
54.835 1228.77 2317
60.3756 1228.77 2317
65.9163 1228.77 2317
71.4569 1228.77 2317
76.9976 1228.77 2317
82.6451 1230.36 2320
88.1929 1230.36 2320
93.7407 1230.36 2320
99.2886 1230.36 2320
104.701 1228.77 2317
109.956 1225.59 2311
115.482 1225.59 2311
121.166 1227.18 2314
126.699 1227.18 2314
132.576 1230.36 2320
138.719 1235.66 2330
144.724 1239.38 2337
150.312 1239.38 2337
155.901 1239.38 2337
161.489 1239.38 2337
167.507 1242.56 2343
173.11 1242.56 2343
178.712 1242.56 2343
184.315 1242.56 2343
189.918 1242.56 2343
195.521 1242.56 2343
201.124 1242.56 2343
206.462 1240.97 2340
212.057 1240.97 2340
217.653 1240.97 2340
223.249 1240.97 2340
229.431 1244.15 2346
235.041 1244.15 2346
240.651 1244.15 2346
246.261 1244.15 2346
251.871 1244.15 2346
257.481 1244.15 2346
262.418 1240.97 2340
266.869 1235.66 2330
272.09 1234.07 2327
277.654 1234.07 2327
282.732 1231.95 2323
287.542 1228.77 2317
292.324 1225.59 2311
297.85 1225.59 2311
303.377 1225.59 2311
308.903 1225.59 2311
314.429 1225.59 2311
319.955 1225.59 2311
326.749 1230.36 2320
332.297 1230.36 2320
338.864 1234.07 2327
344.873 1235.66 2330
350.445 1235.66 2330
356.016 1235.66 2330
361.588 1235.66 2330
367.633 1237.25 2333
373.851 1239.38 2337
379.44 1239.38 2337
385.028 1239.38 2337
390.617 1239.38 2337
396.205 1239.38 2337
401.794 1239.38 2337
407.905 1240.97 2340
413.501 1240.97 2340
419.096 1240.97 2340
424.692 1240.97 2340
430.288 1240.97 2340
435.883 1240.97 2340
441.479 1240.97 2340
447.075 1240.97 2340
452.67 1240.97 2340
458.266 1240.97 2340
463.862 1240.97 2340
469.457 1240.97 2340
474.444 1239.38 2337
480.649 1240.97 2340
486.868 1242.56 2343
492.471 1242.56 2343
498.073 1242.56 2343
503.676 1242.56 2343
509.279 1242.56 2343
514.882 1242.56 2343
520.485 1242.56 2343
525.414 1240.97 2340
529.421 1237.25 2333
535 1237.25 2333
539.884 1235.66 2330
545.455 1235.66 2330
551.027 1235.66 2330
556.599 1235.66 2330
561.447 1234.07 2327
566.037 1231.95 2323
570.854 1230.36 2320
576.401 1230.36 2320
581.949 1230.36 2320
587.497 1230.36 2320
593.045 1230.36 2320
597.819 1228.77 2317
603.359 1228.77 2317
608.9 1228.77 2317
616.032 1231.95 2323
621.587 1231.95 2323
628.222 1234.07 2327
633.786 1234.07 2327
642.098 1239.38 2337
648.518 1240.97 2340
654.952 1242.56 2343
660.555 1242.56 2343
666.158 1242.56 2343
671.761 1242.56 2343
677.364 1242.56 2343
682.966 1242.56 2343
689.451 1244.15 2346
696.246 1246.27 2350
701.866 1246.27 2350
707.485 1246.27 2350
710.07 1240.97 2340
713.525 1237.25 2333
719.104 1237.25 2333
724.683 1237.25 2333
729.323 1235.66 2330
733.948 1234.07 2327
739.513 1234.07 2327
745.077 1234.07 2327
749.352 1231.95 2323
754.907 1231.95 2323
760.462 1231.95 2323
766.017 1231.95 2323
769.579 1228.77 2317
775.119 1228.77 2317
781.671 1230.36 2320
789.594 1234.07 2327
795.158 1234.07 2327
801.755 1235.66 2330
809.753 1239.38 2337
816.388 1240.97 2340
824.091 1244.15 2346
829.701 1244.15 2346
835.311 1244.15 2346
840.921 1244.15 2346
846.531 1244.15 2346
852.141 1244.15 2346
857.751 1244.15 2346
863.361 1244.15 2346
868.971 1244.15 2346
872.344 1240.97 2340
875.313 1237.25 2333
880.892 1237.25 2333
887.991 1239.38 2337
893.58 1239.38 2337
899.168 1239.38 2337
904.757 1239.38 2337
910.345 1239.38 2337
915.934 1239.38 2337
919.945 1237.25 2333
925.524 1237.25 2333
931.103 1237.25 2333
936.681 1237.25 2333
939.837 1234.07 2327
945.402 1234.07 2327
945.654 1227.18 2314
951.187 1227.18 2314
955.48 1225.59 2311
955.601 1218.69 2298
961.096 1218.69 2298
966.591 1218.69 2298
970.817 1217.1 2295
976.305 1217.1 2295
978.799 1213.39 2288
984.27 1213.39 2288
988.443 1211.8 2285
992.603 1210.21 2282
998.06 1210.21 2282
1003.52 1210.21 2282
1008.97 1210.21 2282
1014.43 1210.21 2282
1019.89 1210.21 2282
1025.34 1210.21 2282
1032.16 1211.8 2285
1037.62 1211.8 2285
1044.45 1213.39 2288
1049.93 1213.39 2288
1055.4 1213.39 2288
1060.87 1213.39 2288
1066.34 1213.39 2288
1069 1210.21 2282
1074.46 1210.21 2282
1077.07 1207.03 2276
1082.52 1207.03 2276
1087.96 1207.03 2276
1093.4 1207.03 2276
1095.95 1203.84 2270
1099.92 1202.25 2267
1109.73 1207.03 2276
1115.17 1207.03 2276
1120.62 1207.03 2276
1126.06 1207.03 2276
1131.5 1207.03 2276
1139.94 1210.21 2282
1145.4 1210.21 2282
1150.85 1210.21 2282
1156.31 1210.21 2282
1161.77 1210.21 2282
1167.23 1210.21 2282
1171.14 1208.62 2279
1176.59 1208.62 2279
1188.78 1215.51 2292
1197.39 1218.69 2298
1202.89 1218.69 2298
1209.96 1220.28 2301
1217.04 1221.87 2304
1222.55 1221.87 2304
1228.06 1221.87 2304
1233.57 1221.87 2304
1239.08 1221.87 2304
1244.59 1221.87 2304
1250.1 1221.87 2304
1250.71 1217.1 2295
1250.72 1211.8 2285
1256.19 1211.8 2285
1261.65 1211.8 2285
1267.11 1211.8 2285
1265.9 1205.43 2273
1271.33 1205.43 2273
1281.82 1210.21 2282
1287.28 1210.21 2282
1292.74 1210.21 2282
1298.19 1210.21 2282
1303.65 1210.21 2282
1309.11 1210.21 2282
1309.38 1205.43 2273
1307.87 1199.07 2261
1309.21 1195.36 2254
1314.6 1195.36 2254
1318.24 1193.77 2251
1320.09 1190.59 2245
1332.54 1196.95 2257
1342.09 1200.66 2264
1347.51 1200.66 2264
1360.09 1207.03 2276
1370.93 1211.8 2285
1380.61 1215.51 2292
1386.09 1215.51 2292
1397.04 1220.28 2301
1410.47 1227.18 2314
1417.83 1228.77 2317
1423.38 1228.77 2317
1428.92 1228.77 2317
1434.46 1228.77 2317
1440 1228.77 2317
1441.79 1225.59 2311
1447.32 1225.59 2311
1454.73 1227.18 2314
1460.27 1227.18 2314
1465.8 1227.18 2314
1469.43 1225.59 2311
1476.87 1227.18 2314
1482.4 1227.18 2314
1491.79 1230.36 2320
1497.34 1230.36 2320
1502.89 1230.36 2320
1508.44 1230.36 2320
1513.98 1230.36 2320
1519.53 1230.36 2320
1521.14 1227.18 2314
1520.07 1221.87 2304
1525.58 1221.87 2304
1523.12 1215.51 2292
1523.93 1211.8 2285
1529.39 1211.8 2285
1541.57 1217.1 2295
1547.06 1217.1 2295
1552.55 1217.1 2295
1553.29 1213.39 2288
1556.71 1211.8 2285
1571.06 1218.69 2298
1576.56 1218.69 2298
1584.12 1220.28 2301
1598.6 1227.18 2314
1613.15 1234.07 2327
1618.71 1234.07 2327
1640.33 1246.27 2350
1650.15 1249.45 2356
1658.6 1251.57 2360
1664.24 1251.57 2360
1669.89 1251.57 2360
1672.69 1249.45 2356
1678.32 1249.45 2356
1674.67 1242.56 2343
1680.27 1242.56 2343
1693.07 1247.86 2353
1698.69 1247.86 2353
1704.32 1247.86 2353
1688.15 1231.95 2323
1698.8 1235.66 2330
1709.5 1239.38 2337
1715.09 1239.38 2337
1720.67 1239.38 2337
1723.31 1237.25 2333
1728.89 1237.25 2333
1737.44 1239.38 2337
1743.03 1239.38 2337
1748.62 1239.38 2337
1746.7 1234.07 2327
1752.26 1234.07 2327
1752.54 1230.36 2320
1748.24 1223.47 2307
1753.75 1223.47 2307
1756.98 1221.87 2304
1762.49 1221.87 2304
-1730.3 1231.12 2311
-1724.78 1231.12 2311
-1716.27 1228.99 2307
-1710.76 1228.99 2307
-1703.02 1227.39 2304
-1697.51 1227.39 2304
-1692 1227.39 2304
-1686.49 1227.39 2304
-1676.61 1224.2 2298
-1668.93 1222.6 2295
-1658.37 1218.87 2288
-1652.9 1218.87 2288
-1647.43 1218.87 2288
-1641.95 1218.87 2288
-1641.49 1222.6 2295
-1636 1222.6 2295
-1630.51 1222.6 2295
-1627.15 1224.2 2298
-1621.66 1224.2 2298
-1616.16 1224.2 2298
-1608.56 1222.6 2295
-1598.18 1218.87 2288
-1576.01 1206.08 2264
-1570.59 1206.08 2264
-1560.34 1202.36 2257
-1554.94 1202.36 2257
-1552.29 1204.49 2261
-1555.09 1210.88 2273
-1549.66 1210.88 2273
-1557.13 1221 2292
-1553.68 1222.6 2295
-1548.19 1222.6 2295
-1542.71 1222.6 2295
-1543.25 1227.39 2304
-1544.41 1232.72 2314
-1547.52 1239.65 2327
-1541.96 1239.65 2327
-1536.39 1239.65 2327
-1532.8 1241.24 2330
-1527.23 1241.24 2330
-1521.66 1241.24 2330
-1498.29 1244.97 2337
-1492.7 1244.97 2337
-1487.11 1244.97 2337
-1481.52 1244.97 2337
-1473.41 1242.84 2333
-1467.83 1242.84 2333
-1462.25 1242.84 2333
-1450.43 1237.52 2323
-1444.87 1237.52 2323
-1443.65 1241.24 2330
-1438.08 1241.24 2330
-1432.51 1241.24 2330
-1426.94 1241.24 2330
-1421.37 1241.24 2330
-1404.25 1231.12 2311
-1398.72 1231.12 2311
-1379.33 1218.87 2288
-1361.25 1207.68 2267
-1366.6 1217.27 2285
-1376.62 1231.12 2311
-1371.09 1231.12 2311
-1372.66 1237.52 2323
-1369.46 1239.65 2327
-1371.51 1246.57 2340
-1365.92 1246.57 2340
-1360.32 1246.57 2340
-1350.67 1242.84 2333
-1345.09 1242.84 2333
-1332.05 1235.92 2320
-1312.21 1222.6 2295
-1306.72 1222.6 2295
-1301.23 1222.6 2295
-1295.74 1222.6 2295
-1290.26 1222.6 2295
-1279.17 1217.27 2285
-1273.71 1217.27 2285
-1268.24 1217.27 2285
-1264.44 1218.87 2288
-1258.96 1218.87 2288
-1253.49 1218.87 2288
-1246.38 1217.27 2285
-1229.52 1206.08 2264
-1220.32 1202.36 2257
-1221.92 1209.28 2270
-1216.49 1209.28 2270
-1215.86 1214.08 2279
-1212.01 1215.67 2282
-1218.18 1227.39 2304
-1212.67 1227.39 2304
-1210.83 1231.12 2311
-1210 1235.92 2320
-1208.08 1239.65 2327
-1202.52 1239.65 2327
-1196.95 1239.65 2327
-1192.93 1241.24 2330
-1188.88 1242.84 2333
-1183.3 1242.84 2333
-1177.73 1242.84 2333
-1170.64 1241.24 2330
-1165.07 1241.24 2330
-1159.5 1241.24 2330
-1153.92 1241.24 2330
-1151.8 1244.97 2337
-1146.21 1244.97 2337
-1140.63 1244.97 2337
-1137.95 1248.17 2343
-1137.18 1253.5 2353
-1133 1255.1 2356
-1127.36 1255.1 2356
-1121.73 1255.1 2356
-1116.1 1255.1 2356
-1110.46 1255.1 2356
-1104.83 1255.1 2356
-1096.39 1251.9 2350
-1090.77 1251.9 2350
-1085.16 1251.9 2350
-1079.54 1251.9 2350
-1072.09 1249.77 2346
-1065.11 1248.17 2343
-1053.63 1241.24 2330
-1048.06 1241.24 2330
-1041.15 1239.65 2327
-1032.47 1235.92 2320
-1021.17 1228.99 2307
-1015.65 1228.99 2307
-1007.5 1225.8 2301
-1002 1225.8 2301
-996.5 1225.8 2301
-990.997 1225.8 2301
-982.925 1222.6 2295
-977.437 1222.6 2295
-971.949 1222.6 2295
-966.461 1222.6 2295
-960.973 1222.6 2295
-955.485 1222.6 2295
-949.997 1222.6 2295
-944.509 1222.6 2295
-937.794 1221 2292
-930.686 1218.87 2288
-928.045 1222.6 2295
-923.763 1224.2 2298
-918.268 1224.2 2298
-915.156 1227.39 2304
-912.41 1231.12 2311
-906.883 1231.12 2311
-901.357 1231.12 2311
-895.831 1231.12 2311
-891.46 1232.72 2314
-890.904 1239.65 2327
-885.339 1239.65 2327
-882.043 1242.84 2333
-877.967 1244.97 2337
-873.498 1246.57 2340
-867.903 1246.57 2340
-867.098 1253.5 2353
-864.034 1257.23 2360
-859.482 1258.82 2363
-853.831 1258.82 2363
-848.18 1258.82 2363
-841.46 1257.23 2360
-835.816 1257.23 2360
-828.766 1255.1 2356
-825.578 1258.82 2363
-819.927 1258.82 2363
-814.276 1258.82 2363
-805.204 1253.5 2353
-798.557 1251.9 2350
-789.564 1246.57 2340
-781.623 1242.84 2333
-776.044 1242.84 2333
-769.474 1241.24 2330
-760.624 1235.92 2320
-753.123 1232.72 2314
-747.59 1232.72 2314
-742.056 1232.72 2314
-736.523 1232.72 2314
-730.042 1231.12 2311
-724.516 1231.12 2311
-715.878 1225.8 2301
-706.362 1218.87 2288
-699.053 1215.67 2282
-695.42 1218.87 2288
-689.948 1218.87 2288
-684.477 1218.87 2288
-680.193 1221 2292
-676.478 1224.2 2298
-670.983 1224.2 2298
-669.253 1231.12 2311
-665.449 1234.32 2317
-659.909 1234.32 2317
-654.368 1234.32 2317
-648.827 1234.32 2317
-643.287 1234.32 2317
-637.746 1234.32 2317
-632.206 1234.32 2317
-626.665 1234.32 2317
-449.286 925.873 1738
-445.13 925.873 1738
-441.735 927.471 1741
-437.572 927.471 1741
-433.906 928.536 1743
-429.738 928.536 1743
-425.57 928.536 1743
-420.919 927.471 1741
-416.037 925.873 1738
-411.881 925.873 1738
-407.725 925.873 1738
-403.569 925.873 1738
-399.413 925.873 1738
-395.257 925.873 1738
-391.101 925.873 1738
-386.945 925.873 1738
-382.348 924.807 1736
-378.197 924.807 1736
-373.614 923.742 1734
-369.468 923.742 1734
-364.9 922.676 1732
-360.758 922.676 1732
-356.617 922.676 1732
-352.271 922.143 1731
-348.132 922.143 1731
-343.993 922.143 1731
-339.461 921.078 1729
-335.326 921.078 1729
-331.192 921.078 1729
-327.057 921.078 1729
-322.922 921.078 1729
-318.788 921.078 1729
-314.653 921.078 1729
-310.519 921.078 1729
-306.384 921.078 1729
-302.25 921.078 1729
-298.115 921.078 1729
-293.98 921.078 1729
-289.846 921.078 1729
-285.711 921.078 1729
-281.577 921.078 1729
-277.442 921.078 1729
-273.308 921.078 1729
-268.862 920.013 1727
-265.039 921.078 1729
-261.206 922.143 1731
-257.066 922.143 1731
-252.927 922.143 1731
-248.931 922.676 1732
-245.355 924.807 1736
-241.482 925.873 1738
-237.326 925.873 1738
-233.572 927.471 1741
-229.936 929.602 1745
-226.022 930.667 1747
-221.844 930.667 1747
-218.289 933.331 1752
-214.589 935.462 1756
-211.108 938.658 1762
-206.895 938.658 1762
-202.681 938.658 1762
-198.806 940.256 1765
-195.026 942.387 1769
-190.796 942.387 1769
-187.726 948.247 1780
-183.469 948.247 1780
-179.213 948.247 1780
-174.956 948.247 1780
-168.398 935.462 1756
-218.041 1274.81 2393
-212.319 1274.81 2393
-206.596 1274.81 2393
-200.034 1269.48 2383
-194.336 1269.48 2383
-188.637 1269.48 2383
-182.171 1264.15 2373
-176.274 1262.55 2370
-170.102 1258.82 2363
-163.965 1255.1 2356
-158.331 1255.1 2356
-152.049 1249.77 2346
-146.064 1246.57 2340
-140.829 1249.77 2346
-135.219 1249.77 2346
-129.609 1249.77 2346
-123.999 1249.77 2346
-118.389 1249.77 2346
-112.779 1249.77 2346
-107.169 1249.77 2346
-101.559 1249.77 2346
-95.9486 1249.77 2346
-90.3386 1249.77 2346
-84.7286 1249.77 2346
-79.1186 1249.77 2346
-73.5086 1249.77 2346
-68.0144 1251.9 2350
-62.3948 1251.9 2350
-56.7753 1251.9 2350
-51.221 1253.5 2353
-45.5943 1253.5 2353
-39.9675 1253.5 2353
-34.3408 1253.5 2353
-28.6775 1251.9 2350
-23.0579 1251.9 2350
-17.3641 1246.57 2340
-11.7685 1246.57 2340
-6.14646 1241.24 2330
-0.573981 1239.65 2327
4.99058 1239.65 2327
10.5098 1234.32 2317
16.0089 1231.12 2311
21.4979 1228.99 2307
27.0146 1228.99 2307
32.5314 1228.99 2307
38.1636 1232.72 2314
43.697 1232.72 2314
49.2305 1232.72 2314
54.5983 1228.99 2307
60.1151 1228.99 2307
65.7456 1231.12 2311
71.2719 1231.12 2311
76.7982 1231.12 2311
82.3245 1231.12 2311
87.8508 1231.12 2311
93.3771 1231.12 2311
98.9034 1231.12 2311
104.249 1228.99 2307
109.623 1227.39 2304
115.282 1228.99 2307
120.799 1228.99 2307
126.316 1228.99 2307
132.233 1232.72 2314
138.123 1235.92 2320
144.29 1241.24 2330
149.862 1241.24 2330
155.434 1241.24 2330
161.213 1242.84 2333
167.078 1244.97 2337
172.666 1244.97 2337
178.484 1246.57 2340
184.079 1246.57 2340
189.675 1246.57 2340
195.271 1246.57 2340
200.866 1246.57 2340
206.197 1244.97 2337
211.786 1244.97 2337
217.374 1244.97 2337
222.581 1242.84 2333
228.844 1246.57 2340
234.741 1248.17 2343
240.343 1248.17 2343
245.946 1248.17 2343
250.905 1244.97 2337
256.493 1244.97 2337
261.297 1241.24 2330
266.067 1237.52 2323
271.271 1235.92 2320
276.819 1235.92 2320
282.002 1234.32 2317
286.798 1231.12 2311
291.818 1228.99 2307
296.175 1224.2 2298
302.064 1225.8 2301
307.566 1225.8 2301
313.069 1225.8 2301
318.571 1225.8 2301
324.918 1228.99 2307
330.435 1228.99 2307
337.408 1234.32 2317
343.393 1235.92 2320
348.941 1235.92 2320
354.488 1235.92 2320
360.502 1237.52 2323
366.687 1239.65 2327
372.732 1241.24 2330
378.303 1241.24 2330
383.875 1241.24 2330
389.447 1241.24 2330
395.019 1241.24 2330
400.074 1239.65 2327
405.639 1239.65 2327
412.264 1242.84 2333
417.843 1242.84 2333
424.148 1244.97 2337
429.736 1244.97 2337
435.883 1246.57 2340
441.479 1246.57 2340
447.075 1246.57 2340
452.67 1246.57 2340
458.266 1246.57 2340
463.267 1244.97 2337
468.855 1244.97 2337
473.632 1242.84 2333
480.032 1244.97 2337
485.621 1244.97 2337
491.209 1244.97 2337
496.798 1244.97 2337
502.386 1244.97 2337
506.453 1241.24 2330
512.025 1241.24 2330
517.597 1241.24 2330
523.168 1241.24 2330
526.471 1235.92 2320
532.019 1235.92 2320
536.871 1234.32 2317
542.412 1234.32 2317
547.953 1234.32 2317
553.493 1234.32 2317
559.034 1234.32 2317
563.113 1231.12 2311
567.655 1228.99 2307
573.172 1228.99 2307
579.692 1231.12 2311
585.218 1231.12 2311
590.744 1231.12 2311
596.271 1231.12 2311
602.578 1232.72 2314
608.112 1232.72 2314
615.236 1235.92 2320
621.587 1237.52 2323
628.222 1239.65 2327
633.786 1239.65 2327
642.098 1244.97 2337
648.518 1246.57 2340
654.952 1248.17 2343
660.555 1248.17 2343
666.158 1248.17 2343
671.761 1248.17 2343
677.364 1248.17 2343
681.218 1244.97 2337
686.806 1244.97 2337
693.283 1246.57 2340
698.879 1246.57 2340
704.475 1246.57 2340
707.946 1242.84 2333
711.69 1239.65 2327
714.172 1234.32 2317
719.713 1234.32 2317
725.254 1234.32 2317
730.794 1234.32 2317
736.335 1234.32 2317
741.875 1234.32 2317
747.416 1234.32 2317
752.957 1234.32 2317
758.497 1234.32 2317
764.038 1234.32 2317
768.582 1232.72 2314
773.112 1231.12 2311
780.66 1234.32 2317
786.201 1234.32 2317
791.741 1234.32 2317
800.723 1239.65 2327
807.327 1241.24 2330
815.341 1244.97 2337
821.983 1246.57 2340
827.579 1246.57 2340
834.243 1248.17 2343
840.921 1249.77 2346
846.531 1249.77 2346
852.141 1249.77 2346
856.654 1248.17 2343
858.577 1242.84 2333
864.156 1242.84 2333
868.616 1241.24 2330
874.188 1241.24 2330
879.76 1241.24 2330
886.471 1242.84 2333
892.05 1242.84 2333
897.629 1242.84 2333
903.208 1242.84 2333
908.787 1242.84 2333
913.19 1241.24 2330
918.762 1241.24 2330
921.557 1237.52 2323
927.112 1237.52 2323
932.667 1237.52 2323
935.798 1234.32 2317
940.12 1232.72 2314
937.889 1222.6 2295
943.377 1222.6 2295
948.865 1222.6 2295
954.353 1222.6 2295
959.841 1222.6 2295
965.329 1222.6 2295
969.548 1221 2292
973.327 1218.87 2288
974.948 1214.08 2279
980.398 1214.08 2279
985.848 1214.08 2279
988.688 1210.88 2273
994.123 1210.88 2273
1000.88 1212.48 2276
1006.32 1212.48 2276
1011.76 1212.48 2276
1015.87 1210.88 2273
1021.3 1210.88 2273
1026.74 1210.88 2273
1032.17 1210.88 2273
1037.61 1210.88 2273
1043.04 1210.88 2273
1048.48 1210.88 2273
1053.91 1210.88 2273
1059.35 1210.88 2273
1063.38 1209.28 2270
1068.81 1209.28 2270
1069.98 1204.49 2261
1075.38 1204.49 2261
1080.79 1204.49 2261
1086.2 1204.49 2261
1086.78 1199.16 2251
1092.16 1199.16 2251
1102.42 1204.49 2261
1107.82 1204.49 2261
1113.23 1204.49 2261
1118.64 1204.49 2261
1125.53 1206.08 2264
1133.95 1209.28 2270
1143.89 1214.08 2279
1149.34 1214.08 2279
1154.79 1214.08 2279
1155.66 1209.28 2270
1161.09 1209.28 2270
1163.43 1206.08 2264
1170.4 1207.68 2267
1178.93 1210.88 2273
1187.49 1214.08 2279
1192.94 1214.08 2279
1205.23 1221 2292
1213.88 1224.2 2298
1219.37 1224.2 2298
1224.87 1224.2 2298
1230.36 1224.2 2298
1235.86 1224.2 2298
1239.73 1222.6 2295
1245.22 1222.6 2295
1245.26 1217.27 2285
1247.44 1214.08 2279
1252.89 1214.08 2279
1258.34 1214.08 2279
1263.79 1214.08 2279
1265.9 1210.88 2273
1271.33 1210.88 2273
1276.77 1210.88 2273
1282.2 1210.88 2273
1292.74 1215.67 2282
1298.19 1215.67 2282
1303.65 1215.67 2282
1303.94 1210.88 2273
1309.38 1210.88 2273
1303.82 1200.76 2254
1309.21 1200.76 2254
1314.6 1200.76 2254
1314.72 1195.96 2245
1316.56 1192.77 2239
1323.69 1194.36 2242
1340.31 1204.49 2261
1345.72 1204.49 2261
1354.71 1207.68 2267
1365.53 1212.48 2276
1374.59 1215.67 2282
1380.05 1215.67 2282
1393.4 1222.6 2295
1402.54 1225.8 2301
1408.04 1225.8 2301
1413.55 1225.8 2301
1419.05 1225.8 2301
1422.69 1224.2 2298
1428.19 1224.2 2298
1437.43 1227.39 2304
1442.94 1227.39 2304
1450.33 1228.99 2307
1455.85 1228.99 2307
1461.37 1228.99 2307
1466.88 1228.99 2307
1474.95 1231.12 2311
1482.4 1232.72 2314
1487.93 1232.72 2314
1493.47 1232.72 2314
1500.94 1234.32 2317
1506.49 1234.32 2317
1512.03 1234.32 2317
1515.6 1232.72 2314
1519.16 1231.12 2311
1518.09 1225.8 2301
1523.59 1225.8 2301
1523.12 1221 2292
1523.93 1217.27 2285
1523.37 1212.48 2276
1532.84 1215.67 2282
1538.3 1215.67 2282
1543.76 1215.67 2282
1549.21 1215.67 2282
1548.54 1210.88 2273
1560.13 1215.67 2282
1565.58 1215.67 2282
1571.04 1215.67 2282
1578.57 1217.27 2285
1593.05 1224.2 2298
1598.54 1224.2 2298
1615.2 1232.72 2314
1627.04 1237.52 2323
1635.41 1239.65 2327
1640.97 1239.65 2327
1646.54 1239.65 2327
1649.26 1237.52 2323
1654.82 1237.52 2323
1653.94 1232.72 2314
1659.47 1232.72 2314
1669.32 1235.92 2320
1674.87 1235.92 2320
1682.59 1237.52 2323
1688.15 1237.52 2323
1698.8 1241.24 2330
1709.5 1244.97 2337
1715.09 1244.97 2337
1720.67 1244.97 2337
1723.31 1242.84 2333
1728.89 1242.84 2333
1737.44 1244.97 2337
1743.03 1244.97 2337
1748.62 1244.97 2337
1746.7 1239.65 2327
1752.26 1239.65 2327
1752.54 1235.92 2320
1748.24 1228.99 2307
1753.75 1228.99 2307
1756.98 1227.39 2304
1762.49 1227.39 2304
-1730.3 1236.66 2311
-1724.78 1236.66 2311
-1716.27 1234.52 2307
-1710.76 1234.52 2307
-1703.02 1232.91 2304
-1697.51 1232.91 2304
-1692 1232.91 2304
-1686.49 1232.91 2304
-1676.61 1229.7 2298
-1668.93 1228.1 2295
-1658.37 1224.35 2288
-1652.9 1224.35 2288
-1647.43 1224.35 2288
-1641.95 1224.35 2288
-1641.49 1228.1 2295
-1636 1228.1 2295
-1630.51 1228.1 2295
-1627.15 1229.7 2298
-1621.66 1229.7 2298
-1616.16 1229.7 2298
-1608.56 1228.1 2295
-1598.18 1224.35 2288
-1576.01 1211.51 2264
-1570.59 1211.51 2264
-1560.34 1207.76 2257
-1554.94 1207.76 2257
-1552.29 1209.9 2261
-1555.09 1216.32 2273
-1549.66 1216.32 2273
-1557.13 1226.49 2292
-1553.68 1228.1 2295
-1548.19 1228.1 2295
-1542.71 1228.1 2295
-1543.25 1232.91 2304
-1544.41 1238.26 2314
-1547.52 1245.22 2327
-1541.96 1245.22 2327
-1536.39 1245.22 2327
-1532.8 1246.83 2330
-1527.23 1246.83 2330
-1521.66 1246.83 2330
-1476.85 1228.1 2295
-1471.36 1228.1 2295
-1483.76 1243.08 2323
-1478.2 1243.08 2323
-1472.65 1243.08 2323
-1467.09 1243.08 2323
-1459.65 1241.47 2320
-1454.1 1241.47 2320
-1448.55 1241.47 2320
-1443.01 1241.47 2320
-1439.32 1243.08 2323
-1433.76 1243.08 2323
-1428.21 1243.08 2323
-1422.65 1243.08 2323
-1409.78 1236.66 2311
-1392.71 1226.49 2292
-1387.22 1226.49 2292
-1368.48 1214.72 2270
-1361.25 1213.11 2267
-1366.6 1222.75 2285
-1367.09 1228.1 2295
-1361.6 1228.1 2295
-1359.66 1231.31 2301
-1360.04 1236.66 2311
-1359.79 1241.47 2320
-1354.24 1241.47 2320
-1348.69 1241.47 2320
-1343.15 1241.47 2320
-1337.6 1241.47 2320
-1321.14 1231.31 2301
-1312.21 1228.1 2295
-1299.32 1221.14 2282
-1299.53 1226.49 2292
-1294.05 1226.49 2292
-1288.57 1226.49 2292
-1279.17 1222.75 2285
-1273.71 1222.75 2285
-1268.24 1222.75 2285
-1264.44 1224.35 2288
-1258.96 1224.35 2288
-1253.49 1224.35 2288
-1246.38 1222.75 2285
-1224.09 1206.16 2254
-1218.7 1206.16 2254
-1213.31 1206.16 2254
-1207.92 1206.16 2254
-1207.86 1211.51 2264
-1205.63 1214.72 2270
-1206.55 1221.14 2282
-1201.09 1221.14 2282
-1207.16 1232.91 2304
-1203.22 1234.52 2307
-1204.45 1241.47 2320
-1198.9 1241.47 2320
-1193.35 1241.47 2320
-1189.34 1243.08 2323
-1183.79 1243.08 2323
-1178.23 1243.08 2323
-1172.68 1243.08 2323
-1167.12 1243.08 2323
-1163.57 1245.22 2327
-1158 1245.22 2327
-1152.44 1245.22 2327
-1146.87 1245.22 2327
-1142.78 1246.83 2330
-1137.21 1246.83 2330
-1133.09 1248.43 2333
-1127.52 1248.43 2333
-1126.75 1253.78 2343
-1121.14 1253.78 2343
-1115.54 1253.78 2343
-1105.2 1248.43 2333
-1099.62 1248.43 2333
-1094.04 1248.43 2333
-1091.73 1252.18 2340
-1087.53 1253.78 2343
-1081.92 1253.78 2343
-1076.32 1253.78 2343
-1067.98 1250.57 2337
-1059.2 1246.83 2330
-1050.47 1243.08 2323
-1044.91 1243.08 2323
-1038.02 1241.47 2320
-1029.8 1238.26 2314
-1018.51 1231.31 2301
-1013.01 1231.31 2301
-1004.88 1228.1 2295
-998.083 1226.49 2292
-990.87 1224.35 2288
-985.399 1224.35 2288
-978.642 1222.75 2285
-973.178 1222.75 2285
-967.714 1222.75 2285
-962.25 1222.75 2285
-954.274 1219.54 2279
-947.575 1217.93 2276
-942.132 1217.93 2276
-936.69 1217.93 2276
-926.337 1211.51 2264
-923.364 1214.72 2270
-921.575 1219.54 2279
-917.331 1221.14 2282
-911.874 1221.14 2282
-907.609 1222.75 2285
-903.329 1224.35 2288
-899.427 1226.49 2292
-893.947 1226.49 2292
-889.629 1228.1 2295
-886.452 1231.31 2301
-885.927 1238.26 2314
-880.393 1238.26 2314
-877.128 1241.47 2320
-874.21 1245.22 2327
-872.379 1250.57 2337
-866.79 1250.57 2337
-864.518 1255.39 2346
-862.569 1260.74 2356
-858.39 1262.88 2360
-852.747 1262.88 2360
-847.103 1262.88 2360
-840.034 1260.74 2356
-834.4 1260.74 2356
-827.711 1259.13 2353
-822.084 1259.13 2353
-816.457 1259.13 2353
-810.83 1259.13 2353
-805.204 1259.13 2353
-794.14 1250.57 2337
-788.551 1250.57 2337
-781.623 1248.43 2333
-776.044 1248.43 2333
-768.484 1245.22 2327
-759.64 1239.87 2317
-752.147 1236.66 2311
-746.621 1236.66 2311
-741.094 1236.66 2311
-735.568 1236.66 2311
-726.883 1231.31 2301
-721.38 1231.31 2301
-713.078 1226.49 2292
-705.436 1222.75 2285
-696.296 1216.32 2273
-692.684 1219.54 2279
-687.234 1219.54 2279
-681.785 1219.54 2279
-679.006 1224.35 2288
-676.478 1229.7 2298
-670.983 1229.7 2298
-667.225 1232.91 2304
-663.726 1236.66 2311
-658.2 1236.66 2311
-652.674 1236.66 2311
-645.187 1232.91 2304
-637.179 1228.1 2295
-631.691 1228.1 2295
-626.203 1228.1 2295
-620.715 1228.1 2295
-449.286 930.036 1738
-445.13 930.036 1738
-443.257 934.852 1747
-439.582 935.922 1749
-435.4 935.922 1749
-431.217 935.922 1749
-427.035 935.922 1749
-421.402 932.712 1743
-416.755 931.641 1741
-412.592 931.641 1741
-407.725 930.036 1738
-403.569 930.036 1738
-399.413 930.036 1738
-395.257 930.036 1738
-391.101 930.036 1738
-386.945 930.036 1738
-382.348 928.966 1736
-378.197 928.966 1736
-373.614 927.895 1734
-369.468 927.895 1734
-364.9 926.825 1732
-360.758 926.825 1732
-356.617 926.825 1732
-352.271 926.29 1731
-348.132 926.29 1731
-343.993 926.29 1731
-339.461 925.22 1729
-335.326 925.22 1729
-331.192 925.22 1729
-327.057 925.22 1729
-322.922 925.22 1729
-318.788 925.22 1729
-314.653 925.22 1729
-310.519 925.22 1729
-306.384 925.22 1729
-302.25 925.22 1729
-298.115 925.22 1729
-293.98 925.22 1729
-289.846 925.22 1729
-285.711 925.22 1729
-281.577 925.22 1729
-277.442 925.22 1729
-273.308 925.22 1729
-268.862 924.15 1727
-265.039 925.22 1729
-261.206 926.29 1731
-257.066 926.29 1731
-252.927 926.29 1731
-248.931 926.825 1732
-245.355 928.966 1736
-241.482 930.036 1738
-237.326 930.036 1738
-233.572 931.641 1741
-229.936 933.782 1745
-226.022 934.852 1747
-221.844 934.852 1747
-218.289 937.528 1752
-214.589 939.668 1756
-211.108 942.879 1762
-206.895 942.879 1762
-202.681 942.879 1762
-198.806 944.484 1765
-195.026 946.625 1769
-190.796 946.625 1769
-187.726 952.511 1780
-183.469 952.511 1780
-179.213 952.511 1780
-174.956 952.511 1780
-218.041 1280.54 2393
-212.319 1280.54 2393
-206.596 1280.54 2393
-200.034 1275.19 2383
-193.52 1269.84 2373
-187.846 1269.84 2373
-181.634 1266.09 2366
-175.53 1262.88 2360
-169.598 1260.74 2356
-163.06 1253.78 2343
-157.457 1253.78 2343
-151.465 1250.57 2337
-145.627 1248.43 2333
-140.288 1250.57 2337
-134.7 1250.57 2337
-129.111 1250.57 2337
-123.523 1250.57 2337
-117.934 1250.57 2337
-112.346 1250.57 2337
-106.757 1250.57 2337
-101.169 1250.57 2337
-95.5805 1250.57 2337
-89.9921 1250.57 2337
-84.2591 1248.43 2333
-78.6802 1248.43 2333
-73.0073 1246.83 2330
-67.4356 1246.83 2330
-61.7842 1245.22 2327
-56.2196 1245.22 2327
-50.655 1245.22 2327
-45.0905 1245.22 2327
-39.5259 1245.22 2327
-33.903 1243.08 2323
-28.348 1243.08 2323
-22.793 1243.08 2323
-17.1935 1239.87 2317
-11.6528 1239.87 2317
-6.09634 1236.66 2311
-0.570035 1236.66 2311
4.95627 1236.66 2311
10.4644 1234.52 2307
15.9188 1229.7 2298
21.3861 1228.1 2295
26.9092 1229.7 2298
32.4045 1229.7 2298
38.0481 1234.52 2307
43.5648 1234.52 2307
49.0816 1234.52 2307
54.5983 1234.52 2307
60.1151 1234.52 2307
65.7456 1236.66 2311
71.2719 1236.66 2311
76.7982 1236.66 2311
82.3245 1236.66 2311
87.8508 1236.66 2311
93.3771 1236.66 2311
98.9034 1236.66 2311
104.249 1234.52 2307
109.623 1232.91 2304
115.282 1234.52 2307
120.799 1234.52 2307
126.316 1234.52 2307
132.233 1238.26 2314
138.123 1241.47 2320
144.29 1246.83 2330
149.862 1246.83 2330
155.434 1246.83 2330
161.213 1248.43 2333
167.078 1250.57 2337
172.666 1250.57 2337
178.484 1252.18 2340
184.079 1252.18 2340
189.675 1252.18 2340
195.271 1252.18 2340
200.866 1252.18 2340
206.197 1250.57 2337
211.786 1250.57 2337
217.374 1250.57 2337
222.581 1248.43 2333
228.844 1252.18 2340
234.741 1253.78 2343
240.343 1253.78 2343
245.946 1253.78 2343
250.905 1250.57 2337
256.493 1250.57 2337
261.297 1246.83 2330
266.067 1243.08 2323
271.271 1241.47 2320
276.819 1241.47 2320
282.002 1239.87 2317
286.798 1236.66 2311
291.818 1234.52 2307
296.175 1229.7 2298
302.064 1231.31 2301
307.566 1231.31 2301
313.069 1231.31 2301
318.571 1231.31 2301
324.918 1234.52 2307
330.435 1234.52 2307
337.408 1239.87 2317
343.393 1241.47 2320
348.941 1241.47 2320
354.488 1241.47 2320
360.502 1243.08 2323
366.687 1245.22 2327
372.732 1246.83 2330
378.303 1246.83 2330
383.875 1246.83 2330
389.447 1246.83 2330
395.019 1246.83 2330
400.074 1245.22 2327
405.639 1245.22 2327
412.264 1248.43 2333
417.843 1248.43 2333
424.148 1250.57 2337
429.736 1250.57 2337
435.883 1252.18 2340
441.479 1252.18 2340
447.075 1252.18 2340
452.67 1252.18 2340
458.266 1252.18 2340
463.267 1250.57 2337
468.855 1250.57 2337
473.632 1248.43 2333
480.032 1250.57 2337
485.621 1250.57 2337
491.209 1250.57 2337
496.798 1250.57 2337
502.386 1250.57 2337
506.453 1246.83 2330
512.025 1246.83 2330
517.597 1246.83 2330
523.168 1246.83 2330
526.471 1241.47 2320
532.019 1241.47 2320
536.871 1239.87 2317
542.412 1239.87 2317
547.953 1239.87 2317
553.493 1239.87 2317
559.034 1239.87 2317
563.113 1236.66 2311
566.917 1232.91 2304
572.426 1232.91 2304
577.936 1232.91 2304
583.445 1232.91 2304
588.955 1232.91 2304
594.464 1232.91 2304
600.755 1234.52 2307
606.272 1234.52 2307
615.236 1241.47 2320
620.784 1241.47 2320
628.222 1245.22 2327
633.786 1245.22 2327
640.999 1248.43 2333
648.518 1252.18 2340
654.952 1253.78 2343
660.555 1253.78 2343
666.158 1253.78 2343
671.761 1253.78 2343
677.364 1253.78 2343
680.052 1248.43 2333
685.63 1248.43 2333
691.209 1248.43 2333
696.788 1248.43 2333
702.367 1248.43 2333
706.125 1245.22 2327
708.632 1239.87 2317
714.172 1239.87 2317
719.713 1239.87 2317
725.254 1239.87 2317
730.794 1239.87 2317
736.335 1239.87 2317
741.875 1239.87 2317
747.416 1239.87 2317
751.982 1238.26 2314
757.515 1238.26 2314
763.049 1238.26 2314
767.586 1236.66 2311
770.77 1232.91 2304
776.28 1232.91 2304
784.165 1236.66 2311
791.741 1239.87 2317
797.282 1239.87 2317
804.902 1243.08 2323
811.852 1245.22 2327
820.929 1250.57 2337
826.518 1250.57 2337
832.106 1250.57 2337
836.261 1248.43 2333
841.84 1248.43 2333
846.329 1246.83 2330
850.804 1245.22 2327
852.688 1239.87 2317
858.229 1239.87 2317
862.651 1238.26 2314
867.059 1236.66 2311
872.586 1236.66 2311
878.112 1236.66 2311
883.638 1236.66 2311
890.319 1238.26 2314
895.852 1238.26 2314
901.386 1238.26 2314
906.919 1238.26 2314
911.27 1236.66 2311
915.209 1234.52 2307
918.331 1231.31 2301
923.834 1231.31 2301
929.336 1231.31 2301
932.401 1228.1 2295
933.802 1222.75 2285
939.266 1222.75 2285
942.25 1219.54 2279
947.7 1219.54 2279
953.149 1219.54 2279
958.599 1219.54 2279
964.049 1219.54 2279
969.499 1219.54 2279
973.665 1217.93 2276
979.108 1217.93 2276
983.253 1216.32 2273
987.383 1214.72 2270
992.811 1214.72 2270
998.24 1214.72 2270
1003.67 1214.72 2270
1009.1 1214.72 2270
1014.52 1214.72 2270
1019.95 1214.72 2270
1025.38 1214.72 2270
1030.81 1214.72 2270
1036.24 1214.72 2270
1043.04 1216.32 2273
1048.48 1216.32 2273
1053.91 1216.32 2273
1051.89 1207.76 2257
1055.88 1206.16 2254
1061.27 1206.16 2254
1063.82 1202.95 2248
1060.64 1193.31 2230
1064.54 1191.71 2227
1065.54 1186.89 2218
1070.84 1186.89 2218
1073.72 1184.22 2213
1087.3 1193.31 2230
1092.63 1193.31 2230
1099.44 1194.92 2233
1104.78 1194.92 2233
1116.09 1201.34 2245
1125.95 1206.16 2254
1131.34 1206.16 2254
1136.73 1206.16 2254
1142.12 1206.16 2254
1147.51 1206.16 2254
1152.9 1206.16 2254
1153.67 1201.34 2245
1163.68 1206.16 2254
1169.07 1206.16 2254
1181.24 1213.11 2267
1186.66 1213.11 2267
1196.81 1217.93 2276
1205.42 1221.14 2282
1216.19 1226.49 2292
1221.67 1226.49 2292
1227.15 1226.49 2292
1232.63 1226.49 2292
1234.33 1222.75 2285
1239.79 1222.75 2285
1232.18 1209.9 2261
1237.58 1209.9 2261
1246.29 1213.11 2267
1251.71 1213.11 2267
1257.13 1213.11 2267
1259.21 1209.9 2261
1264.62 1209.9 2261
1270.03 1209.9 2261
1275.43 1209.9 2261
1287.64 1216.32 2273
1293.07 1216.32 2273
1298.51 1216.32 2273
1302.22 1214.72 2270
1304.19 1211.51 2264
1302.09 1204.55 2251
1300.5 1198.13 2239
1305.85 1198.13 2239
1309.45 1196.52 2236
1307.74 1190.1 2224
1316.6 1193.31 2230
1329.05 1199.74 2242
1334.41 1199.74 2242
1346.94 1206.16 2254
1363.73 1216.32 2273
1369.17 1216.32 2273
1374.6 1216.32 2273
1391.57 1226.49 2292
1398.88 1228.1 2295
1406.21 1229.7 2298
1411.7 1229.7 2298
1417.2 1229.7 2298
1422.69 1229.7 2298
1428.19 1229.7 2298
1433.68 1229.7 2298
1439.18 1229.7 2298
1450.33 1234.52 2307
1455.85 1234.52 2307
1461.37 1234.52 2307
1464.98 1232.91 2304
1472.4 1234.52 2307
1480.48 1236.66 2311
1487.93 1238.26 2314
1493.47 1238.26 2314
1499 1238.26 2314
1504.53 1238.26 2314
1510.07 1238.26 2314
1513.64 1236.66 2311
1514.56 1232.91 2304
1518.09 1231.31 2301
1523.59 1231.31 2301
1523.12 1226.49 2292
1519.93 1219.54 2279
1523.37 1217.93 2276
1530.83 1219.54 2279
1536.28 1219.54 2279
1541.73 1219.54 2279
1545.14 1217.93 2276
1533.55 1204.55 2251
1543.03 1207.76 2257
1548.43 1207.76 2257
1566.91 1217.93 2276
1576.5 1221.14 2282
1584.03 1222.75 2285
1589.5 1222.75 2285
1610.32 1234.52 2307
1615.83 1234.52 2307
1621.35 1234.52 2307
1626.87 1234.52 2307
1632.38 1234.52 2307
1631.51 1229.7 2298
1632.73 1226.49 2292
1642.5 1229.7 2298
1648 1229.7 2298
1653.49 1229.7 2298
1658.99 1229.7 2298
1664.48 1229.7 2298
1667.8 1228.1 2295
1682.04 1234.52 2307
1690.48 1236.66 2311
1698.21 1238.26 2314
1703.74 1238.26 2314
1709.27 1238.26 2314
1714.81 1238.26 2314
1722.57 1239.87 2317
1728.11 1239.87 2317
1733.65 1239.87 2317
1739.19 1239.87 2317
1737.2 1234.52 2307
1742.72 1234.52 2307
1745.96 1232.91 2304
1744.63 1228.1 2295
1747.83 1226.49 2292
1753.31 1226.49 2292
-1725.06 1238.43 2304
-1719.55 1238.43 2304
-1714.04 1238.43 2304
-1708.53 1238.43 2304
-1703.02 1238.43 2304
-1697.51 1238.43 2304
-1687.6 1235.21 2298
-1682.1 1235.21 2298
-1672.23 1231.98 2292
-1663.84 1229.83 2288
-1656.19 1228.22 2285
-1650.73 1228.22 2285
-1643.11 1226.61 2282
-1637.65 1226.61 2282
-1636.48 1229.83 2288
-1631.01 1229.83 2288
-1625.54 1229.83 2288
-1625.03 1233.59 2295
-1619.54 1233.59 2295
-1614.05 1233.59 2295
-1599.45 1226.61 2282
-1589.8 1223.38 2276
-1571.13 1213.17 2257
-1565.74 1213.17 2257
-1537.53 1195.43 2224
-1532.21 1195.43 2224
-1549.54 1213.17 2257
-1555.09 1221.77 2273
-1549.66 1221.77 2273
-1557.13 1231.98 2292
-1553.68 1233.59 2295
-1548.19 1233.59 2295
-1542.71 1233.59 2295
-1543.25 1238.43 2304
-1544.41 1243.81 2314
-1547.52 1250.8 2327
-1541.96 1250.8 2327
-1536.39 1250.8 2327
-1532.8 1252.41 2330
-1527.23 1252.41 2330
-1521.66 1252.41 2330
-1476.85 1233.59 2295
-1471.36 1233.59 2295
-1483.76 1248.65 2323
-1478.2 1248.65 2323
-1472.65 1248.65 2323
-1467.09 1248.65 2323
-1459.65 1247.03 2320
-1454.1 1247.03 2320
-1448.55 1247.03 2320
-1443.01 1247.03 2320
-1439.32 1248.65 2323
-1433.76 1248.65 2323
-1428.21 1248.65 2323
-1422.65 1248.65 2323
-1409.78 1242.19 2311
-1392.71 1231.98 2292
-1387.22 1231.98 2292
-1368.48 1220.16 2270
-1361.25 1218.54 2267
-1366.6 1228.22 2285
-1367.09 1233.59 2295
-1361.6 1233.59 2295
-1359.66 1236.82 2301
-1360.04 1242.19 2311
-1359.79 1247.03 2320
-1354.24 1247.03 2320
-1348.69 1247.03 2320
-1343.15 1247.03 2320
-1337.6 1247.03 2320
-1321.14 1236.82 2301
-1312.21 1233.59 2295
-1299.32 1226.61 2282
-1299.53 1231.98 2292
-1294.05 1231.98 2292
-1288.57 1231.98 2292
-1279.17 1228.22 2285
-1273.71 1228.22 2285
-1268.24 1228.22 2285
-1264.44 1229.83 2288
-1258.96 1229.83 2288
-1253.49 1229.83 2288
-1246.38 1228.22 2285
-1231.15 1218.54 2267
-1220.32 1213.17 2257
-1214.92 1213.17 2257
-1209.52 1213.17 2257
-1207.86 1216.93 2264
-1205.63 1220.16 2270
-1206.55 1226.61 2282
-1201.09 1226.61 2282
-1207.16 1238.43 2304
-1203.22 1240.04 2307
-1204.45 1247.03 2320
-1198.9 1247.03 2320
-1193.35 1247.03 2320
-1189.34 1248.65 2323
-1183.79 1248.65 2323
-1178.23 1248.65 2323
-1172.68 1248.65 2323
-1167.12 1248.65 2323
-1163.57 1250.8 2327
-1158 1250.8 2327
-1152.44 1250.8 2327
-1146.87 1250.8 2327
-1142.78 1252.41 2330
-1137.21 1252.41 2330
-1133.09 1254.02 2333
-1127.52 1254.02 2333
-1126.75 1259.4 2343
-1121.14 1259.4 2343
-1115.54 1259.4 2343
-1105.2 1254.02 2333
-1099.62 1254.02 2333
-1094.04 1254.02 2333
-1091.73 1257.78 2340
-1087.53 1259.4 2343
-1081.92 1259.4 2343
-1076.32 1259.4 2343
-1067.98 1256.17 2337
-1056.02 1248.65 2323
-1049.11 1247.03 2320
-1043.56 1247.03 2320
-1035.33 1243.81 2314
-1024.01 1236.82 2301
-1015.85 1233.59 2295
-1010.37 1233.59 2295
-999.185 1226.61 2282
-992.422 1224.99 2279
-983.075 1220.16 2270
-977.646 1220.16 2270
-970.933 1218.54 2267
-961.253 1213.17 2257
-955.856 1213.17 2257
-950.459 1213.17 2257
-943.805 1211.56 2254
-935.917 1208.33 2248
-930.542 1208.33 2248
-925.166 1208.33 2248
-914.881 1201.88 2236
-915.635 1209.94 2251
-911.466 1211.56 2254
-908.889 1215.32 2261
-903.483 1215.32 2261
-901.651 1220.16 2270
-896.222 1220.16 2270
-891.971 1221.77 2273
-886.536 1221.77 2273
-884.589 1226.61 2282
-882.985 1231.98 2292
-882.098 1238.43 2304
-876.589 1238.43 2304
-874.86 1243.81 2314
-871.581 1247.03 2320
-869.766 1252.41 2330
-864.194 1252.41 2330
-864.518 1261.01 2346
-862.569 1266.38 2356
-856.935 1266.38 2356
-851.302 1266.38 2356
-845.668 1266.38 2356
-837.894 1263.16 2350
-832.275 1263.16 2350
-826.655 1263.16 2350
-819.638 1261.01 2346
-811.946 1257.78 2340
-806.351 1257.78 2340
-800.755 1257.78 2340
-792.781 1254.02 2333
-785.177 1250.8 2327
-778.273 1248.65 2323
-772.718 1248.65 2323
-767.163 1248.65 2323
-758.657 1243.81 2314
-749.869 1238.43 2304
-744.359 1238.43 2304
-737.888 1236.82 2301
-732.385 1236.82 2301
-724.987 1233.59 2295
-719.499 1233.59 2295
-710.9 1228.22 2285
-702.658 1223.38 2276
-694.458 1218.54 2267
-692.684 1224.99 2279
-687.234 1224.99 2279
-681.785 1224.99 2279
-679.006 1229.83 2288
-675.595 1233.59 2295
-670.107 1233.59 2295
-667.225 1238.43 2304
-661.716 1238.43 2304
-656.206 1238.43 2304
-650.697 1238.43 2304
-642.667 1233.59 2295
-635.235 1229.83 2288
-631.691 1233.59 2295
-626.203 1233.59 2295
-620.715 1233.59 2295
-451.612 939.037 1747
-447.435 939.037 1747
-443.765 940.112 1749
-439.582 940.112 1749
-435.4 940.112 1749
-431.217 940.112 1749
-427.035 940.112 1749
-422.369 939.037 1747
-418.192 939.037 1747
-412.592 935.812 1741
-408.429 935.812 1741
-404.266 935.812 1741
-400.102 935.812 1741
-395.939 935.812 1741
-391.776 935.812 1741
-386.945 934.199 1738
-382.788 934.199 1738
-378.632 934.199 1738
-373.614 932.049 1734
-369.468 932.049 1734
-365.321 932.049 1734
-361.175 932.049 1734
-357.028 932.049 1734
-352.271 930.437 1731
-348.132 930.437 1731
-343.993 930.437 1731
-339.461 929.362 1729
-335.326 929.362 1729
-331.192 929.362 1729
-327.057 929.362 1729
-322.922 929.362 1729
-318.788 929.362 1729
-314.653 929.362 1729
-310.519 929.362 1729
-306.384 929.362 1729
-302.25 929.362 1729
-298.115 929.362 1729
-294.321 930.437 1731
-290.181 930.437 1731
-286.042 930.437 1731
-281.577 929.362 1729
-277.442 929.362 1729
-273.308 929.362 1729
-268.862 928.287 1727
-265.345 930.437 1731
-261.206 930.437 1731
-257.215 930.974 1732
-253.073 930.974 1732
-249.219 932.049 1734
-245.355 933.124 1736
-241.898 935.812 1741
-237.735 935.812 1741
-233.84 936.887 1743
-230.199 939.037 1747
-226.539 941.187 1751
-222.352 941.187 1751
-218.289 941.725 1752
-214.589 943.875 1756
-211.108 947.1 1762
-206.895 947.1 1762
-202.681 947.1 1762
-198.806 948.712 1765
-195.026 950.862 1769
-190.796 950.862 1769
-187.726 956.775 1780
-183.469 956.775 1780
-179.213 956.775 1780
-174.956 956.775 1780
-216.219 1275.52 2373
-210.544 1275.52 2373
-204.87 1275.52 2373
-199.195 1275.52 2373
-193.276 1273.91 2370
-187.608 1273.91 2370
-181.173 1268.53 2360
-174.042 1257.78 2340
-167.943 1254.02 2333
-162.155 1252.41 2330
-156.583 1252.41 2330
-151.012 1252.41 2330
-145.44 1252.41 2330
-140.048 1254.02 2333
-134.469 1254.02 2333
-128.89 1254.02 2333
-123.311 1254.02 2333
-117.934 1256.17 2337
-112.346 1256.17 2337
-106.757 1256.17 2337
-101.169 1256.17 2337
-95.4169 1254.02 2333
-89.838 1254.02 2333
-84.1508 1252.41 2330
-78.579 1252.41 2330
-72.788 1248.65 2323
-67.233 1248.65 2323
-61.678 1248.65 2323
-56.123 1248.65 2323
-50.568 1248.65 2323
-45.013 1248.65 2323
-39.458 1248.65 2323
-33.8592 1247.03 2320
-28.2748 1245.42 2317
-22.7047 1243.81 2314
-17.1712 1243.81 2314
-11.6226 1242.19 2311
-6.08578 1240.04 2307
-0.569048 1240.04 2307
4.94769 1240.04 2307
10.4236 1235.21 2298
15.8773 1231.98 2292
