ply
format ascii 1.0
comment File generated
element vertex 2257
property float x
property float y
property float z
end_header
433.449 420.778 3707
433.723 412.605 3635
442.415 412.605 3635
446.143 408.065 3595
447.024 401.141 3534
450.706 396.941 3497
458.15 396.146 3490
466.495 396.146 3490
470.895 392.854 3461
479.172 392.854 3461
494.631 398.643 3512
506.18 401.141 3534
514.631 401.141 3534
525.302 402.843 3549
533.789 402.843 3549
542.276 402.843 3549
550.762 402.843 3549
566.498 408.065 3595
593.011 420.778 3707
608.695 425.545 3749
617.66 425.545 3749
636.654 432.356 3809
667.124 446.658 3935
687.881 454.149 4001
697.448 454.149 4001
707.016 454.149 4001
716.583 454.149 4001
726.151 454.149 4001
732.225 451.993 3982
741.747 451.993 3982
745.798 448.701 3953
755.251 448.701 3953
764.703 448.701 3953
772.394 447.679 3944
780.041 446.658 3935
789.451 446.658 3935
795.003 444.501 3916
804.368 444.501 3916
813.732 444.501 3916
821.205 443.479 3907
830.547 443.479 3907
839.89 443.479 3907
861.405 449.836 3963
883.408 456.306 4020
893.021 456.306 4020
902.634 456.306 4020
912.247 456.306 4020
921.86 456.306 4020
933.79 457.441 4030
943.427 457.441 4030
953.064 457.441 4030
967.24 459.598 4049
976.922 459.598 4049
986.605 459.598 4049
1003.67 463.003 4079
1013.42 463.003 4079
1023.18 463.003 4079
1030.4 461.868 4069
1042.69 463.003 4079
1052.44 463.003 4079
1062.19 463.003 4079
1071.95 463.003 4079
1084.35 464.138 4089
1094.13 464.138 4089
1103.91 464.138 4089
1108.24 461.868 4069
1112.48 459.598 4049
1116.89 457.441 4030
1123.73 456.306 4020
1136.17 457.441 4030
1145.8 457.441 4030
1158.02 458.463 4039
1170.57 459.598 4049
1180.25 459.598 4049
1189.93 459.598 4049
1199.62 459.598 4049
1212.29 460.733 4059
1221.99 460.733 4059
1231.7 460.733 4059
1247.52 463.003 4079
1260.36 464.138 4089
1270.14 464.138 4089
1279.91 464.138 4089
1289.69 464.138 4089
1299.47 464.138 4089
1309.25 464.138 4089
1455.92 464.138 4089
1465.7 464.138 4089
1475.48 464.138 4089
1481.62 463.003 4079
1469.8 456.306 4020
1479.42 456.306 4020
1489.03 456.306 4020
1487.83 453.014 3991
1497.38 453.014 3991
1510.69 454.149 4001
1520.26 454.149 4001
1533.27 455.171 4010
1542.86 455.171 4010
1571.42 460.733 4059
1592.81 464.138 4089
1602.59 464.138 4089
1612.37 464.138 4089
1661.26 464.138 4089
1671.04 464.138 4089
1680.81 464.138 4089
1690.59 464.138 4089
1700.37 464.138 4089
1710.15 464.138 4089
1719.93 464.138 4089
1721.24 461.868 4069
1730.97 461.868 4069
1740.7 461.868 4069
1754.74 463.003 4079
1764.49 463.003 4079
1774.24 463.003 4079
1775.25 460.733 4059
1767.81 456.306 4020
1777.42 456.306 4020
1774.14 453.014 3991
1783.69 453.014 3991
1793.23 453.014 3991
1802.77 453.014 3991
1786.89 446.658 3935
1796.3 446.658 3935
1788.73 442.458 3898
1798.05 442.458 3898
1807.37 442.458 3898
1783.14 434.285 3826
1792.28 434.285 3826
1839.57 443.479 3907
1848.91 443.479 3907
1858.26 443.479 3907
1867.6 443.479 3907
1846.68 436.328 3844
1855.87 436.328 3844
1843.71 431.334 3800
1827.93 425.545 3749
1800.64 417.145 3675
1809.43 417.145 3675
1798.43 412.605 3635
1807.12 412.605 3635
1788.34 406.362 3580
1792.88 405.454 3572
1801.42 405.454 3572
1806.42 404.659 3565
1814.94 404.659 3565
1815.29 402.843 3549
1823.77 402.843 3549
1820.9 400.346 3527
1817.92 397.849 3505
1829.95 398.643 3512
1838.35 398.643 3512
1846.75 398.643 3512
1855.15 398.643 3512
1859.83 397.849 3505
1868.21 397.849 3505
1876.6 397.849 3505
1880.67 396.941 3497
1889.04 396.941 3497
1893.6 396.146 3490
1901.95 396.146 3490
1898.25 393.649 3468
1883.45 388.882 3426
2443.5 464.138 4089
2453.28 464.138 4089
2463.06 464.138 4089
2466.79 463.003 4079
2476.54 463.003 4079
2486.3 463.003 4079
2496.05 463.003 4079
2505.8 463.003 4079
2515.56 463.003 4079
2525.31 463.003 4079
2535.07 463.003 4079
2544.82 463.003 4079
2554.57 463.003 4079
2558.04 461.868 4069
2561.46 460.733 4059
2571.17 460.733 4059
2580.87 460.733 4059
2577.82 458.463 4039
2587.47 458.463 4039
2597.13 458.463 4039
531.061 84.3371 743
533.555 84.4507 744
535.334 84.4507 744
537.114 84.4507 744
538.168 84.3371 743
539.945 84.3371 743
542.451 84.4507 744
544.23 84.4507 744
546.009 84.4507 744
547.052 84.3371 743
548.829 84.3371 743
550.606 84.3371 743
551.639 84.2236 742
554.159 84.3371 743
555.936 84.3371 743
557.713 84.3371 743
559.489 84.3371 743
562.021 84.4507 744
563.801 84.4507 744
566.34 84.5642 745
568.121 84.5642 745
569.903 84.5642 745
-2326.29 360.115 3107
-2327.07 361.39 3118
-2319.61 361.39 3118
-2316.6 362.086 3124
-2309.13 362.086 3124
-2301.66 362.086 3124
-2294.19 362.086 3124
-2286.72 362.086 3124
-2279.25 362.086 3124
-2271.78 362.086 3124
-2264.31 362.086 3124
-2261.18 362.781 3130
-2266.65 364.867 3148
-2267.73 366.258 3160
-2260.18 366.258 3160
-2261.18 367.649 3172
-2266.38 369.735 3190
-2275.74 372.517 3214
-2268.06 372.517 3214
-2265.3 373.328 3221
-2257.59 373.328 3221
-2249.89 373.328 3221
-2237.32 372.517 3214
-2429.02 415.865 3588
-2435.96 418.531 3611
-2427.32 418.531 3611
-2418.69 418.531 3611
-2415.39 419.458 3619
-2406.74 419.458 3619
-2398.09 419.458 3619
-2378.87 417.604 3603
-2364.99 416.677 3595
-2356.39 416.677 3595
-2347.8 416.677 3595
-2334.64 415.865 3588
-2326.06 415.865 3588
-2317.48 415.865 3588
-2308.9 415.865 3588
-2309.94 417.604 3603
-2301.32 417.604 3603
-2297.8 418.531 3611
-2308.82 422.124 3642
-2300.11 422.124 3642
-2327.26 428.731 3699
-2339.1 432.555 3732
-2330.17 432.555 3732
-2321.25 432.555 3732
-2365.61 442.523 3818
-2366.97 444.494 3835
-2357.8 444.494 3835
-2348.63 444.494 3835
-2339.46 444.494 3835
-1912.53 425.022 3667
-1903.76 425.022 3667
-1894.99 425.022 3667
-1886.22 425.022 3667
-1877.45 425.022 3667
-1864.1 423.978 3658
-1859.91 425.022 3667
-1851.14 425.022 3667
-1842.38 425.022 3667
-1833.61 425.022 3667
-1828.82 425.949 3675
-1820.03 425.949 3675
-1811.24 425.949 3675
-1802.45 425.949 3675
-1793.67 425.949 3675
-1776.62 423.978 3658
-1776.09 425.949 3675
-1806.74 435.453 3757
-1797.75 435.453 3757
-1788.77 435.453 3757
-1779.78 435.453 3757
-1783.05 438.467 3783
-1778.23 439.51 3792
-1769.16 439.51 3792
-1767.98 441.48 3809
-1763.03 442.523 3818
-1774.11 447.623 3862
-1764.88 447.623 3862
-1772.01 451.796 3898
-1796.15 460.372 3972
-1786.65 460.372 3972
-1777.15 460.372 3972
-1767.66 460.372 3972
-1745.76 457.127 3944
-1753.06 461.532 3982
-1743.54 461.532 3982
-1742.29 463.734 4001
-1732.72 463.734 4001
-1723.16 463.734 4001
-1713.59 463.734 4001
-1691.67 460.372 3972
-1682.17 460.372 3972
-1688.68 464.777 4010
-1679.09 464.777 4010
-1685.73 469.297 4049
-1680.19 470.456 4059
-1670.48 470.456 4059
-1660.78 470.456 4059
-1651.07 470.456 4059
-1637.32 469.297 4049
-1627.64 469.297 4049
-699.434 214.423 1850
-695.01 214.423 1850
-690.586 214.423 1850
-686.162 214.423 1850
-681.739 214.423 1850
-677.315 214.423 1850
-671.072 213.844 1845
-665.938 213.612 1843
-660.095 213.148 1839
-655.697 213.148 1839
-649.883 212.685 1835
-644.791 212.453 1833
-636.914 211.294 1823
-632.555 211.294 1823
-625.439 210.367 1815
-620.414 210.135 1813
-616.079 210.135 1813
-611.743 210.135 1813
-604.728 209.208 1805
-598.748 208.628 1800
-591.802 207.701 1792
-587.516 207.701 1792
-581.929 207.237 1788
-574.746 206.194 1779
-567.927 205.267 1771
-560.19 203.992 1760
-555.982 203.992 1760
-548.324 202.717 1749
-542.275 202.021 1743
-536.564 201.442 1738
-532.408 201.442 1738
-528.251 201.442 1738
-522.889 200.978 1734
-518.743 200.978 1734
-514.596 200.978 1734
-509.861 200.747 1732
-505.427 200.631 1731
-500.709 200.399 1729
-496.574 200.399 1729
-491.87 200.167 1727
-487.74 200.167 1727
-483.05 199.935 1725
-478.925 199.935 1725
-474.25 199.703 1723
-468.765 199.124 1718
-463.846 198.776 1715
-458.136 198.081 1709
-454.049 198.081 1709
-449.699 197.965 1708
-445.093 197.733 1706
-439.98 197.269 1702
-435.91 197.269 1702
-430.571 196.69 1697
-426.01 196.458 1695
-421.708 196.342 1694
-417.657 196.342 1694
-412.63 195.879 1690
-407.863 195.531 1687
-402.871 195.067 1683
-398.847 195.067 1683
-394.119 194.719 1680
-389.405 194.372 1677
-383.786 193.56 1670
-379.792 193.56 1670
-375.124 193.213 1667
-371.137 193.213 1667
-367.151 193.213 1667
-363.165 193.213 1667
-359.178 193.213 1667
-355.192 193.213 1667
-351.206 193.213 1667
-347.844 193.56 1670
-343.851 193.56 1670
-339.857 193.56 1670
-335.864 193.56 1670
-331.87 193.56 1670
-327.877 193.56 1670
-323.883 193.56 1670
-320.273 193.792 1672
-316.275 193.792 1672
-312.277 193.792 1672
-308.278 193.792 1672
-304.462 193.908 1673
-300.821 194.14 1675
-297.17 194.372 1677
-293.159 194.372 1677
-289.322 194.488 1678
-285.649 194.719 1680
-281.632 194.719 1680
-277.614 194.719 1680
-273.597 194.719 1680
-269.9 194.951 1682
-266.036 195.067 1683
-262.012 195.067 1683
-258.294 195.299 1685
-254.264 195.299 1685
-250.532 195.531 1687
-246.498 195.531 1687
-242.464 195.531 1687
-238.43 195.531 1687
-234.396 195.531 1687
-230.361 195.531 1687
-226.327 195.531 1687
-222.557 195.763 1689
-218.518 195.763 1689
-214.479 195.763 1689
-210.44 195.763 1689
-206.401 195.763 1689
-202.362 195.763 1689
-198.323 195.763 1689
-194.284 195.763 1689
-190.245 195.763 1689
-186.207 195.763 1689
-182.168 195.763 1689
-178.129 195.763 1689
-174.09 195.763 1689
-169.648 195.299 1685
-165.619 195.299 1685
-161.398 195.067 1683
-157.373 195.067 1683
-153.349 195.067 1683
-149.324 195.067 1683
-145.299 195.067 1683
-141.443 195.299 1685
-137.413 195.299 1685
-133.384 195.299 1685
-129.355 195.299 1685
-125.623 195.763 1689
-121.656 195.879 1690
-117.754 196.11 1692
-113.708 196.11 1692
-109.791 196.342 1694
-105.74 196.342 1694
-101.69 196.342 1694
-97.6387 196.342 1694
-93.5878 196.342 1694
-89.5369 196.342 1694
-85.4861 196.342 1694
-81.4352 196.342 1694
-77.43 196.458 1695
-73.3767 196.458 1695
-69.3235 196.458 1695
-65.2702 196.458 1695
-61.217 196.458 1695
-56.9614 195.763 1689
292.333 473.933 4089
302.111 473.933 4089
311.889 473.933 4089
321.667 473.933 4089
331.445 473.933 4089
338.719 470.456 4059
345.936 467.095 4030
353.014 463.734 4001
363.398 464.777 4010
372.987 464.777 4010
382.576 464.777 4010
392.165 464.777 4010
401.754 464.777 4010
411.343 464.777 4010
415.999 459.329 3963
420.43 453.882 3916
413.331 436.496 3766
422.337 436.496 3766
431.342 436.496 3766
433.449 429.658 3707
433.723 421.313 3635
442.415 421.313 3635
447.136 417.604 3603
447.024 409.606 3534
451.737 406.245 3505
458.15 404.507 3490
466.495 404.507 3490
474.841 404.507 3490
480.141 401.957 3468
496.743 408.795 3527
507.326 410.534 3542
515.796 410.534 3542
525.302 411.345 3549
533.789 411.345 3549
542.276 411.345 3549
550.762 411.345 3549
566.498 416.677 3595
593.011 429.658 3707
608.695 434.526 3749
617.66 434.526 3749
636.654 441.48 3809
667.124 456.084 3935
687.881 463.734 4001
697.448 463.734 4001
707.016 463.734 4001
716.583 463.734 4001
726.151 463.734 4001
733.88 462.575 3991
741.747 461.532 3982
747.685 459.329 3963
757.161 459.329 3963
766.638 459.329 3963
774.156 458.17 3953
781.825 457.127 3944
791.256 457.127 3944
796.83 454.925 3925
806.216 454.925 3925
817.68 456.084 3935
827.09 456.084 3935
836.5 456.084 3935
843.76 454.925 3925
861.405 459.329 3963
881.21 464.777 4010
893.021 465.936 4020
902.634 465.936 4020
912.247 465.936 4020
919.567 464.777 4010
929.156 464.777 4010
938.745 464.777 4010
950.699 465.936 4020
962.701 467.095 4030
974.51 468.138 4039
984.168 468.138 4039
1003.67 472.774 4079
1013.42 472.774 4079
1023.18 472.774 4079
1030.4 471.615 4069
1042.69 472.774 4079
1052.44 472.774 4079
1062.19 472.774 4079
1071.95 472.774 4079
1079.05 471.615 4069
1086.1 470.456 4059
1095.81 470.456 4059
1102.79 469.297 4049
1107.26 467.095 4030
1106.08 462.575 3991
1115.63 462.575 3991
1130.53 464.777 4010
1140.12 464.777 4010
1149.71 464.777 4010
1167.68 468.138 4039
1177.34 468.138 4039
1187 468.138 4039
1196.65 468.138 4039
1206.31 468.138 4039
1218.98 469.297 4049
1228.66 469.297 4049
1241.41 470.456 4059
1257.28 472.774 4079
1267.03 472.774 4079
1276.78 472.774 4079
1289.69 473.933 4089
1299.47 473.933 4089
1309.25 473.933 4089
1455.92 473.933 4089
1465.7 473.933 4089
1475.48 473.933 4089
1474.36 470.456 4059
1469.8 465.936 4020
1472.42 463.734 4001
1481.99 463.734 4001
1484.48 461.532 3982
1494 461.532 3982
1503.52 461.532 3982
1513.04 461.532 3982
1544.36 468.138 4039
1554.02 468.138 4039
1571.42 470.456 4059
1581.13 470.456 4059
1590.83 470.456 4059
1661.26 473.933 4089
1671.04 473.933 4089
1680.81 473.933 4089
1686.46 472.774 4079
1696.21 472.774 4079
1705.97 472.774 4079
1715.72 472.774 4079
1721.24 471.615 4069
1730.97 471.615 4069
1740.7 471.615 4069
1750.43 471.615 4069
1760.16 471.615 4069
1761.2 469.297 4049
1758.19 465.936 4020
1759.45 463.734 4001
1769.02 463.734 4001
1770.14 461.532 3982
1758.66 456.084 3935
1763.57 454.925 3925
1772.96 454.925 3925
1774.17 452.839 3907
1771.19 449.709 3880
1768.08 446.58 3853
1777.29 446.58 3853
1786.51 446.58 3853
1783.14 443.45 3826
1792.28 443.45 3826
1781.19 438.467 3783
1819.1 445.537 3844
1828.29 445.537 3844
1837.49 445.537 3844
1825.54 440.437 3800
1834.63 440.437 3800
1822.85 435.453 3757
1772.35 421.313 3635
1777.12 420.385 3627
1785.8 420.385 3627
1794.47 420.385 3627
1803.14 420.385 3627
1792.33 415.865 3588
1792.88 414.011 3572
1801.42 414.011 3572
1802.37 412.272 3557
1806.8 411.345 3549
1815.29 411.345 3549
1823.77 411.345 3549
1820.9 408.795 3527
1821.56 407.056 3512
1834.12 407.984 3520
1842.54 407.984 3520
1850.96 407.984 3520
1859.37 407.984 3520
1863.55 407.056 3512
1871.94 407.056 3512
1876.6 406.245 3505
1884.98 406.245 3505
1893.36 406.245 3505
1901.74 406.245 3505
1910.12 406.245 3505
1906.46 403.695 3483
1891.15 398.711 3440
2423.94 473.933 4089
2433.72 473.933 4089
2443.5 473.933 4089
2447.28 472.774 4079
2457.03 472.774 4079
2466.79 472.774 4079
2470.47 471.615 4069
2480.2 471.615 4069
2489.93 471.615 4069
2493.52 470.456 4059
2503.22 470.456 4059
2519.12 471.615 4069
2528.85 471.615 4069
2538.58 471.615 4069
2548.31 471.615 4069
2551.76 470.456 4059
2555.15 469.297 4049
2564.83 469.297 4049
2568.16 468.138 4039
2565.69 465.936 4020
2550.96 461.532 3982
2560.48 461.532 3982
527.508 86.117 743
529.285 86.117 743
531.061 86.117 743
532.838 86.117 743
534.615 86.117 743
536.392 86.117 743
538.168 86.117 743
539.945 86.117 743
541.722 86.117 743
543.499 86.117 743
545.275 86.117 743
547.052 86.117 743
548.09 86.0011 742
549.865 86.0011 742
551.639 86.0011 742
553.413 86.0011 742
555.188 86.0011 742
557.713 86.117 743
559.489 86.117 743
561.266 86.117 743
563.801 86.2329 744
565.58 86.2329 744
567.359 86.2329 744
569.138 86.2329 744
-2321.79 366.848 3101
-2318.86 367.558 3107
-2311.43 367.558 3107
-2304 367.558 3107
-2296.57 367.558 3107
-2289.14 367.558 3107
-2281.71 367.558 3107
-2282.33 368.859 3118
-2274.87 368.859 3118
-2271.78 369.569 3124
-2264.31 369.569 3124
-2261.18 370.279 3130
-2266.65 372.408 3148
-2267.73 373.828 3160
-2260.18 373.828 3160
-2261.18 375.247 3172
-2266.38 377.377 3190
-2275.74 380.216 3214
-2268.06 380.216 3214
-2265.3 381.044 3221
-2257.59 381.044 3221
-2249.89 381.044 3221
-2237.32 380.216 3214
-2429.02 424.46 3588
-2435.96 427.181 3611
-2427.32 427.181 3611
-2418.69 427.181 3611
-2415.39 428.128 3619
-2406.74 428.128 3619
-2398.09 428.128 3619
-2378.87 426.235 3603
-2364.99 425.288 3595
-2356.39 425.288 3595
-2347.8 425.288 3595
-2334.64 424.46 3588
-2326.06 424.46 3588
-2317.48 424.46 3588
-2308.9 424.46 3588
-2309.94 426.235 3603
-2301.32 426.235 3603
-2297.8 427.181 3611
-2308.82 430.848 3642
-2300.11 430.848 3642
-2327.26 437.592 3699
-2339.1 441.495 3732
-2330.17 441.495 3732
-2321.25 441.495 3732
-2365.61 451.669 3818
-2366.97 453.68 3835
-2357.8 453.68 3835
-2348.63 453.68 3835
-2339.46 453.68 3835
-1912.53 433.806 3667
-1903.76 433.806 3667
-1894.99 433.806 3667
-1886.22 433.806 3667
-1877.45 433.806 3667
-1864.1 432.741 3658
-1855.35 432.741 3658
-1846.6 432.741 3658
-1837.85 432.741 3658
-1833.61 433.806 3667
-1828.82 434.752 3675
-1820.03 434.752 3675
-1811.24 434.752 3675
-1802.45 434.752 3675
-1793.67 434.752 3675
-1765.45 430.02 3635
-1772.22 433.806 3667
-1806.74 444.453 3757
-1797.75 444.453 3757
-1788.77 444.453 3757
-1779.78 444.453 3757
-1775.04 445.518 3766
-1774.01 447.529 3783
-1764.96 447.529 3783
-1760.09 448.593 3792
-1758.87 450.605 3809
-1765.84 454.745 3844
-1756.65 454.745 3844
-1755.64 456.874 3862
-1774.9 464.327 3925
-1765.51 464.327 3925
-1756.12 464.327 3925
-1746.74 464.327 3925
-1741.78 465.51 3935
-1753.06 471.07 3982
-1743.54 471.07 3982
-1742.29 473.318 4001
-1732.72 473.318 4001
-1723.16 473.318 4001
-1709.31 472.135 3991
-1687.84 468.823 3963
-1682.17 469.887 3972
-1688.68 474.383 4010
-1679.09 474.383 4010
-1685.73 478.997 4049
-1680.19 480.18 4059
-1670.48 480.18 4059
-1660.78 480.18 4059
-1647 478.997 4049
-1637.32 478.997 4049
-1627.64 478.997 4049
-698.3 218.5 1847
-693.883 218.5 1847
-689.467 218.5 1847
-685.05 218.5 1847
-680.633 218.5 1847
-676.216 218.5 1847
-670.345 218.027 1843
-664.492 217.554 1839
-658.659 217.08 1835
-654.271 217.08 1835
-649.174 216.844 1833
-644.088 216.607 1831
-636.215 215.424 1821
-631.861 215.424 1821
-624.749 214.478 1813
-620.414 214.478 1813
-614.719 214.005 1809
-610.393 214.005 1809
-604.393 213.413 1804
-598.748 212.94 1800
-591.802 211.994 1792
-587.516 211.994 1792
-581.929 211.52 1788
-574.1 210.219 1777
-567.927 209.509 1771
-559.554 207.971 1758
-555.35 207.971 1758
-548.324 206.907 1749
-542.275 206.197 1743
-536.564 205.605 1738
-532.408 205.605 1738
-528.251 205.605 1738
-522.889 205.132 1734
-518.743 205.132 1734
-514.596 205.132 1734
-509.861 204.896 1732
-505.427 204.777 1731
-500.709 204.541 1729
-496.574 204.541 1729
-491.87 204.304 1727
-487.74 204.304 1727
-483.05 204.067 1725
-478.925 204.067 1725
-474.25 203.831 1723
-468.765 203.239 1718
-463.846 202.884 1715
-458.136 202.175 1709
-454.049 202.175 1709
-449.699 202.056 1708
-445.093 201.82 1706
-439.98 201.347 1702
-435.91 201.347 1702
-430.571 200.755 1697
-426.01 200.518 1695
-421.708 200.4 1694
-417.657 200.4 1694
-412.63 199.927 1690
-407.863 199.572 1687
-402.871 199.099 1683
-398.847 199.099 1683
-394.119 198.744 1680
-389.405 198.389 1677
-383.786 197.561 1670
-379.792 197.561 1670
-375.124 197.206 1667
-371.137 197.206 1667
-367.151 197.206 1667
-363.165 197.206 1667
-359.178 197.206 1667
-355.192 197.206 1667
-351.206 197.206 1667
-347.844 197.561 1670
-343.851 197.561 1670
-339.857 197.561 1670
-335.864 197.561 1670
-331.87 197.561 1670
-327.877 197.561 1670
-323.883 197.561 1670
-320.273 197.798 1672
-316.275 197.798 1672
-312.277 197.798 1672
-308.278 197.798 1672
-304.462 197.916 1673
-300.821 198.152 1675
-297.17 198.389 1677
-293.159 198.389 1677
-289.322 198.507 1678
-285.649 198.744 1680
-281.632 198.744 1680
-277.614 198.744 1680
-273.597 198.744 1680
-269.9 198.981 1682
-266.036 199.099 1683
-262.012 199.099 1683
-258.294 199.335 1685
-254.264 199.335 1685
-250.532 199.572 1687
-246.498 199.572 1687
-242.464 199.572 1687
-238.43 199.572 1687
-234.396 199.572 1687
-230.361 199.572 1687
-226.596 199.809 1689
-222.557 199.809 1689
-218.647 199.927 1690
-214.606 199.927 1690
-210.565 199.927 1690
-206.523 199.927 1690
-202.482 199.927 1690
-198.323 199.809 1689
-194.284 199.809 1689
-190.245 199.809 1689
-186.207 199.809 1689
-182.168 199.809 1689
-178.129 199.809 1689
-174.09 199.809 1689
-169.648 199.335 1685
-165.619 199.335 1685
-161.398 199.099 1683
-157.373 199.099 1683
-153.349 199.099 1683
-149.501 199.335 1685
-145.472 199.335 1685
-141.443 199.335 1685
-137.413 199.335 1685
-133.384 199.335 1685
-129.355 199.335 1685
-125.623 199.809 1689
-121.656 199.927 1690
-117.754 200.164 1692
-113.708 200.164 1692
-109.791 200.4 1694
-105.74 200.4 1694
-101.69 200.4 1694
-97.6387 200.4 1694
-93.5878 200.4 1694
-89.5369 200.4 1694
-85.4861 200.4 1694
-81.4352 200.4 1694
-77.43 200.518 1695
-73.3767 200.518 1695
-69.3235 200.518 1695
-65.2702 200.518 1695
-61.217 200.518 1695
-56.9614 199.809 1689
292.333 483.729 4089
302.111 483.729 4089
311.889 483.729 4089
321.667 483.729 4089
331.445 483.729 4089
338.719 480.18 4059
345.936 476.749 4030
353.014 473.318 4001
363.398 474.383 4010
372.987 474.383 4010
382.576 474.383 4010
392.165 474.383 4010
401.754 474.383 4010
411.343 474.383 4010
415.999 468.823 3963
420.43 463.263 3916
413.331 445.518 3766
422.337 445.518 3766
431.342 445.518 3766
433.449 438.538 3707
433.723 430.02 3635
442.415 430.02 3635
447.136 426.235 3603
447.024 418.072 3534
451.737 414.641 3505
458.15 412.867 3490
466.495 412.867 3490
474.841 412.867 3490
481.248 411.211 3476
496.743 417.244 3527
507.326 419.018 3542
515.796 419.018 3542
525.302 419.847 3549
533.789 419.847 3549
542.276 419.847 3549
550.762 419.847 3549
566.498 425.288 3595
593.011 438.538 3707
608.695 443.507 3749
617.66 443.507 3749
636.654 450.605 3809
667.124 465.51 3935
687.881 473.318 4001
697.448 473.318 4001
707.016 473.318 4001
716.583 473.318 4001
726.151 473.318 4001
733.88 472.135 3991
743.423 472.135 3991
752.967 472.135 3991
762.511 472.135 3991
772.055 472.135 3991
774.156 467.64 3953
781.825 466.575 3944
791.256 466.575 3944
800.688 466.575 3944
811.968 467.64 3953
821.42 467.64 3953
830.873 467.64 3953
840.326 467.64 3953
849.779 467.64 3953
869.665 473.318 4001
881.21 474.383 4010
893.021 475.566 4020
902.634 475.566 4020
912.247 475.566 4020
919.567 474.383 4010
929.156 474.383 4010
938.745 474.383 4010
950.699 475.566 4020
962.701 476.749 4030
974.51 477.814 4039
984.168 477.814 4039
1003.67 482.546 4079
1013.42 482.546 4079
1023.18 482.546 4079
1030.4 481.363 4069
1042.69 482.546 4079
1052.44 482.546 4079
1062.19 482.546 4079
1071.95 482.546 4079
1079.05 481.363 4069
1086.1 480.18 4059
1095.81 480.18 4059
1102.79 478.997 4049
1107.26 476.749 4030
1106.08 472.135 3991
1115.63 472.135 3991
1130.53 474.383 4010
1140.12 474.383 4010
1149.71 474.383 4010
1167.68 477.814 4039
1177.34 477.814 4039
1187 477.814 4039
1196.65 477.814 4039
1206.31 477.814 4039
1218.98 478.997 4049
1228.66 478.997 4049
1241.41 480.18 4059
1257.28 482.546 4079
1267.03 482.546 4079
1276.78 482.546 4079
1289.69 483.729 4089
1299.47 483.729 4089
1309.25 483.729 4089
1455.92 483.729 4089
1465.7 483.729 4089
1475.48 483.729 4089
1477.99 481.363 4069
1476.75 477.814 4039
1486.41 477.814 4039
1496.07 477.814 4039
1491.56 473.318 4001
1501.13 473.318 4001
1506.92 472.135 3991
1534.7 477.814 4039
1555.83 481.363 4069
1565.56 481.363 4069
1575.29 481.363 4069
1581.13 480.18 4059
1590.83 480.18 4059
1661.26 483.729 4089
1671.04 483.729 4089
1680.81 483.729 4089
1686.46 482.546 4079
1696.21 482.546 4079
1705.97 482.546 4079
1715.72 482.546 4079
1721.24 481.363 4069
1730.97 481.363 4069
1740.7 481.363 4069
1750.43 481.363 4069
1760.16 481.363 4069
1761.2 478.997 4049
1762.57 476.749 4030
1759.45 473.318 4001
1769.02 473.318 4001
1770.14 471.07 3982
1766.7 467.64 3953
1772.11 466.575 3944
1781.54 466.575 3944
1774.17 462.198 3907
1779.41 461.133 3898
1776.34 457.939 3871
1785.59 457.939 3871
1794.85 457.939 3871
1804.11 457.939 3871
1813.37 457.939 3871
1822.62 457.939 3871
1831.88 457.939 3871
1828.29 454.745 3844
1837.49 454.745 3844
1825.54 449.54 3800
1834.63 449.54 3800
1822.85 444.453 3757
1772.35 430.02 3635
1777.12 429.074 3627
1785.8 429.074 3627
1794.47 429.074 3627
1803.14 429.074 3627
1792.33 424.46 3588
1792.88 422.567 3572
1801.42 422.567 3572
1802.37 420.793 3557
1806.8 419.847 3549
1815.29 419.847 3549
1823.77 419.847 3549
1820.9 417.244 3527
1821.56 415.469 3512
1834.12 416.416 3520
1842.54 416.416 3520
1850.96 416.416 3520
1859.37 416.416 3520
1863.55 415.469 3512
1871.94 415.469 3512
1876.6 414.641 3505
1884.98 414.641 3505
1893.36 414.641 3505
1901.74 414.641 3505
1910.12 414.641 3505
1906.46 412.039 3483
1906.54 410.264 3468
1895.51 406.124 3433
1903.72 406.124 3433
2286.91 475.566 4020
2296.52 475.566 4020
2306.14 475.566 4020
2299.04 472.135 3991
2308.59 472.135 3991
2423.94 483.729 4089
2433.72 483.729 4089
2443.5 483.729 4089
2447.28 482.546 4079
2457.03 482.546 4079
2466.79 482.546 4079
2470.47 481.363 4069
2480.2 481.363 4069
2489.93 481.363 4069
2487.37 478.997 4049
2497.06 478.997 4049
2512.93 480.18 4059
2522.64 480.18 4059
2532.34 480.18 4059
2535.79 478.997 4049
2545.47 478.997 4049
2548.84 477.814 4039
2558.5 477.814 4039
2556.08 475.566 4020
2541.44 471.07 3982
2550.96 471.07 3982
2560.48 471.07 3982
525.024 87.7786 742
527.508 87.8969 743
529.285 87.8969 743
531.061 87.8969 743
532.838 87.8969 743
534.615 87.8969 743
536.392 87.8969 743
538.168 87.8969 743
539.945 87.8969 743
541.722 87.8969 743
543.499 87.8969 743
545.275 87.8969 743
547.052 87.8969 743
548.09 87.7786 742
549.865 87.7786 742
551.639 87.7786 742
553.413 87.7786 742
555.188 87.7786 742
557.713 87.8969 743
559.489 87.8969 743
561.266 87.8969 743
563.801 88.0152 744
565.58 88.0152 744
567.359 88.0152 744
569.138 88.0152 744
-2321.79 374.277 3101
-2318.86 375.001 3107
-2311.43 375.001 3107
-2304 375.001 3107
-2296.57 375.001 3107
-2289.14 375.001 3107
-2281.71 375.001 3107
-2269.89 374.277 3101
-2274.87 376.328 3118
-2271.78 377.053 3124
-2264.31 377.053 3124
-2261.18 377.777 3130
-2266.65 379.949 3148
-2267.73 381.398 3160
-2260.18 381.398 3160
-2269.73 384.294 3184
-2283.43 387.915 3214
-2284.95 389.484 3227
-2277.23 389.484 3227
-2282.88 391.777 3246
-2275.12 391.777 3246
-2267.35 391.777 3246
-2246.37 389.484 3227
-2423.29 427.503 3542
-2440.73 432.09 3580
-2432.17 432.09 3580
-2429.02 433.055 3588
-2435.96 435.831 3611
-2427.32 435.831 3611
-2418.69 435.831 3611
-2415.39 436.797 3619
-2406.74 436.797 3619
-2398.09 436.797 3619
-2378.87 434.866 3603
-2364.99 433.9 3595
-2356.39 433.9 3595
-2347.8 433.9 3595
-2334.64 433.055 3588
-2326.06 433.055 3588
-2317.48 433.055 3588
-2308.9 433.055 3588
-2309.94 434.866 3603
-2301.32 434.866 3603
-2297.8 435.831 3611
-2308.82 439.573 3642
-2300.11 439.573 3642
-2327.26 446.453 3699
-2339.1 450.435 3732
-2335.17 451.401 3740
-2326.23 451.401 3740
-2365.61 460.815 3818
-2372.53 463.953 3844
-2363.34 463.953 3844
-2354.14 463.953 3844
-2344.95 463.953 3844
-1912.53 442.59 3667
-1903.76 442.59 3667
-1894.99 442.59 3667
-1886.22 442.59 3667
-1872.84 441.504 3658
-1864.1 441.504 3658
-1855.35 441.504 3658
-1846.6 441.504 3658
-1837.85 441.504 3658
-1833.61 442.59 3667
-1844.74 447.418 3707
-1835.88 447.418 3707
-1827.01 447.418 3707
-1802.45 443.556 3675
-1793.67 443.556 3675
-1772.74 440.538 3650
-1776.09 443.556 3675
-1806.74 453.453 3757
-1797.75 453.453 3757
-1788.77 453.453 3757
-1784.05 454.539 3766
-1775.04 454.539 3766
-1774.01 456.591 3783
-1764.96 456.591 3783
-1763.81 458.643 3800
-1758.87 459.729 3809
-1757.58 461.781 3826
-1748.43 461.781 3826
-1743.37 462.867 3835
-1754.55 468.298 3880
-1757.41 471.557 3907
-1748.07 471.557 3907
-1738.73 471.557 3907
-1725.4 470.471 3898
-1732.37 474.937 3935
-1722.96 474.937 3935
-1737.94 481.696 3991
-1728.39 481.696 3991
-1718.85 481.696 3991
-1709.31 481.696 3991
-1675.91 474.937 3935
-1674.12 477.109 3953
-1680.67 481.696 3991
-1671.13 481.696 3991
-1673.66 485.196 4020
-1676.05 488.696 4049
-1666.37 488.696 4049
-1656.69 488.696 4049
-1647 488.696 4049
-696.032 222.2 1841
-692.381 222.442 1843
-687.973 222.442 1843
-683.566 222.442 1843
-679.159 222.442 1843
-674.752 222.442 1843
-668.89 221.959 1839
-663.047 221.476 1835
-657.941 221.235 1833
-653.558 221.235 1833
-648.466 220.993 1831
-642.681 220.511 1827
-635.517 219.545 1819
-631.167 219.545 1819
-624.749 218.821 1813
-619.045 218.338 1809
-614.04 218.097 1807
-609.719 218.097 1807
-603.722 217.493 1802
-598.748 217.252 1800
-591.802 216.286 1792
-587.516 216.286 1792
-581.929 215.803 1788
-574.1 214.476 1777
-567.927 213.752 1771
-559.554 212.183 1758
-555.35 212.183 1758
-548.324 211.096 1749
-542.898 210.614 1745
-537.181 210.01 1740
-533.02 210.01 1740
-528.251 209.769 1738
-524.095 209.769 1738
-519.341 209.527 1736
-515.19 209.527 1736
-510.45 209.286 1734
-505.719 209.045 1732
-501.288 208.924 1731
-497.148 208.924 1731
-492.439 208.682 1729
-488.305 208.682 1729
-483.61 208.441 1727
-479.481 208.441 1727
-474.8 208.2 1725
-470.13 207.958 1723
-464.657 207.355 1718
-459.745 206.993 1715
-455.643 206.993 1715
-449.963 206.269 1709
-445.876 206.269 1709
-441.014 205.906 1706
-436.934 205.906 1706
-432.854 205.906 1706
-428.272 205.665 1704
-423.7 205.424 1702
-419.63 205.424 1702
-415.315 205.303 1701
-410.281 204.82 1697
-405.744 204.579 1695
-401.691 204.579 1695
-397.403 204.458 1694
-392.423 203.975 1690
-386.773 203.13 1683
-382.749 203.13 1683
-378.724 203.13 1683
-374.477 203.01 1682
-370.014 202.768 1680
-365.997 202.768 1680
-361.979 202.768 1680
-357.962 202.768 1680
-353.945 202.768 1680
-349.927 202.768 1680
-345.91 202.768 1680
-341.485 202.527 1678
-337.473 202.527 1678
-333.46 202.527 1678
-329.448 202.527 1678
-325.241 202.406 1677
-320.465 201.924 1673
-316.464 201.924 1673
-312.463 201.924 1673
-308.463 201.924 1673
-304.826 202.165 1675
-301.18 202.406 1677
-297.347 202.527 1678
-293.334 202.527 1678
-289.666 202.768 1680
-285.989 203.01 1682
-281.967 203.01 1682
-277.945 203.01 1682
-273.923 203.01 1682
-270.061 203.13 1683
-266.036 203.13 1683
-262.012 203.13 1683
-258.294 203.372 1685
-254.264 203.372 1685
-250.532 203.613 1687
-246.498 203.613 1687
-242.464 203.613 1687
-238.43 203.613 1687
-234.396 203.613 1687
-230.361 203.613 1687
-226.596 203.855 1689
-222.557 203.855 1689
-218.647 203.975 1690
-214.606 203.975 1690
-210.565 203.975 1690
-206.523 203.975 1690
-202.482 203.975 1690
-198.323 203.855 1689
-194.284 203.855 1689
-190.245 203.855 1689
-186.207 203.855 1689
-182.168 203.855 1689
-178.129 203.855 1689
-174.09 203.855 1689
-169.648 203.372 1685
-165.619 203.372 1685
-161.398 203.13 1683
-157.373 203.13 1683
-153.349 203.13 1683
-149.501 203.372 1685
-145.472 203.372 1685
-141.443 203.372 1685
-137.413 203.372 1685
-133.384 203.372 1685
-129.355 203.372 1685
-125.623 203.855 1689
-121.656 203.975 1690
-117.754 204.217 1692
-113.708 204.217 1692
-109.662 204.217 1692
-105.74 204.458 1694
-101.69 204.458 1694
-97.6387 204.458 1694
-93.3668 203.975 1690
-89.4312 204.217 1692
-85.4861 204.458 1694
-81.4352 204.458 1694
-77.43 204.579 1695
-73.3767 204.579 1695
-69.3235 204.579 1695
-65.2702 204.579 1695
-61.217 204.579 1695
-56.9614 203.855 1689
292.333 493.524 4089
302.111 493.524 4089
311.889 493.524 4089
320.093 491.11 4069
329.824 491.11 4069
337.05 487.489 4039
345.078 485.196 4020
351.338 480.609 3982
363.398 483.989 4010
372.987 483.989 4010
382.576 483.989 4010
392.165 483.989 4010
400.852 482.903 4001
410.42 482.903 4001
415.999 478.316 3963
420.43 472.643 3916
413.331 454.539 3766
422.337 454.539 3766
431.342 454.539 3766
433.449 447.418 3707
433.723 438.728 3635
442.415 438.728 3635
447.136 434.866 3603
447.024 426.538 3534
451.737 423.038 3505
458.15 421.227 3490
466.495 421.227 3490
474.841 421.227 3490
481.248 419.537 3476
496.743 425.693 3527
507.326 427.503 3542
515.796 427.503 3542
525.302 428.348 3549
533.789 428.348 3549
542.276 428.348 3549
550.762 428.348 3549
565.395 433.055 3588
593.011 447.418 3707
607.234 451.401 3740
616.177 451.401 3740
636.654 459.729 3809
667.124 474.937 3935
687.881 482.903 4001
697.448 482.903 4001
707.016 482.903 4001
716.583 482.903 4001
726.151 482.903 4001
733.88 481.696 3991
743.423 481.696 3991
752.967 481.696 3991
762.511 481.696 3991
772.055 481.696 3991
774.156 477.109 3953
781.825 476.023 3944
791.256 476.023 3944
800.688 476.023 3944
811.968 477.109 3953
821.42 477.109 3953
830.873 477.109 3953
840.326 477.109 3953
849.779 477.109 3953
869.665 482.903 4001
881.21 483.989 4010
890.8 483.989 4010
900.389 483.989 4010
909.978 483.989 4010
919.567 483.989 4010
929.156 483.989 4010
923.294 476.023 3944
932.726 476.023 3944
946.696 478.316 3963
960.757 480.609 3982
970.279 480.609 3982
979.801 480.609 3982
989.323 480.609 3982
1003.61 482.903 4001
1013.18 482.903 4001
1022.75 482.903 4001
1032.31 482.903 4001
1041.88 482.903 4001
1051.45 482.903 4001
1061.02 482.903 4001
1065.5 480.609 3982
1072.32 479.402 3972
1081.82 479.402 3972
1088.85 478.316 3963
1093.06 476.023 3944
1102.49 476.023 3944
1117.28 478.316 3963
1126.75 478.316 3963
1144.26 481.696 3991
1156.69 482.903 4001
1168.88 483.989 4010
1178.47 483.989 4010
1188.06 483.989 4010
1200.64 485.196 4020
1215.97 487.489 4039
1225.63 487.489 4039
1235.29 487.489 4039
1254.19 491.11 4069
1263.92 491.11 4069
1273.65 491.11 4069
1289.69 493.524 4089
1299.47 493.524 4089
1309.25 493.524 4089
1452.36 492.317 4079
1462.11 492.317 4079
1471.87 492.317 4079
1477.99 491.11 4069
1476.75 487.489 4039
1486.41 487.489 4039
1496.07 487.489 4039
1491.56 482.903 4001
1501.13 482.903 4001
1506.92 481.696 3991
1534.7 487.489 4039
1555.83 491.11 4069
1565.56 491.11 4069
1575.29 491.11 4069
1581.13 489.903 4059
1590.83 489.903 4059
1661.26 493.524 4089
1671.04 493.524 4089
1680.81 493.524 4089
1686.46 492.317 4079
1692.05 491.11 4069
1701.78 491.11 4069
1711.51 491.11 4069
1717.01 489.903 4059
1730.97 491.11 4069
1740.7 491.11 4069
1750.43 491.11 4069
1760.16 491.11 4069
1756.85 487.489 4039
1762.57 486.403 4030
1759.45 482.903 4001
1769.02 482.903 4001
1770.14 480.609 3982
1766.7 477.109 3953
1772.11 476.023 3944
1781.54 476.023 3944
1774.17 471.557 3907
1779.41 470.471 3898
1776.34 467.212 3871
1785.59 467.212 3871
1794.85 467.212 3871
1804.11 467.212 3871
1813.37 467.212 3871
1822.62 467.212 3871
1831.88 467.212 3871
1828.29 463.953 3844
1808.33 456.591 3783
1804.88 453.453 3757
1813.87 453.453 3757
1783.07 443.556 3675
1768.45 437.762 3627
1777.12 437.762 3627
1785.8 437.762 3627
1794.47 437.762 3627
1803.14 437.762 3627
1792.33 433.055 3588
1796.9 432.09 3580
1805.46 432.09 3580
1806.42 430.279 3565
1810.87 429.314 3557
1815.29 428.348 3549
1823.77 428.348 3549
1820.9 425.693 3527
1821.56 423.882 3512
1834.12 424.848 3520
1842.54 424.848 3520
1850.96 424.848 3520
1859.37 424.848 3520
1863.55 423.882 3512
1871.94 423.882 3512
1876.6 423.038 3505
1884.98 423.038 3505
1893.36 423.038 3505
1901.74 423.038 3505
1910.12 423.038 3505
1906.46 420.382 3483
1906.54 418.572 3468
1947.41 425.693 3527
1955.85 425.693 3527
1964.28 425.693 3527
2188.71 468.298 3880
2197.99 468.298 3880
2286.91 485.196 4020
2296.52 485.196 4020
2306.14 485.196 4020
2299.04 481.696 3991
2308.59 481.696 3991
2312.9 480.609 3982
2384.83 493.524 4089
2394.61 493.524 4089
2404.39 493.524 4089
2414.17 493.524 4089
2423.94 493.524 4089
2433.72 493.524 4089
2443.5 493.524 4089
2435.28 489.903 4059
2444.99 489.903 4059
2454.69 489.903 4059
2464.4 489.903 4059
2456.43 486.403 4030
2466.07 486.403 4030
2487.37 488.696 4049
2497.06 488.696 4049
2512.93 489.903 4059
2522.64 489.903 4059
2532.34 489.903 4059
2535.79 488.696 4049
2545.47 488.696 4049
2548.84 487.489 4039
2558.5 487.489 4039
2556.08 485.196 4020
2541.44 480.609 3982
2550.96 480.609 3982
2560.48 480.609 3982
2435.76 455.505 3774
525.024 89.556 742
527.508 89.6767 743
529.285 89.6767 743
531.061 89.6767 743
532.838 89.6767 743
534.615 89.6767 743
536.392 89.6767 743
538.168 89.6767 743
539.218 89.556 742
541.722 89.6767 743
543.499 89.6767 743
545.275 89.6767 743
547.052 89.6767 743
548.09 89.556 742
549.865 89.556 742
551.639 89.556 742
553.413 89.556 742
555.188 89.556 742
556.962 89.556 742
558.736 89.556 742
560.511 89.556 742
563.043 89.6767 743
565.58 89.7974 744
567.359 89.7974 744
569.138 89.7974 744
-2330.03 383.059 3112
-2327.07 383.798 3118
-2319.61 383.798 3118
-2312.15 383.798 3118
-2304.7 383.798 3118
-2297.24 383.798 3118
-2289.79 383.798 3118
-2274.28 382.444 3107
-2274.87 383.798 3118
-2276.14 385.275 3130
-2268.66 385.275 3130
-2269.84 386.752 3142
-2266.65 387.49 3148
-2276.35 390.445 3172
-2268.76 390.445 3172
-2291.12 395.614 3214
-2306.17 399.553 3246
-2311.86 401.892 3265
-2304.05 401.892 3265
-2309.6 404.231 3284
-2301.75 404.231 3284
-2293.9 404.231 3284
-2286.04 404.231 3284
-2423.29 435.988 3542
-2440.73 440.666 3580
-2432.17 440.666 3580
-2429.02 441.65 3588
-2430.56 443.497 3603
-2421.95 443.497 3603
-2413.33 443.497 3603
-2404.72 443.497 3603
-2396.1 443.497 3603
-2387.48 443.497 3603
-2373.59 442.512 3595
-2364.99 442.512 3595
-2351.8 441.65 3588
-2343.22 441.65 3588
-2334.64 441.65 3588
-2326.06 441.65 3588
-2317.48 441.65 3588
-2308.9 441.65 3588
-2300.32 441.65 3588
-2291.74 441.65 3588
-2292.71 443.497 3603
-2299.31 446.451 3627
-2290.63 446.451 3627
-2327.26 455.314 3699
-2329.07 457.406 3716
-2335.17 460.36 3740
-2326.23 460.36 3740
-2365.61 469.961 3818
-2372.53 473.162 3844
-2363.34 473.162 3844
-2354.14 473.162 3844
-2344.95 473.162 3844
-1913.22 447.436 3635
-1904.53 447.436 3635
-1899.49 448.297 3642
-1890.78 448.297 3642
-1882.07 448.297 3642
-1873.36 448.297 3642
-1872.84 450.267 3658
-1864.1 450.267 3658
-1855.35 450.267 3658
-1846.6 450.267 3658
-1837.85 450.267 3658
-1837.61 452.359 3675
-1844.74 456.298 3707
-1835.88 456.298 3707
-1827.01 456.298 3707
-1806.38 453.344 3683
-1797.57 453.344 3683
-1772.74 449.282 3650
-1783.82 454.329 3691
-1806.74 462.453 3757
-1810.19 465.653 3783
-1801.15 465.653 3783
-1792.1 465.653 3783
-1783.05 465.653 3783
-1781.98 467.746 3800
-1772.89 467.746 3800
-1767.98 468.854 3809
-1766.72 470.946 3826
-1757.58 470.946 3826
-1748.43 470.946 3826
-1743.37 472.054 3835
-1746.41 475.377 3862
-1737.17 475.377 3862
-1727.94 475.377 3862
-1718.7 475.377 3862
-1705.48 474.27 3853
-1727.97 483.132 3925
-1718.58 483.132 3925
-1725.74 487.81 3963
-1716.27 487.81 3963
-1706.79 487.81 3963
-1697.31 487.81 3963
-1667.82 482.024 3916
-1658.45 482.024 3916
-1668.88 487.81 3963
-1659.41 487.81 3963
-1665.75 492.487 4001
-1668.19 496.057 4030
-1658.55 496.057 4030
-1648.91 496.057 4030
-695.275 226.364 1839
-690.878 226.364 1839
-686.48 226.364 1839
-682.083 226.364 1839
-677.685 226.364 1839
-673.287 226.364 1839
-667.435 225.872 1835
-662.324 225.626 1833
-656.505 225.133 1829
-652.131 225.133 1829
-647.049 224.887 1827
-641.977 224.641 1825
-634.119 223.41 1815
-629.779 223.41 1815
-623.371 222.672 1809
-618.361 222.425 1807
-613.02 222.056 1804
-608.706 222.056 1804
-603.722 221.81 1802
-596.752 220.825 1794
-591.802 220.579 1792
-587.516 220.579 1792
-581.279 219.84 1786
-572.808 218.24 1773
-567.285 217.748 1769
-559.554 216.394 1758
-555.35 216.394 1758
-548.951 215.532 1751
-543.52 215.04 1747
-538.107 214.548 1743
-533.939 214.548 1743
-528.859 214.178 1740
-524.698 214.178 1740
-519.939 213.932 1738
-515.783 213.932 1738
-511.038 213.686 1736
-506.887 213.686 1736
-501.577 213.194 1732
-497.436 213.194 1732
-493.294 213.194 1732
-488.87 213.07 1731
-484.17 212.824 1729
-480.036 212.824 1729
-475.901 212.824 1729
-470.675 212.332 1725
-465.198 211.716 1720
-460.549 211.47 1718
-456.44 211.47 1718
-451.806 211.224 1716
-446.919 210.855 1713
-442.306 210.609 1711
-438.215 210.609 1711
-433.616 210.362 1709
-429.529 210.362 1709
-424.695 209.993 1706
-420.616 209.993 1706
-416.536 209.993 1706
-411.973 209.747 1704
-407.42 209.501 1702
-403.35 209.501 1702
-398.576 209.132 1699
-393.352 208.516 1694
-388.382 208.024 1690
-384.341 208.024 1690
-379.624 207.654 1687
-375.145 207.408 1685
-370.675 207.162 1683
-366.65 207.162 1683
-362.626 207.162 1683
-358.601 207.162 1683
-354.366 207.039 1682
-350.344 207.039 1682
-346.322 207.039 1682
-342.299 207.039 1682
-337.875 206.793 1680
-333.858 206.793 1680
-329.84 206.793 1680
-325.435 206.547 1678
-321.422 206.547 1678
-316.842 206.177 1675
-312.837 206.177 1675
-308.831 206.177 1675
-304.826 206.177 1675
-301.18 206.424 1677
-297.347 206.547 1678
-293.334 206.547 1678
-289.666 206.793 1680
-285.989 207.039 1682
-281.967 207.039 1682
-277.945 207.039 1682
-274.085 207.162 1683
-270.061 207.162 1683
-266.352 207.408 1685
-262.323 207.408 1685
-258.294 207.408 1685
-254.566 207.654 1687
-250.532 207.654 1687
-246.498 207.654 1687
-242.464 207.654 1687
-238.43 207.654 1687
-234.673 207.901 1689
-230.635 207.901 1689
-226.596 207.901 1689
-222.688 208.024 1690
-218.647 208.024 1690
-214.606 208.024 1690
-210.565 208.024 1690
-206.523 208.024 1690
-202.482 208.024 1690
-198.323 207.901 1689
-194.284 207.901 1689
-190.245 207.901 1689
-186.207 207.901 1689
-182.168 207.901 1689
-178.129 207.901 1689
-174.09 207.901 1689
-169.648 207.408 1685
-165.619 207.408 1685
-161.398 207.162 1683
-157.373 207.162 1683
-153.349 207.162 1683
-149.501 207.408 1685
-145.472 207.408 1685
-141.443 207.408 1685
-137.413 207.408 1685
-133.384 207.408 1685
-129.355 207.408 1685
-125.474 207.654 1687
-121.584 207.901 1689
-117.615 208.024 1690
-113.573 208.024 1690
-109.662 208.27 1692
-105.616 208.27 1692
-101.569 208.27 1692
-97.5234 208.27 1692
-93.3668 208.024 1690
-89.3255 208.024 1690
-85.3851 208.27 1692
-81.3391 208.27 1692
-77.3843 208.516 1694
-73.3335 208.516 1694
-69.2826 208.516 1694
-65.2702 208.639 1695
-61.217 208.639 1695
-57.1637 208.639 1695
281.863 502.088 4079
291.618 502.088 4079
301.372 502.088 4079
310.363 500.857 4069
316.239 494.826 4020
325.852 494.826 4020
335.465 494.826 4020
341.816 490.148 3982
351.338 490.148 3982
360.86 490.148 3982
372.15 492.487 4001
381.717 492.487 4001
391.285 492.487 4001
398.949 490.148 3982
408.471 490.148 3982
414.949 486.579 3953
419.463 480.916 3907
413.331 463.561 3766
422.337 463.561 3766
430.311 462.453 3757
432.514 455.314 3699
432.768 446.451 3627
441.441 446.451 3627
445.275 441.65 3588
447.024 435.004 3534
452.64 432.296 3512
458.15 429.588 3490
466.495 429.588 3490
474.841 429.588 3490
483.187 429.588 3490
495.758 433.28 3520
505.178 434.142 3527
513.612 434.142 3527
523.082 435.004 3534
531.533 435.004 3534
539.984 435.004 3534
548.435 435.004 3534
564.134 440.666 3580
591.731 455.314 3699
607.234 460.36 3740
616.177 460.36 3740
635.149 467.746 3800
667.124 484.363 3935
687.881 492.487 4001
697.448 492.487 4001
707.016 492.487 4001
716.583 492.487 4001
726.151 492.487 4001
733.88 491.256 3991
745.286 492.487 4001
756.552 493.595 4010
766.141 493.595 4010
775.73 493.595 4010
783.557 492.487 4001
793.124 492.487 4001
802.692 492.487 4001
810.229 491.256 3991
817.924 490.148 3982
833.265 493.595 4010
847.058 496.057 4030
856.695 496.057 4030
866.332 496.057 4030
884.446 500.857 4069
898.571 503.319 4089
908.349 503.319 4089
918.127 503.319 4089
927.905 503.319 4089
930.804 499.626 4059
940.51 499.626 4059
950.216 499.626 4059
953.064 496.057 4030
955.773 492.487 4001
965.341 492.487 4001
974.909 492.487 4001
977.341 488.917 3972
986.839 488.917 3972
998.846 490.148 3982
1008.37 490.148 3982
1017.89 490.148 3982
1029.73 491.256 3991
1039.28 491.256 3991
1048.82 491.256 3991
1053.33 488.917 3972
1062.82 488.917 3972
1067.19 486.579 3953
1076.65 486.579 3953
1081.15 484.363 3935
1085.3 482.024 3916
1092.15 480.916 3907
1109.38 484.363 3935
1118.79 484.363 3935
1130.78 485.471 3944
1151.2 490.148 3982
1166.26 492.487 4001
1175.83 492.487 4001
1185.4 492.487 4001
1194.96 492.487 4001
1207.24 493.595 4010
1216.83 493.595 4010
1232.54 496.057 4030
1244.95 497.164 4039
1257.71 498.395 4049
1267.39 498.395 4049
1283.38 500.857 4069
1299.47 503.319 4089
1309.25 503.319 4089
1319.03 503.319 4089
1458.53 500.857 4069
1468.26 500.857 4069
1477.99 500.857 4069
1487.72 500.857 4069
1497.45 500.857 4069
1507.18 500.857 4069
1509.45 498.395 4049
1519.14 498.395 4049
1532.59 499.626 4059
1546.1 500.857 4069
1555.83 500.857 4069
1565.56 500.857 4069
1575.29 500.857 4069
1661.26 503.319 4089
1671.04 503.319 4089
1680.81 503.319 4089
1686.46 502.088 4079
1696.21 502.088 4079
1701.78 500.857 4069
1711.51 500.857 4069
1717.01 499.626 4059
1726.72 499.626 4059
1740.7 500.857 4069
1750.43 500.857 4069
1760.16 500.857 4069
1769.9 500.857 4069
1770.88 498.395 4049
1772.21 496.057 4030
1781.84 496.057 4030
1782.59 493.595 4010
1783.69 491.256 3991
1784.69 488.917 3972
1794.19 488.917 3972
1790.97 485.471 3944
1796.3 484.363 3935
1796.99 482.024 3916
1806.35 482.024 3916
1815.72 482.024 3916
1804.11 476.485 3871
1813.37 476.485 3871
1822.62 476.485 3871
1831.88 476.485 3871
1841.14 476.485 3871
1837.49 473.162 3844
1796.72 460.36 3740
1805.66 460.36 3740
1783.07 452.359 3675
1787.95 451.375 3667
1781.04 447.436 3635
1789.74 447.436 3635
1798.43 447.436 3635
1803.14 446.451 3627
1792.33 441.65 3588
1796.9 440.666 3580
1805.46 440.666 3580
1806.42 438.819 3565
1810.87 437.835 3557
1811.71 435.988 3542
1820.18 435.988 3542
1820.9 434.142 3527
1821.56 432.296 3512
1834.12 433.28 3520
1842.54 433.28 3520
1850.96 433.28 3520
1855.15 432.296 3512
1863.55 432.296 3512
1871.94 432.296 3512
1876.6 431.434 3505
1884.98 431.434 3505
1893.36 431.434 3505
1897.4 430.449 3497
1905.76 430.449 3497
1906.46 428.726 3483
1906.54 426.88 3468
1947.41 434.142 3527
1955.85 434.142 3527
1964.28 434.142 3527
2188.71 477.593 3880
2197.99 477.593 3880
2286.91 494.826 4020
2296.52 494.826 4020
2306.14 494.826 4020
2299.04 491.256 3991
2308.59 491.256 3991
2312.9 490.148 3982
2384.83 503.319 4089
2394.61 503.319 4089
2404.39 503.319 4089
2414.17 503.319 4089
2423.94 503.319 4089
2427.77 502.088 4079
2419.6 498.395 4049
2429.28 498.395 4049
2438.96 498.395 4049
2437.15 496.057 4030
2434.65 493.595 4010
2444.24 493.595 4010
2466.07 496.057 4030
2487.37 498.395 4049
2497.06 498.395 4049
2506.74 498.395 4049
2516.42 498.395 4049
2526.1 498.395 4049
2535.79 498.395 4049
2539.18 497.164 4039
2530.54 493.595 4010
2540.13 493.595 4010
2544 492.487 4001
2535.05 488.917 3972
2544.55 488.917 3972
2554.05 488.917 3972
2435.76 464.545 3774
525.024 91.3335 742
527.508 91.4566 743
529.285 91.4566 743
531.061 91.4566 743
532.838 91.4566 743
534.615 91.4566 743
536.392 91.4566 743
537.444 91.3335 742
539.218 91.3335 742
541.722 91.4566 743
543.499 91.4566 743
545.275 91.4566 743
547.052 91.4566 743
548.09 91.3335 742
549.865 91.3335 742
550.895 91.2104 741
553.413 91.3335 742
555.188 91.3335 742
556.962 91.3335 742
558.736 91.3335 742
560.511 91.3335 742
563.043 91.4566 743
564.819 91.4566 743
566.596 91.4566 743
568.373 91.4566 743
-2339.02 392.02 3124
-2336.02 392.773 3130
-2328.54 392.773 3130
-2321.05 392.773 3130
-2313.57 392.773 3130
-2306.08 392.773 3130
-2294.19 392.02 3124
-2282.33 391.267 3118
-2283.63 392.773 3130
-2276.14 392.773 3130
-2268.66 392.773 3130
-2269.84 394.279 3142
-2266.65 395.031 3148
-2302.18 402.561 3208
-2294.51 402.561 3208
-2296.11 404.192 3221
-2319.66 409.713 3265
-2325.31 412.098 3284
-2317.46 412.098 3284
-2318.75 413.729 3297
-2310.86 413.729 3297
-2321.14 416.992 3323
-2313.19 416.992 3323
-2305.25 416.992 3323
-2433.55 446.355 3557
-2446.18 450.246 3588
-2437.6 450.246 3588
-2429.02 450.246 3588
-2430.56 452.128 3603
-2421.95 452.128 3603
-2413.33 452.128 3603
-2404.72 452.128 3603
-2396.1 452.128 3603
-2387.48 452.128 3603
-2373.59 451.124 3595
-2364.99 451.124 3595
-2351.8 450.246 3588
-2343.22 450.246 3588
-2334.64 450.246 3588
-2326.06 450.246 3588
-2317.48 450.246 3588
-2308.9 450.246 3588
-2300.32 450.246 3588
-2291.74 450.246 3588
-2292.71 452.128 3603
-2299.31 455.139 3627
-2290.63 455.139 3627
-2327.26 464.175 3699
-2329.07 466.308 3716
-2335.17 469.319 3740
-2326.23 469.319 3740
-2365.61 479.107 3818
-2372.53 482.37 3844
-2363.34 482.37 3844
-2354.14 482.37 3844
-2344.95 482.37 3844
-1913.45 454.136 3619
-1913.22 456.143 3635
-1904.53 456.143 3635
-1899.49 457.022 3642
-1890.78 457.022 3642
-1882.07 457.022 3642
-1873.36 457.022 3642
-1872.84 459.03 3658
-1864.1 459.03 3658
-1855.35 459.03 3658
-1846.6 459.03 3658
-1842.38 460.159 3667
-1841.61 462.167 3683
-1844.74 465.178 3707
-1835.88 465.178 3707
-1827.01 465.178 3707
-1810.3 463.171 3691
-1801.48 463.171 3691
-1776.62 459.03 3658
-1783.82 463.171 3691
-1823.57 475.845 3792
-1814.5 475.845 3792
-1805.43 475.845 3792
-1800.15 476.849 3800
-1791.07 476.849 3800
-1790.42 479.107 3818
-1781.29 479.107 3818
-1788.41 483.499 3853
-1779.19 483.499 3853
-1769.98 483.499 3853
-1760.77 483.499 3853
-1751.55 483.499 3853
-1746.41 484.629 3862
-1737.17 484.629 3862
-1727.94 484.629 3862
-1718.7 484.629 3862
-1705.48 483.499 3853
-1727.97 492.534 3925
-1718.58 492.534 3925
-1725.74 497.303 3963
-1716.27 497.303 3963
-1706.79 497.303 3963
-1697.31 497.303 3963
-1667.82 491.405 3916
-1658.45 491.405 3916
-1668.88 497.303 3963
-1659.41 497.303 3963
