ply
format ascii 1.0
comment File generated
element vertex 2253
property float x
property float y
property float z
end_header
-44.3585 821.866 3635
-35.4307 816.439 3611
-26.677 812.822 3595
-18.0802 812.822 3595
-9.44391 809.43 3580
-0.879348 806.039 3565
7.62849 804.23 3557
16.1344 804.23 3557
24.6402 804.23 3557
33.0715 802.421 3549
41.5583 802.421 3549
50.045 802.421 3549
58.4163 800.839 3542
66.8863 800.839 3542
75.3563 800.839 3542
83.8263 800.839 3542
92.2963 800.839 3542
100.539 799.03 3534
108.774 797.447 3527
117.208 797.447 3527
125.642 797.447 3527
134.076 797.447 3527
142.51 797.447 3527
150.944 797.447 3527
159.378 797.447 3527
167.813 797.447 3527
175.897 795.864 3520
183.895 794.056 3512
192.294 794.056 3512
200.292 792.473 3505
209.566 795.864 3520
217.984 795.864 3520
227.302 799.03 3534
235.753 799.03 3534
244.756 800.839 3542
253.226 800.839 3542
261.696 800.839 3542
270.166 800.839 3542
279.816 804.23 3557
289.538 807.622 3572
298.747 809.43 3580
307.308 809.43 3580
315.869 809.43 3580
324.43 809.43 3580
333.735 811.239 3588
342.315 811.239 3588
350.895 811.239 3588
359.475 811.239 3588
368.055 811.239 3588
376.635 811.239 3588
384.356 809.43 3580
392.039 807.622 3572
400.58 807.622 3572
404.77 799.03 3534
411.584 795.864 3520
418.211 792.473 3505
423.063 785.916 3476
431.375 785.916 3476
436.019 779.359 3447
441.556 774.611 3426
447.91 771.446 3412
456.069 771.446 3412
458.514 761.95 3370
462.835 755.845 3343
468.012 751.323 3323
475.958 751.323 3323
483.031 749.967 3317
489.927 748.384 3310
497.842 748.384 3310
505.757 748.384 3310
513.672 748.384 3310
521.588 748.384 3310
528.383 746.801 3303
536.281 746.801 3303
545.333 748.384 3310
553.248 748.384 3310
561.164 748.384 3310
570.282 749.967 3317
579.26 751.323 3323
587.207 751.323 3323
595.153 751.323 3323
603.099 751.323 3323
612.333 752.906 3330
620.296 752.906 3330
629.579 754.489 3337
637.559 754.489 3337
645.539 754.489 3337
653.519 754.489 3337
661.498 754.489 3337
668.074 752.906 3330
676.037 752.906 3330
684 752.906 3330
691.963 752.906 3330
699.926 752.906 3330
707.889 752.906 3330
715.852 752.906 3330
723.815 752.906 3330
730.24 751.323 3323
738.186 751.323 3323
746.133 751.323 3323
754.079 751.323 3323
762.025 751.323 3323
769.971 751.323 3323
777.918 751.323 3323
785.864 751.323 3323
793.81 751.323 3323
801.757 751.323 3323
811.409 752.906 3330
819.372 752.906 3330
827.335 752.906 3330
838.559 755.845 3343
848.325 757.428 3350
856.336 757.428 3350
871.314 763.532 3377
884.857 768.281 3398
896.662 771.446 3412
904.821 771.446 3412
918.6 776.194 3433
936.258 784.107 3468
950.543 789.082 3490
958.889 789.082 3490
973.331 794.056 3512
987.88 799.03 3534
998.586 800.839 3542
1007.06 800.839 3542
1019.83 804.23 3557
1034.98 809.43 3580
1047.91 812.822 3595
1058.86 814.631 3603
1067.48 814.631 3603
1083.26 820.057 3627
1096.45 823.448 3642
1107.59 825.257 3650
1116.32 825.257 3650
1125.04 825.257 3650
1136.26 827.066 3658
1147.82 829.101 3667
1156.59 829.101 3667
1165.36 829.101 3667
1174.13 829.101 3667
1182.9 829.101 3667
1191.67 829.101 3667
1200.44 829.101 3667
1206.24 827.066 3658
1214.98 827.066 3658
1221.06 825.257 3650
1229.78 825.257 3650
1238.51 825.257 3650
1247.24 825.257 3650
1255.97 825.257 3650
1264.7 825.257 3650
1273.43 825.257 3650
1282.15 825.257 3650
1290.88 825.257 3650
1299.61 825.257 3650
1305.47 823.448 3642
1314.18 823.448 3642
1322.89 823.448 3642
1329.04 821.866 3635
1337.73 821.866 3635
1343.46 820.057 3627
1352.13 820.057 3627
1360.81 820.057 3627
1369.48 820.057 3627
1378.15 820.057 3627
1386.83 820.057 3627
1392.42 818.248 3619
1401.08 818.248 3619
1403.5 814.631 3603
1412.11 814.631 3603
1420.73 814.631 3603
1423.39 811.239 3588
1431.97 811.239 3588
1437.34 809.43 3580
1445.9 809.43 3580
1441.87 802.421 3549
1447.5 800.839 3542
1452.68 799.03 3534
1461.13 799.03 3534
1466.67 797.447 3527
1465.9 792.473 3505
1470.92 790.664 3497
1479.28 790.664 3497
1484.66 789.082 3490
1496 790.664 3497
1507.81 792.473 3505
1528.73 799.03 3534
1537.19 799.03 3534
1552.2 802.421 3549
1574.32 809.43 3580
1593.05 814.631 3603
1612.33 820.057 3627
1621 820.057 3627
1658.43 834.527 3691
1720.56 861.207 3809
1729.67 861.207 3809
1791.73 887.434 3925
1827.27 900.322 3982
1845.56 904.618 4001
1855.13 904.618 4001
1868.89 906.652 4010
1878.48 906.652 4010
1888.07 906.652 4010
1897.66 906.652 4010
1902.97 904.618 4001
1907.75 902.357 3991
1912.97 900.322 3982
1922.5 900.322 3982
1917.95 893.765 3953
1909.36 885.399 3916
1914.31 883.364 3907
1923.66 883.364 3907
1919.64 877.26 3880
1893.62 861.207 3809
1881.25 851.485 3766
1890.26 851.485 3766
1890.69 847.641 3749
1878.37 838.145 3707
1875.02 832.718 3683
1866.95 825.257 3650
1884.41 829.101 3667
1893.18 829.101 3667
1901.95 829.101 3667
1910.72 829.101 3667
1927.86 832.718 3683
1936.67 832.718 3683
1953.93 836.336 3699
1984.53 845.606 3740
2030.25 861.207 3809
2039.36 861.207 3809
2072.13 871.155 3853
2100.79 879.295 3889
2139.93 891.73 3944
2149.36 891.73 3944
2179.59 900.322 3982
2215.5 911.174 4030
2235.63 915.47 4049
2245.31 915.47 4049
2260.57 917.731 4059
2270.27 917.731 4059
2279.98 917.731 4059
2289.69 917.731 4059
2299.39 917.731 4059
2309.1 917.731 4059
2318.8 917.731 4059
2328.51 917.731 4059
2338.22 917.731 4059
2342.14 915.47 4049
2357.63 917.731 4059
2367.34 917.731 4059
2377.04 917.731 4059
2386.75 917.731 4059
2396.45 917.731 4059
2406.16 917.731 4059
2409.92 915.47 4049
2419.6 915.47 4049
2435.28 917.731 4059
2444.99 917.731 4059
2454.69 917.731 4059
2464.4 917.731 4059
2468.01 915.47 4049
2477.69 915.47 4049
2481.23 913.209 4039
2490.89 913.209 4039
2500.55 913.209 4039
2510.21 913.209 4039
2526.1 915.47 4049
2535.79 915.47 4049
2551.76 917.731 4059
2561.46 917.731 4059
2571.17 917.731 4059
2580.87 917.731 4059
2577.82 913.209 4039
2581.71 911.174 4030
2591.35 911.174 4030
2600.98 911.174 4030
2597.66 906.652 4010
2607.25 906.652 4010
2623.37 908.913 4020
2632.98 908.913 4020
2642.59 908.913 4020
2652.21 908.913 4020
2649.24 904.618 4001
2658.81 904.618 4001
2661.71 902.357 3991
2665.23 900.322 3982
2674.75 900.322 3982
2684.27 900.322 3982
2680.94 896.026 3963
2690.42 896.026 3963
2699.89 896.026 3963
2709.37 896.026 3963
2718.85 896.026 3963
2664.98 875.225 3871
2668.02 873.19 3862
2658.54 867.085 3835
2667.71 867.085 3835
531.101 162.564 719
532.82 162.564 719
534.54 162.564 719
536.259 162.564 719
537.23 162.338 718
539.698 162.564 719
541.417 162.564 719
543.136 162.564 719
544.856 162.564 719
547.335 162.79 720
549.057 162.79 720
550.779 162.79 720
-2365.97 722.039 3160
-2358.41 722.039 3160
-2341.93 719.297 3148
-2334.4 719.297 3148
-2322.44 717.926 3142
-2314.93 717.926 3142
-2303.01 716.555 3136
-2291.11 715.184 3130
-2274.87 712.442 3118
-2284.87 717.926 3142
-2277.36 717.926 3142
-2282.85 722.039 3160
-2288.25 726.152 3178
-2289.26 728.894 3190
-2281.64 728.894 3190
-2304.66 738.719 3233
-2323.93 747.402 3271
-2362.84 762.482 3337
-2354.86 762.482 3337
-2379.93 773.222 3384
-2416 787.617 3447
-2407.75 787.617 3447
-2419.7 794.243 3476
-2425.95 799.041 3497
-2423.12 800.869 3505
-2414.74 800.869 3505
-2421.46 805.896 3527
-2417.82 807.496 3534
-2414.82 809.323 3542
-2406.35 809.323 3542
-2397.88 809.323 3542
-2389.41 809.323 3542
-2380.94 809.323 3542
-2367.11 807.496 3534
-2364 809.323 3542
-2355.53 809.323 3542
-2351.7 810.923 3549
-2343.21 810.923 3549
-2339.99 812.751 3557
-2331.48 812.751 3557
-2322.98 812.751 3557
-2314.47 812.751 3557
-2311.15 814.579 3565
-2302.63 814.579 3565
-2298.61 816.178 3572
-2290.07 816.178 3572
-2291.74 819.834 3588
-2283.16 819.834 3588
-2274.58 819.834 3588
-2266 819.834 3588
-2257.42 819.834 3588
-2248.84 819.834 3588
-2244.63 821.434 3595
-2236.04 821.434 3595
-2227.44 821.434 3595
-2223.78 823.262 3603
-2215.17 823.262 3603
-2206.55 823.262 3603
-2197.93 823.262 3603
-2194.18 825.09 3611
-2185.54 825.09 3611
-2176.91 825.09 3611
-2168.27 825.09 3611
-2173.99 830.573 3635
-2169.47 832.173 3642
-2165.51 834.001 3650
-2156.78 834.001 3650
-2148.05 834.001 3650
-2139.32 834.001 3650
-2130.59 834.001 3650
-2121.87 834.001 3650
-2117.77 835.829 3658
-2109.02 835.829 3658
-2100.28 835.829 3658
-2091.53 835.829 3658
-2087.9 837.885 3667
-2079.14 837.885 3667
-2070.37 837.885 3667
-2061.6 837.885 3667
-2057.31 839.713 3675
-2057.44 843.369 3691
-2048.61 843.369 3691
-2039.79 843.369 3691
-2030.96 843.369 3691
-2013.37 839.713 3675
-2004.58 839.713 3675
-1995.79 839.713 3675
-1987 839.713 3675
-1978.22 839.713 3675
-1969.43 839.713 3675
-1960.64 839.713 3675
-1951.85 839.713 3675
-1943.06 839.713 3675
-1934.28 839.713 3675
-1925.49 839.713 3675
-1907.83 835.829 3658
-1899.09 835.829 3658
-1890.34 835.829 3658
-1881.59 835.829 3658
-1872.84 835.829 3658
-1860.02 834.001 3650
-1851.29 834.001 3650
-1838.52 832.173 3642
-1826.3 830.573 3635
-1809.6 826.917 3619
-1800.95 826.917 3619
-1788.33 825.09 3611
-1775.76 823.262 3603
-1767.14 823.262 3603
-1758.53 823.262 3603
-1749.91 823.262 3603
-1737.43 821.434 3595
-1728.83 821.434 3595
-1720.23 821.434 3595
-1711.64 821.434 3595
-1703.04 821.434 3595
-1691.14 819.834 3588
-1685.85 821.434 3595
-1680.98 823.262 3603
-1672.37 823.262 3603
-1663.75 823.262 3603
-1648.24 819.834 3588
-1639.66 819.834 3588
-1627.45 818.006 3580
-1618.89 818.006 3580
-1610.33 818.006 3580
-1601.76 818.006 3580
-1593.2 818.006 3580
-1584.64 818.006 3580
-1576.08 818.006 3580
-1567.52 818.006 3580
-1558.96 818.006 3580
-1546.94 816.178 3572
-1538.39 816.178 3572
-1529.85 816.178 3572
-1521.31 816.178 3572
-1512.77 816.178 3572
-1510.96 819.834 3588
-1502.38 819.834 3588
-1493.8 819.834 3588
-1485.22 819.834 3588
-1470.06 816.178 3572
-1461.52 816.178 3572
-1452.98 816.178 3572
-1450.9 819.834 3588
-1454.79 826.917 3619
-1458.52 834.001 3650
-1449.79 834.001 3650
-1441.06 834.001 3650
-1448.42 843.369 3691
-1449.35 849.081 3716
-1440.46 849.081 3716
-1453.92 862.334 3774
-1444.9 862.334 3774
-1435.87 862.334 3774
-1426.85 862.334 3774
-1424.58 866.447 3792
-1421.86 870.331 3809
-1412.75 870.331 3809
-1403.64 870.331 3809
-1427.12 890.667 3898
-1421.07 892.724 3907
-1411.73 892.724 3907
-1402.39 892.724 3907
-1393.04 892.724 3907
-1352.18 872.388 3818
-1343.05 872.388 3818
-1318.55 862.334 3774
-1297.73 854.565 3740
-617.676 412.431 1805
-613.36 412.431 1805
-609.044 412.431 1805
-604.728 412.431 1805
-600.079 412.202 1804
-593.783 410.831 1798
-589.484 410.831 1798
-582.58 409.003 1790
-574.1 406.033 1777
-568.568 405.119 1773
-563.055 404.205 1769
-558.825 404.205 1769
-553.968 403.748 1767
-549.742 403.748 1767
-544.899 403.291 1765
-540.679 403.291 1765
-534.33 401.691 1758
-528.317 400.32 1752
-523.23 399.635 1749
-519.048 399.635 1749
-514.276 399.178 1747
-508.347 397.807 1741
-503.315 397.121 1738
-499.159 397.121 1738
-494.433 396.664 1736
-490.282 396.664 1736
-486.131 396.664 1736
-482.535 397.121 1738
-478.378 397.121 1738
-475.041 397.807 1741
-470.878 397.807 1741
-466.714 397.807 1741
-462.551 397.807 1741
-458.914 398.264 1743
-455.268 398.721 1745
-451.612 399.178 1747
-447.435 399.178 1747
-445.033 400.777 1754
-441.844 401.691 1758
-438.636 402.605 1762
-434.423 402.605 1762
-430.942 403.291 1765
-427.688 404.205 1769
-425.373 406.033 1777
-421.124 406.033 1777
-416.874 406.033 1777
-412.625 406.033 1777
-408.375 406.033 1777
-404.126 406.033 1777
-399.877 406.033 1777
-395.182 405.576 1775
-389.176 403.748 1767
-384.95 403.748 1767
-379.217 402.148 1760
-374.156 401.234 1756
-368.482 399.635 1749
-364.299 399.635 1749
-358.881 398.264 1743
-354.103 397.578 1740
-348.735 396.207 1734
-344.589 396.207 1734
-339.068 394.608 1727
-333.581 393.009 1720
-329.084 392.552 1718
-324.976 392.552 1718
-320.494 392.095 1716
-315.838 391.409 1713
-311.378 390.952 1711
-307.286 390.952 1711
-303.549 391.409 1713
-299.453 391.409 1713
-295.356 391.409 1713
-291.26 391.409 1713
-287.499 391.866 1715
-283.398 391.866 1715
-279.46 392.095 1716
-275.677 392.552 1718
-271.885 393.009 1720
-267.772 393.009 1720
-264.119 393.694 1723
-260.3 394.151 1725
-256.472 394.608 1727
-252.343 394.608 1727
-248.788 395.522 1731
-244.648 395.522 1731
-240.648 395.751 1732
-236.506 395.751 1732
-232.364 395.751 1732
-229.013 397.121 1738
-224.857 397.121 1738
-220.701 397.121 1738
-216.794 397.578 1740
-212.633 397.578 1740
-208.832 398.264 1743
-204.664 398.264 1743
-200.726 398.721 1745
-196.778 399.178 1747
-193.042 400.092 1751
-188.855 400.092 1751
-184.984 400.777 1754
-181.202 401.691 1758
-177.199 402.148 1760
-172.991 402.148 1760
-169.261 403.291 1765
-165.415 404.205 1769
-161.913 406.033 1777
-157.664 406.033 1777
-153.415 406.033 1777
-149.585 407.175 1782
-145.324 407.175 1782
-141.063 407.175 1782
-137.108 408.089 1786
-133.284 409.46 1792
-129.286 410.374 1796
-124.992 410.374 1796
-265.049 901.178 3944
-255.618 901.178 3944
-246.187 901.178 3944
-238.436 907.576 3972
-228.938 907.576 3972
-219.44 907.576 3972
-209.941 907.576 3972
-200.443 907.576 3972
-190.945 907.576 3972
-179.3 896.836 3925
-169.914 896.836 3925
-160.528 896.836 3925
-145.674 864.39 3783
-136.628 864.39 3783
-127.581 864.39 3783
-117.72 858.45 3757
-108.244 854.565 3740
-99.3007 854.565 3740
-89.9707 850.909 3724
-80.6954 847.025 3707
-71.3658 841.541 3683
-62.5586 841.541 3683
-53.518 837.885 3667
-44.2609 828.745 3627
-35.4307 825.09 3611
-26.677 821.434 3595
-18.0802 821.434 3595
-9.44391 818.006 3580
-0.877375 812.751 3557
7.62849 812.751 3557
16.1344 812.751 3557
24.6402 812.751 3557
33.0715 810.923 3549
41.4763 809.323 3542
49.9463 809.323 3542
58.4163 809.323 3542
66.8863 809.323 3542
75.3563 809.323 3542
83.8263 809.323 3542
92.0878 807.496 3534
100.539 807.496 3534
108.774 805.896 3527
117.208 805.896 3527
125.642 805.896 3527
134.076 805.896 3527
142.51 805.896 3527
150.944 805.896 3527
159.378 805.896 3527
167.479 804.297 3520
175.897 804.297 3520
183.895 802.469 3512
192.294 802.469 3512
200.292 800.869 3505
209.566 804.297 3520
217.984 804.297 3520
227.302 807.496 3534
235.753 807.496 3534
244.756 809.323 3542
253.226 809.323 3542
261.696 809.323 3542
270.166 809.323 3542
279.187 810.923 3549
288.97 814.579 3565
298.08 816.178 3572
306.621 816.178 3572
315.869 818.006 3580
324.43 818.006 3580
334.386 821.434 3595
342.983 821.434 3595
352.362 823.262 3603
360.978 823.262 3603
369.593 823.262 3603
378.209 823.262 3603
385.215 819.834 3588
392.039 816.178 3572
400.58 816.178 3572
404.77 807.496 3534
411.584 804.297 3520
419.047 802.469 3512
425.619 799.041 3497
433.982 799.041 3497
436.905 789.216 3454
442.458 784.418 3433
449.748 782.818 3426
457.941 782.818 3426
457.562 768.423 3363
463.804 765.453 3350
468.998 760.883 3330
476.961 760.883 3330
483.905 759.283 3323
490.963 757.912 3317
497.842 756.313 3310
505.757 756.313 3310
513.672 756.313 3310
521.588 756.313 3310
528.383 754.714 3303
536.281 754.714 3303
545.333 756.313 3310
553.248 756.313 3310
561.164 756.313 3310
570.282 757.912 3317
579.26 759.283 3323
587.207 759.283 3323
595.153 759.283 3323
604.37 760.883 3330
613.62 762.482 3337
621.6 762.482 3337
630.711 763.853 3343
638.706 763.853 3343
646.7 763.853 3343
653.519 762.482 3337
661.498 762.482 3337
669.478 762.482 3337
677.458 762.482 3337
684 760.883 3330
691.963 760.883 3330
699.926 760.883 3330
707.889 760.883 3330
715.852 760.883 3330
723.815 760.883 3330
730.24 759.283 3323
738.186 759.283 3323
746.133 759.283 3323
754.079 759.283 3323
762.025 759.283 3323
769.971 759.283 3323
777.918 759.283 3323
785.864 759.283 3323
793.81 759.283 3323
801.757 759.283 3323
811.409 760.883 3330
819.372 760.883 3330
827.335 760.883 3330
838.559 763.853 3343
848.325 765.453 3350
856.336 765.453 3350
871.314 771.622 3377
884.857 776.42 3398
896.662 779.619 3412
904.821 779.619 3412
918.6 784.418 3433
936.258 792.415 3468
950.543 797.442 3490
958.889 797.442 3490
973.331 802.469 3512
987.88 807.496 3534
998.586 809.323 3542
1007.06 809.323 3542
1019.83 812.751 3557
1034.98 818.006 3580
1047.91 821.434 3595
1058.86 823.262 3603
1067.48 823.262 3603
1083.26 828.745 3627
1096.45 832.173 3642
1107.59 834.001 3650
1116.32 834.001 3650
1127.51 835.829 3658
1136.26 835.829 3658
1147.82 837.885 3667
1156.59 837.885 3667
1167.9 839.713 3675
1176.69 839.713 3675
1185.48 839.713 3675
1194.27 839.713 3675
1200.44 837.885 3667
1206.24 835.829 3658
1214.98 835.829 3658
1223.73 835.829 3658
1232.48 835.829 3658
1241.23 835.829 3658
1249.97 835.829 3658
1258.72 835.829 3658
1264.7 834.001 3650
1273.43 834.001 3650
1282.15 834.001 3650
1290.88 834.001 3650
1299.61 834.001 3650
1305.47 832.173 3642
1314.18 832.173 3642
1322.89 832.173 3642
1331.6 832.173 3642
1337.73 830.573 3635
1343.46 828.745 3627
1352.13 828.745 3627
1360.81 828.745 3627
1369.48 828.745 3627
1378.15 828.745 3627
1386.83 828.745 3627
1392.42 826.917 3619
1401.08 826.917 3619
1403.5 823.262 3603
1412.11 823.262 3603
1420.73 823.262 3603
1423.39 819.834 3588
1431.97 819.834 3588
1437.34 818.006 3580
1445.9 818.006 3580
1441.87 810.923 3549
1447.5 809.323 3542
1452.68 807.496 3534
1461.13 807.496 3534
1466.67 805.896 3527
1465.9 800.869 3505
1470.92 799.041 3497
1479.28 799.041 3497
1484.66 797.442 3490
1496 799.041 3497
1507.81 800.869 3505
1528.73 807.496 3534
1537.19 807.496 3534
1552.2 810.923 3549
1574.32 818.006 3580
1593.05 823.262 3603
1612.33 828.745 3627
1621 828.745 3627
1658.43 843.369 3691
1720.56 870.331 3809
1729.67 870.331 3809
1791.73 896.836 3925
1827.27 909.861 3982
1845.56 914.202 4001
1855.13 914.202 4001
1868.89 916.258 4010
1878.48 916.258 4010
1888.07 916.258 4010
1897.66 916.258 4010
1902.97 914.202 4001
1907.75 911.917 3991
1912.97 909.861 3982
1922.5 909.861 3982
1917.95 903.234 3953
1909.36 894.78 3916
1914.31 892.724 3907
1923.66 892.724 3907
1919.64 886.554 3880
1893.62 870.331 3809
1881.25 860.506 3766
1890.26 860.506 3766
1890.69 856.622 3749
1878.37 847.025 3707
1875.02 841.541 3683
1866.95 834.001 3650
1884.41 837.885 3667
1893.18 837.885 3667
1901.95 837.885 3667
1910.72 837.885 3667
1927.86 841.541 3683
1936.67 841.541 3683
1953.93 845.197 3699
1984.53 854.565 3740
2030.25 870.331 3809
2039.36 870.331 3809
2072.13 880.385 3853
2100.79 888.611 3889
2139.93 901.178 3944
2149.36 901.178 3944
2189.99 914.202 4001
2215.5 920.828 4030
2235.63 925.17 4049
2245.31 925.17 4049
2260.57 927.455 4059
2270.27 927.455 4059
2279.98 927.455 4059
2289.69 927.455 4059
2299.39 927.455 4059
2309.1 927.455 4059
2318.8 927.455 4059
2328.51 927.455 4059
2338.22 927.455 4059
2342.14 925.17 4049
2357.63 927.455 4059
2367.34 927.455 4059
2377.04 927.455 4059
2386.75 927.455 4059
2396.45 927.455 4059
2406.16 927.455 4059
2409.92 925.17 4049
2419.6 925.17 4049
2435.28 927.455 4059
2444.99 927.455 4059
2454.69 927.455 4059
2464.4 927.455 4059
2468.01 925.17 4049
2477.69 925.17 4049
2481.23 922.885 4039
2490.89 922.885 4039
2500.55 922.885 4039
2510.21 922.885 4039
2526.1 925.17 4049
2535.79 925.17 4049
2551.76 927.455 4059
2561.46 927.455 4059
2571.17 927.455 4059
2580.87 927.455 4059
2577.82 922.885 4039
2581.71 920.828 4030
2591.35 920.828 4030
2600.98 920.828 4030
2597.66 916.258 4010
2607.25 916.258 4010
2623.37 918.543 4020
2632.98 918.543 4020
2642.59 918.543 4020
2645.61 916.258 4010
2642.62 911.917 3991
2652.16 911.917 3991
2655.7 909.861 3982
2652.51 905.519 3963
2661.98 905.519 3963
2671.46 905.519 3963
2668.08 901.178 3944
2677.52 901.178 3944
2686.95 901.178 3944
2696.38 901.178 3944
2655.73 884.498 3871
2646.4 878.328 3844
2637.63 872.388 3818
2646.76 872.388 3818
2655.89 872.388 3818
531.338 163.83 717
533.053 163.83 717
534.767 163.83 717
536.482 163.83 717
538.947 164.058 718
540.664 164.058 718
542.381 164.058 718
544.098 164.058 718
546.575 164.287 719
548.294 164.287 719
550.014 164.287 719
-2365.97 729.609 3160
-2358.41 729.609 3160
-2341.93 726.838 3148
-2334.4 726.838 3148
-2322.44 725.453 3142
-2314.93 725.453 3142
-2303.01 724.068 3136
-2291.11 722.682 3130
-2274.87 719.911 3118
-2284.87 725.453 3142
-2277.36 725.453 3142
-2282.85 729.609 3160
-2288.25 733.765 3178
-2289.26 736.536 3190
-2281.64 736.536 3190
-2291.12 742.077 3214
-2310.43 750.851 3252
-2338.76 762.626 3303
-2330.86 762.626 3303
-2351.1 771.862 3343
-2396.37 789.409 3419
-2388.2 789.409 3419
-2399.51 795.874 3447
-2421.1 805.802 3490
-2417.59 807.418 3497
-2409.23 807.418 3497
-2411.17 810.882 3512
-2413.03 814.345 3527
-2409.37 815.961 3534
-2400.92 815.961 3534
-2392.47 815.961 3534
-2384.02 815.961 3534
-2375.56 815.961 3534
-2367.11 815.961 3534
-2358.66 815.961 3534
-2355.53 817.808 3542
-2347.06 817.808 3542
-2338.59 817.808 3542
-2334.73 819.425 3549
-2326.24 819.425 3549
-2317.75 819.425 3549
-2309.27 819.425 3549
-2300.78 819.425 3549
-2292.29 819.425 3549
-2294.1 823.119 3565
-2290.07 824.735 3572
-2281.52 824.735 3572
-2278.07 826.582 3580
-2274.58 828.429 3588
-2266 828.429 3588
-2257.42 828.429 3588
-2248.84 828.429 3588
-2240.26 828.429 3588
-2231.68 828.429 3588
-2223.1 828.429 3588
-2218.84 830.046 3595
-2210.25 830.046 3595
-2206.55 831.893 3603
-2197.93 831.893 3603
-2194.18 833.74 3611
-2185.54 833.74 3611
-2181.73 835.587 3619
-2173.08 835.587 3619
-2173.99 839.281 3635
-2169.47 840.897 3642
-2165.51 842.744 3650
-2156.78 842.744 3650
-2148.05 842.744 3650
-2139.32 842.744 3650
-2130.59 842.744 3650
-2121.87 842.744 3650
-2117.77 844.591 3658
-2109.02 844.591 3658
-2100.28 844.591 3658
-2091.53 844.591 3658
-2087.9 846.669 3667
-2079.14 846.669 3667
-2070.37 846.669 3667
-2061.6 846.669 3667
-2057.31 848.517 3675
-2057.44 852.211 3691
-2048.61 852.211 3691
-2039.79 852.211 3691
-2030.96 852.211 3691
-2013.37 848.517 3675
-2004.58 848.517 3675
-1995.79 848.517 3675
-1987 848.517 3675
-1978.22 848.517 3675
-1969.43 848.517 3675
-1960.64 848.517 3675
-1951.85 848.517 3675
-1943.06 848.517 3675
-1934.28 848.517 3675
-1925.49 848.517 3675
-1907.83 844.591 3658
-1899.09 844.591 3658
-1890.34 844.591 3658
-1881.59 844.591 3658
-1872.84 844.591 3658
-1860.02 842.744 3650
-1851.29 842.744 3650
-1838.52 840.897 3642
-1826.3 839.281 3635
-1809.6 835.587 3619
-1800.95 835.587 3619
-1788.33 833.74 3611
-1775.76 831.893 3603
-1767.14 831.893 3603
-1758.53 831.893 3603
-1749.91 831.893 3603
-1737.43 830.046 3595
-1728.83 830.046 3595
-1720.23 830.046 3595
-1711.64 830.046 3595
-1703.04 830.046 3595
-1691.14 828.429 3588
-1682.56 828.429 3588
-1677.25 830.046 3595
-1668.65 830.046 3595
-1660.06 830.046 3595
-1644.57 826.582 3580
-1636.01 826.582 3580
-1627.45 826.582 3580
-1618.89 826.582 3580
-1610.33 826.582 3580
-1601.76 826.582 3580
-1593.2 826.582 3580
-1581.1 824.735 3572
-1572.56 824.735 3572
-1564.02 824.735 3572
-1555.48 824.735 3572
-1546.94 824.735 3572
-1538.39 824.735 3572
-1529.85 824.735 3572
-1521.31 824.735 3572
-1512.77 824.735 3572
-1507.6 826.582 3580
-1499.03 826.582 3580
-1490.47 826.582 3580
-1481.91 826.582 3580
-1467.18 823.119 3565
-1461.52 824.735 3572
-1452.98 824.735 3572
-1447.67 826.582 3580
-1451.57 833.74 3611
-1446.13 835.587 3619
-1437.48 835.587 3619
-1435.14 839.281 3635
-1429.19 840.897 3642
-1439.6 852.211 3691
-1430.77 852.211 3691
-1425.03 854.058 3699
-1419.24 855.905 3707
-1435.87 871.375 3774
-1426.85 871.375 3774
-1417.82 871.375 3774
-1412.16 873.453 3783
-1419.06 883.381 3826
-1409.91 883.381 3826
-1420.53 895.849 3880
-1417.8 900.005 3898
-1408.48 900.005 3898
-1399.16 900.005 3898
-1383.42 895.849 3880
-1339.79 873.453 3783
-1330.74 873.453 3783
-1306.67 863.524 3740
-1289.4 857.983 3716
-613.36 416.754 1805
-609.044 416.754 1805
-604.728 416.754 1805
-600.079 416.524 1804
-595.104 416.062 1802
-590.795 416.062 1802
-583.231 413.753 1792
-574.1 410.29 1777
-569.209 409.828 1775
-563.055 408.442 1769
-558.825 408.442 1769
-553.968 407.981 1767
-549.742 407.981 1767
-545.517 407.981 1767
-541.291 407.981 1767
-534.33 405.903 1758
-528.317 404.517 1752
-523.828 404.286 1751
-519.641 404.286 1751
-514.276 403.363 1747
-508.347 401.978 1741
-503.315 401.285 1738
-499.159 401.285 1738
-494.433 400.823 1736
-490.282 400.823 1736
-486.131 400.823 1736
-482.535 401.285 1738
-478.378 401.285 1738
-475.041 401.978 1741
-470.878 401.978 1741
-466.714 401.978 1741
-462.551 401.978 1741
-458.914 402.439 1743
-455.79 403.363 1747
-451.612 403.363 1747
-447.435 403.363 1747
-445.033 404.979 1754
-441.844 405.903 1758
-438.885 407.057 1763
-434.669 407.057 1763
-431.918 408.442 1769
-428.172 408.904 1771
-424.894 409.828 1775
-421.124 410.29 1777
-416.874 410.29 1777
-413.089 410.751 1779
-408.835 410.751 1779
-404.581 410.751 1779
-399.877 410.29 1777
-395.182 409.828 1775
-389.176 407.981 1767
-384.95 407.981 1767
-379.217 406.364 1760
-374.156 405.441 1756
-368.482 403.825 1749
-364.299 403.825 1749
-359.293 402.901 1745
-354.103 401.747 1740
-348.735 400.361 1734
-344.589 400.361 1734
-339.461 399.207 1729
-333.581 397.129 1720
-329.084 396.667 1718
-324.976 396.667 1718
-320.494 396.205 1716
-315.838 395.513 1713
-311.378 395.051 1711
-307.286 395.051 1711
-303.549 395.513 1713
-299.453 395.513 1713
-295.356 395.513 1713
-291.26 395.513 1713
-287.499 395.974 1715
-283.398 395.974 1715
-279.46 396.205 1716
-275.677 396.667 1718
-272.201 397.591 1722
-268.083 397.591 1722
-264.119 397.822 1723
-260.3 398.283 1725
-256.769 399.207 1729
-252.635 399.207 1729
-248.788 399.669 1731
-244.79 399.9 1732
-240.648 399.9 1732
-236.506 399.9 1732
-232.633 400.361 1734
-229.013 401.285 1738
-224.857 401.285 1738
-220.701 401.285 1738
-216.794 401.747 1740
-212.756 401.978 1741
-208.832 402.439 1743
-204.664 402.439 1743
-200.726 402.901 1745
-197.229 404.286 1751
-193.152 404.517 1752
-188.962 404.517 1752
-185.195 405.441 1756
-181.202 405.903 1758
-177.703 407.519 1765
-173.482 407.519 1765
-169.645 408.442 1769
-165.602 408.904 1771
-161.913 410.29 1777
-157.664 410.29 1777
-153.674 410.982 1780
-149.921 412.368 1786
-145.65 412.368 1786
-141.379 412.368 1786
-137.876 414.676 1796
-134.251 416.754 1805
-129.934 416.754 1805
-125.618 416.754 1805
-265.049 910.626 3944
-255.618 910.626 3944
-246.187 910.626 3944
-238.436 917.091 3972
-228.938 917.091 3972
-219.44 917.091 3972
-208.461 910.626 3944
-199.03 910.626 3944
-190.512 915.013 3963
-181.035 915.013 3963
-171.559 915.013 3963
-161.305 910.626 3944
-151.142 906.239 3925
-141.756 906.239 3925
-128.762 881.534 3818
-118.535 873.453 3783
-108.505 865.602 3749
-99.5397 865.602 3749
-90.3572 863.524 3740
-80.8913 857.983 3716
-71.3658 850.364 3683
-62.5586 850.364 3683
-53.518 846.669 3667
-44.2609 837.434 3627
-35.4307 833.74 3611
-26.677 830.046 3595
-18.0802 830.046 3595
-9.44391 826.582 3580
-0.877375 821.272 3557
7.62849 821.272 3557
16.1344 821.272 3557
24.5848 819.425 3549
33.0063 817.808 3542
41.4763 817.808 3542
49.9463 817.808 3542
58.4163 817.808 3542
66.7352 815.961 3534
75.1861 815.961 3534
83.6369 815.961 3534
92.0878 815.961 3534
100.34 814.345 3527
108.558 812.729 3520
116.975 812.729 3520
125.393 812.729 3520
134.076 814.345 3527
142.51 814.345 3527
150.944 814.345 3527
159.062 812.729 3520
167.479 812.729 3520
175.897 812.729 3520
183.529 809.266 3505
191.91 809.266 3505
200.292 809.266 3505
209.566 812.729 3520
217.984 812.729 3520
227.302 815.961 3534
235.753 815.961 3534
244.203 815.961 3534
253.226 817.808 3542
261.696 817.808 3542
270.166 817.808 3542
279.187 819.425 3549
288.97 823.119 3565
298.747 826.582 3580
307.308 826.582 3580
316.575 828.429 3588
325.155 828.429 3588
334.386 830.046 3595
342.983 830.046 3595
352.362 831.893 3603
360.978 831.893 3603
369.593 831.893 3603
378.209 831.893 3603
385.215 828.429 3588
392.039 824.735 3572
400.58 824.735 3572
404.77 815.961 3534
411.584 812.729 3520
419.047 810.882 3512
425.619 807.418 3497
433.982 807.418 3497
436.905 797.49 3454
442.458 792.642 3433
449.748 791.025 3426
457.941 791.025 3426
457.562 776.479 3363
463.804 773.478 3350
468.998 768.86 3330
476.961 768.86 3330
483.905 767.244 3323
490.963 765.858 3317
497.842 764.242 3310
505.757 764.242 3310
513.672 764.242 3310
521.588 764.242 3310
528.383 762.626 3303
536.281 762.626 3303
545.333 764.242 3310
553.248 764.242 3310
561.164 764.242 3310
569.079 764.242 3310
579.26 767.244 3323
587.207 767.244 3323
595.153 767.244 3323
604.37 768.86 3330
613.62 770.476 3337
621.6 770.476 3337
630.711 771.862 3343
638.706 771.862 3343
646.7 771.862 3343
653.519 770.476 3337
661.498 770.476 3337
669.478 770.476 3337
677.458 770.476 3337
684 768.86 3330
691.963 768.86 3330
699.926 768.86 3330
707.889 768.86 3330
715.852 768.86 3330
722.294 767.244 3323
730.24 767.244 3323
736.853 765.858 3317
744.785 765.858 3317
752.717 765.858 3317
762.025 767.244 3323
769.971 767.244 3323
777.918 767.244 3323
784.445 765.858 3317
793.81 767.244 3323
801.757 767.244 3323
811.409 768.86 3330
819.372 768.86 3330
827.335 768.86 3330
837.054 770.476 3337
846.553 771.862 3343
854.547 771.862 3343
867.701 776.479 3363
881.212 781.328 3384
896.662 787.793 3412
904.821 787.793 3412
916.727 791.025 3426
932.478 797.49 3454
946.73 802.57 3476
955.042 802.57 3476
971.391 809.266 3505
985.923 814.345 3527
998.586 817.808 3542
1007.06 817.808 3542
1019.83 821.272 3557
1032.67 824.735 3572
1047.91 830.046 3595
1058.86 831.893 3603
1067.48 831.893 3603
1083.26 837.434 3627
1096.45 840.897 3642
1107.59 842.744 3650
1116.32 842.744 3650
1127.51 844.591 3658
1136.26 844.591 3658
1147.82 846.669 3667
1156.59 846.669 3667
1167.9 848.517 3675
1176.69 848.517 3675
1185.48 848.517 3675
1194.27 848.517 3675
1200.44 846.669 3667
1206.24 844.591 3658
1214.98 844.591 3658
1223.73 844.591 3658
1232.48 844.591 3658
1241.23 844.591 3658
1249.97 844.591 3658
1258.72 844.591 3658
1264.7 842.744 3650
1273.43 842.744 3650
1282.15 842.744 3650
1290.88 842.744 3650
1299.61 842.744 3650
1305.47 840.897 3642
1314.18 840.897 3642
1322.89 840.897 3642
1331.6 840.897 3642
1337.73 839.281 3635
1343.46 837.434 3627
1352.13 837.434 3627
1360.81 837.434 3627
1369.48 837.434 3627
1375.11 835.587 3619
1383.77 835.587 3619
1392.42 835.587 3619
1397.98 833.74 3611
1403.5 831.893 3603
1412.11 831.893 3603
1417.57 830.046 3595
1423.39 828.429 3588
1428.78 826.582 3580
1431.32 823.119 3565
1439.84 823.119 3565
1441.87 819.425 3549
1444.23 815.961 3534
1449.8 814.345 3527
1458.23 814.345 3527
1457.52 809.266 3505
1462.56 807.418 3497
1467.97 805.802 3490
1476.32 805.802 3490
1478.71 802.57 3476
1483.6 800.723 3468
1507.81 809.266 3505
1522.68 812.729 3520
1531.1 812.729 3520
1549.14 817.808 3542
1567.72 823.119 3565
1586.41 828.429 3588
1601.66 831.893 3603
1610.28 831.893 3603
1640.01 842.744 3650
1720.56 879.456 3809
1729.67 879.456 3809
1783.52 902.083 3907
1818.56 915.013 3963
1845.56 923.786 4001
1855.13 923.786 4001
1868.89 925.864 4010
1878.48 925.864 4010
1888.07 925.864 4010
1897.66 925.864 4010
1898.21 921.477 3991
1903.45 919.399 3982
1908.17 917.091 3972
1917.67 917.091 3972
1917.95 912.704 3953
1909.36 904.161 3916
1914.31 902.083 3907
1923.66 902.083 3907
1919.64 895.849 3880
1893.62 879.456 3809
1881.25 869.528 3766
1890.26 869.528 3766
1890.69 865.602 3749
1878.37 855.905 3707
1875.02 850.364 3683
1866.95 842.744 3650
1884.41 846.669 3667
1893.18 846.669 3667
1901.95 846.669 3667
1910.72 846.669 3667
1927.86 850.364 3683
1936.67 850.364 3683
1953.93 854.058 3699
1984.53 863.524 3740
2030.25 879.456 3809
2039.36 879.456 3809
2072.13 889.615 3853
2100.79 897.927 3889
2139.93 910.626 3944
2149.36 910.626 3944
2189.99 923.786 4001
2215.5 930.482 4030
2235.63 934.869 4049
2245.31 934.869 4049
2260.57 937.178 4059
2270.27 937.178 4059
2279.98 937.178 4059
2289.69 937.178 4059
2299.39 937.178 4059
2309.1 937.178 4059
2318.8 937.178 4059
2328.51 937.178 4059
2338.22 937.178 4059
2342.14 934.869 4049
2357.63 937.178 4059
2367.34 937.178 4059
2377.04 937.178 4059
2386.75 937.178 4059
2396.45 937.178 4059
2406.16 937.178 4059
2409.92 934.869 4049
2419.6 934.869 4049
2435.28 937.178 4059
2444.99 937.178 4059
2454.69 937.178 4059
2464.4 937.178 4059
2468.01 934.869 4049
2477.69 934.869 4049
2481.23 932.56 4039
2490.89 932.56 4039
2500.55 932.56 4039
2510.21 932.56 4039
2526.1 934.869 4049
2535.79 934.869 4049
2551.76 937.178 4059
2561.46 937.178 4059
2571.17 937.178 4059
2580.87 937.178 4059
2577.82 932.56 4039
2581.71 930.482 4030
2591.35 930.482 4030
2600.98 930.482 4030
2597.66 925.864 4010
2607.25 925.864 4010
2623.37 928.173 4020
2632.98 928.173 4020
2642.59 928.173 4020
2645.61 925.864 4010
2642.62 921.477 3991
2652.16 921.477 3991
2655.7 919.399 3982
2652.51 915.013 3963
2661.98 915.013 3963
2671.46 915.013 3963
2668.08 910.626 3944
2677.52 910.626 3944
2686.95 910.626 3944
2696.38 910.626 3944
2655.73 893.771 3871
2646.4 887.537 3844
2637.63 881.534 3818
2646.76 881.534 3818
2655.89 881.534 3818
531.338 165.547 717
533.053 165.547 717
534.767 165.547 717
536.482 165.547 717
538.947 165.778 718
540.664 165.778 718
542.381 165.778 718
544.098 165.778 718
546.575 166.009 719
548.294 166.009 719
550.014 166.009 719
-2365.97 737.179 3160
-2358.41 737.179 3160
-2341.93 734.379 3148
-2334.4 734.379 3148
-2322.44 732.98 3142
-2314.93 732.98 3142
-2303.01 731.58 3136
-2291.11 730.18 3130
-2274.87 727.381 3118
-2284.87 732.98 3142
-2277.36 732.98 3142
-2282.85 737.179 3160
-2288.25 741.378 3178
-2289.26 744.177 3190
-2281.64 744.177 3190
-2291.12 749.776 3214
-2310.43 758.641 3252
-2338.76 770.538 3303
-2330.86 770.538 3303
-2351.1 779.87 3343
-2396.37 797.599 3419
-2388.2 797.599 3419
-2399.51 804.131 3447
-2421.1 814.162 3490
-2417.59 815.795 3497
-2409.23 815.795 3497
-2411.17 819.295 3512
-2413.03 822.794 3527
-2409.37 824.427 3534
-2400.92 824.427 3534
-2392.47 824.427 3534
-2384.02 824.427 3534
-2375.56 824.427 3534
-2367.11 824.427 3534
-2358.66 824.427 3534
-2355.53 826.293 3542
-2347.06 826.293 3542
-2338.59 826.293 3542
-2334.73 827.926 3549
-2326.24 827.926 3549
-2317.75 827.926 3549
-2309.27 827.926 3549
-2300.78 827.926 3549
-2292.29 827.926 3549
-2294.1 831.659 3565
-2290.07 833.292 3572
-2281.52 833.292 3572
-2278.07 835.158 3580
-2274.58 837.024 3588
-2266 837.024 3588
-2257.42 837.024 3588
-2248.84 837.024 3588
-2240.26 837.024 3588
-2231.68 837.024 3588
-2223.1 837.024 3588
-2218.84 838.657 3595
-2210.25 838.657 3595
-2206.55 840.524 3603
-2197.93 840.524 3603
-2194.18 842.39 3611
-2185.54 842.39 3611
-2181.73 844.256 3619
-2173.08 844.256 3619
-2173.99 847.989 3635
-2174.24 851.488 3650
-2165.51 851.488 3650
-2156.78 851.488 3650
-2148.05 851.488 3650
-2139.32 851.488 3650
-2130.59 851.488 3650
-2121.87 851.488 3650
-2117.77 853.354 3658
-2109.02 853.354 3658
-2100.28 853.354 3658
-2091.53 853.354 3658
-2087.9 855.454 3667
-2079.14 855.454 3667
-2070.37 855.454 3667
-2061.6 855.454 3667
-2057.31 857.32 3675
-2057.44 861.053 3691
-2048.61 861.053 3691
-2039.79 861.053 3691
-2030.96 861.053 3691
-2013.37 857.32 3675
-2004.58 857.32 3675
-1995.79 857.32 3675
-1987 857.32 3675
-1978.22 857.32 3675
-1969.43 857.32 3675
-1960.64 857.32 3675
-1951.85 857.32 3675
-1943.06 857.32 3675
-1934.28 857.32 3675
-1925.49 857.32 3675
-1907.83 853.354 3658
-1899.09 853.354 3658
-1890.34 853.354 3658
-1881.59 853.354 3658
-1872.84 853.354 3658
-1860.02 851.488 3650
-1851.29 851.488 3650
-1838.52 849.622 3642
-1826.3 847.989 3635
-1809.6 844.256 3619
-1800.95 844.256 3619
-1788.33 842.39 3611
-1775.76 840.524 3603
-1767.14 840.524 3603
-1758.53 840.524 3603
-1749.91 840.524 3603
-1737.43 838.657 3595
-1728.83 838.657 3595
-1720.23 838.657 3595
-1711.64 838.657 3595
-1703.04 838.657 3595
-1691.14 837.024 3588
-1682.56 837.024 3588
-1677.25 838.657 3595
-1668.65 838.657 3595
-1660.06 838.657 3595
-1644.57 835.158 3580
-1636.01 835.158 3580
-1627.45 835.158 3580
-1618.89 835.158 3580
-1610.33 835.158 3580
-1601.76 835.158 3580
-1593.2 835.158 3580
-1581.1 833.292 3572
-1572.56 833.292 3572
-1564.02 833.292 3572
-1555.48 833.292 3572
-1546.94 833.292 3572
-1538.39 833.292 3572
-1529.85 833.292 3572
-1521.31 833.292 3572
-1512.77 833.292 3572
-1507.6 835.158 3580
-1499.03 835.158 3580
-1490.47 835.158 3580
-1481.91 835.158 3580
-1467.18 831.659 3565
-1461.52 833.292 3572
-1452.98 833.292 3572
-1447.67 835.158 3580
-1451.57 842.39 3611
-1446.13 844.256 3619
-1437.48 844.256 3619
-1435.14 847.989 3635
-1429.19 849.622 3642
-1439.6 861.053 3691
-1430.77 861.053 3691
-1425.03 862.919 3699
-1419.24 864.785 3707
-1435.87 880.415 3774
-1426.85 880.415 3774
-1417.82 880.415 3774
-1412.16 882.515 3783
-1419.06 892.546 3826
-1409.91 892.546 3826
-1420.53 905.143 3880
-1417.8 909.343 3898
-1408.48 909.343 3898
-1399.16 909.343 3898
-1383.42 905.143 3880
-1339.79 882.515 3783
-1330.74 882.515 3783
-1306.67 872.484 3740
-1269.27 853.354 3658
-613.36 421.078 1805
-609.044 421.078 1805
-604.728 421.078 1805
-600.079 420.845 1804
-595.104 420.378 1802
-590.795 420.378 1802
-583.231 418.046 1792
-574.1 414.546 1777
-569.209 414.08 1775
-563.055 412.68 1769
-558.825 412.68 1769
-553.968 412.214 1767
-549.742 412.214 1767
-545.517 412.214 1767
-541.291 412.214 1767
-534.33 410.114 1758
-528.317 408.714 1752
-523.828 408.481 1751
-519.641 408.481 1751
-514.276 407.548 1747
-508.347 406.148 1741
-503.315 405.448 1738
-499.159 405.448 1738
-494.433 404.982 1736
-490.282 404.982 1736
-486.131 404.982 1736
-482.535 405.448 1738
-478.378 405.448 1738
-475.041 406.148 1741
-471.419 406.615 1743
-467.251 406.615 1743
-463.083 406.615 1743
-458.914 406.615 1743
-455.79 407.548 1747
-452.129 408.014 1749
-447.947 408.014 1749
-445.033 409.181 1754
-442.347 410.581 1760
-438.885 411.28 1763
-434.669 411.28 1763
-431.918 412.68 1769
-428.172 413.147 1771
-425.373 414.546 1777
-421.124 414.546 1777
-417.343 415.013 1779
-413.089 415.013 1779
-408.835 415.013 1779
-404.581 415.013 1779
-399.877 414.546 1777
-395.627 414.546 1777
-389.616 412.68 1769
-385.386 412.68 1769
-381.156 412.68 1769
-374.582 410.114 1758
-369.956 409.647 1756
-365.757 409.647 1756
-359.705 407.548 1747
-354.306 406.148 1741
-349.138 404.982 1736
-344.986 404.982 1736
-339.461 403.349 1729
-333.968 401.716 1722
-329.084 400.783 1718
-324.976 400.783 1718
-320.494 400.316 1716
-315.838 399.616 1713
-311.741 399.616 1713
-307.645 399.616 1713
-303.549 399.616 1713
-299.453 399.616 1713
-295.356 399.616 1713
-291.6 400.083 1715
-287.667 400.316 1716
-283.563 400.316 1716
-279.46 400.316 1716
-275.677 400.783 1718
-272.359 401.949 1723
-268.239 401.949 1723
-264.119 401.949 1723
-260.3 402.416 1725
-256.769 403.349 1729
-252.635 403.349 1729
-248.931 404.049 1732
-244.79 404.049 1732
-240.648 404.049 1732
-236.506 404.049 1732
-232.633 404.515 1734
-229.013 405.448 1738
-225.116 405.915 1740
-220.955 405.915 1740
-216.919 406.148 1741
-213 406.615 1743
-208.832 406.615 1743
-204.664 406.615 1743
-200.956 407.548 1747
-197.229 408.481 1751
-193.152 408.714 1752
-188.962 408.714 1752
-185.406 410.114 1758
-181.202 410.114 1758
-177.703 411.747 1765
-173.482 411.747 1765
-169.837 413.147 1771
-165.976 414.08 1775
-162.187 415.246 1780
-157.93 415.246 1780
-154.192 416.646 1786
-150.257 417.579 1790
-146.302 418.512 1794
-142.012 418.512 1794
-137.876 418.979 1796
-134.251 421.078 1805
-129.934 421.078 1805
-125.618 421.078 1805
-265.049 920.074 3944
-255.618 920.074 3944
-246.187 920.074 3944
-236.755 920.074 3944
-227.324 920.074 3944
-217.893 920.074 3944
-209.466 924.506 3963
-200.948 928.938 3982
-191.426 928.938 3982
-181.903 928.938 3982
-172.381 928.938 3982
-162.45 926.606 3972
-151.874 920.074 3944
-142.442 920.074 3944
-129.335 894.646 3835
-119.35 888.58 3809
-109.489 882.515 3783
-100.442 882.515 3783
-90.3572 872.484 3740
-81.0655 868.751 3724
-71.3658 859.186 3683
-62.5586 859.186 3683
-53.518 855.454 3667
-44.2609 846.122 3627
-35.3522 840.524 3603
-26.5656 835.158 3580
-18.0048 835.158 3580
-9.40434 831.659 3565
-0.877375 829.793 3557
7.62849 829.793 3557
16.1344 829.793 3557
24.5848 827.926 3549
33.0063 826.293 3542
41.3826 824.427 3534
49.8335 824.427 3534
58.2844 824.427 3534
66.7352 824.427 3534
75.1861 824.427 3534
83.6369 824.427 3534
91.9054 822.794 3527
100.34 822.794 3527
108.558 821.161 3520
116.975 821.161 3520
125.108 819.295 3512
133.81 821.161 3520
142.227 821.161 3520
150.645 821.161 3520
159.062 821.161 3520
167.479 821.161 3520
175.497 819.295 3512
183.529 817.662 3505
191.91 817.662 3505
200.292 817.662 3505
209.09 819.295 3512
217.984 821.161 3520
226.851 822.794 3527
235.286 822.794 3527
244.203 824.427 3534
253.226 826.293 3542
261.696 826.293 3542
270.166 826.293 3542
279.187 827.926 3549
288.97 831.659 3565
298.747 835.158 3580
307.308 835.158 3580
316.575 837.024 3588
325.155 837.024 3588
334.386 838.657 3595
342.983 838.657 3595
352.362 840.524 3603
361.779 842.39 3611
370.414 842.39 3611
379.049 842.39 3611
385.215 837.024 3588
392.917 835.158 3580
401.478 835.158 3580
405.686 826.293 3542
412.402 822.794 3527
419.047 819.295 3512
426.593 817.662 3505
434.974 817.662 3505
437.79 807.397 3461
443.36 802.498 3440
450.667 800.865 3433
458.876 800.865 3433
457.562 784.535 3363
464.773 783.136 3357
469.984 778.47 3337
477.964 778.47 3337
483.905 775.204 3323
491.851 775.204 3323
498.895 773.804 3317
506.827 773.804 3317
514.759 773.804 3317
521.588 772.171 3310
529.503 772.171 3310
537.418 772.171 3310
545.333 772.171 3310
553.248 772.171 3310
561.164 772.171 3310
569.079 772.171 3310
579.26 775.204 3323
587.207 775.204 3323
596.407 776.837 3330
604.37 776.837 3330
614.723 779.87 3343
622.717 779.87 3343
630.711 779.87 3343
638.706 779.87 3343
646.7 779.87 3343
654.694 779.87 3343
661.498 778.47 3337
669.478 778.47 3337
677.458 778.47 3337
685.438 778.47 3337
691.963 776.837 3330
699.926 776.837 3330
707.889 776.837 3330
715.852 776.837 3330
722.294 775.204 3323
730.24 775.204 3323
738.186 775.204 3323
746.133 775.204 3323
754.079 775.204 3323
762.025 775.204 3323
769.971 775.204 3323
777.918 775.204 3323
785.864 775.204 3323
793.81 775.204 3323
801.757 775.204 3323
811.409 776.837 3330
819.372 776.837 3330
827.335 776.837 3330
837.054 778.47 3337
846.553 779.87 3343
854.547 779.87 3343
867.701 784.535 3363
881.212 789.434 3384
892.983 792.7 3398
901.109 792.7 3398
912.981 795.966 3412
932.478 805.764 3454
946.73 810.897 3476
955.042 810.897 3476
971.391 817.662 3505
983.966 821.161 3520
996.33 824.427 3534
1007.06 826.293 3542
1015.53 826.293 3542
1032.67 833.292 3572
1045.87 837.024 3588
1058.86 840.524 3603
1067.48 840.524 3603
1085.65 847.989 3635
1096.45 849.622 3642
1107.59 851.488 3650
1116.32 851.488 3650
1127.51 853.354 3658
1139.05 855.454 3667
1147.82 855.454 3667
1156.59 855.454 3667
1170.45 859.186 3683
1179.25 859.186 3683
1188.06 859.186 3683
1196.87 859.186 3683
1200.44 855.454 3667
1209.2 855.454 3667
1217.97 855.454 3667
1223.73 853.354 3658
1232.48 853.354 3658
1241.23 853.354 3658
1249.97 853.354 3658
1258.72 853.354 3658
1267.47 853.354 3658
1276.22 853.354 3658
1284.96 853.354 3658
1290.88 851.488 3650
1299.61 851.488 3650
1308.34 851.488 3650
1317.07 851.488 3650
1325.79 851.488 3650
1331.6 849.622 3642
1340.31 849.622 3642
1346.42 847.989 3635
1355.12 847.989 3635
1360.81 846.122 3627
1369.48 846.122 3627
1375.11 844.256 3619
1383.77 844.256 3619
1392.42 844.256 3619
1394.88 840.524 3603
1403.5 840.524 3603
1412.11 840.524 3603
1414.81 837.024 3588
1420.22 835.158 3580
1428.78 835.158 3580
1431.32 831.659 3565
1439.84 831.659 3565
1439.03 826.293 3542
1444.23 824.427 3534
1446.92 821.161 3520
1455.34 821.161 3520
1457.52 817.662 3505
1459.63 814.162 3490
1462.08 810.897 3476
1470.4 810.897 3476
1478.71 810.897 3476
1483.6 809.03 3468
1504.37 815.795 3497
1522.68 821.161 3520
1531.1 821.161 3520
1549.14 826.293 3542
1567.72 831.659 3565
1579.34 833.292 3572
1601.66 840.524 3603
1610.28 840.524 3603
1643.61 853.354 3658
1720.56 888.58 3809
1729.67 888.58 3809
1779.41 909.343 3898
1801.12 915.641 3925
1828.03 924.506 3963
1837.51 924.506 3963
1864.7 933.371 4001
1874.26 933.371 4001
1883.83 933.371 4001
1893.4 933.371 4001
1898.21 931.038 3991
1903.45 928.938 3982
1908.17 926.606 3972
1917.67 926.606 3972
1909.21 917.974 3935
1909.36 913.542 3916
1909.9 909.343 3898
1919.23 909.343 3898
1919.64 905.143 3880
1889.15 886.481 3800
1881.25 878.549 3766
1890.26 878.549 3766
1890.69 874.583 3749
1878.37 864.785 3707
1875.02 859.186 3683
1866.95 851.488 3650
1884.41 855.454 3667
1893.18 855.454 3667
1901.95 855.454 3667
1910.72 855.454 3667
1927.86 859.186 3683
1936.67 859.186 3683
1953.93 862.919 3699
1984.53 872.484 3740
2016.39 882.515 3783
2025.44 882.515 3783
2072.13 898.845 3853
2100.79 907.243 3889
2139.93 920.074 3944
2149.36 920.074 3944
2189.99 933.371 4001
2215.5 940.136 4030
2235.63 944.568 4049
2245.31 944.568 4049
2260.57 946.901 4059
2270.27 946.901 4059
2279.98 946.901 4059
2289.69 946.901 4059
2299.39 946.901 4059
2309.1 946.901 4059
2318.8 946.901 4059
2328.51 946.901 4059
2338.22 946.901 4059
2342.14 944.568 4049
2357.63 946.901 4059
2367.34 946.901 4059
2377.04 946.901 4059
2386.75 946.901 4059
2396.45 946.901 4059
2406.16 946.901 4059
2409.92 944.568 4049
2419.6 944.568 4049
2429.28 944.568 4049
2438.96 944.568 4049
2448.65 944.568 4049
2458.33 944.568 4049
2468.01 944.568 4049
2477.69 944.568 4049
2481.23 942.236 4039
2490.89 942.236 4039
2500.55 942.236 4039
2510.21 942.236 4039
2526.1 944.568 4049
2535.79 944.568 4049
2545.47 944.568 4049
2555.15 944.568 4049
2564.83 944.568 4049
2568.16 942.236 4039
2572.07 940.136 4030
2581.71 940.136 4030
2591.35 940.136 4030
2600.98 940.136 4030
2597.66 935.47 4010
2607.25 935.47 4010
2623.37 937.803 4020
2632.98 937.803 4020
2642.59 937.803 4020
2645.61 935.47 4010
2642.62 931.038 3991
2652.16 931.038 3991
2649.03 926.606 3972
2639.79 920.074 3944
2643.18 917.974 3935
2652.59 917.974 3935
2649.14 913.542 3916
2652.4 911.442 3907
2631.08 900.944 3862
2640.32 900.944 3862
2643.38 898.845 3853
2646.4 896.745 3844
2625.19 886.481 3800
2622.49 882.515 3783
2631.54 882.515 3783
530.597 167.032 716
532.309 167.032 716
534.021 167.032 716
535.734 167.032 716
537.446 167.032 716
539.911 167.265 717
541.625 167.265 717
543.34 167.265 717
545.815 167.498 718
547.532 167.498 718
549.249 167.498 718
-2365.97 744.748 3160
-2358.41 744.748 3160
-2341.93 741.92 3148
-2329.95 740.506 3142
-2318 739.092 3136
-2310.5 739.092 3136
-2303.01 739.092 3136
-2286.72 736.264 3124
-2274.87 734.85 3118
-2280.51 739.092 3136
-2273.01 739.092 3136
-2278.51 743.334 3154
-2275.29 744.748 3160
-2280.65 748.991 3178
-2273.05 748.991 3178
-2286.84 756.061 3208
-2306.17 765.017 3246
-2329.56 775.387 3290
-2321.69 775.387 3290
-2346.88 786.464 3337
-2391.47 804.14 3412
-2383.31 804.14 3412
-2394.64 810.739 3440
-2405.84 817.338 3468
-2412.75 822.523 3490
-2404.41 822.523 3490
-2400.87 824.173 3497
-2408.24 829.593 3520
-2404.6 831.243 3527
-2396.16 831.243 3527
-2387.73 831.243 3527
-2379.29 831.243 3527
-2370.86 831.243 3527
-2357.74 829.593 3520
-2349.32 829.593 3520
-2345.56 831.243 3527
-2337.12 831.243 3527
-2328.69 831.243 3527
-2330.12 834.778 3542
-2321.65 834.778 3542
-2313.18 834.778 3542
-2309.27 836.428 3549
-2300.78 836.428 3549
-2292.29 836.428 3549
-2288.96 838.313 3557
-2285.58 840.199 3565
-2277.05 840.199 3565
-2278.07 843.734 3580
-2274.58 845.619 3588
-2266 845.619 3588
-2257.42 845.619 3588
-2248.84 845.619 3588
-2240.26 845.619 3588
-2231.68 845.619 3588
-2223.1 845.619 3588
-2218.84 847.269 3595
-2210.25 847.269 3595
-2206.55 849.155 3603
-2197.93 849.155 3603
-2194.18 851.04 3611
-2185.54 851.04 3611
-2181.73 852.926 3619
-2173.08 852.926 3619
-2173.99 856.696 3635
-2174.24 860.232 3650
-2165.51 860.232 3650
-2156.78 860.232 3650
-2148.05 860.232 3650
-2139.32 860.232 3650
-2130.59 860.232 3650
-2121.87 860.232 3650
-2117.77 862.117 3658
-2109.02 862.117 3658
-2100.28 862.117 3658
-2091.53 862.117 3658
-2078.23 860.232 3650
-2079.14 864.238 3667
-2070.37 864.238 3667
-2061.6 864.238 3667
-2052.83 864.238 3667
-2048.52 866.124 3675
-2039.73 866.124 3675
-2030.94 866.124 3675
-2022.16 866.124 3675
-2013.37 866.124 3675
-2004.58 866.124 3675
-1995.79 866.124 3675
-1982.68 864.238 3667
-1973.91 864.238 3667
-1969.43 866.124 3675
-1960.64 866.124 3675
-1951.85 866.124 3675
-1943.06 866.124 3675
-1934.28 866.124 3675
-1925.49 866.124 3675
-1907.83 862.117 3658
-1894.93 860.232 3650
-1886.2 860.232 3650
-1877.48 860.232 3650
-1868.75 860.232 3650
-1860.02 860.232 3650
