1871.3 -83.8951 2776
1884.03 -84.1671 2785
1896.8 -84.4391 2794
1910.29 -84.7413 2804
1917 -84.7413 2804
1933.31 -85.1644 2818
1940.05 -85.1644 2818
1946.79 -85.1644 2818
1953.53 -85.1644 2818
1963.74 -85.3155 2823
1973.98 -85.4666 2828
1994.05 -86.0409 2847
2000.86 -86.0409 2847
2024.59 -86.7662 2871
2031.46 -86.7662 2871
2041.87 -86.9173 2876
2048.75 -86.9173 2876
2073.5 -87.6728 2901
2087.61 -87.975 2911
2116.87 -88.9119 2942
2123.91 -88.9119 2942
2130.94 -88.9119 2942
2153.24 -89.5466 2963
2180.01 -90.3625 2990
2187.16 -90.3625 2990
2201.65 -90.6648 3000
2245.64 -92.1758 3050
2265.49 -92.6896 3067
2272.82 -92.6896 3067
2384.98 -96.9509 3208
2411.3 -97.7064 3233
2419.03 -97.7064 3233
2426.76 -97.7064 3233
2695.79 -108.193 3580
2745.9 -109.855 3635
2790.96 -111.306 3683
2799.77 -111.306 3683
2839.84 -112.545 3724
2848.75 -112.545 3724
-2640.75 -98.1426 3527
-2632.32 -98.1426 3527
-2623.88 -98.1426 3527
-2610.26 -97.9478 3520
-2601.84 -97.9478 3520
-2587.53 -97.7252 3512
-2562.97 -97.113 3490
-2544.38 -96.7234 3476
-2536.07 -96.7234 3476
-2501.58 -95.7217 3440
-2493.35 -95.7217 3440
-2480.07 -95.5269 3433
-2471.86 -95.5269 3433
-2463.65 -95.5269 3433
-2445.43 -95.1374 3419
-2422.28 -94.553 3398
-2448.97 -95.9165 3447
-2455.59 -96.5008 3468
-2447.3 -96.5008 3468
-2454.48 -97.113 3490
-2456.65 -97.5304 3505
-2448.27 -97.5304 3505
-2444.76 -97.7252 3512
-2446.77 -98.1426 3527
-2459.07 -98.9774 3557
-2450.57 -98.9774 3557
-2452.36 -99.3948 3572
-2449.29 -99.6174 3580
-2446.18 -99.84 3588
-2437.6 -99.84 3588
-2444.59 -100.48 3611
-2452.15 -101.148 3635
-2453.54 -101.565 3650
-2444.81 -101.565 3650
-2436.08 -101.565 3650
-2422.04 -101.343 3642
-2423.93 -101.788 3658
-2415.18 -101.788 3658
-2406.43 -101.788 3658
-2397.69 -101.788 3658
-2388.94 -101.788 3658
-2374.99 -101.565 3650
-2366.26 -101.565 3650
-2368.51 -102.038 3667
-2359.74 -102.038 3667
-2350.97 -102.038 3667
-2336.45 -101.788 3658
-2327.71 -101.788 3658
-2318.96 -101.788 3658
-2310.21 -101.788 3658
-2301.47 -101.788 3658
-2287.7 -101.565 3650
-2294.58 -102.261 3675
-2285.8 -102.261 3675
-2277.01 -102.261 3675
-2268.22 -102.261 3675
-2254.51 -102.038 3667
-2245.75 -102.038 3667
-2217.46 -101.148 3635
-2194.18 -100.48 3611
-2175.86 -100.035 3595
-2167.26 -100.035 3595
-2154.46 -99.84 3588
-2145.88 -99.84 3588
-2137.3 -99.84 3588
-2128.72 -99.84 3588
-2120.14 -99.84 3588
-2111.56 -99.84 3588
-2102.98 -99.84 3588
-2094.4 -99.84 3588
-2081.17 -99.6174 3580
-2067.98 -99.3948 3572
-2064.05 -99.6174 3580
-2055.49 -99.6174 3580
-2046.93 -99.6174 3580
-2038.37 -99.6174 3580
-1999.76 -98.1426 3527
-1991.32 -98.1426 3527
-1954.22 -96.7234 3476
-1917.91 -95.3321 3426
-1909.72 -95.3321 3426
-1901.53 -95.3321 3426
-1881.73 -94.7478 3405
-1850.48 -93.5791 3363
-1839.15 -93.4121 3357
-1838.21 -93.7739 3370
-1830.15 -93.7739 3370
-1822.1 -93.7739 3370
-1807.04 -93.4121 3357
-1799.01 -93.4121 3357
-1790.98 -93.4121 3357
-1775.52 -93.0226 3343
-1753.78 -92.2991 3317
-1738.48 -91.9095 3303
-1730.58 -91.9095 3303
-1719.55 -91.7426 3297
-1704.92 -91.3808 3284
-1693.97 -91.2139 3278
-1686.13 -91.2139 3278
-1678.29 -91.2139 3278
-1670.45 -91.2139 3278
-1662.61 -91.2139 3278
-1654.77 -91.2139 3278
-1646.93 -91.2139 3278
-1632.59 -90.8521 3265
-1627.77 -91.0191 3271
-1619.95 -91.0191 3271
-1612.13 -91.0191 3271
-1604.31 -91.0191 3271
-1596.49 -91.0191 3271
-1588.66 -91.0191 3271
-1577.94 -90.8521 3265
-1570.13 -90.8521 3265
-1562.33 -90.8521 3265
-1554.52 -90.8521 3265
-1546.71 -90.8521 3265
-1538.9 -90.8521 3265
-1531.1 -90.8521 3265
-1523.29 -90.8521 3265
-1515.48 -90.8521 3265
-1507.67 -90.8521 3265
-1505.84 -91.2139 3278
-1500.74 -91.3808 3284
-1492.89 -91.3808 3284
-1487.75 -91.5478 3290
-1479.88 -91.5478 3290
-1480.96 -92.1043 3310
-1473.05 -92.1043 3310
-1465.13 -92.1043 3310
-1460.3 -92.2991 3317
-1452.37 -92.2991 3317
-1444.43 -92.2991 3317
-1442.13 -92.6608 3330
-1448.38 -93.5791 3363
-1443.34 -93.7739 3370
-1435.28 -93.7739 3370
-1436.11 -94.3582 3391
-1428 -94.3582 3391
-1425.76 -94.7478 3405
-1417.62 -94.7478 3405
-1418.17 -95.3321 3426
-1409.97 -95.3321 3426
-1404.64 -95.5269 3433
-1396.44 -95.5269 3433
-1388.23 -95.5269 3433
-1385.64 -95.9165 3447
-1380.2 -96.1113 3454
-1371.94 -96.1113 3454
-1363.68 -96.1113 3454
-1355.42 -96.1113 3454
-1341.7 -95.7217 3440
-1333.47 -95.7217 3440
-1319.85 -95.3321 3426
-1300.94 -94.553 3398
-1282.16 -93.7739 3370
-1274.1 -93.7739 3370
-1253.65 -92.8556 3337
-1238.2 -92.2991 3317
-1222.85 -91.7426 3297
-1214.97 -91.7426 3297
-1202.33 -91.3808 3284
-1189.74 -91.0191 3271
-1181.92 -91.0191 3271
-1174.1 -91.0191 3271
-1166.28 -91.0191 3271
-1153.85 -90.6574 3258
-1146.06 -90.6574 3258
-1138.27 -90.6574 3258
-1130.48 -90.6574 3258
-1116.14 -90.1287 3239
-1108.4 -90.1287 3239
-1103.03 -90.3234 3246
-1095.27 -90.3234 3246
-1089.51 -90.4904 3252
-1081.74 -90.4904 3252
-1073.96 -90.4904 3252
-1061.92 -90.1287 3239
-1054.18 -90.1287 3239
-1048.69 -90.3234 3246
-1040.93 -90.3234 3246
-1033.17 -90.3234 3246
-543.978 -47.9165 1722
-539.86 -47.9165 1722
-535.742 -47.9165 1722
-531.624 -47.9165 1722
-527.506 -47.9165 1722
-522.173 -47.8052 1718
-517.16 -47.7217 1715
-511.862 -47.6104 1711
-507.77 -47.6104 1711
-503.09 -47.5548 1709
-498.711 -47.5269 1708
-494.048 -47.4713 1706
-489.968 -47.4713 1706
-485.319 -47.4156 1704
-480.68 -47.36 1702
-476.33 -47.3322 1701
-470.596 -47.1652 1695
-466.543 -47.1652 1695
-461.671 -47.0817 1692
-456.814 -46.9982 1689
-451.166 -46.8313 1683
-447.142 -46.8313 1683
-442.327 -46.7478 1680
-437.788 -46.6922 1678
-433.517 -46.6643 1677
-429.507 -46.6643 1677
-423.213 -46.4139 1668
-418.973 -46.3861 1667
-413.991 -46.2748 1663
-410.014 -46.2748 1663
-404.572 -46.1078 1657
-400.126 -46.0522 1655
-394.972 -45.913 1650
-391.026 -45.913 1650
-386.612 -45.8574 1648
-382.671 -45.8574 1648
-377.351 -45.6904 1642
-372.742 -45.6069 1639
-368.823 -45.6069 1639
-364.903 -45.6069 1639
-360.984 -45.6069 1639
-356.411 -45.5235 1636
-352.499 -45.5235 1636
-348.587 -45.5235 1636
-344.253 -45.4678 1634
-339.929 -45.4122 1632
-336.027 -45.4122 1632
-331.514 -45.3287 1629
-327.015 -45.2452 1626
-322.729 -45.1896 1624
-318.846 -45.1896 1624
-314.38 -45.1061 1621
-310.504 -45.1061 1621
-306.06 -45.0226 1618
-302.191 -45.0226 1618
-298.138 -44.9948 1617
-293.543 -44.8835 1613
-289.506 -44.8556 1612
-285.651 -44.8556 1612
-281.272 -44.7722 1609
-276.907 -44.6887 1606
-272.727 -44.633 1604
-268.724 -44.6052 1603
-264.89 -44.6052 1603
-261.057 -44.6052 1603
-256.582 -44.4939 1599
-252.758 -44.4939 1599
-248.934 -44.4939 1599
-245.111 -44.4939 1599
-241.287 -44.4939 1599
-237.463 -44.4939 1599
-233.64 -44.4939 1599
-229.816 -44.4939 1599
-225.992 -44.4939 1599
-222.169 -44.4939 1599
-218.345 -44.4939 1599
-214.521 -44.4939 1599
-210.698 -44.4939 1599
-207.133 -44.5495 1601
-203.304 -44.5495 1601
-199.476 -44.5495 1601
-195.647 -44.5495 1601
-191.819 -44.5495 1601
-187.99 -44.5495 1601
-184.162 -44.5495 1601
-180.559 -44.6052 1603
-177.056 -44.6887 1606
-173.863 -44.8556 1612
-170.008 -44.8556 1612
-166.978 -45.0782 1620
-163.909 -45.3009 1628
-160.311 -45.3843 1631
-156.411 -45.3843 1631
-153.352 -45.6348 1640
-150.068 -45.8296 1647
-146.84 -46.0522 1655
-142.882 -46.0522 1655
-139.512 -46.2469 1662
-136.027 -46.4139 1668
-133.938 -47.0817 1692
-129.892 -47.0817 1692
-128.077 -47.9165 1722
-124.967 -48.3061 1736
-121.721 -48.6678 1749
-117.538 -48.6678 1749
-113.486 -48.7235 1751
-109.735 -48.9182 1758
-105.531 -48.9182 1758
-101.327 -48.9182 1758
-177.821 -102.929 3699
-168.976 -102.929 3699
-160.13 -102.929 3699
-151.285 -102.929 3699
-142.439 -102.929 3699
-133.594 -102.929 3699
-124.748 -102.929 3699
-115.903 -102.929 3699
-107.058 -102.929 3699
-98.2121 -102.929 3699
-89.3667 -102.929 3699
-80.3471 -102.706 3691
-71.0558 -102.038 3667
-62.2869 -102.038 3667
-53.7515 -102.483 3683
-44.9443 -102.483 3683
-36.2156 -102.706 3691
-27.3893 -102.706 3691
-18.6888 -103.402 3716
-9.80268 -103.402 3716
-0.916594 -103.402 3716
7.96949 -103.402 3716
16.8556 -103.402 3716
25.7417 -103.402 3716
34.6277 -103.402 3716
43.5138 -103.402 3716
52.3999 -103.402 3716
61.286 -103.402 3716
70.1721 -103.402 3716
79.0581 -103.402 3716
87.9442 -103.402 3716
96.5958 -103.151 3707
105.233 -102.929 3699
113.831 -102.706 3691
122.658 -102.706 3691
131.199 -102.483 3683
140.006 -102.483 3683
148.813 -102.483 3683
157.621 -102.483 3683
166.066 -102.261 3675
174.474 -102.038 3667
182.793 -101.788 3658
191.54 -101.788 3658
199.85 -101.565 3650
208.578 -101.565 3650
218.318 -102.038 3667
227.087 -102.038 3667
235.856 -102.038 3667
244.625 -102.038 3667
251.666 -101.343 3642
260.947 -101.565 3650
270.267 -101.788 3658
279.014 -101.788 3658
288.469 -102.038 3667
297.887 -102.261 3675
308.01 -102.706 3691
316.836 -102.706 3691
325.663 -102.706 3691
334.489 -102.706 3691
343.315 -102.706 3691
352.142 -102.706 3691
361.75 -102.929 3699
370.596 -102.929 3699
379.441 -102.929 3699
388.287 -102.929 3699
397.132 -102.929 3699
405.099 -102.706 3691
413.926 -102.706 3691
420.919 -102.261 3675
426.784 -101.565 3650
435.513 -101.565 3650
444.241 -101.565 3650
452.969 -101.565 3650
461.697 -101.565 3650
468.492 -101.148 3635
476.134 -100.925 3627
484.808 -100.925 3627
493.481 -100.925 3627
498.831 -100.257 3603
504.208 -99.6174 3580
512.769 -99.6174 3580
517.98 -98.9774 3557
524.266 -98.56 3542
530.48 -98.1426 3527
538.914 -98.1426 3527
543.934 -97.5304 3505
555.782 -98.1426 3527
565.336 -98.3374 3534
576.223 -98.7548 3549
584.709 -98.7548 3549
598.378 -99.6174 3580
609.481 -100.035 3595
620.829 -100.48 3611
629.464 -100.48 3611
638.099 -100.48 3611
648.167 -100.703 3619
658.273 -100.925 3627
668.417 -101.148 3635
677.11 -101.148 3635
694.858 -102.483 3683
709.97 -103.402 3716
718.856 -103.402 3716
727.742 -103.402 3716
743.17 -104.32 3749
752.135 -104.32 3749
761.1 -104.32 3749
1091.46 -113.503 4079
1103.91 -113.781 4089
1113.69 -113.781 4089
1123.47 -113.781 4089
1133.24 -113.781 4089
1143.02 -113.781 4089
1152.8 -113.781 4089
1434.59 -97.113 3490
1442.94 -97.113 3490
1451.28 -97.113 3490
1453.77 -96.7234 3476
1444 -95.5269 3433
1452.21 -95.5269 3433
1457.44 -95.3321 3426
1465.63 -95.3321 3426
1449.73 -93.7739 3370
1460.82 -93.9687 3377
1468.9 -93.9687 3377
1476.97 -93.9687 3377
1478.89 -93.5791 3363
1478.09 -93.0226 3343
1492.31 -93.4121 3357
1500.33 -93.4121 3357
1508.36 -93.4121 3357
1516.39 -93.4121 3357
1524.42 -93.4121 3357
1516.92 -92.4661 3323
1537.26 -93.2174 3350
1551.27 -93.5791 3363
1559.31 -93.5791 3363
1567.35 -93.5791 3363
1572.58 -93.4121 3357
1580.61 -93.4121 3357
1588.64 -93.4121 3357
1593.34 -93.2174 3350
1595.13 -92.8556 3337
1596.39 -92.4661 3323
2292.08 -108.466 3898
2301.4 -108.466 3898
2310.72 -108.466 3898
2314.69 -108.216 3889
2313.23 -107.715 3871
2300.89 -106.713 3835
2364.27 -109.217 3925
2379.7 -109.496 3935
2389.11 -109.496 3935
2398.52 -109.496 3935
2401.81 -109.217 3925
2411.2 -109.217 3925
2398.38 -108.216 3889
2418.83 -108.716 3907
2451.17 -109.746 3944
2460.6 -109.746 3944
2470.03 -109.746 3944
2491.4 -110.275 3963
2500.88 -110.275 3963
2510.36 -110.275 3963
2519.83 -110.275 3963
2529.31 -110.275 3963
2538.79 -110.275 3963
2548.26 -110.275 3963
2539.67 -109.496 3935
2549.08 -109.496 3935
1829.47 -76.6052 2753
1842.05 -76.8556 2762
1848.66 -76.8556 2762
1855.26 -76.8556 2762
1861.87 -76.8556 2762
1877.94 -77.2452 2776
1890.69 -77.4956 2785
1903.48 -77.7461 2794
1910.16 -77.7461 2794
1923.7 -78.0243 2804
1930.41 -78.0243 2804
1937.12 -78.0243 2804
1943.82 -78.0243 2804
1954 -78.1635 2809
1967 -78.4139 2818
1980.75 -78.6921 2828
1987.51 -78.6921 2828
2007.67 -79.2208 2847
2025.09 -79.6382 2862
2031.94 -79.6382 2862
2038.78 -79.6382 2862
2052.06 -79.8887 2871
2062.51 -80.0278 2876
2087.37 -80.7234 2901
2094.31 -80.7234 2901
2123.7 -81.5861 2932
2153.24 -82.4487 2963
2180.01 -83.2 2990
2187.16 -83.2 2990
2201.65 -83.4782 3000
2245.64 -84.8695 3050
2265.49 -85.3426 3067
2272.82 -85.3426 3067
2280.16 -85.3426 3067
2392.65 -89.2661 3208
2400.33 -89.2661 3208
2408 -89.2661 3208
2695.79 -99.6174 3580
2745.9 -101.148 3635
2790.96 -102.483 3683
2799.77 -102.483 3683
2839.84 -103.624 3724
2848.75 -103.624 3724
-2640.75 -89.6936 3527
-2632.32 -89.6936 3527
-2623.88 -89.6936 3527
-2610.26 -89.5156 3520
-2601.84 -89.5156 3520
-2587.53 -89.3122 3512
-2562.97 -88.7527 3490
-2544.38 -88.3967 3476
-2536.07 -88.3967 3476
-2501.58 -87.4812 3440
-2493.35 -87.4812 3440
-2480.07 -87.3031 3433
-2471.86 -87.3031 3433
-2463.65 -87.3031 3433
-2445.43 -86.9471 3419
-2422.28 -86.4131 3398
-2448.97 -87.6592 3447
-2455.59 -88.1932 3468
-2447.3 -88.1932 3468
-2449.56 -88.5747 3483
-2446.14 -88.7527 3490
-2442.68 -88.9307 3497
-2439.89 -89.1341 3505
-2446.77 -89.6936 3527
-2443.17 -89.8716 3534
-2434.72 -89.8716 3534
-2442.06 -90.4565 3557
-2439.03 -90.66 3565
-2440.73 -91.0414 3580
-2432.17 -91.0414 3580
-2439.18 -91.6263 3603
-2435.96 -91.8298 3611
-2443.46 -92.4401 3635
-2434.76 -92.4401 3635
-2426.07 -92.4401 3635
-2417.38 -92.4401 3635
-2413.33 -92.6181 3642
-2404.62 -92.6181 3642
-2401.17 -92.8216 3650
-2392.44 -92.8216 3650
-2383.71 -92.8216 3650
-2374.99 -92.8216 3650
-2366.26 -92.8216 3650
-2357.53 -92.8216 3650
-2348.8 -92.8216 3650
-2340.07 -92.8216 3650
-2331.34 -92.8216 3650
-2327.71 -93.025 3658
-2318.96 -93.025 3658
-2310.21 -93.025 3658
-2301.47 -93.025 3658
-2287.7 -92.8216 3650
-2294.58 -93.4573 3675
-2285.8 -93.4573 3675
-2277.01 -93.4573 3675
-2268.22 -93.4573 3675
-2254.51 -93.2539 3667
-2245.75 -93.2539 3667
-2217.46 -92.4401 3635
-2194.18 -91.8298 3611
-2175.86 -91.4229 3595
-2167.26 -91.4229 3595
-2154.46 -91.2449 3588
-2145.88 -91.2449 3588
-2137.3 -91.2449 3588
-2128.72 -91.2449 3588
-2120.14 -91.2449 3588
-2102.15 -90.838 3572
-2098.29 -91.0414 3580
-2089.73 -91.0414 3580
-2081.17 -91.0414 3580
-2072.61 -91.0414 3580
-2064.05 -91.0414 3580
-2055.49 -91.0414 3580
-2038.35 -90.66 3565
-2029.83 -90.66 3565
-1999.76 -89.6936 3527
-1991.32 -89.6936 3527
-1954.22 -88.3967 3476
-1929.67 -87.6592 3447
-1905.82 -86.9471 3419
-1897.64 -86.9471 3419
-1866.26 -85.879 3377
-1850.48 -85.523 3363
-1824.36 -84.6838 3330
-1816.39 -84.6838 3330
-1808.43 -84.6838 3330
-1800.47 -84.6838 3330
-1785.51 -84.3532 3317
-1773.82 -84.1752 3310
-1765.91 -84.1752 3310
-1757.99 -84.1752 3310
-1743.21 -83.8446 3297
-1731.64 -83.6666 3290
-1723.77 -83.6666 3290
-1709.64 -83.3614 3278
-1701.8 -83.3614 3278
-1683.63 -82.8528 3258
-1675.84 -82.8528 3258
-1668.05 -82.8528 3258
-1663.83 -83.0308 3265
-1656.02 -83.0308 3265
-1648.21 -83.0308 3265
-1640.4 -83.0308 3265
-1632.59 -83.0308 3265
-1624.79 -83.0308 3265
-1616.98 -83.0308 3265
-1609.17 -83.0308 3265
-1601.36 -83.0308 3265
-1593.56 -83.0308 3265
-1585.75 -83.0308 3265
-1577.94 -83.0308 3265
-1570.13 -83.0308 3265
-1558.98 -82.8528 3258
-1551.19 -82.8528 3258
-1543.4 -82.8528 3258
-1535.6 -82.8528 3258
-1531.1 -83.0308 3265
-1523.29 -83.0308 3265
-1515.48 -83.0308 3265
-1507.67 -83.0308 3265
-1502.62 -83.1834 3271
-1500.74 -83.514 3284
-1492.89 -83.514 3284
-1487.75 -83.6666 3290
-1479.88 -83.6666 3290
-1475.14 -83.8446 3297
-1467.26 -83.8446 3297
-1462.03 -83.9972 3303
-1457.22 -84.1752 3310
-1449.3 -84.1752 3310
-1441.39 -84.1752 3310
-1439.1 -84.5058 3323
-1434.17 -84.6838 3330
-1440.34 -85.523 3363
-1432.3 -85.523 3363
-1427.22 -85.701 3370
-1428 -86.2351 3391
-1419.9 -86.2351 3391
-1411.79 -86.2351 3391
-1409.47 -86.5911 3405
-1401.33 -86.5911 3405
-1401.78 -87.1251 3426
-1393.59 -87.1251 3426
-1388.23 -87.3031 3433
-1380.02 -87.3031 3433
-1371.81 -87.3031 3433
-1363.6 -87.3031 3433
-1355.39 -87.3031 3433
-1347.18 -87.3031 3433
-1336.24 -87.1251 3426
-1328.05 -87.1251 3426
-1309.07 -86.4131 3398
-1292.9 -85.879 3377
-1269.61 -84.8618 3337
-1261.63 -84.8618 3337
-1248.39 -84.5058 3323
-1232.98 -83.9972 3303
-1218.03 -83.514 3284
-1210.18 -83.514 3284
-1197.57 -83.1834 3271
-1185.02 -82.8528 3258
-1175.06 -82.7002 3252
-1169.43 -82.8528 3258
-1161.64 -82.8528 3258
-1153.85 -82.8528 3258
-1146.06 -82.8528 3258
-1138.27 -82.8528 3258
-1128.4 -82.7002 3252
-1116.14 -82.3696 3239
-1108.4 -82.3696 3239
-1103.03 -82.5476 3246
-1095.27 -82.5476 3246
-1089.51 -82.7002 3252
-1081.74 -82.7002 3252
-1073.96 -82.7002 3252
-1064.22 -82.5476 3246
-1056.46 -82.5476 3246
-1048.69 -82.5476 3246
-1040.93 -82.5476 3246
-1033.17 -82.5476 3246
-547.768 -44.0966 1734
-539.86 -43.7914 1722
-535.742 -43.7914 1722
-530.389 -43.6897 1718
-526.281 -43.6897 1718
-521.261 -43.6134 1715
-515.953 -43.5117 1711
-511.264 -43.4608 1709
-507.177 -43.4608 1709
-502.796 -43.4354 1708
-498.128 -43.3846 1706
-493.469 -43.3337 1704
-488.82 -43.2828 1702
-484.75 -43.2828 1702
-480.397 -43.2574 1701
-475.209 -43.1557 1697
-470.318 -43.0794 1694
-466.268 -43.0794 1694
-461.125 -42.9777 1690
-456.273 -42.9014 1687
-450.898 -42.7742 1682
-446.876 -42.7742 1682
-442.327 -42.7234 1680
-437.788 -42.6725 1678
-433 -42.5962 1675
-428.994 -42.5962 1675
-423.213 -42.4182 1668
-418.47 -42.3419 1665
-413.991 -42.291 1663
-410.014 -42.291 1663
-404.572 -42.1385 1657
-399.643 -42.0367 1653
-394.972 -41.9604 1650
-391.026 -41.9604 1650
-386.612 -41.9096 1648
-382.438 -41.8841 1647
-377.351 -41.757 1642
-372.742 -41.6807 1639
-368.823 -41.6807 1639
-364.903 -41.6807 1639
-360.544 -41.6298 1637
-356.411 -41.6044 1636
-352.499 -41.6044 1636
-348.161 -41.5536 1634
-343.832 -41.5027 1632
-339.304 -41.4264 1629
-335.409 -41.4264 1629
-331.31 -41.401 1628
-327.015 -41.3501 1626
-322.53 -41.2738 1623
-318.649 -41.2738 1623
-314.38 -41.223 1621
-310.312 -41.1975 1620
-305.871 -41.1212 1617
-302.004 -41.1212 1617
-297.769 -41.0704 1615
-293.361 -40.9941 1612
-289.147 -40.9432 1610
-285.297 -40.9432 1610
-280.923 -40.8669 1607
-276.562 -40.7906 1604
-272.557 -40.7652 1603
-268.388 -40.7143 1601
-264.56 -40.7143 1601
-260.406 -40.6635 1599
-256.582 -40.6635 1599
-252.758 -40.6635 1599
-248.934 -40.6635 1599
-245.111 -40.6635 1599
-241.287 -40.6635 1599
-237.463 -40.6635 1599
-233.64 -40.6635 1599
-229.816 -40.6635 1599
-225.992 -40.6635 1599
-222.169 -40.6635 1599
-218.345 -40.6635 1599
-214.521 -40.6635 1599
-210.698 -40.6635 1599
-207.133 -40.7143 1601
-203.304 -40.7143 1601
-199.476 -40.7143 1601
-195.647 -40.7143 1601
-191.819 -40.7143 1601
-187.99 -40.7143 1601
-184.162 -40.7143 1601
-180.559 -40.7652 1603
-176.836 -40.7906 1604
-173.647 -40.9432 1610
-169.797 -40.9432 1610
-166.772 -41.1467 1618
-163.507 -41.2992 1624
-160.016 -41.401 1628
-156.123 -41.401 1628
-153.352 -41.7061 1640
-149.613 -41.757 1642
-146.84 -42.0876 1655
-142.882 -42.0876 1655
-139.344 -42.2147 1660
-136.027 -42.4182 1668
-133.938 -43.0285 1692
-129.892 -43.0285 1692
-128.077 -43.7914 1722
-124.967 -44.1475 1736
-121.582 -44.4272 1747
-117.404 -44.4272 1747
-113.356 -44.4781 1749
-109.298 -44.5289 1751
-105.111 -44.5289 1751
-100.924 -44.5289 1751
-177.436 -93.8642 3691
-168.976 -94.0677 3699
-160.13 -94.0677 3699
-151.285 -94.0677 3699
-142.439 -94.0677 3699
-133.594 -94.0677 3699
-124.748 -94.0677 3699
-115.903 -94.0677 3699
-107.058 -94.0677 3699
-98.2121 -94.0677 3699
-89.3667 -94.0677 3699
-80.3471 -93.8642 3691
-71.0558 -93.2539 3667
-62.2869 -93.2539 3667
-53.6347 -93.4573 3675
-44.8467 -93.4573 3675
-36.1371 -93.6608 3683
-27.3893 -93.8642 3691
-18.6888 -94.5 3716
-9.80268 -94.5 3716
-0.916594 -94.5 3716
7.96949 -94.5 3716
16.8556 -94.5 3716
25.6793 -94.2711 3707
34.6277 -94.5 3716
43.5138 -94.5 3716
52.3999 -94.5 3716
61.286 -94.5 3716
70.1721 -94.5 3716
79.0581 -94.5 3716
87.9442 -94.5 3716
96.8303 -94.5 3716
105.46 -94.2711 3707
113.585 -93.6608 3683
122.392 -93.6608 3683
131.199 -93.6608 3683
140.006 -93.6608 3683
148.49 -93.4573 3675
157.278 -93.4573 3675
166.066 -93.4573 3675
174.474 -93.2539 3667
183.243 -93.2539 3667
192.011 -93.2539 3667
199.85 -92.8216 3650
208.578 -92.8216 3650
218.318 -93.2539 3667
227.087 -93.2539 3667
235.856 -93.2539 3667
244.625 -93.2539 3667
251.666 -92.6181 3642
261.519 -93.025 3658
270.932 -93.2539 3667
279.701 -93.2539 3667
288.469 -93.2539 3667
298.535 -93.6608 3683
308.678 -94.0677 3699
317.523 -94.0677 3699
326.368 -94.0677 3699
335.214 -94.0677 3699
344.059 -94.0677 3699
352.905 -94.0677 3699
362.533 -94.2711 3707
371.397 -94.2711 3707
380.262 -94.2711 3707
389.126 -94.2711 3707
397.991 -94.2711 3707
406.855 -94.2711 3707
415.72 -94.2711 3707
422.752 -93.8642 3691
426.784 -92.8216 3650
435.513 -92.8216 3650
444.241 -92.8216 3650
451.976 -92.6181 3642
460.685 -92.6181 3642
467.461 -92.2367 3627
475.084 -92.0332 3619
483.738 -92.0332 3619
491.304 -91.8298 3611
497.724 -91.4229 3595
503.081 -90.838 3572
511.623 -90.838 3572
515.796 -90.0751 3542
523.082 -89.8716 3534
530.48 -89.6936 3527
538.914 -89.6936 3527
545.02 -89.3122 3512
555.782 -89.6936 3527
566.616 -90.0751 3542
579.957 -90.838 3572
588.499 -90.838 3572
600.885 -91.4229 3595
612.194 -91.8298 3611
622.204 -92.0332 3619
630.859 -92.0332 3619
639.513 -92.0332 3619
649.6 -92.2367 3627
663.899 -93.025 3658
675.773 -93.4573 3675
684.561 -93.4573 3675
701.084 -94.5 3716
713.027 -94.9069 3732
725.24 -95.3392 3749
734.205 -95.3392 3749
743.17 -95.3392 3749
752.135 -95.3392 3749
762.724 -95.5426 3757
771.708 -95.5426 3757
780.692 -95.5426 3757
1113.69 -103.986 4089
1123.47 -103.986 4089
1133.24 -103.986 4089
1437.15 -88.3967 3476
1445.46 -88.3967 3476
1453.77 -88.3967 3476
1444 -87.3031 3433
1452.21 -87.3031 3433
1457.44 -87.1251 3426
1465.63 -87.1251 3426
1449.73 -85.701 3370
1460.82 -85.879 3377
1468.9 -85.879 3377
1476.97 -85.879 3377
1485.05 -85.879 3377
1481.18 -85.1924 3350
1494.97 -85.523 3363
1503.02 -85.523 3363
1511.06 -85.523 3363
1519.1 -85.523 3363
1527.14 -85.523 3363
1520.12 -84.6838 3330
1537.26 -85.1924 3350
1548.5 -85.3704 3357
1556.53 -85.3704 3357
1564.55 -85.3704 3357
1578.67 -85.701 3370
1586.73 -85.701 3370
1594.79 -85.701 3370
1593.34 -85.1924 3350
1595.13 -84.8618 3337
1596.39 -84.5058 3323
2292.08 -99.1284 3898
2301.4 -99.1284 3898
2310.72 -99.1284 3898
2314.69 -98.8995 3889
2318.61 -98.6706 3880
2317.09 -98.2129 3862
2364.27 -99.815 3925
2379.7 -100.069 3935
2389.11 -100.069 3935
2398.52 -100.069 3935
2407.93 -100.069 3935
2417.34 -100.069 3935
2409.48 -99.3572 3907
2424.4 -99.5861 3916
2462.97 -100.781 3963
2472.45 -100.781 3963
2481.93 -100.781 3963
2497.06 -101.01 3972
2512.87 -101.265 3982
2528.09 -101.493 3991
2537.64 -101.493 3991
2547.18 -101.493 3991
2544.55 -101.01 3972
2554.05 -101.01 3972
2551.29 -100.527 3953
2554.91 -100.298 3944
2551.99 -99.815 3925
1829.47 -70.0104 2753
1842.05 -70.2392 2762
1848.66 -70.2392 2762
1855.26 -70.2392 2762
1861.87 -70.2392 2762
1874.56 -70.4681 2771
1887.3 -70.697 2780
1900.76 -70.9513 2790
1907.43 -70.9513 2790
1920.27 -71.1802 2799
1930.41 -71.3073 2804
1937.12 -71.3073 2804
1943.82 -71.3073 2804
1954 -71.4345 2809
1963.51 -71.5362 2813
1973.74 -71.6633 2818
1980.48 -71.6633 2818
2007.67 -72.4008 2847
2014.48 -72.4008 2847
2028.39 -72.6551 2857
2035.22 -72.6551 2857
2045.62 -72.7823 2862
2055.34 -72.884 2866
2072.98 -73.2655 2881
2079.87 -73.2655 2881
2101.25 -73.7741 2901
2127.08 -74.4353 2927
2134.08 -74.4353 2927
2141.08 -74.4353 2927
2174.5 -75.3508 2963
2201.46 -76.0374 2990
2252.93 -77.5632 3050
2260.22 -77.5632 3050
2280.16 -77.9956 3067
2356.85 -80.3606 3160
2364.41 -80.3606 3160
2371.97 -80.3606 3160
2695.79 -91.0414 3580
2745.9 -92.4401 3635
2790.96 -93.6608 3683
2799.77 -93.6608 3683
2839.84 -94.7034 3724
2848.75 -94.7034 3724
-2640.75 -81.2447 3527
-2632.32 -81.2447 3527
-2623.88 -81.2447 3527
-2610.26 -81.0834 3520
-2601.84 -81.0834 3520
-2587.53 -80.8991 3512
-2562.97 -80.3924 3490
-2544.38 -80.0699 3476
-2536.07 -80.0699 3476
-2501.58 -79.2406 3440
-2493.35 -79.2406 3440
-2480.07 -79.0794 3433
-2471.86 -79.0794 3433
-2463.65 -79.0794 3433
-2445.43 -78.7569 3419
-2422.28 -78.2731 3398
-2448.97 -79.4019 3447
-2455.59 -79.8856 3468
-2447.3 -79.8856 3468
-2449.56 -80.2311 3483
-2446.14 -80.3924 3490
-2442.68 -80.5536 3497
-2439.89 -80.7379 3505
-2446.77 -81.2447 3527
-2443.17 -81.4059 3534
-2434.72 -81.4059 3534
-2442.06 -81.9357 3557
-2439.03 -82.12 3565
-2440.73 -82.4655 3580
-2432.17 -82.4655 3580
-2439.18 -82.9953 3603
-2435.96 -83.1796 3611
-2443.46 -83.7324 3635
-2434.76 -83.7324 3635
-2426.07 -83.7324 3635
-2417.38 -83.7324 3635
-2413.33 -83.8937 3642
-2404.62 -83.8937 3642
-2401.17 -84.078 3650
-2392.44 -84.078 3650
-2383.71 -84.078 3650
-2374.99 -84.078 3650
-2366.26 -84.078 3650
-2357.53 -84.078 3650
-2348.8 -84.078 3650
-2340.07 -84.078 3650
-2331.34 -84.078 3650
-2327.71 -84.2623 3658
-2318.96 -84.2623 3658
-2310.21 -84.2623 3658
-2301.47 -84.2623 3658
-2287.7 -84.078 3650
-2294.58 -84.6538 3675
-2285.8 -84.6538 3675
-2277.01 -84.6538 3675
-2268.22 -84.6538 3675
-2254.51 -84.4696 3667
-2245.75 -84.4696 3667
-2217.46 -83.7324 3635
-2194.18 -83.1796 3611
-2171.62 -82.6498 3588
-2163.04 -82.6498 3588
-2149.66 -82.4655 3580
-2145.88 -82.6498 3588
-2137.3 -82.6498 3588
-2128.72 -82.6498 3588
-2110.69 -82.2812 3572
-2098.03 -82.12 3565
-2098.29 -82.4655 3580
-2089.73 -82.4655 3580
-2081.17 -82.4655 3580
-2072.61 -82.4655 3580
-2064.05 -82.4655 3580
-2055.49 -82.4655 3580
-2042.36 -82.2812 3572
-2033.81 -82.2812 3572
-1995.79 -81.0834 3520
-1987.37 -81.0834 3520
-1958.15 -80.2311 3483
-1937.51 -79.7243 3461
-1913.62 -79.0794 3433
-1905.41 -79.0794 3433
-1885.6 -78.5956 3412
-1858.18 -77.7894 3377
-1846.27 -77.6282 3370
-1838.21 -77.6282 3370
-1830.15 -77.6282 3370
-1815.07 -77.3287 3357
-1796.27 -76.868 3337
-1777.58 -76.4073 3317
-1769.64 -76.4073 3317
-1754.28 -76.0848 3303
-1743.21 -75.9466 3297
-1728.48 -75.6471 3284
-1720.63 -75.6471 3284
-1709.64 -75.5089 3278
-1691.42 -75.0482 3258
-1680.53 -74.91 3252
-1672.75 -74.91 3252
-1664.98 -74.91 3252
-1660.26 -75.0482 3258
-1652.47 -75.0482 3258
-1644.68 -75.0482 3258
-1636.89 -75.0482 3258
-1629.09 -75.0482 3258
-1624.79 -75.2095 3265
-1616.98 -75.2095 3265
-1609.17 -75.2095 3265
-1601.36 -75.2095 3265
-1593.56 -75.2095 3265
-1588.66 -75.3477 3271
-1580.84 -75.3477 3271
-1573.02 -75.3477 3271
-1562.33 -75.2095 3265
-1554.52 -75.2095 3265
-1546.71 -75.2095 3265
-1535.6 -75.0482 3258
-1531.1 -75.2095 3265
-1523.29 -75.2095 3265
-1515.48 -75.2095 3265
-1507.67 -75.2095 3265
-1502.62 -75.3477 3271
-1500.74 -75.6471 3284
-1492.89 -75.6471 3284
-1487.75 -75.7853 3290
-1479.88 -75.7853 3290
-1475.14 -75.9466 3297
-1467.26 -75.9466 3297
-1462.03 -76.0848 3303
-1454.13 -76.0848 3303
-1446.24 -76.0848 3303
-1438.34 -76.0848 3303
-1439.1 -76.5455 3323
-1431.15 -76.5455 3323
-1431.77 -77.0062 3343
-1423.78 -77.0062 3343
-1418.75 -77.1674 3350
-1419.16 -77.6282 3370
-1411.1 -77.6282 3370
-1403.04 -77.6282 3370
-1397.88 -77.7894 3377
-1389.81 -77.7894 3377
-1384.6 -77.9506 3384
-1379.35 -78.1119 3391
-1371.24 -78.1119 3391
-1363.13 -78.1119 3391
-1357.82 -78.2731 3398
-1349.7 -78.2731 3398
-1341.57 -78.2731 3398
-1333.44 -78.2731 3398
-1319.86 -77.9506 3384
-1311.77 -77.9506 3384
-1298.28 -77.6282 3370
-1282.56 -77.1674 3350
-1264.28 -76.5455 3323
-1256.34 -76.5455 3323
-1243.5 -76.246 3310
-1228.12 -75.7853 3290
-1213.21 -75.3477 3271
-1205.39 -75.3477 3271
-1192.81 -75.0482 3258
-1180.65 -74.7718 3246
-1170.36 -74.6106 3239
-1167.28 -74.91 3252
-1159.5 -74.91 3252
-1151.73 -74.91 3252
-1143.95 -74.91 3252
-1136.17 -74.91 3252
-1126.32 -74.7718 3246
-1116.14 -74.6106 3239
-1108.4 -74.6106 3239
-1103.03 -74.7718 3246
-1095.27 -74.7718 3246
-1089.51 -74.91 3252
-1081.74 -74.91 3252
-1073.96 -74.91 3252
-1064.22 -74.7718 3246
-1056.46 -74.7718 3246
-1048.69 -74.7718 3246
-1040.93 -74.7718 3246
-1033.17 -74.7718 3246
-547.768 -39.9428 1734
-538.606 -39.5742 1718
-534.497 -39.5742 1718
-529.463 -39.5051 1715
-525.362 -39.5051 1715
-521.261 -39.5051 1715
-515.953 -39.413 1711
-510.965 -39.3439 1708
-506.88 -39.3439 1708
-501.618 -39.2517 1704
-497.544 -39.2517 1704
-492.89 -39.2057 1702
-488.532 -39.1826 1701
-484.465 -39.1826 1701
-478.703 -39.0444 1695
-474.649 -39.0444 1695
-469.763 -38.9753 1692
-465.717 -38.9753 1692
-460.852 -38.9062 1689
-455.191 -38.768 1683
-450.362 -38.6989 1680
-446.345 -38.6989 1680
-441.801 -38.6528 1678
-437.527 -38.6298 1677
-433 -38.5837 1675
-428.994 -38.5837 1675
-422.959 -38.3994 1667
-418.47 -38.3534 1665
-413.742 -38.2843 1662
-409.768 -38.2843 1662
-404.084 -38.123 1655
-399.401 -38.0539 1652
-394.493 -37.9618 1648
-390.552 -37.9618 1648
-386.377 -37.9387 1647
-381.742 -37.8696 1644
-376.891 -37.7775 1640
-372.742 -37.7545 1639
-368.823 -37.7545 1639
-364.458 -37.7084 1637
-360.323 -37.6854 1636
-355.975 -37.6393 1634
-352.068 -37.6393 1634
-348.161 -37.6393 1634
-343.832 -37.5932 1632
-339.096 -37.5011 1628
-335.203 -37.5011 1628
-330.903 -37.455 1626
-326.613 -37.4089 1624
-322.133 -37.3398 1621
-318.257 -37.3398 1621
-314.186 -37.3168 1620
-309.929 -37.2707 1618
-305.871 -37.2477 1617
-302.004 -37.2477 1617
-297.4 -37.1556 1613
-293.361 -37.1325 1612
-289.147 -37.0864 1610
-285.297 -37.0864 1610
-280.923 -37.0173 1607
-276.562 -36.9482 1604
-272.217 -36.8791 1601
-268.053 -36.8331 1599
-264.229 -36.8331 1599
-260.406 -36.8331 1599
-256.421 -36.81 1598
-252.6 -36.81 1598
-248.779 -36.81 1598
-244.958 -36.81 1598
-241.287 -36.8331 1599
-237.463 -36.8331 1599
-233.64 -36.8331 1599
-229.816 -36.8331 1599
-225.992 -36.8331 1599
-222.169 -36.8331 1599
-218.345 -36.8331 1599
-214.521 -36.8331 1599
-210.698 -36.8331 1599
-207.133 -36.8791 1601
-203.304 -36.8791 1601
-199.476 -36.8791 1601
-195.647 -36.8791 1601
-191.819 -36.8791 1601
-187.99 -36.8791 1601
-183.932 -36.8331 1599
-180.333 -36.8791 1601
-177.166 -37.0173 1607
-173.863 -37.1325 1612
-170.008 -37.1325 1612
-166.772 -37.2707 1618
-163.507 -37.4089 1624
-160.115 -37.5241 1629
-156.219 -37.5241 1629
-153.352 -37.7775 1640
-149.613 -37.8236 1642
-146.662 -38.077 1653
-142.709 -38.077 1653
-139.176 -38.1921 1658
-136.353 -38.5146 1672
-133.542 -38.8601 1687
-129.508 -38.8601 1687
-127.78 -39.5742 1718
-124.319 -39.7815 1727
-121.094 -40.081 1740
-116.933 -40.081 1740
-113.226 -40.2422 1747
-109.174 -40.2883 1749
-104.991 -40.2883 1749
-100.809 -40.2883 1749
-177.436 -85.0224 3691
-168.61 -85.0224 3691
-159.784 -85.0224 3691
-150.958 -85.0224 3691
-142.439 -85.2067 3699
-133.594 -85.2067 3699
-124.748 -85.2067 3699
-115.903 -85.2067 3699
-107.058 -85.2067 3699
-98.2121 -85.2067 3699
-89.3667 -85.2067 3699
-80.3471 -85.0224 3691
-71.0558 -84.4696 3667
-62.4228 -84.6538 3675
-53.6347 -84.6538 3675
-44.8467 -84.6538 3675
-36.0586 -84.6538 3675
-27.3893 -85.0224 3691
-18.6435 -85.391 3707
-9.77893 -85.391 3707
-0.914374 -85.391 3707
7.95019 -85.391 3707
16.8147 -85.391 3707
25.6793 -85.391 3707
34.6277 -85.5983 3716
43.6075 -85.7826 3724
52.5127 -85.7826 3724
61.4179 -85.7826 3724
70.3231 -85.7826 3724
79.2283 -85.7826 3724
88.1336 -85.7826 3724
97.0388 -85.7826 3724
105.46 -85.391 3707
113.585 -84.8381 3683
122.392 -84.8381 3683
131.199 -84.8381 3683
140.006 -84.8381 3683
148.813 -84.8381 3683
157.621 -84.8381 3683
166.428 -84.8381 3683
174.854 -84.6538 3675
183.243 -84.4696 3667
192.011 -84.4696 3667
200.78 -84.4696 3667
209.549 -84.4696 3667
218.794 -84.6538 3675
227.583 -84.6538 3675
236.371 -84.6538 3675
245.159 -84.6538 3675
253.394 -84.4696 3667
262.163 -84.4696 3667
270.932 -84.4696 3667
279.701 -84.4696 3667
289.728 -84.8381 3683
299.184 -85.0224 3691
310.096 -85.5983 3716
318.982 -85.5983 3716
327.868 -85.5983 3716
336.755 -85.5983 3716
345.641 -85.5983 3716
354.527 -85.5983 3716
363.413 -85.5983 3716
372.299 -85.5983 3716
381.185 -85.5983 3716
390.071 -85.5983 3716
398.957 -85.5983 3716
406.855 -85.391 3707
415.72 -85.391 3707
422.752 -85.0224 3691
427.72 -84.2623 3658
435.513 -84.078 3650
444.241 -84.078 3650
451.976 -83.8937 3642
460.685 -83.8937 3642
467.461 -83.5482 3627
475.084 -83.3639 3619
483.738 -83.3639 3619
490.216 -82.9953 3603
497.724 -82.811 3595
503.081 -82.2812 3572
511.623 -82.2812 3572
515.796 -81.5902 3542
522.046 -81.2447 3527
530.48 -81.2447 3527
538.914 -81.2447 3527
545.02 -80.8991 3512
555.782 -81.2447 3527
566.616 -81.5902 3542
579.957 -82.2812 3572
588.499 -82.2812 3572
600.885 -82.811 3595
612.194 -83.1796 3611
622.204 -83.3639 3619
630.859 -83.3639 3619
639.513 -83.3639 3619
653.719 -84.078 3650
663.899 -84.2623 3658
675.773 -84.6538 3675
684.561 -84.6538 3675
702.593 -85.7826 3724
717.803 -86.5427 3757
726.787 -86.5427 3757
735.772 -86.5427 3757
744.756 -86.5427 3757
752.135 -86.3584 3749
762.724 -86.5427 3757
771.708 -86.5427 3757
780.692 -86.5427 3757
795.141 -87.1416 3783
804.188 -87.1416 3783
813.234 -87.1416 3783
1402 -78.1119 3391
1410.11 -78.1119 3391
1429.93 -78.7569 3419
1438.11 -78.7569 3419
1446.28 -78.7569 3419
1454.46 -78.7569 3419
1462.64 -78.7569 3419
1446.72 -77.4669 3363
1460.82 -77.7894 3377
1468.9 -77.7894 3377
1476.97 -77.7894 3377
1485.05 -77.7894 3377
1481.18 -77.1674 3350
1498.09 -77.6282 3370
1506.14 -77.6282 3370
1514.2 -77.6282 3370
1522.26 -77.6282 3370
1530.32 -77.6282 3370
1520.12 -76.7067 3330
1537.26 -77.1674 3350
1548.5 -77.3287 3357
1559.31 -77.4669 3363
1567.35 -77.4669 3363
1578.67 -77.6282 3370
1586.73 -77.6282 3370
1594.79 -77.6282 3370
1593.34 -77.1674 3350
1595.13 -76.868 3337
1593.5 -76.4073 3317
1601.44 -76.4073 3317
1609.37 -76.4073 3317
2296.09 -89.5834 3889
2305.39 -89.5834 3889
2314.69 -89.5834 3889
2318.61 -89.376 3880
2333.28 -89.5834 3889
2375.71 -90.8503 3944
2408.13 -91.7256 3982
2417.65 -91.7256 3982
2427.17 -91.7256 3982
2436.69 -91.7256 3982
2446.22 -91.7256 3982
2426.75 -90.643 3935
2436.16 -90.643 3935
2468.57 -91.4953 3972
2478.06 -91.4953 3972
2487.56 -91.4953 3972
2497.06 -91.4953 3972
2512.87 -91.7256 3982
2540.13 -92.3706 4010
2549.72 -92.3706 4010
2559.31 -92.3706 4010
2544.55 -91.4953 3972
2554.05 -91.4953 3972
2557.74 -91.2879 3963
2554.91 -90.8503 3944
2551.99 -90.4126 3925
1825.54 -63.738 2767
1832.15 -63.738 2767
1838.77 -63.738 2767
1842.05 -63.6228 2762
1848.66 -63.6228 2762
1851.9 -63.5077 2757
1852.43 -63.3003 2748
1868.47 -63.6228 2762
1884.58 -63.9453 2776
1900.76 -64.2678 2790
1907.43 -64.2678 2790
1920.27 -64.4751 2799
1930.41 -64.5903 2804
1937.12 -64.5903 2804
1943.82 -64.5903 2804
1954 -64.7055 2809
1963.51 -64.7976 2813
1973.74 -64.9128 2818
1980.48 -64.9128 2818
2004.14 -65.4656 2842
2014.48 -65.5808 2847
2024.84 -65.696 2852
2031.66 -65.696 2852
2042.05 -65.8112 2857
2048.88 -65.8112 2857
2065.79 -66.1337 2871
2072.65 -66.1337 2871
2090.38 -66.4792 2886
2108.18 -66.8247 2901
2122.41 -67.0551 2911
2129.37 -67.0551 2911
2148.08 -67.4236 2927
2181.58 -68.2529 2963
2212.3 -68.99 2995
2219.47 -68.99 2995
2271.24 -70.3721 3055
2347.9 -72.5144 3148
2355.43 -72.5144 3148
2362.96 -72.5144 3148
2689.77 -82.2812 3572
2727.77 -83.1796 3611
2772.02 -84.2623 3658
2780.77 -84.2623 3658
2820.78 -85.2067 3699
2829.63 -85.2067 3699
-2635.51 -72.6512 3520
-2627.09 -72.6512 3520
-2618.68 -72.6512 3520
-2610.26 -72.6512 3520
-2601.84 -72.6512 3520
-2571.32 -72.032 3490
-2552.69 -71.7431 3476
-2523.15 -71.1445 3447
-2514.91 -71.1445 3447
-2501.58 -71.0001 3440
-2488.28 -70.8556 3433
-2475.01 -70.7111 3426
-2466.82 -70.7111 3426
-2458.63 -70.7111 3426
-2440.42 -70.4221 3412
-2422.28 -70.1332 3398
-2434.05 -70.7111 3426
-2440.73 -71.1445 3447
-2432.48 -71.1445 3447
-2434.09 -71.4335 3461
-2436.32 -71.7431 3476
-2442.68 -72.1765 3497
-2434.32 -72.1765 3497
-2431.5 -72.3416 3505
-2438.33 -72.7957 3527
-2429.9 -72.7957 3527
-2436.57 -73.2498 3549
-2428.08 -73.2498 3549
-2430.5 -73.58 3565
-2421.98 -73.58 3565
-2429.02 -74.0547 3588
-2430.56 -74.3643 3603
-2427.32 -74.5294 3611
-2418.69 -74.5294 3611
-2410.05 -74.5294 3611
-2406.74 -74.6945 3619
-2403.39 -74.8596 3627
-2394.71 -74.8596 3627
-2395.91 -75.1692 3642
-2387.2 -75.1692 3642
-2378.49 -75.1692 3642
-2369.78 -75.1692 3642
-2361.07 -75.1692 3642
-2357.53 -75.3344 3650
-2348.8 -75.3344 3650
-2340.07 -75.3344 3650
-2326.23 -75.1692 3642
-2317.53 -75.1692 3642
-2308.82 -75.1692 3642
-2300.11 -75.1692 3642
-2291.4 -75.1692 3642
-2282.69 -75.1692 3642
-2278.98 -75.3344 3650
-2285.8 -75.8503 3675
-2277.01 -75.8503 3675
-2268.22 -75.8503 3675
-2239.14 -75.1692 3642
-2230.43 -75.1692 3642
-2217.46 -75.0248 3635
-2194.18 -74.5294 3611
-2171.62 -74.0547 3588
-2163.04 -74.0547 3588
-2149.66 -73.8896 3580
-2145.88 -74.0547 3588
-2137.3 -74.0547 3588
-2128.72 -74.0547 3588
-2110.69 -73.7245 3572
-2102.15 -73.7245 3572
-2102.98 -74.0547 3588
-2094.4 -74.0547 3588
-2085.82 -74.0547 3588
-2077.24 -74.0547 3588
-2068.66 -74.0547 3588
-2060.08 -74.0547 3588
-2046.93 -73.8896 3580
-2038.37 -73.8896 3580
-2003.73 -72.9402 3534
-1995.28 -72.9402 3534
-1966.02 -72.1765 3497
-1941.43 -71.578 3468
-1925.33 -71.289 3454
-1917.07 -71.289 3454
-1893.34 -70.7111 3426
-1862.03 -69.8442 3384
-1846.27 -69.5553 3370
-1838.21 -69.5553 3370
-1830.15 -69.5553 3370
-1818.31 -69.4108 3363
-1799.5 -68.998 3343
-1780.79 -68.5852 3323
-1772.84 -68.5852 3323
-1754.28 -68.1724 3303
-1743.21 -68.0486 3297
-1728.48 -67.7803 3284
-1720.63 -67.7803 3284
-1709.64 -67.6564 3278
-1691.42 -67.2437 3258
-1680.53 -67.1198 3252
-1672.75 -67.1198 3252
-1664.98 -67.1198 3252
-1660.26 -67.2437 3258
-1652.47 -67.2437 3258
-1644.68 -67.2437 3258
-1636.89 -67.2437 3258
-1629.09 -67.2437 3258
-1624.79 -67.3881 3265
-1616.98 -67.3881 3265
-1609.17 -67.3881 3265
-1601.36 -67.3881 3265
-1593.56 -67.3881 3265
-1588.66 -67.512 3271
-1580.84 -67.512 3271
-1573.02 -67.512 3271
-1562.33 -67.3881 3265
-1554.52 -67.3881 3265
-1546.71 -67.3881 3265
-1535.6 -67.2437 3258
-1531.1 -67.3881 3265
-1523.29 -67.3881 3265
-1515.48 -67.3881 3265
-1507.67 -67.3881 3265
-1502.62 -67.512 3271
-1500.74 -67.7803 3284
-1492.89 -67.7803 3284
-1487.75 -67.9041 3290
-1479.88 -67.9041 3290
-1477.83 -68.1724 3303
-1469.93 -68.1724 3303
-1462.03 -68.1724 3303
-1454.13 -68.1724 3303
-1446.24 -68.1724 3303
-1438.34 -68.1724 3303
-1439.1 -68.5852 3323
-1431.15 -68.5852 3323
-1431.77 -68.998 3343
-1423.78 -68.998 3343
-1418.75 -69.1425 3350
-1419.16 -69.5553 3370
-1411.1 -69.5553 3370
-1403.04 -69.5553 3370
-1397.88 -69.6998 3377
-1389.81 -69.6998 3377
-1384.6 -69.8442 3384
-1379.35 -69.9887 3391
-1371.24 -69.9887 3391
-1363.13 -69.9887 3391
-1357.82 -70.1332 3398
-1349.7 -70.1332 3398
-1341.57 -70.1332 3398
-1333.44 -70.1332 3398
-1319.86 -69.8442 3384
-1311.77 -69.8442 3384
-1298.28 -69.5553 3370
-1282.56 -69.1425 3350
-1264.28 -68.5852 3323
-1256.34 -68.5852 3323
-1243.5 -68.3169 3310
-1228.12 -67.9041 3290
-1213.21 -67.512 3271
-1205.39 -67.512 3271
-1192.81 -67.2437 3258
-1180.65 -66.996 3246
-1170.36 -66.8515 3239
-1167.28 -67.1198 3252
-1159.5 -67.1198 3252
-1151.73 -67.1198 3252
-1143.95 -67.1198 3252
-1136.17 -67.1198 3252
-1126.32 -66.996 3246
-1116.14 -66.8515 3239
-1108.4 -66.8515 3239
-1103.03 -66.996 3246
-1095.27 -66.996 3246
-1089.51 -67.1198 3252
-1081.74 -67.1198 3252
-1073.96 -67.1198 3252
-1064.22 -66.996 3246
-1056.46 -66.996 3246
-1048.69 -66.996 3246
-1040.93 -66.996 3246
-1033.17 -66.996 3246
-547.768 -35.789 1734
-538.606 -35.4587 1718
-534.497 -35.4587 1718
-529.463 -35.3968 1715
-525.362 -35.3968 1715
-521.261 -35.3968 1715
-515.953 -35.3143 1711
-510.965 -35.2524 1708
-506.88 -35.2524 1708
-501.618 -35.1698 1704
-497.544 -35.1698 1704
-492.89 -35.1285 1702
-488.532 -35.1079 1701
-484.465 -35.1079 1701
-478.703 -34.984 1695
-474.649 -34.984 1695
-469.763 -34.9221 1692
-465.717 -34.9221 1692
-460.852 -34.8602 1689
-455.191 -34.7364 1683
-450.362 -34.6744 1680
-446.345 -34.6744 1680
-441.801 -34.6332 1678
-437.527 -34.6125 1677
-433 -34.5712 1675
-428.994 -34.5712 1675
-422.959 -34.4061 1667
-418.47 -34.3649 1665
-413.742 -34.3029 1662
-409.768 -34.3029 1662
-404.084 -34.1585 1655
-399.401 -34.0965 1652
-394.493 -34.014 1648
-390.552 -34.014 1648
-386.377 -33.9933 1647
-381.742 -33.9314 1644
-376.891 -33.8489 1640
-372.742 -33.8282 1639
-368.823 -33.8282 1639
-364.458 -33.7869 1637
-360.323 -33.7663 1636
-355.975 -33.725 1634
-352.068 -33.725 1634
-348.161 -33.725 1634
-343.832 -33.6837 1632
-339.096 -33.6012 1628
-335.203 -33.6012 1628
-330.903 -33.5599 1626
-326.613 -33.5186 1624
-322.133 -33.4567 1621
-318.257 -33.4567 1621
-314.186 -33.4361 1620
-309.929 -33.3948 1618
-305.871 -33.3742 1617
-302.004 -33.3742 1617
-297.4 -33.2916 1613
-293.361 -33.271 1612
-289.147 -33.2297 1610
-285.297 -33.2297 1610
-280.923 -33.1678 1607
-276.562 -33.1058 1604
-272.217 -33.0439 1601
-268.053 -33.0026 1599
-264.229 -33.0026 1599
-260.406 -33.0026 1599
-256.421 -32.982 1598
-252.6 -32.982 1598
-248.779 -32.982 1598
-244.958 -32.982 1598
-241.287 -33.0026 1599
-237.463 -33.0026 1599
-233.64 -33.0026 1599
-229.816 -33.0026 1599
-225.992 -33.0026 1599
-222.169 -33.0026 1599
-218.345 -33.0026 1599
-214.521 -33.0026 1599
-210.698 -33.0026 1599
-207.133 -33.0439 1601
-203.304 -33.0439 1601
-199.476 -33.0439 1601
-195.647 -33.0439 1601
-191.819 -33.0439 1601
-187.99 -33.0439 1601
-184.162 -33.0439 1601
-180.333 -33.0439 1601
-177.166 -33.1678 1607
-173.863 -33.271 1612
-170.008 -33.271 1612
-166.978 -33.4361 1620
-163.708 -33.5599 1626
-160.311 -33.6631 1631
-156.411 -33.6631 1631
-153.352 -33.8489 1640
-150.342 -34.0553 1650
-146.662 -34.1172 1653
-142.709 -34.1172 1653
-139.932 -34.4061 1667
-136.598 -34.5712 1675
-133.78 -34.8808 1690
-129.739 -34.8808 1690
-127.78 -35.4587 1718
-124.319 -35.6445 1727
-121.094 -35.9128 1740
-116.933 -35.9128 1740
-113.226 -36.0573 1747
-109.174 -36.0986 1749
-104.991 -36.0986 1749
-100.809 -36.0986 1749
-178.206 -76.5108 3707
-169.341 -76.5108 3707
-160.476 -76.5108 3707
-151.285 -76.3457 3699
-142.439 -76.3457 3699
-133.594 -76.3457 3699
-124.748 -76.3457 3699
-115.903 -76.3457 3699
-107.058 -76.3457 3699
-98.2121 -76.3457 3699
-89.3667 -76.3457 3699
-80.3471 -76.1806 3691
-71.0558 -75.6852 3667
-62.4228 -75.8503 3675
-53.6347 -75.8503 3675
-44.8467 -75.8503 3675
-36.0586 -75.8503 3675
-27.3893 -76.1806 3691
-18.6435 -76.5108 3707
-9.77893 -76.5108 3707
-0.914374 -76.5108 3707
7.95019 -76.5108 3707
16.8147 -76.5108 3707
25.6793 -76.5108 3707
34.7023 -76.8617 3724
43.7012 -77.0268 3732
52.6255 -77.0268 3732
61.5499 -77.0268 3732
70.4742 -77.0268 3732
79.3985 -77.0268 3732
88.3229 -77.0268 3732
97.0388 -76.8617 3724
105.716 -76.6966 3716
113.585 -76.0155 3683
122.392 -76.0155 3683
131.199 -76.0155 3683
140.006 -76.0155 3683
148.813 -76.0155 3683
157.621 -76.0155 3683
166.428 -76.0155 3683
175.235 -76.0155 3683
183.642 -75.8503 3675
192.43 -75.8503 3675
200.78 -75.6852 3667
209.549 -75.6852 3667
219.271 -76.0155 3683
228.078 -76.0155 3683
236.885 -76.0155 3683
245.692 -76.0155 3683
253.947 -75.8503 3675
262.735 -75.8503 3675
272.114 -76.0155 3683
280.921 -76.0155 3683
290.357 -76.1806 3691
300.481 -76.5108 3707
311.431 -77.0268 3732
320.356 -77.0268 3732
329.28 -77.0268 3732
338.204 -77.0268 3732
347.129 -77.0268 3732
356.053 -77.0268 3732
364.978 -77.0268 3732
373.902 -77.0268 3732
382.826 -77.0268 3732
390.911 -76.8617 3724
398.957 -76.6966 3716
406.855 -76.5108 3707
415.72 -76.5108 3707
422.752 -76.1806 3691
427.72 -75.4995 3658
435.513 -75.3344 3650
444.241 -75.3344 3650
451.976 -75.1692 3642
460.685 -75.1692 3642
467.461 -74.8596 3627
475.084 -74.6945 3619
483.738 -74.6945 3619
490.216 -74.3643 3603
497.724 -74.1992 3595
503.081 -73.7245 3572
511.623 -73.7245 3572
515.796 -73.1053 3542
522.046 -72.7957 3527
530.48 -72.7957 3527
538.914 -72.7957 3527
545.02 -72.4861 3512
555.782 -72.7957 3527
566.616 -73.1053 3542
579.957 -73.7245 3572
588.499 -73.7245 3572
600.885 -74.1992 3595
612.194 -74.5294 3611
622.204 -74.6945 3619
630.859 -74.6945 3619
639.513 -74.6945 3619
653.719 -75.3344 3650
663.899 -75.4995 3658
675.773 -75.8503 3675
684.561 -75.8503 3675
702.593 -76.8617 3724
717.803 -77.5428 3757
726.787 -77.5428 3757
735.772 -77.5428 3757
744.756 -77.5428 3757
752.135 -77.3777 3749
762.724 -77.5428 3757
771.708 -77.5428 3757
780.692 -77.5428 3757
795.141 -78.0794 3783
804.188 -78.0794 3783
813.234 -78.0794 3783
818.585 -77.7286 3766
1371.7 -68.8742 3337
1402 -69.9887 3391
1410.11 -69.9887 3391
1429.93 -70.5666 3419
1438.11 -70.5666 3419
1446.28 -70.5666 3419
1454.46 -70.5666 3419
1462.64 -70.5666 3419
1446.72 -69.4108 3363
1460.82 -69.6998 3377
1468.9 -69.6998 3377
1476.97 -69.6998 3377
1485.05 -69.6998 3377
1481.18 -69.1425 3350
1498.09 -69.5553 3370
1506.14 -69.5553 3370
1514.2 -69.5553 3370
1522.26 -69.5553 3370
1530.32 -69.5553 3370
1520.12 -68.7297 3330
1537.26 -69.1425 3350
1551.27 -69.4108 3363
1559.31 -69.4108 3363
1567.35 -69.4108 3363
1581.95 -69.6998 3377
1590.03 -69.6998 3377
1598.1 -69.6998 3377
1593.34 -69.1425 3350
1595.13 -68.8742 3337
1593.5 -68.4614 3317
1601.44 -68.4614 3317
1609.37 -68.4614 3317
2296.09 -80.2672 3889
2305.39 -80.2672 3889
2314.69 -80.2672 3889
2318.61 -80.0815 3880
2333.28 -80.2672 3889
2375.71 -81.4024 3944
2413.57 -82.3725 3991
2423.11 -82.3725 3991
2432.66 -82.3725 3991
2442.2 -82.3725 3991
2451.74 -82.3725 3991
2444.02 -81.7945 3963
2453.5 -81.7945 3963
2468.57 -81.9803 3972
2478.06 -81.9803 3972
2487.56 -81.9803 3972
2497.06 -81.9803 3972
2524.86 -82.5788 4001
2540.13 -82.7646 4010
2549.72 -82.7646 4010
2559.31 -82.7646 4010
2563.13 -82.5788 4001
2572.7 -82.5788 4001
2557.74 -81.7945 3963
2554.91 -81.4024 3944
2551.99 -81.0102 3925
1815.63 -57.0064 2762
1825.54 -57.1096 2767
1832.15 -57.1096 2767
1838.77 -57.1096 2767
1842.05 -57.0064 2762
1848.66 -57.0064 2762
1851.9 -56.9032 2757
1852.43 -56.7175 2748
1868.47 -57.0064 2762
1884.58 -57.2954 2776
1900.76 -57.5843 2790
1907.43 -57.5843 2790
1920.27 -57.7701 2799
1930.41 -57.8733 2804
1937.12 -57.8733 2804
1943.82 -57.8733 2804
1954 -57.9765 2809
1963.51 -58.0591 2813
1973.74 -58.1623 2818
1980.48 -58.1623 2818
2004.14 -58.6576 2842
2014.48 -58.7608 2847
2024.84 -58.864 2852
2031.66 -58.864 2852
2042.05 -58.9672 2857
2048.88 -58.9672 2857
2065.79 -59.2562 2871
2072.65 -59.2562 2871
2090.38 -59.5657 2886
2108.18 -59.8753 2901
2122.41 -60.0817 2911
2129.37 -60.0817 2911
2148.08 -60.412 2927
2181.58 -61.155 2963
2212.3 -61.8155 2995
2219.47 -61.8155 2995
2271.24 -63.0538 3055
2347.9 -64.9733 3148
2355.43 -64.9733 3148
2362.96 -64.9733 3148
2689.77 -73.7245 3572
2727.77 -74.5294 3611
2772.02 -75.4995 3658
2780.77 -75.4995 3658
2820.78 -76.3457 3699
2829.63 -76.3457 3699
-2613.05 -63.6717 3490
-2604.7 -63.6717 3490
-2596.36 -63.6717 3490
-2582.82 -63.544 3483
-2574.49 -63.544 3483
-2555.11 -63.2703 3468
-2546.82 -63.2703 3468
-2518.03 -62.7595 3440
-2509.8 -62.7595 3440
-2496.49 -62.6318 3433
-2462.91 -61.9933 3398
-2464.9 -62.2487 3412
-2456.74 -62.2487 3412
-2448.58 -62.2487 3412
-2430.41 -61.9933 3398
-2407.31 -61.6101 3377
-2424.1 -62.2487 3412
-2425.86 -62.5041 3426
-2417.66 -62.5041 3426
-2419.32 -62.7595 3440
-2425.81 -63.1426 3461
-2428.01 -63.4163 3476
-2419.7 -63.4163 3476
-2425.95 -63.7994 3497
-2438.33 -64.3467 3527
-2429.9 -64.3467 3527
-2426.27 -64.4744 3534
-2428.08 -64.7481 3549
-2425.05 -64.8941 3557
-2416.54 -64.8941 3557
-2413.45 -65.04 3565
-2425.17 -65.5873 3595
-2421.95 -65.7333 3603
-2413.33 -65.7333 3603
-2404.72 -65.7333 3603
-2396.1 -65.7333 3603
-2398.09 -66.0252 3619
-2389.43 -66.0252 3619
-2386.04 -66.1711 3627
-2377.37 -66.1711 3627
-2368.69 -66.1711 3627
-2360.02 -66.1711 3627
-2351.35 -66.1711 3627
-2347.84 -66.3171 3635
-2339.15 -66.3171 3635
-2330.46 -66.3171 3635
-2316.65 -66.1711 3627
-2302.89 -66.0252 3619
-2299.31 -66.1711 3627
-2290.63 -66.1711 3627
-2281.96 -66.1711 3627
-2278.3 -66.3171 3635
-2269.61 -66.3171 3635
-2260.92 -66.3171 3635
-2252.22 -66.3171 3635
-2243.53 -66.3171 3635
-2234.84 -66.3171 3635
-2226.15 -66.3171 3635
-2207.69 -66.0252 3619
-2184.46 -65.5873 3595
-2166.78 -65.3137 3580
-2158.22 -65.3137 3580
-2149.66 -65.3137 3580
-2145.88 -65.4596 3588
-2137.3 -65.4596 3588
-2128.72 -65.4596 3588
-2106.55 -65.04 3565
-2102.15 -65.1677 3572
-2102.98 -65.4596 3588
-2094.4 -65.4596 3588
-2085.82 -65.4596 3588
-2077.24 -65.4596 3588
-2068.66 -65.4596 3588
-2060.08 -65.4596 3588
-2046.93 -65.3137 3580
-2038.37 -65.3137 3580
-2003.73 -64.4744 3534
-1995.28 -64.4744 3534
-1966.02 -63.7994 3497
-1941.43 -63.2703 3468
-1925.33 -63.0149 3454
-1917.07 -63.0149 3454
-1893.34 -62.5041 3426
-1862.03 -61.7378 3384
-1846.27 -61.4824 3370
-1838.21 -61.4824 3370
-1830.15 -61.4824 3370
-1818.31 -61.3547 3363
-1799.5 -60.9898 3343
-1780.79 -60.625 3323
-1772.84 -60.625 3323
-1754.28 -60.2601 3303
-1739.5 -60.0229 3290
-1728.48 -59.9134 3284
-1720.63 -59.9134 3284
