2338.76 887.44 4010
2348.35 887.44 4010
2363.82 889.654 4020
2373.43 889.654 4020
2383.04 889.654 4020
2392.66 889.654 4020
2402.27 889.654 4020
2405.88 887.44 4010
2427.52 891.867 4030
2437.15 891.867 4030
2446.79 891.867 4030
2456.43 891.867 4030
2466.07 891.867 4030
2475.7 891.867 4030
2479.17 889.654 4020
2488.79 889.654 4020
2492.18 887.44 4010
2501.77 887.44 4010
2505.73 885.449 4001
2509.01 883.236 3991
2518.55 883.236 3991
2528.09 883.236 3991
2537.64 883.236 3991
2547.18 883.236 3991
2538.79 877.039 3963
2548.26 877.039 3963
2551.29 874.826 3953
2549.08 870.842 3935
2540.28 864.646 3907
2549.63 864.646 3907
2558.97 864.646 3907
2556.48 860.662 3889
2559.84 858.671 3880
2545.28 850.703 3844
2554.47 850.703 3844
2551.66 846.72 3826
2538.05 839.196 3792
2529.66 833.442 3766
2538.66 833.442 3766
2536.17 829.679 3749
2545.13 829.679 3749
2554.1 829.679 3749
2540.5 822.376 3716
2549.39 822.376 3716
2530.05 813.303 3675
532.578 159.562 721
534.302 159.562 721
536.026 159.562 721
537.751 159.562 721
539.475 159.562 721
541.199 159.562 721
542.923 159.562 721
544.647 159.562 721
546.371 159.562 721
548.095 159.562 721
549.819 159.562 721
551.544 159.562 721
-2361.48 705.557 3154
-2353.94 705.557 3154
-2346.39 705.557 3154
-2343.3 706.899 3160
-2335.74 706.899 3160
-2328.19 706.899 3160
-2320.63 706.899 3160
-2304.29 704.215 3148
-2292.38 702.873 3142
-2302.32 708.242 3166
-2294.75 708.242 3166
-2300.19 712.268 3184
-2323.53 721.887 3227
-2320.12 723.23 3233
-2312.39 723.23 3233
-2327.47 730.388 3265
-2337.43 735.981 3290
-2372.04 749.403 3350
-2364.03 749.403 3350
-2404.55 764.838 3419
-2446.14 780.721 3490
-2437.79 780.721 3490
-2450.33 787.432 3520
-2451.62 790.564 3534
-2453.54 793.92 3549
-2445.05 793.92 3549
-2447.55 797.499 3565
-2443.82 799.065 3572
-2446.18 802.644 3588
-2437.6 802.644 3588
-2429.02 802.644 3588
-2420.44 802.644 3588
-2411.86 802.644 3588
-2403.28 802.644 3588
-2389.36 800.854 3580
-2390.78 804.21 3595
-2382.18 804.21 3595
-2373.59 804.21 3595
-2370.25 806 3603
-2361.64 806 3603
-2353.02 806 3603
-2344.4 806 3603
-2340.97 807.789 3611
-2337.51 809.579 3619
-2328.85 809.579 3619
-2320.2 809.579 3619
-2316.65 811.368 3627
-2307.98 811.368 3627
-2304.38 813.158 3635
-2295.69 813.158 3635
-2291.4 814.724 3642
-2287.7 816.514 3650
-2278.98 816.514 3650
-2270.25 816.514 3650
-2261.52 816.514 3650
-2252.79 816.514 3650
-2244.06 816.514 3650
-2235.33 816.514 3650
-2217.46 813.158 3635
-2208.76 813.158 3635
-2204.31 814.724 3642
-2195.6 814.724 3642
-2186.89 814.724 3642
-2178.18 814.724 3642
-2169.47 814.724 3642
-2160.76 814.724 3642
-2152.05 814.724 3642
-2139.22 813.158 3635
-2130.53 813.158 3635
-2121.84 813.158 3635
-2103.85 809.579 3619
-2099.82 811.368 3627
-2091.15 811.368 3627
-2082.48 811.368 3627
-2073.8 811.368 3627
-2060.57 809.579 3619
-2051.92 809.579 3619
-2043.27 809.579 3619
-2034.61 809.579 3619
-2030.44 811.368 3627
-2026.22 813.158 3635
-2021.42 814.724 3642
-2012.71 814.724 3642
-2008.4 816.514 3650
-1999.67 816.514 3650
-1995.31 818.303 3658
-1986.56 818.303 3658
-1987 822.106 3675
-1991.13 827.475 3699
-1991.4 831.278 3716
-1982.51 831.278 3716
-1982.12 834.857 3732
-1973.2 834.857 3732
-1964.28 834.857 3732
-1951.16 833.068 3724
-1925.04 825.685 3691
-1916.22 825.685 3691
-1907.39 825.685 3691
-1894.45 823.896 3683
-1881.55 822.106 3675
-1872.76 822.106 3675
-1863.97 822.106 3675
-1851.14 820.317 3667
-1833.83 816.514 3650
-1821.11 814.724 3642
-1812.4 814.724 3642
-1796.26 811.368 3627
-1779.7 807.789 3611
-1767.14 806 3603
-1758.53 806 3603
-1749.91 806 3603
-1737.43 804.21 3595
-1706.71 793.92 3549
-1698.22 793.92 3549
-1689.74 793.92 3549
-1677.93 792.354 3542
-1662.39 788.998 3527
-1657.24 790.564 3534
-1652.52 792.354 3542
-1644.05 792.354 3542
-1635.58 792.354 3542
-1630.33 793.92 3549
-1621.84 793.92 3549
-1613.35 793.92 3549
-1604.87 793.92 3549
-1596.38 793.92 3549
-1587.89 793.92 3549
-1576.29 792.354 3542
-1567.82 792.354 3542
-1562.43 793.92 3549
-1553.95 793.92 3549
-1545.46 793.92 3549
-1540.44 795.709 3557
-1531.93 795.709 3557
-1523.43 795.709 3557
-1514.92 795.709 3557
-1512.77 799.065 3572
-1504.23 799.065 3572
-1495.68 799.065 3572
-1487.14 799.065 3572
-1478.6 799.065 3572
-1470.06 799.065 3572
-1461.52 799.065 3572
-1450.13 797.499 3565
-1444.43 799.065 3572
-1442.32 802.644 3588
-1436.54 804.21 3595
-1427.94 804.21 3595
-1425.66 807.789 3611
-1426.45 813.158 3635
-1430.24 820.317 3667
-1421.47 820.317 3667
-1412.7 820.317 3667
-656.315 390.808 1747
-652.138 390.808 1747
-653.894 394.387 1763
-651.889 395.729 1769
-647.659 395.729 1769
-643.429 395.729 1769
-639.199 395.729 1769
-634.969 395.729 1769
-630.738 395.729 1769
-624.383 394.387 1763
-620.167 394.387 1763
-612.807 392.374 1754
-608.613 392.374 1754
-603.385 391.703 1751
-595.433 389.242 1740
-589.913 388.347 1736
-585.762 388.347 1736
-581.611 388.347 1736
-576.129 387.452 1732
-571.657 387.229 1731
-566.862 386.781 1729
-562.727 386.781 1729
-556.654 385.439 1723
-552.213 385.215 1722
-547.459 384.768 1720
-543.346 384.768 1720
-538.606 384.321 1718
-533.875 383.873 1716
-528.846 383.202 1713
-524.749 383.202 1713
-520.045 382.755 1711
-515.953 382.755 1711
-511.264 382.307 1709
-507.177 382.307 1709
-503.09 382.307 1709
-499.003 382.307 1709
-494.917 382.307 1709
-490.83 382.307 1709
-486.458 382.084 1708
-482.374 382.084 1708
-477.73 381.636 1706
-473.65 381.636 1706
-469.02 381.189 1704
-464.4 380.741 1702
-460.33 380.741 1702
-456.26 380.741 1702
-452.19 380.741 1702
-447.856 380.518 1701
-443.789 380.518 1701
-439.204 380.07 1699
-435.141 380.07 1699
-431.078 380.07 1699
-426.01 379.175 1695
-421.957 379.175 1695
-417.904 379.175 1695
-413.606 378.952 1694
-409.555 378.952 1694
-405.744 379.175 1695
-401.691 379.175 1695
-397.637 379.175 1695
-394.049 379.623 1697
-390.45 380.07 1699
-387.07 380.741 1702
-383 380.741 1702
-380.265 382.084 1708
-376.401 382.307 1709
-373.622 383.65 1715
-369.521 383.65 1715
-366.059 384.321 1718
-363.425 385.887 1725
-360.55 387.229 1731
-356.411 387.229 1731
-353.696 388.795 1738
-351.35 390.808 1747
-348.166 391.927 1752
-343.976 391.927 1752
-340.95 393.269 1758
-338.47 395.282 1767
-336.515 397.966 1779
-332.261 397.966 1779
-328.56 398.638 1782
-325.39 399.98 1788
-321.474 400.427 1790
-317.194 400.427 1790
-312.913 400.427 1790
-308.633 400.427 1790
-304.352 400.427 1790
-300.072 400.427 1790
-295.791 400.427 1790
-291.185 399.98 1788
-286.91 399.98 1788
-281.685 398.638 1782
-277.424 398.638 1782
-272.703 397.966 1779
-268.449 397.966 1779
-263.898 397.519 1777
-259.064 396.624 1773
-254.537 396.177 1771
-250.302 396.177 1771
-246.345 396.624 1773
-242.105 396.624 1773
-238.402 397.519 1777
-234.811 398.638 1782
-231.067 399.532 1786
-226.797 399.532 1786
-223.273 400.875 1792
-219.232 401.322 1794
-215.182 401.769 1796
-210.887 401.769 1796
-207.053 402.664 1800
-203.987 405.125 1811
-200.318 406.467 1817
-195.973 406.467 1817
-191.839 406.915 1819
-188.108 408.257 1825
-184.146 409.152 1829
-179.773 409.152 1829
-176.166 410.941 1837
-172.147 411.836 1841
-168.565 413.849 1850
-164.141 413.849 1850
-160.926 416.981 1864
-157.308 419.218 1874
-152.827 419.218 1874
-148.345 419.218 1874
-297.17 865.952 3871
-287.914 865.952 3871
-286.647 890.783 3982
-277.125 890.783 3982
-267.603 890.783 3982
-258.081 890.783 3982
-248.559 890.783 3982
-239.036 890.783 3982
-229.514 890.783 3982
-219.992 890.783 3982
-209.941 888.546 3972
-199.03 882.282 3944
-189.599 882.282 3944
-179.3 878.032 3925
-169.134 874.005 3907
-159.792 874.005 3907
-149.063 865.952 3871
-139.806 865.952 3871
-129.639 859.912 3844
-119.068 850.069 3800
-109.228 844.253 3774
-100.203 844.253 3774
-90.768 840.45 3757
-81.0655 833.068 3724
-71.5208 825.685 3691
-62.6945 825.685 3691
-53.518 820.317 3667
-44.444 814.724 3642
-35.5092 809.579 3619
-26.7363 806 3603
-18.1205 806 3603
-9.44391 800.854 3580
-0.877375 795.709 3557
7.62849 795.709 3557
16.1344 795.709 3557
24.6402 795.709 3557
33.0715 793.92 3549
41.3826 790.564 3534
49.8335 790.564 3534
58.2844 790.564 3534
66.603 788.998 3527
75.0372 788.998 3527
83.4713 788.998 3527
91.9054 788.998 3527
100.34 788.998 3527
108.774 788.998 3527
117.208 788.998 3527
125.642 788.998 3527
134.076 788.998 3527
142.51 788.998 3527
150.944 788.998 3527
159.378 788.998 3527
167.813 788.998 3527
176.247 788.998 3527
184.314 787.432 3520
192.732 787.432 3520
201.149 787.432 3520
209.566 787.432 3520
218.417 788.998 3527
226.851 788.998 3527
235.286 788.998 3527
244.203 790.564 3534
252.654 790.564 3534
261.105 790.564 3534
269.556 790.564 3534
278.007 790.564 3534
287.674 793.92 3549
296.16 793.92 3549
304.647 793.92 3549
314.545 797.499 3565
323.07 797.499 3565
331.595 797.499 3565
340.12 797.499 3565
348.645 797.499 3565
357.17 797.499 3565
365.695 797.499 3565
373.381 795.709 3557
381.028 793.92 3549
387.868 790.564 3534
396.319 790.564 3534
402.25 785.643 3512
408.894 782.287 3497
415.586 779.155 3483
422.09 775.8 3468
430.383 775.8 3468
436.019 771.102 3447
442.458 767.97 3433
448.829 764.838 3419
457.005 764.838 3419
461.371 758.575 3391
463.804 749.403 3350
469.984 746.495 3337
477.964 746.495 3337
483.905 743.363 3323
490.963 742.021 3317
498.895 742.021 3317
506.827 742.021 3317
514.759 742.021 3317
521.588 740.455 3310
529.503 740.455 3310
537.418 740.455 3310
546.487 742.021 3317
554.419 742.021 3317
562.35 742.021 3317
572.517 744.929 3330
580.48 744.929 3330
588.444 744.929 3330
595.153 743.363 3323
603.099 743.363 3323
611.045 743.363 3323
618.992 743.363 3323
628.259 744.929 3330
636.222 744.929 3330
644.185 744.929 3330
652.148 744.929 3330
660.111 744.929 3330
668.074 744.929 3330
676.037 744.929 3330
684 744.929 3330
691.963 744.929 3330
699.926 744.929 3330
707.889 744.929 3330
715.852 744.929 3330
723.815 744.929 3330
731.778 744.929 3330
738.186 743.363 3323
746.133 743.363 3323
754.079 743.363 3323
762.025 743.363 3323
771.593 744.929 3330
781.195 746.495 3337
789.175 746.495 3337
797.155 746.495 3337
805.135 746.495 3337
814.576 747.837 3343
822.57 747.837 3343
832.304 749.403 3350
840.315 749.403 3350
851.617 752.311 3363
859.659 752.311 3363
871.314 755.443 3377
886.68 761.706 3405
898.502 764.838 3419
906.678 764.838 3419
920.473 769.536 3440
934.368 774.234 3461
948.636 779.155 3483
956.965 779.155 3483
971.391 784.077 3505
985.923 788.998 3527
998.586 792.354 3542
1007.06 792.354 3542
1017.53 793.92 3549
1034.98 800.854 3580
1050.25 806 3603
1063.56 809.579 3619
1072.22 809.579 3619
1087.74 814.724 3642
1101.27 818.303 3658
1112.75 820.317 3667
1121.52 820.317 3667
1130.28 820.317 3667
1144.02 823.896 3683
1152.83 823.896 3683
1161.64 823.896 3683
1170.45 823.896 3683
1179.25 823.896 3683
1188.06 823.896 3683
1196.87 823.896 3683
1205.67 823.896 3683
1214.48 823.896 3683
1223.29 823.896 3683
1232.1 823.896 3683
1240.9 823.896 3683
1249.71 823.896 3683
1258.52 823.896 3683
1264.57 822.106 3675
1273.36 822.106 3675
1282.15 822.106 3675
1290.94 822.106 3675
1299.72 822.106 3675
1302.46 818.303 3658
1311.21 818.303 3658
1319.95 818.303 3658
1328.7 818.303 3658
1334.52 816.514 3650
1340.31 814.724 3642
1349.02 814.724 3642
1357.73 814.724 3642
1363.81 813.158 3635
1372.5 813.158 3635
1381.19 813.158 3635
1389.89 813.158 3635
1395.5 811.368 3627
1401.08 809.579 3619
1406.61 807.789 3611
1415.25 807.789 3611
1420.73 806 3603
1426.17 804.21 3595
1431.97 802.644 3588
1434.13 799.065 3572
1442.67 799.065 3572
1445.12 795.709 3557
1447.5 792.354 3542
1455.97 792.354 3542
1464.44 792.354 3542
1463.76 787.432 3520
1468.83 785.643 3512
1474.28 784.077 3505
1482.66 784.077 3505
1487.64 782.287 3497
1499.43 784.077 3505
1520.28 790.564 3534
1542.14 797.499 3565
1550.67 797.499 3565
1569.25 802.644 3588
1584.43 806 3603
1600.12 809.579 3619
1612.33 811.368 3627
1627.71 814.724 3642
1662.03 827.475 3699
1708.82 846.266 3783
1717.86 846.266 3783
1762.97 863.938 3862
1788.73 871.992 3898
1802.2 874.005 3907
1811.54 874.005 3907
1833.94 880.269 3935
1851.78 884.295 3953
1861.23 884.295 3953
1870.68 884.295 3953
1880.14 884.295 3953
1889.59 884.295 3953
1890.39 880.269 3935
1899.8 880.269 3935
1904.36 878.032 3925
1896.2 869.978 3889
1892.27 863.938 3862
1901.5 863.938 3862
1892.93 855.885 3826
1876.22 844.253 3774
1872.76 838.66 3749
1881.72 838.66 3749
1882.12 834.857 3732
1874.32 827.475 3699
1875.02 823.896 3683
1871.04 818.303 3658
1884.41 820.317 3667
1893.18 820.317 3667
1910.25 823.896 3683
1919.05 823.896 3683
1927.86 823.896 3683
1936.67 823.896 3683
1945.48 823.896 3683
1976.04 833.068 3724
2007.33 842.463 3766
2016.34 842.463 3766
2034.48 846.266 3783
2052.71 850.069 3800
2071.57 854.096 3818
2080.7 854.096 3818
2118.84 865.952 3871
2142.94 871.992 3898
2177.66 882.282 3944
2187.09 882.282 3944
2196.52 882.282 3944
2216.58 886.532 3963
2236.73 890.783 3982
2246.25 890.783 3982
2255.77 890.783 3982
2270.41 892.796 3991
2279.96 892.796 3991
2289.5 892.796 3991
2299.04 892.796 3991
2308.59 892.796 3991
2323.94 895.033 4001
2338.76 897.046 4010
2348.35 897.046 4010
2357.94 897.046 4010
2367.52 897.046 4010
2377.11 897.046 4010
2386.7 897.046 4010
2396.29 897.046 4010
2405.88 897.046 4010
2421.49 899.283 4020
2431.11 899.283 4020
2440.72 899.283 4020
2450.33 899.283 4020
2459.95 899.283 4020
2469.56 899.283 4020
2473.01 897.046 4010
2482.59 897.046 4010
2486.59 895.033 4001
2496.16 895.033 4001
2493.83 890.783 3982
2497.06 888.546 3972
2506.56 888.546 3972
2516.06 888.546 3972
2525.56 888.546 3972
2529.31 886.532 3963
2532.38 884.295 3953
2541.83 884.295 3953
2539.67 880.269 3935
2530.94 874.005 3907
2528.58 869.978 3889
2537.88 869.978 3889
2547.18 869.978 3889
2556.48 869.978 3889
2547.97 863.938 3862
2545.28 859.912 3844
2554.47 859.912 3844
2534.32 850.069 3800
2526.01 844.253 3774
2529.66 842.463 3766
2538.66 842.463 3766
2536.17 838.66 3749
2545.13 838.66 3749
2554.1 838.66 3749
2540.5 831.278 3716
2549.39 831.278 3716
2530.05 822.106 3675
531.101 160.842 719
534.302 161.289 721
536.026 161.289 721
537.751 161.289 721
539.475 161.289 721
541.199 161.289 721
542.923 161.289 721
544.647 161.289 721
546.371 161.289 721
548.095 161.289 721
549.819 161.289 721
550.779 161.066 720
-2361.48 713.113 3154
-2353.94 713.113 3154
-2346.39 713.113 3154
-2343.3 714.469 3160
-2335.74 714.469 3160
-2328.19 714.469 3160
-2320.63 714.469 3160
-2304.29 711.756 3148
-2292.38 710.399 3142
-2302.32 715.826 3166
-2294.75 715.826 3166
-2300.19 719.896 3184
-2323.53 729.618 3227
-2320.12 730.974 3233
-2312.39 730.974 3233
-2327.47 738.21 3265
-2337.43 743.862 3290
-2372.04 757.428 3350
-2364.03 757.428 3350
-2404.55 773.029 3419
-2441.23 787.499 3483
-2432.9 787.499 3483
-2439.89 792.473 3505
-2446.77 797.447 3527
-2443.17 799.03 3534
-2434.72 799.03 3534
-2436.57 802.421 3549
-2433.55 804.23 3557
-2435.28 807.622 3572
-2426.73 807.622 3572
-2418.19 807.622 3572
-2409.65 807.622 3572
-2401.11 807.622 3572
-2387.88 806.039 3565
-2384.03 807.622 3572
-2380.8 809.43 3580
-2377.54 811.239 3588
-2368.96 811.239 3588
-2364.99 812.822 3595
-2356.39 812.822 3595
-2353.02 814.631 3603
-2344.4 814.631 3603
-2335.79 814.631 3603
-2327.17 814.631 3603
-2323.7 816.439 3611
-2315.07 816.439 3611
-2311.54 818.248 3619
-2307.98 820.057 3627
-2299.31 820.057 3627
-2290.63 820.057 3627
-2286.99 821.866 3635
-2282.69 823.448 3642
-2278.98 825.257 3650
-2270.25 825.257 3650
-2261.52 825.257 3650
-2252.79 825.257 3650
-2239.14 823.448 3642
-2230.43 823.448 3642
-2217.46 821.866 3635
-2208.76 821.866 3635
-2204.31 823.448 3642
-2195.6 823.448 3642
-2186.89 823.448 3642
-2178.18 823.448 3642
-2169.47 823.448 3642
-2160.76 823.448 3642
-2152.05 823.448 3642
-2139.22 821.866 3635
-2130.53 821.866 3635
-2121.84 821.866 3635
-2103.85 818.248 3619
-2099.82 820.057 3627
-2091.15 820.057 3627
-2082.48 820.057 3627
-2073.8 820.057 3627
-2060.57 818.248 3619
-2051.92 818.248 3619
-2043.27 818.248 3619
-2034.61 818.248 3619
-2030.44 820.057 3627
-2026.22 821.866 3635
-2021.42 823.448 3642
-2012.71 823.448 3642
-2004 823.448 3642
-1999.67 825.257 3650
-1990.94 825.257 3650
-1982.21 825.257 3650
-1977.81 827.066 3658
-1991.13 836.336 3699
-1986.58 838.145 3707
-1977.71 838.145 3707
-1973.63 840.18 3716
-1964.74 840.18 3716
-1955.85 840.18 3716
-1946.97 840.18 3716
-1925.04 834.527 3691
-1916.22 834.527 3691
-1907.39 834.527 3691
-1894.45 832.718 3683
-1881.55 830.91 3675
-1872.76 830.91 3675
-1863.97 830.91 3675
-1851.14 829.101 3667
-1833.83 825.257 3650
-1821.11 823.448 3642
-1812.4 823.448 3642
-1796.26 820.057 3627
-1779.7 816.439 3611
-1767.14 814.631 3603
-1758.53 814.631 3603
-1746.02 812.822 3595
-1737.43 812.822 3595
-1706.71 802.421 3549
-1698.22 802.421 3549
-1689.74 802.421 3549
-1677.93 800.839 3542
-1662.39 797.447 3527
-1653.96 797.447 3527
-1648.79 799.03 3534
-1640.34 799.03 3534
-1635.58 800.839 3542
-1627.11 800.839 3542
-1618.64 800.839 3542
-1610.17 800.839 3542
-1601.7 800.839 3542
-1593.23 800.839 3542
-1584.76 800.839 3542
-1572.73 799.03 3534
-1564.28 799.03 3534
-1555.83 799.03 3534
-1547.38 799.03 3534
-1538.93 799.03 3534
-1533.94 800.839 3542
-1528.49 802.421 3549
-1520 802.421 3549
-1511.51 802.421 3549
-1503.03 802.421 3549
-1504.23 807.622 3572
-1495.68 807.622 3572
-1487.14 807.622 3572
-1478.6 807.622 3572
-1467.18 806.039 3565
-1458.65 806.039 3565
-1450.13 806.039 3565
-1444.43 807.622 3572
-1442.32 811.239 3588
-1436.54 812.822 3595
-1427.94 812.822 3595
-1425.66 816.439 3611
-1426.45 821.866 3635
-1430.24 829.101 3667
-1421.47 829.101 3667
-1412.7 829.101 3667
-656.315 394.993 1747
-652.138 394.993 1747
-653.894 398.611 1763
-651.889 399.967 1769
-647.659 399.967 1769
-643.429 399.967 1769
-639.199 399.967 1769
-634.969 399.967 1769
-630.738 399.967 1769
-624.383 398.611 1763
-620.167 398.611 1763
-612.807 396.576 1754
-608.613 396.576 1754
-603.385 395.897 1751
-595.433 393.41 1740
-589.913 392.506 1736
-585.762 392.506 1736
-581.611 392.506 1736
-576.129 391.602 1732
-571.657 391.375 1731
-566.862 390.923 1729
-562.727 390.923 1729
-556.654 389.567 1723
-552.213 389.341 1722
-548.095 389.341 1722
-543.978 389.341 1722
-539.233 388.888 1720
-534.497 388.436 1718
-529.463 387.758 1715
-525.362 387.758 1715
-520.045 386.853 1711
-515.953 386.853 1711
-511.264 386.401 1709
-507.177 386.401 1709
-503.09 386.401 1709
-499.003 386.401 1709
-494.917 386.401 1709
-490.83 386.401 1709
-486.743 386.401 1709
-482.374 386.175 1708
-477.73 385.723 1706
-473.65 385.723 1706
-469.02 385.271 1704
-464.945 385.271 1704
-460.33 384.819 1702
-456.26 384.819 1702
-452.19 384.819 1702
-448.12 384.819 1702
-443.789 384.592 1701
-439.204 384.14 1699
-435.141 384.14 1699
-431.078 384.14 1699
-426.01 383.236 1695
-421.957 383.236 1695
-417.904 383.236 1695
-413.606 383.01 1694
-409.555 383.01 1694
-405.744 383.236 1695
-401.691 383.236 1695
-397.637 383.236 1695
-394.049 383.688 1697
-390.45 384.14 1699
-387.07 384.819 1702
-383 384.819 1702
-380.265 386.175 1708
-376.401 386.401 1709
-373.622 387.758 1715
-369.521 387.758 1715
-366.059 388.436 1718
-363.425 390.019 1725
-360.55 391.375 1731
-356.411 391.375 1731
-353.696 392.958 1738
-351.35 394.993 1747
-348.166 396.123 1752
-343.976 396.123 1752
-340.95 397.48 1758
-338.47 399.515 1767
-336.704 402.454 1780
-332.448 402.454 1780
-328.56 402.906 1782
-325.754 404.715 1790
-321.474 404.715 1790
-317.194 404.715 1790
-313.263 405.167 1792
-308.978 405.167 1792
-304.692 405.167 1792
-300.407 405.167 1792
-295.791 404.715 1790
-291.185 404.263 1788
-286.91 404.263 1788
-282.002 403.359 1784
-277.424 402.906 1782
-273.163 402.906 1782
-268.902 402.906 1782
-264.195 402.228 1779
-259.356 401.324 1775
-254.537 400.419 1771
-250.302 400.419 1771
-246.345 400.871 1773
-242.105 400.871 1773
-238.402 401.776 1777
-234.811 402.906 1782
-231.067 403.811 1786
-226.797 403.811 1786
-223.273 405.167 1792
-219.232 405.62 1794
-215.182 406.072 1796
-210.887 406.072 1796
-207.053 406.976 1800
-203.987 409.463 1811
-200.318 410.82 1817
-195.973 410.82 1817
-191.839 411.272 1819
-188.108 412.629 1825
-184.348 413.985 1831
-179.969 413.985 1831
-176.166 415.342 1837
-172.334 416.698 1843
-169.476 420.542 1860
-165.028 420.542 1860
-161.444 422.803 1870
-158.231 426.194 1885
-153.724 426.194 1885
-149.216 426.194 1885
-297.17 875.225 3871
-287.914 875.225 3871
-286.647 900.322 3982
-277.125 900.322 3982
-267.603 900.322 3982
-258.081 900.322 3982
-249.12 902.357 3991
-239.577 902.357 3991
-230.033 902.357 3991
-219.992 900.322 3982
-209.941 898.061 3972
-199.484 893.765 3953
-190.031 893.765 3953
-180.168 891.73 3944
-169.914 887.434 3925
-160.528 887.434 3925
-150.449 883.364 3907
-141.106 883.364 3907
-130.549 875.225 3871
-119.632 863.242 3818
-109.749 857.363 3792
-100.681 857.363 3792
-90.9854 851.485 3766
-81.4138 845.606 3740
-71.8309 838.145 3707
-62.9663 838.145 3707
-53.518 829.101 3667
-44.444 823.448 3642
-35.5092 818.248 3619
-26.7363 814.631 3603
-18.1205 814.631 3603
-9.44391 809.43 3580
-0.877375 804.23 3557
7.62849 804.23 3557
16.1344 804.23 3557
24.6402 804.23 3557
33.0715 802.421 3549
41.3826 799.03 3534
49.8335 799.03 3534
58.2844 799.03 3534
66.603 797.447 3527
75.0372 797.447 3527
83.4713 797.447 3527
91.9054 797.447 3527
100.34 797.447 3527
108.774 797.447 3527
117.208 797.447 3527
125.642 797.447 3527
134.342 799.03 3534
142.793 799.03 3534
151.244 799.03 3534
159.378 797.447 3527
167.813 797.447 3527
176.247 797.447 3527
184.314 795.864 3520
192.732 795.864 3520
201.149 795.864 3520
209.566 795.864 3520
218.417 797.447 3527
226.851 797.447 3527
235.286 797.447 3527
244.203 799.03 3534
252.654 799.03 3534
261.105 799.03 3534
269.556 799.03 3534
278.007 799.03 3534
287.674 802.421 3549
296.16 802.421 3549
304.647 802.421 3549
314.545 806.039 3565
323.07 806.039 3565
331.595 806.039 3565
340.12 806.039 3565
348.645 806.039 3565
357.17 806.039 3565
365.695 806.039 3565
373.381 804.23 3557
381.028 802.421 3549
387.868 799.03 3534
396.319 799.03 3534
402.25 794.056 3512
408.894 790.664 3497
416.422 789.082 3490
422.09 784.107 3468
430.383 784.107 3468
436.019 779.359 3447
442.458 776.194 3433
449.748 774.611 3426
457.941 774.611 3426
461.371 766.698 3391
464.773 759.01 3357
469.984 754.489 3337
477.964 754.489 3337
483.905 751.323 3323
490.963 749.967 3317
498.895 749.967 3317
506.827 749.967 3317
514.759 749.967 3317
521.588 748.384 3310
529.503 748.384 3310
537.418 748.384 3310
546.487 749.967 3317
554.419 749.967 3317
562.35 749.967 3317
571.314 751.323 3323
579.26 751.323 3323
587.207 751.323 3323
595.153 751.323 3323
603.099 751.323 3323
611.045 751.323 3323
618.992 751.323 3323
628.259 752.906 3330
636.222 752.906 3330
644.185 752.906 3330
652.148 752.906 3330
660.111 752.906 3330
668.074 752.906 3330
676.037 752.906 3330
684 752.906 3330
691.963 752.906 3330
699.926 752.906 3330
707.889 752.906 3330
715.852 752.906 3330
723.815 752.906 3330
731.778 752.906 3330
738.186 751.323 3323
746.133 751.323 3323
754.079 751.323 3323
762.025 751.323 3323
769.971 751.323 3323
777.918 751.323 3323
785.864 751.323 3323
795.483 752.906 3330
803.446 752.906 3330
811.409 752.906 3330
819.372 752.906 3330
827.335 752.906 3330
840.315 757.428 3350
848.325 757.428 3350
856.336 757.428 3350
871.314 763.532 3377
884.857 768.281 3398
898.502 773.029 3419
906.678 773.029 3419
920.473 777.777 3440
934.368 782.525 3461
948.636 787.499 3483
956.965 787.499 3483
971.391 792.473 3505
985.923 797.447 3527
996.33 799.03 3534
1007.06 800.839 3542
1017.53 802.421 3549
1034.98 809.43 3580
1050.25 814.631 3603
1063.56 818.248 3619
1072.22 818.248 3619
1087.74 823.448 3642
1098.86 825.257 3650
1112.75 829.101 3667
1121.52 829.101 3667
1130.28 829.101 3667
1144.02 832.718 3683
1152.83 832.718 3683
1161.64 832.718 3683
1170.45 832.718 3683
1179.25 832.718 3683
1188.06 832.718 3683
1196.87 832.718 3683
1205.67 832.718 3683
1214.48 832.718 3683
1223.29 832.718 3683
1232.1 832.718 3683
1240.9 832.718 3683
1249.71 832.718 3683
1258.52 832.718 3683
1264.57 830.91 3675
1273.36 830.91 3675
1282.15 830.91 3675
1290.94 830.91 3675
1299.72 830.91 3675
1302.46 827.066 3658
1311.21 827.066 3658
1319.95 827.066 3658
1328.7 827.066 3658
1334.52 825.257 3650
1340.31 823.448 3642
1349.02 823.448 3642
1357.73 823.448 3642
1363.81 821.866 3635
1372.5 821.866 3635
1378.15 820.057 3627
1386.83 820.057 3627
1392.42 818.248 3619
1397.98 816.439 3611
1403.5 814.631 3603
1412.11 814.631 3603
1417.57 812.822 3595
1423.39 811.239 3588
1428.78 809.43 3580
1431.32 806.039 3565
1439.84 806.039 3565
1441.87 802.421 3549
1447.5 800.839 3542
1446.92 795.864 3520
1455.34 795.864 3520
1460.43 794.056 3512
1462.56 790.664 3497
1467.97 789.082 3490
1476.32 789.082 3490
1478.71 785.916 3476
1496 790.664 3497
1507.81 792.473 3505
1528.73 799.03 3534
1537.19 799.03 3534
1559.19 806.039 3565
1577.83 811.239 3588
1596.58 816.439 3611
1612.33 820.057 3627
1621 820.057 3627
1654.84 832.718 3683
1708.82 855.328 3783
1717.86 855.328 3783
1762.97 873.19 3862
1788.73 881.329 3898
1802.2 883.364 3907
1811.54 883.364 3907
1838.13 891.73 3944
1856.46 896.026 3963
1865.94 896.026 3963
1875.42 896.026 3963
1880.14 893.765 3953
1889.59 893.765 3953
1890.39 889.695 3935
1899.8 889.695 3935
1904.36 887.434 3925
1900.58 881.329 3898
1896.68 875.225 3871
1905.93 875.225 3871
1897.38 867.085 3835
1876.22 853.293 3774
1872.76 847.641 3749
1881.72 847.641 3749
1886.15 845.606 3740
1874.32 836.336 3699
1875.02 832.718 3683
1875.64 829.101 3667
1892.63 832.718 3683
1901.44 832.718 3683
1918.55 836.336 3699
1927.39 836.336 3699
1940.42 838.145 3707
1949.29 838.145 3707
1962.91 840.18 3716
1993.55 849.45 3757
2016.39 855.328 3783
2025.44 855.328 3783
2057.61 865.05 3826
2081.34 871.155 3853
2100.32 875.225 3871
2109.58 875.225 3871
2123.76 877.26 3880
2173.17 893.765 3953
2188.15 896.026 3963
2197.62 896.026 3963
2222.7 902.357 3991
2232.24 902.357 3991
2241.78 902.357 3991
2256.97 904.618 4001
2266.54 904.618 4001
2276.1 904.618 4001
2285.67 904.618 4001
2295.24 904.618 4001
2304.81 904.618 4001
2308.59 902.357 3991
2323.94 904.618 4001
2333.51 904.618 4001
2343.08 904.618 4001
2352.64 904.618 4001
2362.21 904.618 4001
2371.78 904.618 4001
2381.35 904.618 4001
2390.91 904.618 4001
2405.88 906.652 4010
2415.47 906.652 4010
2425.06 906.652 4010
2434.65 906.652 4010
2444.24 906.652 4010
2453.83 906.652 4010
2463.42 906.652 4010
2473.01 906.652 4010
2477.02 904.618 4001
2486.59 904.618 4001
2496.16 904.618 4001
2493.83 900.322 3982
2497.06 898.061 3972
2506.56 898.061 3972
2516.06 898.061 3972
2525.56 898.061 3972
2529.31 896.026 3963
2532.38 893.765 3953
2541.83 893.765 3953
2539.67 889.695 3935
2542.6 887.434 3925
2540.28 883.364 3907
2549.63 883.364 3907
2558.97 883.364 3907
2562.4 881.329 3898
2553.9 875.225 3871
2557.2 873.19 3862
2566.44 873.19 3862
2540.32 861.207 3809
2526.01 853.293 3774
2535.03 853.293 3774
2544.06 853.293 3774
2541.58 849.45 3757
2550.56 849.45 3757
2554.1 847.641 3749
2540.5 840.18 3716
2549.39 840.18 3716
2552.08 838.145 3707
531.101 162.564 719
533.561 162.79 720
535.283 162.79 720
537.005 162.79 720
538.726 162.79 720
540.448 162.79 720
542.923 163.017 721
544.647 163.017 721
546.371 163.017 721
547.335 162.79 720
549.057 162.79 720
550.779 162.79 720
-2361.48 720.668 3154
-2353.94 720.668 3154
-2346.39 720.668 3154
-2343.3 722.039 3160
-2335.74 722.039 3160
-2328.19 722.039 3160
-2320.63 722.039 3160
-2308.68 720.668 3154
-2296.76 719.297 3148
-2306.69 724.781 3172
-2299.1 724.781 3172
-2300.19 727.523 3184
-2323.53 737.348 3227
-2315.82 737.348 3227
-2308.1 737.348 3227
-2327.47 746.031 3265
-2337.43 751.743 3290
-2372.04 765.453 3350
-2364.03 765.453 3350
-2404.55 781.219 3419
-2436.32 794.243 3476
-2428.01 794.243 3476
-2439.89 800.869 3505
-2441.91 804.297 3520
-2433.49 804.297 3520
-2425.08 804.297 3520
-2421.46 805.896 3527
-2423.29 809.323 3542
-2425.05 812.751 3557
-2416.54 812.751 3557
-2408.04 812.751 3557
-2399.53 812.751 3557
-2391.03 812.751 3557
-2377.16 810.923 3549
-2379.35 814.579 3565
-2370.83 814.579 3565
-2366.94 816.178 3572
-2358.4 816.178 3572
-2355.12 818.006 3580
-2346.56 818.006 3580
-2338 818.006 3580
-2329.44 818.006 3580
-2320.88 818.006 3580
-2322.01 821.434 3595
-2318.56 823.262 3603
-2309.94 823.262 3603
-2306.43 825.09 3611
-2302.89 826.917 3619
-2299.31 828.745 3627
-2290.63 828.745 3627
-2281.96 828.745 3627
-2282.69 832.173 3642
-2273.98 832.173 3642
-2265.27 832.173 3642
-2256.56 832.173 3642
-2247.85 832.173 3642
-2239.14 832.173 3642
-2230.43 832.173 3642
-2217.46 830.573 3635
-2208.76 830.573 3635
-2204.31 832.173 3642
-2195.6 832.173 3642
-2186.89 832.173 3642
-2178.18 832.173 3642
-2169.47 832.173 3642
-2160.76 832.173 3642
-2152.05 832.173 3642
-2139.22 830.573 3635
-2130.53 830.573 3635
-2121.84 830.573 3635
-2103.85 826.917 3619
-2099.82 828.745 3627
-2091.15 828.745 3627
-2082.48 828.745 3627
-2073.8 828.745 3627
-2060.57 826.917 3619
-2051.92 826.917 3619
-2043.27 826.917 3619
-2034.61 826.917 3619
-2030.44 828.745 3627
-2026.22 830.573 3635
-2021.42 832.173 3642
-2012.71 832.173 3642
-2004 832.173 3642
-1999.67 834.001 3650
-1990.94 834.001 3650
-1982.21 834.001 3650
-1977.81 835.829 3658
-1986.83 843.369 3691
-1982.29 845.197 3699
-1973.44 845.197 3699
-1973.63 849.081 3716
-1964.74 849.081 3716
-1955.85 849.081 3716
-1946.97 849.081 3716
-1920.87 841.541 3683
-1912.06 841.541 3683
-1903.26 841.541 3683
-1894.45 841.541 3683
-1881.55 839.713 3675
-1868.68 837.885 3667
-1859.91 837.885 3667
-1846.6 835.829 3658
-1833.83 834.001 3650
-1821.11 832.173 3642
-1812.4 832.173 3642
-1788.33 825.09 3611
-1775.76 823.262 3603
-1763.22 821.434 3595
-1754.62 821.434 3595
-1746.02 821.434 3595
-1734.04 819.834 3588
-1710.56 812.751 3557
-1702.05 812.751 3557
-1693.54 812.751 3557
-1681.25 810.923 3549
-1665.69 807.496 3534
-1653.96 805.896 3527
-1648.79 807.496 3534
-1640.34 807.496 3534
-1635.58 809.323 3542
-1630.33 810.923 3549
-1621.84 810.923 3549
-1613.35 810.923 3549
-1604.87 810.923 3549
-1593.23 809.323 3542
-1584.76 809.323 3542
-1572.73 807.496 3534
-1564.28 807.496 3534
-1555.83 807.496 3534
-1547.38 807.496 3534
-1538.93 807.496 3534
-1533.94 809.323 3542
-1528.49 810.923 3549
-1520 810.923 3549
-1511.51 810.923 3549
-1503.03 810.923 3549
-1501.28 814.579 3565
-1492.75 814.579 3565
-1484.23 814.579 3565
-1475.7 814.579 3565
-1467.18 814.579 3565
-1458.65 814.579 3565
-1450.13 814.579 3565
-1444.43 816.178 3572
-1442.32 819.834 3588
-1436.54 821.434 3595
-1427.94 821.434 3595
-1422.51 823.262 3603
-1426.45 830.573 3635
-1426.73 835.829 3658
-1417.98 835.829 3658
-1409.23 835.829 3658
-653.894 402.834 1763
-654.101 405.576 1775
-649.856 405.576 1775
-645.611 405.576 1775
-641.367 405.576 1775
-636.404 405.119 1773
-632.165 405.119 1773
-625.8 403.748 1767
-621.574 403.748 1767
-614.903 402.148 1760
-610.695 402.148 1760
-603.729 400.32 1752
-595.775 397.807 1741
-591.272 397.578 1740
-585.762 396.664 1736
-581.611 396.664 1736
-576.794 396.207 1734
-571.987 395.751 1732
-566.862 395.065 1729
-562.727 395.065 1729
-556.654 393.694 1723
-552.213 393.466 1722
-548.095 393.466 1722
-543.978 393.466 1722
-539.233 393.009 1720
-534.497 392.552 1718
-529.463 391.866 1715
-525.362 391.866 1715
-520.045 390.952 1711
-515.953 390.952 1711
-511.264 390.495 1709
-507.177 390.495 1709
-503.09 390.495 1709
-499.003 390.495 1709
-494.917 390.495 1709
-490.83 390.495 1709
-486.743 390.495 1709
-482.374 390.267 1708
-477.73 389.81 1706
-473.65 389.81 1706
-469.02 389.353 1704
-464.945 389.353 1704
-460.33 388.896 1702
-456.26 388.896 1702
-452.19 388.896 1702
-448.12 388.896 1702
-443.789 388.667 1701
-439.204 388.21 1699
-435.141 388.21 1699
-431.078 388.21 1699
-426.01 387.296 1695
-421.957 387.296 1695
-417.904 387.296 1695
-413.606 387.068 1694
-409.555 387.068 1694
-405.505 387.068 1694
-401.691 387.296 1695
-397.637 387.296 1695
-394.049 387.753 1697
-389.991 387.753 1697
-387.07 388.896 1702
-383 388.896 1702
-380.265 390.267 1708
-376.401 390.495 1709
-373.622 391.866 1715
-369.521 391.866 1715
-366.059 392.552 1718
-363.425 394.151 1725
-360.55 395.522 1731
-356.411 395.522 1731
-353.696 397.121 1738
-350.948 398.721 1745
-347.967 400.092 1751
-343.78 400.092 1751
-340.95 401.691 1758
-338.47 403.748 1767
-336.704 406.718 1780
-332.448 406.718 1780
-328.56 407.175 1782
-325.754 409.003 1790
-321.474 409.003 1790
-317.194 409.003 1790
-313.263 409.46 1792
-308.978 409.46 1792
-304.692 409.46 1792
-300.407 409.46 1792
-295.791 409.003 1790
-291.185 408.546 1788
-286.91 408.546 1788
-282.002 407.632 1784
-277.424 407.175 1782
-273.163 407.175 1782
-268.902 407.175 1782
-264.195 406.49 1779
-259.356 405.576 1775
-254.537 404.662 1771
-250.302 404.662 1771
-246.345 405.119 1773
-242.105 405.119 1773
-238.402 406.033 1777
-234.811 407.175 1782
-231.067 408.089 1786
-226.797 408.089 1786
-223.273 409.46 1792
-219.232 409.917 1794
-215.182 410.374 1796
-210.887 410.374 1796
-207.053 411.288 1800
-203.987 413.801 1811
-200.318 415.172 1817
-195.973 415.172 1817
-191.839 415.629 1819
-187.902 416.543 1823
-184.348 418.371 1831
-179.969 418.371 1831
-176.166 419.742 1837
-172.334 421.113 1843
-169.476 424.998 1860
-165.028 424.998 1860
-161.444 427.283 1870
-158.231 430.71 1885
-153.724 430.71 1885
-149.216 430.71 1885
-297.17 884.498 3871
-287.914 884.498 3871
-286.647 909.861 3982
-277.125 909.861 3982
-267.603 909.861 3982
-258.081 909.861 3982
-249.12 911.917 3991
-239.577 911.917 3991
-230.033 911.917 3991
-219.992 909.861 3982
-209.941 907.576 3972
-199.484 903.234 3953
-190.031 903.234 3953
-180.168 901.178 3944
-169.914 896.836 3925
-160.528 896.836 3925
-150.449 892.724 3907
-141.106 892.724 3907
-130.549 884.498 3871
-119.632 872.388 3818
-109.749 866.447 3792
-100.681 866.447 3792
-90.9854 860.506 3766
-81.4138 854.565 3740
-71.8309 847.025 3707
-62.9663 847.025 3707
-53.518 837.885 3667
-44.3585 830.573 3635
-35.5092 826.917 3619
-26.7363 823.262 3603
-18.1205 823.262 3603
-9.44391 818.006 3580
-0.877375 812.751 3557
7.62849 812.751 3557
16.1344 812.751 3557
24.5848 810.923 3549
33.0063 809.323 3542
41.3826 807.496 3534
49.8335 807.496 3534
58.2844 807.496 3534
66.603 805.896 3527
75.0372 805.896 3527
83.4713 805.896 3527
91.9054 805.896 3527
100.34 805.896 3527
108.774 805.896 3527
117.208 805.896 3527
125.642 805.896 3527
134.342 807.496 3534
142.793 807.496 3534
151.244 807.496 3534
159.378 805.896 3527
167.813 805.896 3527
176.247 805.896 3527
184.314 804.297 3520
192.732 804.297 3520
201.149 804.297 3520
209.566 804.297 3520
218.417 805.896 3527
226.851 805.896 3527
235.286 805.896 3527
244.203 807.496 3534
252.654 807.496 3534
261.105 807.496 3534
269.022 805.896 3527
278.007 807.496 3534
287.106 809.323 3542
296.16 810.923 3549
304.647 810.923 3549
313.84 812.751 3557
322.345 812.751 3557
332.247 816.178 3572
340.788 816.178 3572
350.112 818.006 3580
358.673 818.006 3580
367.234 818.006 3580
375.795 818.006 3580
381.887 812.751 3557
389.514 810.923 3549
398.001 810.923 3549
403.166 804.297 3520
409.83 800.869 3505
417.257 799.041 3497
424.767 797.442 3490
433.113 797.442 3490
438.676 792.415 3468
443.36 786.017 3440
449.748 782.818 3426
457.941 782.818 3426
461.371 774.821 3391
464.773 767.052 3357
469.984 762.482 3337
477.964 762.482 3337
483.905 759.283 3323
490.963 757.912 3317
498.895 757.912 3317
506.827 757.912 3317
514.759 757.912 3317
521.588 756.313 3310
529.503 756.313 3310
537.418 756.313 3310
546.487 757.912 3317
554.419 757.912 3317
562.35 757.912 3317
571.314 759.283 3323
579.26 759.283 3323
587.207 759.283 3323
595.153 759.283 3323
603.099 759.283 3323
611.045 759.283 3323
618.992 759.283 3323
628.259 760.883 3330
636.222 760.883 3330
644.185 760.883 3330
652.148 760.883 3330
660.111 760.883 3330
668.074 760.883 3330
676.037 760.883 3330
684 760.883 3330
691.963 760.883 3330
699.926 760.883 3330
707.889 760.883 3330
715.852 760.883 3330
723.815 760.883 3330
731.778 760.883 3330
738.186 759.283 3323
746.133 759.283 3323
754.079 759.283 3323
762.025 759.283 3323
769.971 759.283 3323
779.556 760.883 3330
787.52 760.883 3330
795.483 760.883 3330
803.446 760.883 3330
811.409 760.883 3330
819.372 760.883 3330
827.335 760.883 3330
840.315 765.453 3350
848.325 765.453 3350
856.336 765.453 3350
871.314 771.622 3377
884.857 776.42 3398
898.502 781.219 3419
906.678 781.219 3419
920.473 786.017 3440
934.368 790.816 3461
948.636 795.842 3483
956.965 795.842 3483
971.391 800.869 3505
985.923 805.896 3527
996.33 807.496 3534
1007.06 809.323 3542
1017.53 810.923 3549
1034.98 818.006 3580
1050.25 823.262 3603
1063.56 826.917 3619
1072.22 826.917 3619
1087.74 832.173 3642
1098.86 834.001 3650
1112.75 837.885 3667
1121.52 837.885 3667
1130.28 837.885 3667
1144.02 841.541 3683
1152.83 841.541 3683
1161.64 841.541 3683
1170.45 841.541 3683
1179.25 841.541 3683
1188.06 841.541 3683
1196.87 841.541 3683
1205.67 841.541 3683
1214.48 841.541 3683
1223.29 841.541 3683
1232.1 841.541 3683
1240.9 841.541 3683
1249.71 841.541 3683
1258.52 841.541 3683
1264.57 839.713 3675
1273.36 839.713 3675
1282.15 839.713 3675
1290.94 839.713 3675
1299.72 839.713 3675
1302.46 835.829 3658
1311.21 835.829 3658
1319.95 835.829 3658
1328.7 835.829 3658
1334.52 834.001 3650
1340.31 832.173 3642
1349.02 832.173 3642
1357.73 832.173 3642
1363.81 830.573 3635
1372.5 830.573 3635
1378.15 828.745 3627
1386.83 828.745 3627
1392.42 826.917 3619
1397.98 825.09 3611
1403.5 823.262 3603
1412.11 823.262 3603
1417.57 821.434 3595
1423.39 819.834 3588
1428.78 818.006 3580
1431.32 814.579 3565
1439.84 814.579 3565
1441.87 810.923 3549
1447.5 809.323 3542
1446.92 804.297 3520
1455.34 804.297 3520
1460.43 802.469 3512
1462.56 799.041 3497
1467.97 797.442 3490
1476.32 797.442 3490
1478.71 794.243 3476
1496 799.041 3497
1510.82 802.469 3512
1532.2 809.323 3542
1540.67 809.323 3542
1559.19 814.579 3565
1577.83 819.834 3588
1596.58 825.09 3611
1612.33 828.745 3627
1621 828.745 3627
1654.84 841.541 3683
1708.82 864.39 3783
1717.86 864.39 3783
1762.97 882.441 3862
1788.73 890.667 3898
1802.2 892.724 3907
1811.54 892.724 3907
1838.13 901.178 3944
1856.46 905.519 3963
1865.94 905.519 3963
1875.42 905.519 3963
1880.14 903.234 3953
1889.59 903.234 3953
1894.72 901.178 3944
1904.15 901.178 3944
1904.36 896.836 3925
1904.97 892.724 3907
1896.68 884.498 3871
1905.93 884.498 3871
1897.38 876.272 3835
1876.22 862.334 3774
1872.76 856.622 3749
1881.72 856.622 3749
1886.15 854.565 3740
1874.32 845.197 3699
1875.02 841.541 3683
1875.64 837.885 3667
1892.63 841.541 3683
1901.44 841.541 3683
1918.55 845.197 3699
1927.39 845.197 3699
1940.42 847.025 3707
1949.29 847.025 3707
1962.91 849.081 3716
1993.55 858.45 3757
2016.39 864.39 3783
2025.44 864.39 3783
2057.61 874.216 3826
2081.34 880.385 3853
2100.32 884.498 3871
2109.58 884.498 3871
2143.47 894.78 3916
2178.67 905.519 3963
2193.12 907.576 3972
2202.62 907.576 3972
2222.7 911.917 3991
2232.24 911.917 3991
2241.78 911.917 3991
2256.97 914.202 4001
2266.54 914.202 4001
2276.1 914.202 4001
2285.67 914.202 4001
2295.24 914.202 4001
2304.81 914.202 4001
2314.37 914.202 4001
2323.94 914.202 4001
2333.51 914.202 4001
2343.08 914.202 4001
2352.64 914.202 4001
2362.21 914.202 4001
2371.78 914.202 4001
2381.35 914.202 4001
2390.91 914.202 4001
2405.88 916.258 4010
2415.47 916.258 4010
2425.06 916.258 4010
2434.65 916.258 4010
2444.24 916.258 4010
2448.32 914.202 4001
2457.89 914.202 4001
2467.45 914.202 4001
2477.02 914.202 4001
2486.59 914.202 4001
2496.16 914.202 4001
2499.46 911.917 3991
2497.06 907.576 3972
2506.56 907.576 3972
2516.06 907.576 3972
2525.56 907.576 3972
2535.05 907.576 3972
2538.79 905.519 3963
2548.26 905.519 3963
2545.48 901.178 3944
2549.08 899.121 3935
2564.34 901.178 3944
2573.77 901.178 3944
2583.2 901.178 3944
2592.63 901.178 3944
2571.72 890.667 3898
2563.16 884.498 3871
2572.42 884.498 3871
2540.32 870.331 3809
2543.41 868.275 3800
2535.03 862.334 3774
2544.06 862.334 3774
2541.58 858.45 3757
2550.56 858.45 3757
2554.1 856.622 3749
2540.5 849.081 3716
2549.39 849.081 3716
2558.28 849.081 3716
2560.94 847.025 3707
531.101 164.287 719
533.561 164.515 720
535.283 164.515 720
537.005 164.515 720
538.726 164.515 720
540.448 164.515 720
542.17 164.515 720
543.892 164.515 720
545.613 164.515 720
547.335 164.515 720
549.057 164.515 720
550.779 164.515 720
-2361.48 728.224 3154
-2353.94 728.224 3154
-2346.39 728.224 3154
-2343.3 729.609 3160
-2335.74 729.609 3160
-2328.19 729.609 3160
-2320.63 729.609 3160
-2308.68 728.224 3154
-2296.76 726.838 3148
-2306.69 732.38 3172
-2299.1 732.38 3172
-2300.19 735.15 3184
-2314.17 742.077 3214
-2315.82 745.078 3227
-2308.1 745.078 3227
-2327.47 753.852 3265
-2337.43 759.624 3290
-2362.84 770.476 3337
-2354.86 770.476 3337
-2384.86 782.944 3391
-2425.81 799.106 3461
-2417.53 799.106 3461
-2429.44 805.802 3490
-2431.5 809.266 3505
-2427.96 810.882 3512
-2419.56 810.882 3512
-2411.17 810.882 3512
-2413.03 814.345 3527
-2409.37 815.961 3534
-2400.92 815.961 3534
-2392.47 815.961 3534
-2384.02 815.961 3534
-2375.56 815.961 3534
-2367.11 815.961 3534
-2358.66 815.961 3534
-2350.21 815.961 3534
-2341.76 815.961 3534
-2333.31 815.961 3534
-2334.73 819.425 3549
-2331.48 821.272 3557
-2322.98 821.272 3557
-2314.47 821.272 3557
-2311.15 823.119 3565
-2307.15 824.735 3572
-2298.61 824.735 3572
-2295.19 826.582 3580
-2286.63 826.582 3580
-2287.62 830.046 3595
-2289.16 833.74 3611
-2280.53 833.74 3611
-2276.93 835.587 3619
-2268.27 835.587 3619
-2264.61 837.434 3627
-2255.94 837.434 3627
-2247.27 837.434 3627
-2238.59 837.434 3627
-2229.92 837.434 3627
-2221.25 837.434 3627
-2212.57 837.434 3627
-2208.76 839.281 3635
-2204.31 840.897 3642
-2195.6 840.897 3642
-2186.89 840.897 3642
-2178.18 840.897 3642
-2169.47 840.897 3642
-2160.76 840.897 3642
-2152.05 840.897 3642
-2139.22 839.281 3635
-2130.53 839.281 3635
-2121.84 839.281 3635
-2103.85 835.587 3619
-2099.82 837.434 3627
-2091.15 837.434 3627
-2082.48 837.434 3627
-2073.8 837.434 3627
-2060.57 835.587 3619
-2047.38 833.74 3611
-2038.75 833.74 3611
-2030.11 833.74 3611
-2021.48 833.74 3611
-2021.76 837.434 3627
-2017.53 839.281 3635
-2008.84 839.281 3635
-2004 840.897 3642
-1995.29 840.897 3642
-1990.94 842.744 3650
-1982.21 842.744 3650
-1973.49 842.744 3650
-1978.22 848.517 3675
-1978 852.211 3691
-1969.18 852.211 3691
-1964.6 854.058 3699
-1955.75 854.058 3699
-1946.91 854.058 3699
-1938.06 854.058 3699
-1920.87 850.364 3683
-1912.06 850.364 3683
-1903.26 850.364 3683
-1890.33 848.517 3675
-1881.55 848.517 3675
-1868.68 846.669 3667
-1859.91 846.669 3667
-1842.56 842.744 3650
-1829.81 840.897 3642
-1817.61 839.281 3635
-1808.91 839.281 3635
-1788.33 833.74 3611
-1771.81 830.046 3595
-1763.22 830.046 3595
-1754.62 830.046 3595
-1746.02 830.046 3595
-1737.43 830.046 3595
-1714.4 823.119 3565
-1702.05 821.272 3557
-1693.54 821.272 3557
-1685.04 821.272 3557
-1665.69 815.961 3534
-1657.24 815.961 3534
-1652.52 817.808 3542
-1644.05 817.808 3542
-1635.58 817.808 3542
-1630.33 819.425 3549
-1621.84 819.425 3549
-1613.35 819.425 3549
-1604.87 819.425 3549
-1596.38 819.425 3549
-1587.89 819.425 3549
-1576.29 817.808 3542
-1564.28 815.961 3534
-1555.83 815.961 3534
-1547.38 815.961 3534
-1538.93 815.961 3534
-1533.94 817.808 3542
-1528.49 819.425 3549
-1520 819.425 3549
-1511.51 819.425 3549
-1503.03 819.425 3549
-1501.28 823.119 3565
-1492.75 823.119 3565
-1484.23 823.119 3565
-1475.7 823.119 3565
-1467.18 823.119 3565
-1458.65 823.119 3565
-1450.13 823.119 3565
-1444.43 824.735 3572
-1439.11 826.582 3580
-1436.54 830.046 3595
-1427.94 830.046 3595
-1422.51 831.893 3603
-1426.45 839.281 3635
-1417.76 839.281 3635
-1409.06 839.281 3635
-1400.37 839.281 3635
-656.862 408.904 1771
-654.101 409.828 1775
-649.856 409.828 1775
-645.611 409.828 1775
-641.367 409.828 1775
-636.404 409.366 1773
-632.165 409.366 1773
-626.508 408.442 1769
-622.278 408.442 1769
-616.65 407.519 1765
-612.43 407.519 1765
-605.108 405.441 1756
-598.513 403.825 1749
-591.612 401.978 1741
-587.112 401.747 1740
-582.951 401.747 1740
-578.125 401.285 1738
-572.647 400.361 1734
-567.517 399.669 1731
-563.378 399.669 1731
-557.3 398.283 1725
-552.534 397.822 1723
-548.095 397.591 1722
-543.978 397.591 1722
-539.233 397.129 1720
-534.497 396.667 1718
-529.463 395.974 1715
-525.362 395.974 1715
-520.653 395.513 1713
-515.953 395.051 1711
-511.862 395.051 1711
-507.77 395.051 1711
-503.679 395.051 1711
-499.003 394.589 1709
-494.917 394.589 1709
-490.83 394.589 1709
-486.743 394.589 1709
-482.374 394.358 1708
-477.73 393.896 1706
-473.65 393.896 1706
-469.02 393.435 1704
-464.945 393.435 1704
-460.33 392.973 1702
-456.26 392.973 1702
-452.19 392.973 1702
-448.12 392.973 1702
-443.789 392.742 1701
-439.204 392.28 1699
-435.141 392.28 1699
-430.571 391.818 1697
-426.01 391.357 1695
-421.708 391.126 1694
-417.657 391.126 1694
-413.606 391.126 1694
-409.555 391.126 1694
-405.505 391.126 1694
-401.691 391.357 1695
-397.637 391.357 1695
-393.584 391.357 1695
-389.991 391.818 1697
-386.387 392.28 1699
-382.325 392.28 1699
-379.375 393.435 1704
-376.181 394.358 1708
-373.186 395.513 1713
-369.09 395.513 1713
-366.059 396.667 1718
-363.004 397.822 1723
-359.717 398.745 1727
-355.587 398.745 1727
-352.882 400.361 1734
-351.35 403.363 1747
-348.563 404.979 1754
-344.369 404.979 1754
-341.726 406.826 1762
-339.237 408.904 1771
-337.082 411.444 1782
-332.821 411.444 1782
-329.297 412.368 1786
-325.754 413.291 1790
-321.833 413.753 1792
-317.548 413.753 1792
-313.263 413.753 1792
-308.978 413.753 1792
-304.692 413.753 1792
-300.407 413.753 1792
-296.122 413.753 1792
-291.185 412.829 1788
-286.91 412.829 1788
-282.002 411.906 1784
-277.424 411.444 1782
-273.163 411.444 1782
-268.902 411.444 1782
-264.195 410.751 1779
-259.356 409.828 1775
-254.537 408.904 1771
-250.302 408.904 1771
-246.345 409.366 1773
-242.105 409.366 1773
-238.402 410.29 1777
-234.811 411.444 1782
-231.067 412.368 1786
-226.797 412.368 1786
-223.273 413.753 1792
-219.232 414.215 1794
-215.182 414.676 1796
-210.887 414.676 1796
-207.053 415.6 1800
-203.987 418.14 1811
-200.318 419.525 1817
-195.973 419.525 1817
-191.839 419.987 1819
-187.902 420.91 1823
-184.348 422.758 1831
-179.969 422.758 1831
-176.166 424.143 1837
-172.521 425.99 1845
-170.205 431.3 1868
-165.738 431.3 1868
-161.616 432.224 1872
-158.567 436.149 1889
-154.05 436.149 1889
-149.533 436.149 1889
-297.17 893.771 3871
-287.914 893.771 3871
-286.647 919.399 3982
-277.125 919.399 3982
-267.603 919.399 3982
-258.081 919.399 3982
-249.12 921.477 3991
-239.577 921.477 3991
-230.033 921.477 3991
-219.992 919.399 3982
-209.941 917.091 3972
-199.484 912.704 3953
-190.031 912.704 3953
-180.579 912.704 3953
-170.347 908.548 3935
-160.528 906.239 3925
-151.142 906.239 3925
-141.756 906.239 3925
-130.549 893.771 3871
-119.632 881.534 3818
-109.981 877.378 3800
-100.894 877.378 3800
-90.9854 869.528 3766
-81.4138 863.524 3740
-71.8309 855.905 3707
-62.9663 855.905 3707
-53.518 846.669 3667
-44.3585 839.281 3635
-35.5092 835.587 3619
-26.7363 831.893 3603
-18.1205 831.893 3603
-9.44391 826.582 3580
-0.877375 821.272 3557
7.62849 821.272 3557
16.1344 821.272 3557
24.5848 819.425 3549
33.0063 817.808 3542
41.3826 815.961 3534
49.8335 815.961 3534
58.2844 815.961 3534
66.603 814.345 3527
75.0372 814.345 3527
83.4713 814.345 3527
91.9054 814.345 3527
100.34 814.345 3527
108.774 814.345 3527
117.208 814.345 3527
125.642 814.345 3527
134.342 815.961 3534
142.793 815.961 3534
151.244 815.961 3534
159.378 814.345 3527
167.813 814.345 3527
176.247 814.345 3527
184.314 812.729 3520
192.732 812.729 3520
201.149 812.729 3520
209.566 812.729 3520
218.417 814.345 3527
226.851 814.345 3527
235.286 814.345 3527
244.203 815.961 3534
252.654 815.961 3534
261.105 815.961 3534
269.556 815.961 3534
278.007 815.961 3534
287.106 817.808 3542
296.828 821.272 3557
305.334 821.272 3557
314.545 823.119 3565
323.07 823.119 3565
332.247 824.735 3572
340.788 824.735 3572
350.112 826.582 3580
358.673 826.582 3580
367.234 826.582 3580
375.795 826.582 3580
381.887 821.272 3557
389.514 819.425 3549
398.001 819.425 3549
403.166 812.729 3520
409.83 809.266 3505
417.257 807.418 3497
424.767 805.802 3490
433.113 805.802 3490
438.676 800.723 3468
443.36 794.258 3440
449.748 791.025 3426
