-143.693 242.212 1762
-139.717 242.624 1765
-135.496 242.624 1765
-132.019 243.999 1775
-127.919 244.274 1777
-123.809 244.549 1779
-119.554 244.549 1779
-115.495 244.961 1782
-111.733 246.061 1790
-107.692 246.61 1794
-103.402 246.61 1794
-99.3334 247.16 1798
-95.2453 247.71 1802
-90.9362 247.71 1802
-86.627 247.71 1802
-82.3179 247.71 1802
-78.0088 247.71 1802
-73.6997 247.71 1802
-69.3135 247.435 1800
-65.0092 247.435 1800
-60.7048 247.435 1800
-56.4005 247.435 1800
-52.0961 247.435 1800
-108.036 559.341 4069
-98.3058 559.341 4069
-88.5756 559.341 4069
272.776 562.09 4089
282.555 562.09 4089
292.333 562.09 4089
299.894 557.966 4059
305.176 549.994 4001
312.463 546.007 3972
321.961 546.007 3972
330.708 544.77 3963
337.781 540.921 3935
344.721 537.072 3907
354.879 538.309 3916
364.243 538.309 3916
373.608 538.309 3916
382.092 537.072 3907
389.631 534.598 3889
398.931 534.598 3889
403.507 528.412 3844
407.117 521.264 3792
409.599 513.016 3732
418.524 513.016 3732
422.752 507.38 3691
426.784 501.744 3650
431.814 497.482 3619
440.468 497.482 3619
444.282 492.121 3580
447.024 485.798 3534
452.64 482.774 3512
458.15 479.749 3490
466.495 479.749 3490
471.848 476.725 3468
480.141 476.725 3468
489.561 477.825 3476
499.878 479.749 3490
508.224 479.749 3490
516.569 479.749 3490
524.915 479.749 3490
534.33 480.712 3497
542.693 480.712 3497
555.782 484.836 3527
576.374 495.283 3603
600.577 508.479 3699
609.422 508.479 3699
623.784 513.016 3732
650.17 527.175 3835
681.347 544.77 3963
690.824 544.77 3963
701.891 546.007 3972
714.792 548.619 3991
727.784 551.231 4010
737.374 551.231 4010
748.825 552.605 4020
758.438 552.605 4020
768.052 552.605 4020
777.665 552.605 4020
787.278 552.605 4020
793.124 549.994 4001
802.692 549.994 4001
812.259 549.994 4001
823.676 551.231 4010
837.421 553.98 4030
851.051 556.592 4049
860.734 556.592 4049
870.416 556.592 4049
884.446 559.341 4069
898.571 562.09 4089
908.349 562.09 4089
918.127 562.09 4089
927.905 562.09 4089
935.39 560.716 4079
945.144 560.716 4079
954.898 560.716 4079
957.557 556.592 4049
964.851 555.217 4039
974.51 555.217 4039
981.975 553.98 4030
984.476 549.994 4001
991.559 548.619 3991
1001.1 548.619 3991
1003.56 544.77 3963
1013.03 544.77 3963
1017.61 542.158 3944
1027.04 542.158 3944
1034.1 540.921 3935
1040.86 539.546 3925
1043.02 535.835 3898
1052.35 535.835 3898
1061.67 535.835 3898
1066.04 533.36 3880
1067.84 529.649 3853
1072.02 527.175 3835
1081.19 527.175 3835
1087.8 525.937 3826
1096.95 525.937 3826
1106.1 525.937 3826
1115.25 525.937 3826
1124.4 525.937 3826
1141.55 529.649 3853
1158.82 533.36 3880
1173.52 535.835 3898
1182.84 535.835 3898
1200.42 539.546 3925
1218.44 543.395 3953
1233.79 546.007 3972
1243.29 546.007 3972
1261.94 549.994 4001
1274.36 551.231 4010
1290.36 553.98 4030
1306.12 556.592 4049
1328.8 562.09 4089
1338.58 562.09 4089
1348.36 562.09 4089
1358.14 562.09 4089
1367.92 562.09 4089
1441.68 556.592 4049
1451.36 556.592 4049
1461.04 556.592 4049
1470.72 556.592 4049
1480.41 556.592 4049
1483.1 553.98 4030
1496.07 555.217 4039
1509.45 556.592 4049
1519.14 556.592 4049
1528.82 556.592 4049
1538.5 556.592 4049
1548.18 556.592 4049
1557.87 556.592 4049
1575.29 559.341 4069
1585.02 559.341 4069
1602.59 562.09 4089
1612.37 562.09 4089
1622.15 562.09 4089
1631.92 562.09 4089
1641.7 562.09 4089
1651.48 562.09 4089
1661.26 562.09 4089
1671.04 562.09 4089
1680.81 562.09 4089
1687.89 557.966 4059
1697.6 557.966 4059
1707.31 557.966 4059
1717.01 557.966 4059
1730.97 559.341 4069
1740.7 559.341 4069
1750.43 559.341 4069
1751.51 556.592 4049
1744.23 551.231 4010
1753.82 551.231 4010
1763.41 551.231 4010
1773 551.231 4010
1782.59 551.231 4010
1792.18 551.231 4010
1801.77 551.231 4010
1811.36 551.231 4010
1820.94 551.231 4010
1830.53 551.231 4010
1835.99 549.994 4001
1845.56 549.994 4001
1855.13 549.994 4001
1860.04 548.619 3991
1874.26 549.994 4001
1892.78 552.605 4020
1902.39 552.605 4020
1912 552.605 4020
1926.4 553.98 4030
1936.03 553.98 4030
1945.67 553.98 4030
1950.46 552.605 4020
1955.19 551.231 4010
1955.47 548.619 3991
1965.02 548.619 3991
1941.91 539.546 3925
1876.22 518.789 3774
1847.78 508.479 3699
1856.63 508.479 3699
1853.37 505.18 3675
1858.1 504.081 3667
1858.22 501.744 3650
1851.09 497.482 3619
1859.74 497.482 3619
1856.01 494.183 3595
1856.82 492.121 3580
1865.39 492.121 3580
1885.99 495.283 3603
1894.6 495.283 3603
1903.22 495.283 3603
1899.63 492.121 3580
1908.19 492.121 3580
1916.75 492.121 3580
1925.31 492.121 3580
1946.3 495.283 3603
1963.59 497.482 3619
1989.14 501.744 3650
1997.87 501.744 3650
2123.15 530.886 3862
2157.23 537.072 3907
2171.56 538.309 3916
2180.93 538.309 3916
2237.83 549.994 4001
2268.74 555.217 4039
2289.69 557.966 4059
2299.39 557.966 4059
2309.1 557.966 4059
2318.8 557.966 4059
2334.25 559.341 4069
2343.98 559.341 4069
2353.71 559.341 4069
2363.44 559.341 4069
2373.17 559.341 4069
2377.04 557.966 4059
2386.75 557.966 4059
2408.26 560.716 4079
2418.02 560.716 4079
2427.77 560.716 4079
2419.6 556.592 4049
2411.88 552.605 4020
2421.49 552.605 4020
2431.11 552.605 4020
2440.72 552.605 4020
2450.33 552.605 4020
2459.95 552.605 4020
2469.56 552.605 4020
2455.74 547.382 3982
2459.07 546.007 3972
2468.57 546.007 3972
2478.06 546.007 3972
2487.56 546.007 3972
2456.2 537.072 3907
2454.18 534.598 3889
2463.48 534.598 3889
2438.45 527.175 3835
2447.62 527.175 3835
2451.02 525.937 3826
2460.17 525.937 3826
2447.38 521.264 3792
2456.44 521.264 3792
2465.51 521.264 3792
2474.58 521.264 3792
2483.65 521.264 3792
528.891 103.098 750
530.684 103.098 750
532.478 103.098 750
533.559 102.961 749
533.206 102.548 746
533.555 102.273 744
535.334 102.273 744
535.67 101.998 742
535.995 101.723 740
537.038 101.586 739
538.805 101.586 739
540.573 101.586 739
542.34 101.586 739
544.107 101.586 739
545.874 101.586 739
547.641 101.586 739
549.409 101.586 739
551.176 101.586 739
552.943 101.586 739
554.71 101.586 739
556.477 101.586 739
558.244 101.586 739
559.254 101.448 738
561.019 101.448 738
563.546 101.586 739
565.313 101.586 739
-2330.03 435.243 3112
-2322.59 435.243 3112
-2315.15 435.243 3112
-2299.55 433.704 3101
-2292.13 433.704 3101
-2284.72 433.704 3101
-2272.9 432.865 3095
-2265.49 432.865 3095
-2270.5 435.243 3112
-2276.14 437.76 3130
-2268.66 437.76 3130
-2265.51 438.6 3136
-2266.65 440.278 3148
-2302.18 448.669 3208
-2294.51 448.669 3208
-2318.2 454.823 3252
-2319.66 456.641 3265
-2348.68 463.914 3317
-2340.74 463.914 3317
-2332.81 463.914 3317
-2324.88 463.914 3317
-2316.95 463.914 3317
-2470.5 505.033 3611
-2478.23 508.389 3635
-2469.53 508.389 3635
-2460.84 508.389 3635
-2462.27 510.487 3650
-2453.54 510.487 3650
-2444.81 510.487 3650
-2430.74 509.368 3642
-2412.06 507.271 3627
-2403.39 507.271 3627
-2384.15 505.033 3611
-2364.99 502.795 3595
-2356.39 502.795 3595
-2347.8 502.795 3595
-2339.2 502.795 3595
-2330.6 502.795 3595
-2312.32 500.697 3580
-2303.76 500.697 3580
-2295.19 500.697 3580
-2286.63 500.697 3580
-2278.07 500.697 3580
-2284.09 503.914 3603
-2300.11 509.368 3642
-2291.4 509.368 3642
-2292.72 511.606 3658
-2289.59 512.865 3667
-2280.82 512.865 3667
-2286.92 516.222 3691
-2313.89 524.333 3749
-2320.3 527.83 3774
-2311.27 527.83 3774
-2302.25 527.83 3774
-1986.4 545.172 3898
-2044.03 563.634 4030
-2034.39 563.634 4030
-2029.28 564.893 4039
-2019.62 564.893 4039
-2009.96 564.893 4039
-1995.84 563.634 4030
-1971.91 559.578 4001
-1943.71 554.263 3963
-1934.23 554.263 3963
-1919.9 552.865 3953
-1919.63 555.522 3972
-1910.13 555.522 3972
-1900.63 555.522 3972
-1891.13 555.522 3972
-1899.64 560.837 4010
-1890.05 560.837 4010
-1880.46 560.837 4010
-1862 558.179 3991
-1848.28 556.921 3982
-1834.14 555.522 3972
-1824.64 555.522 3972
-1815.15 555.522 3972
-1805.65 555.522 3972
-1792.08 554.263 3963
-1782.6 554.263 3963
-1773.13 554.263 3963
-1763.65 554.263 3963
-1754.17 554.263 3963
-1744.7 554.263 3963
-1735.22 554.263 3963
-1734.02 556.921 3982
-1724.49 556.921 3982
-1714.97 556.921 3982
-1705.45 556.921 3982
-1679.74 551.606 3944
-1670.31 551.606 3944
-1660.88 551.606 3944
-1651.45 551.606 3944
-1642.02 551.606 3944
-1624.72 548.949 3925
-1615.34 548.949 3925
-1605.95 548.949 3925
-1596.57 548.949 3925
-1583.54 547.69 3916
-1570.56 546.431 3907
-1568.41 548.949 3925
-1559.02 548.949 3925
-1549.64 548.949 3925
-1540.25 548.949 3925
-1530.86 548.949 3925
-1521.48 548.949 3925
-677.226 248.95 1780
-675.238 249.789 1786
-670.967 249.789 1786
-666.696 249.789 1786
-659.829 248.81 1779
-655.575 248.81 1779
-651.32 248.81 1779
-645.611 248.251 1775
-641.367 248.251 1775
-633.533 246.852 1765
-629.312 246.852 1765
-622.612 245.873 1758
-616.298 245.034 1752
-609.663 244.055 1745
-605.49 244.055 1745
-601.317 244.055 1745
-596.46 243.775 1743
-591.612 243.495 1741
-587.449 243.495 1741
-583.286 243.495 1741
-578.125 243.076 1738
-572.647 242.516 1734
-567.517 242.097 1731
-563.378 242.097 1731
-557.946 241.537 1727
-552.534 240.978 1723
-548.095 240.838 1722
-543.978 240.838 1722
-538.606 240.279 1718
-533.564 239.859 1715
-528.228 239.3 1711
-524.137 239.3 1711
-520.045 239.3 1711
-515.35 239.02 1709
-510.965 238.88 1708
-506.88 238.88 1708
-501.618 238.321 1704
-497.544 238.321 1704
-492.89 238.041 1702
-488.82 238.041 1702
-484.465 237.901 1701
-480.397 237.901 1701
-476.33 237.901 1701
-471.707 237.621 1699
-467.644 237.621 1699
-463.581 237.621 1699
-458.977 237.342 1697
-454.919 237.342 1697
-451.393 237.621 1699
-447.33 237.621 1699
-443.789 237.901 1701
-439.721 237.901 1701
-435.91 238.041 1702
-431.84 238.041 1702
-427.77 238.041 1702
-423.7 238.041 1702
-420.616 238.6 1706
-416.536 238.6 1706
-412.94 238.88 1708
-409.574 239.3 1711
-405.956 239.579 1713
-401.86 239.579 1713
-398.925 240.279 1718
-395.276 240.558 1720
-391.618 240.838 1722
-387.5 240.838 1722
-383.382 240.838 1722
-379.485 240.978 1723
-376.236 241.537 1727
-372.106 241.537 1727
-368.829 242.097 1731
-365.743 242.796 1736
-362.008 243.076 1738
-357.852 243.076 1738
-354.103 243.356 1740
-350.143 243.495 1741
-346.377 243.775 1743
-342.209 243.775 1743
-338.429 244.055 1745
-335.023 244.614 1749
-330.84 244.614 1749
-326.658 244.614 1749
-322.475 244.614 1749
-318.293 244.614 1749
-314.111 244.614 1749
-309.574 244.335 1747
-304.173 243.356 1740
-299.667 243.076 1738
-295.511 243.076 1738
-291.355 243.076 1738
-287.199 243.076 1738
-283.042 243.076 1738
-278.565 242.796 1736
-274.414 242.796 1736
-269.951 242.516 1734
-265.039 241.817 1729
-260.602 241.537 1727
-256.472 241.537 1727
-252.343 241.537 1727
-248.213 241.537 1727
-243.8 241.258 1725
-239.675 241.258 1725
-235.277 240.978 1723
-231.157 240.978 1723
-227.037 240.978 1723
-222.917 240.978 1723
-218.796 240.978 1723
-215.424 241.817 1729
-211.289 241.817 1729
-207.514 242.237 1732
-203.372 242.237 1732
-199.461 242.516 1734
-195.539 242.796 1736
-191.829 243.356 1740
-187.668 243.356 1740
-183.507 243.356 1740
-179.656 243.775 1743
-175.689 244.055 1745
-171.516 244.055 1745
-167.535 244.335 1747
-163.545 244.614 1749
-159.362 244.614 1749
-155.18 244.614 1749
-151.429 245.314 1754
-147.403 245.593 1756
-143.693 246.433 1762
-139.717 246.852 1765
-135.496 246.852 1765
-131.871 247.971 1773
-127.919 248.53 1777
-123.809 248.81 1779
-119.554 248.81 1779
-115.495 249.23 1782
-111.733 250.349 1790
-107.692 250.908 1794
-103.402 250.908 1794
-99.3334 251.467 1798
-95.2453 252.027 1802
-90.9362 252.027 1802
-86.627 252.027 1802
-82.3179 252.027 1802
-78.0088 252.027 1802
-73.6997 252.027 1802
-69.3135 251.747 1800
-65.0092 251.747 1800
-60.7048 251.747 1800
-56.4005 251.747 1800
-52.0961 251.747 1800
-108.036 569.088 4069
-98.3058 569.088 4069
-88.5756 569.088 4069
272.776 571.886 4089
282.555 571.886 4089
292.333 571.886 4089
298.416 564.893 4039
303.727 556.921 3982
311.755 554.263 3963
321.231 554.263 3963
329.874 552.865 3953
337.781 550.347 3935
344.721 546.431 3907
354.064 546.431 3907
363.406 546.431 3907
372.749 546.431 3907
380.332 543.914 3889
387.828 541.396 3871
397.085 541.396 3871
401.618 535.103 3826
406.15 529.089 3783
409.599 521.956 3732
418.524 521.956 3732
421.836 515.103 3683
426.784 510.487 3650
431.814 506.152 3619
440.468 506.152 3619
444.282 500.697 3580
447.024 494.264 3534
451.737 490.208 3505
457.231 487.131 3483
465.56 487.131 3483
471.848 485.033 3468
479.172 484.054 3461
488.434 485.033 3468
499.878 488.11 3490
508.224 488.11 3490
516.569 488.11 3490
524.915 488.11 3490
534.33 489.089 3497
542.693 489.089 3497
554.679 492.306 3520
575.094 502.795 3595
593.92 511.606 3658
602.667 511.606 3658
622.446 520.837 3724
647.288 533.984 3818
674.814 548.949 3925
684.2 548.949 3925
698.534 552.865 3953
709.778 554.263 3963
722.703 556.921 3982
732.225 556.921 3982
745.286 559.578 4001
754.854 559.578 4001
764.421 559.578 4001
773.989 559.578 4001
779.836 556.921 3982
787.375 555.522 3972
796.874 555.522 3972
806.372 555.522 3972
819.773 558.179 3991
833.265 560.837 4010
844.956 562.235 4020
854.569 562.235 4020
864.182 562.235 4020
880.098 566.291 4049
891.978 567.69 4059
901.685 567.69 4059
911.391 567.69 4059
921.097 567.69 4059
928.51 566.291 4049
938.193 566.291 4049
947.875 566.291 4049
955.193 564.893 4039
962.701 563.634 4030
972.338 563.634 4030
972.472 558.179 3991
979.801 556.921 3982
984.603 554.263 3963
994.08 554.263 3963
1003.56 554.263 3963
1005.88 550.347 3935
1015.29 550.347 3935
1024.7 550.347 3935
1026.75 546.431 3907
1031.32 543.914 3889
1038.21 542.655 3880
1040.2 538.879 3853
1049.41 538.879 3853
1056.15 537.62 3844
1058.14 533.984 3818
1062.24 531.466 3800
1071.32 531.466 3800
1080.41 531.466 3800
1089.5 531.466 3800
1096.27 530.347 3792
1105.34 530.347 3792
1114.41 530.347 3792
1128.51 532.725 3809
1145.39 536.361 3835
1162.68 540.138 3862
1171.92 540.138 3862
1189.41 543.914 3889
1209.81 548.949 3925
1227.89 552.865 3953
1237.34 552.865 3953
1252.79 555.522 3972
1262.29 555.522 3972
1283.95 560.837 4010
1306.12 566.291 4049
1315.81 566.291 4049
1338.58 571.886 4089
1348.36 571.886 4089
1358.14 571.886 4089
1367.92 571.886 4089
1377.69 571.886 4089
1416.12 567.69 4059
1425.82 567.69 4059
1435.53 567.69 4059
1441.68 566.291 4049
1451.36 566.291 4049
1461.04 566.291 4049
1470.72 566.291 4049
1480.41 566.291 4049
1483.1 563.634 4030
1496.07 564.893 4039
1509.45 566.291 4049
1519.14 566.291 4049
1528.82 566.291 4049
1538.5 566.291 4049
1548.18 566.291 4049
1557.87 566.291 4049
1575.29 569.088 4069
1585.02 569.088 4069
1602.59 571.886 4089
1612.37 571.886 4089
1622.15 571.886 4089
1631.92 571.886 4089
1641.7 571.886 4089
1651.48 571.886 4089
1661.26 571.886 4089
1671.04 571.886 4089
1680.81 571.886 4089
1678.19 567.69 4059
1687.89 567.69 4059
1697.6 567.69 4059
1707.31 567.69 4059
1717.01 567.69 4059
1730.97 569.088 4069
1740.7 569.088 4069
1750.43 569.088 4069
1751.51 566.291 4049
1744.23 560.837 4010
1753.82 560.837 4010
1763.41 560.837 4010
1773 560.837 4010
1782.59 560.837 4010
1792.18 560.837 4010
1801.77 560.837 4010
1811.36 560.837 4010
1820.94 560.837 4010
1830.53 560.837 4010
1835.99 559.578 4001
1845.56 559.578 4001
1855.13 559.578 4001
1860.04 558.179 3991
1874.26 559.578 4001
1892.78 562.235 4020
1902.39 562.235 4020
1912 562.235 4020
1926.4 563.634 4030
1936.03 563.634 4030
1945.67 563.634 4030
1950.46 562.235 4020
1955.19 560.837 4010
1955.47 558.179 3991
1965.02 558.179 3991
1941.91 548.949 3925
1876.22 527.83 3774
1851.78 518.459 3707
1860.64 518.459 3707
1853.37 513.984 3675
1862.16 513.984 3675
1866.87 512.865 3667
1855.18 507.271 3627
1863.86 507.271 3627
1864.27 505.033 3611
1864.6 502.795 3595
1877.37 503.914 3603
1890.17 505.033 3611
1898.81 505.033 3611
1907.44 505.033 3611
1911.83 503.914 3603
1920.45 503.914 3603
1929.07 503.914 3603
1937.68 503.914 3603
1954.94 506.152 3619
1980.41 510.487 3650
1998.41 512.865 3667
2007.18 512.865 3667
2123.15 540.138 3862
2157.23 546.431 3907
2171.56 547.69 3916
2191.51 550.347 3935
2237.83 559.578 4001
2268.74 564.893 4039
2289.69 567.69 4059
2299.39 567.69 4059
2309.1 567.69 4059
2318.8 567.69 4059
2334.25 569.088 4069
2343.98 569.088 4069
2353.71 569.088 4069
2363.44 569.088 4069
2373.17 569.088 4069
2377.04 567.69 4059
2386.75 567.69 4059
2408.26 570.487 4079
2418.02 570.487 4079
2427.77 570.487 4079
2419.6 566.291 4049
2411.88 562.235 4020
2421.49 562.235 4020
2431.11 562.235 4020
2440.72 562.235 4020
2450.33 562.235 4020
2459.95 562.235 4020
2469.56 562.235 4020
2455.74 556.921 3982
2459.07 555.522 3972
2468.57 555.522 3972
2478.06 555.522 3972
2487.56 555.522 3972
2456.2 546.431 3907
2454.18 543.914 3889
2463.48 543.914 3889
2438.45 536.361 3835
2447.62 536.361 3835
2451.02 535.103 3826
2460.17 535.103 3826
2447.38 530.347 3792
2456.44 530.347 3792
2465.51 530.347 3792
2474.58 530.347 3792
2483.65 530.347 3792
528.891 104.895 750
530.684 104.895 750
532.478 104.895 750
533.559 104.755 749
533.206 104.335 746
533.555 104.055 744
535.334 104.055 744
535.67 103.776 742
535.995 103.496 740
537.038 103.356 739
538.805 103.356 739
540.573 103.356 739
542.34 103.356 739
544.107 103.356 739
545.874 103.356 739
547.641 103.356 739
549.409 103.356 739
551.176 103.356 739
552.943 103.356 739
554.71 103.356 739
556.477 103.356 739
558.244 103.356 739
559.254 103.216 738
561.019 103.216 738
563.546 103.356 739
565.313 103.356 739
-2330.03 442.698 3112
-2322.59 442.698 3112
-2302.5 440.279 3095
-2295.1 440.279 3095
-2283.26 439.426 3089
-2275.88 439.426 3089
-2264.82 438.715 3084
-2257.44 438.715 3084
-2262.47 441.133 3101
-2267.42 443.551 3118
-2259.96 443.551 3118
-2269.84 446.965 3142
-2266.65 447.819 3148
-2297.88 455.501 3202
-2290.22 455.501 3202
-2304.66 459.911 3233
-2333.16 467.166 3284
-2357.88 473.709 3330
-2349.92 473.709 3330
-2341.95 473.709 3330
-2333.99 473.709 3330
-2326.03 473.709 3330
-2470.5 513.683 3611
-2488.45 519.231 3650
-2479.73 519.231 3650
-2476.41 520.369 3658
-2473.74 521.649 3667
-2464.97 521.649 3667
-2456.2 521.649 3667
-2441.42 520.369 3658
-2422.04 518.093 3642
-2413.33 518.093 3642
-2394.71 515.959 3627
-2375.51 513.683 3611
-2372.12 514.821 3619
-2363.47 514.821 3619
-2354.81 514.821 3619
-2335.79 512.545 3603
-2327.17 512.545 3603
-2318.56 512.545 3603
-2309.94 512.545 3603
-2301.32 512.545 3603
-2292.71 512.545 3603
-2294.24 514.821 3619
-2300.11 518.093 3642
-2291.4 518.093 3642
-2292.72 520.369 3658
-2289.59 521.649 3667
-2280.82 521.649 3667
-2286.92 525.063 3691
-2313.89 533.314 3749
-2320.3 536.871 3774
-2311.27 536.871 3774
-2302.25 536.871 3774
-2063.35 575.991 4049
-2053.66 575.991 4049
-2043.98 575.991 4049
-2029.28 574.568 4039
-2019.62 574.568 4039
-2009.96 574.568 4039
-1995.84 573.288 4030
-1986.21 573.288 4030
-1953.03 566.46 3982
-1943.5 566.46 3982
-1929.13 565.037 3972
-1919.63 565.037 3972
-1914.94 566.46 3982
-1928.38 573.288 4030
-1918.75 573.288 4030
-1909.11 573.288 4030
-1899.47 573.288 4030
-1889.84 573.288 4030
-1866.67 569.162 4001
-1848.28 566.46 3982
-1838.76 566.46 3982
-1829.24 566.46 3982
-1815.15 565.037 3972
-1805.65 565.037 3972
-1796.15 565.037 3972
-1786.65 565.037 3972
-1764.63 561.054 3944
-1751.19 559.774 3935
-1745.76 561.054 3944
-1740.29 562.334 3953
-1730.84 562.334 3953
-1725.74 563.757 3963
-1716.27 563.757 3963
-1706.79 563.757 3963
-1697.31 563.757 3963
-1675.91 559.774 3935
-1662.27 558.351 3925
-1652.88 558.351 3925
-1643.49 558.351 3925
-1630.36 557.071 3916
-1617.27 555.79 3907
-1607.93 555.79 3907
-1598.59 555.79 3907
-1589.24 555.79 3907
-1579.9 555.79 3907
-1552.47 549.389 3862
-1568.41 558.351 3925
-1559.02 558.351 3925
-1553.58 559.774 3935
-1544.17 559.774 3935
-1534.76 559.774 3935
-1521.48 558.351 3925
-677.226 253.214 1780
-675.238 254.068 1786
-670.967 254.068 1786
-666.696 254.068 1786
-660.2 253.214 1780
-655.943 253.214 1780
-651.687 253.214 1780
-647.066 253.072 1779
-642.089 252.787 1777
-637.122 252.503 1775
-632.878 252.503 1775
-624.029 250.653 1762
-617.705 249.8 1756
-611.06 248.804 1749
-606.878 248.804 1749
-602.695 248.804 1749
-597.829 248.52 1747
-592.292 247.951 1743
-587.449 247.666 1741
-583.286 247.666 1741
-578.79 247.524 1740
-573.308 246.955 1736
-567.517 246.243 1731
-563.378 246.243 1731
-558.592 245.959 1729
-553.817 245.674 1727
-548.095 244.963 1722
-543.978 244.963 1722
-539.233 244.679 1720
-534.497 244.394 1718
-529.463 243.967 1715
-525.362 243.967 1715
-520.045 243.398 1711
-515.953 243.398 1711
-511.264 243.114 1709
-507.177 243.114 1709
-502.796 242.972 1708
-497.544 242.403 1704
-493.469 242.403 1704
-489.394 242.403 1704
-484.465 241.976 1701
-480.397 241.976 1701
-476.33 241.976 1701
-471.707 241.691 1699
-467.644 241.691 1699
-463.581 241.691 1699
-459.518 241.691 1699
-455.455 241.691 1699
-451.393 241.691 1699
-447.33 241.691 1699
-443.789 241.976 1701
-439.721 241.976 1701
-435.91 242.118 1702
-431.84 242.118 1702
-427.77 242.118 1702
-423.7 242.118 1702
-420.616 242.687 1706
-416.536 242.687 1706
-413.182 243.114 1709
-409.574 243.398 1711
-405.956 243.683 1713
-401.86 243.683 1713
-398.925 244.394 1718
-395.276 244.679 1720
-391.163 244.679 1720
-387.05 244.679 1720
-383.382 244.963 1722
-379.265 244.963 1722
-376.236 245.674 1727
-372.106 245.674 1727
-368.403 245.959 1729
-365.743 246.955 1736
-362.008 247.239 1738
-357.852 247.239 1738
-354.103 247.524 1740
-350.143 247.666 1741
-346.377 247.951 1743
-342.209 247.951 1743
-338.429 248.235 1745
-335.023 248.804 1749
-330.84 248.804 1749
-326.658 248.804 1749
-322.475 248.804 1749
-318.293 248.804 1749
-314.111 248.804 1749
-309.928 248.804 1749
-304.173 247.524 1740
-300.012 247.524 1740
-295.851 247.524 1740
-291.355 247.239 1738
-287.199 247.239 1738
-283.042 247.239 1738
-278.565 246.955 1736
-274.414 246.955 1736
-269.951 246.67 1734
-265.039 245.959 1729
-260.602 245.674 1727
-256.472 245.674 1727
-252.343 245.674 1727
-248.213 245.674 1727
-244.083 245.674 1727
-239.953 245.674 1727
-235.277 245.105 1723
-231.157 245.105 1723
-227.037 245.105 1723
-222.917 245.105 1723
-218.796 245.105 1723
-215.424 245.959 1729
-211.289 245.959 1729
-207.514 246.386 1732
-203.372 246.386 1732
-199.461 246.67 1734
-195.539 246.955 1736
-191.829 247.524 1740
-187.668 247.524 1740
-183.507 247.524 1740
-179.656 247.951 1743
-175.689 248.235 1745
-171.516 248.235 1745
-167.727 248.804 1749
-163.545 248.804 1749
-159.544 249.089 1751
-155.357 249.089 1751
-151.256 249.231 1752
-147.403 249.8 1756
-143.693 250.653 1762
-139.717 251.08 1765
-135.496 251.08 1765
-131.871 252.218 1773
-127.919 252.787 1777
-123.809 253.072 1779
-119.554 253.072 1779
-115.495 253.499 1782
-111.733 254.637 1790
-107.572 254.921 1792
-103.287 254.921 1792
-99.223 255.49 1796
-95.1396 256.059 1800
-90.8353 256.059 1800
-86.5309 256.059 1800
-82.2266 256.059 1800
-77.9222 256.059 1800
-73.6179 256.059 1800
-69.3135 256.059 1800
-65.0092 256.059 1800
-60.7048 256.059 1800
-56.4005 256.059 1800
-117.766 578.836 4069
-108.036 578.836 4069
-98.3058 578.836 4069
-88.5756 578.836 4069
252.601 580.258 4079
262.355 580.258 4079
272.109 580.258 4079
279.79 575.991 4049
289.473 575.991 4049
297.013 571.865 4020
302.278 563.757 3963
309.552 559.774 3935
318.962 559.774 3935
328.372 559.774 3935
336.15 557.071 3916
343.927 554.51 3898
353.248 554.51 3898
362.569 554.51 3898
371.891 554.51 3898
379.451 551.95 3880
387.828 550.669 3871
397.085 550.669 3871
401.618 544.268 3826
406.15 538.151 3783
408.721 529.758 3724
417.626 529.758 3724
421.836 523.925 3683
426.784 519.231 3650
431.814 514.821 3619
440.468 514.821 3619
444.282 509.273 3580
447.024 502.729 3534
451.737 498.604 3505
458.15 496.47 3490
466.495 496.47 3490
470.895 492.345 3461
479.172 492.345 3461
488.434 493.341 3468
499.878 496.47 3490
508.224 496.47 3490
516.569 496.47 3490
524.915 496.47 3490
534.33 497.466 3497
542.693 497.466 3497
554.679 500.738 3520
575.094 511.407 3595
593.92 520.369 3658
602.667 520.369 3658
621.109 528.62 3716
641.354 538.151 3783
667.077 551.95 3880
676.356 551.95 3880
691.995 557.071 3916
702.972 558.351 3925
719.254 563.757 3963
728.731 563.757 3963
741.747 566.46 3982
751.269 566.46 3982
760.791 566.46 3982
768.379 565.037 3972
772.394 561.054 3944
781.825 561.054 3944
793.062 562.334 3953
802.515 562.334 3953
814.022 563.757 3963
827.446 566.46 3982
840.962 569.162 4001
852.443 570.443 4010
862.032 570.443 4010
873.795 571.865 4020
883.408 571.865 4020
899.463 575.991 4049
909.146 575.991 4049
918.828 575.991 4049
928.51 575.991 4049
938.193 575.991 4049
945.534 574.568 4039
946.206 569.162 4001
953.385 567.74 3991
962.928 567.74 3991
965.649 563.757 3963
975.126 563.757 3963
979.882 561.054 3944
989.314 561.054 3944
996.466 559.774 3935
998.718 555.79 3907
1003.42 553.23 3889
1012.72 553.23 3889
1019.65 551.95 3880
1021.77 548.109 3853
1028.57 546.828 3844
1035.34 545.548 3835
1044.51 545.548 3835
1049.01 543.13 3818
1053.15 540.569 3800
1057.48 538.151 3783
1066.53 538.151 3783
1075.58 538.151 3783
1084.62 538.151 3783
1093.67 538.151 3783
1102.72 538.151 3783
1111.76 538.151 3783
1123.47 539.431 3792
1137.62 541.849 3809
1151.85 544.268 3826
1161 544.268 3826
1175.65 546.828 3844
1195.94 551.95 3880
1210.81 554.51 3898
1225.76 557.071 3916
1235.13 557.071 3916
1253.39 561.054 3944
1277.87 567.74 3991
1293.54 570.443 4010
1303.13 570.443 4010
1325.49 575.991 4049
1348.36 581.681 4089
1358.14 581.681 4089
1367.92 581.681 4089
1377.69 581.681 4089
1416.12 577.413 4059
1425.82 577.413 4059
1435.53 577.413 4059
1441.68 575.991 4049
1451.36 575.991 4049
1461.04 575.991 4049
1470.72 575.991 4049
1480.41 575.991 4049
1483.1 573.288 4030
1496.07 574.568 4039
1509.45 575.991 4049
1519.14 575.991 4049
1528.82 575.991 4049
1538.5 575.991 4049
1548.18 575.991 4049
1557.87 575.991 4049
1575.29 578.836 4069
1585.02 578.836 4069
1602.59 581.681 4089
1612.37 581.681 4089
1622.15 581.681 4089
1631.92 581.681 4089
1641.7 581.681 4089
1651.48 581.681 4089
1661.26 581.681 4089
1671.04 581.681 4089
1680.81 581.681 4089
1678.19 577.413 4059
1687.89 577.413 4059
1697.6 577.413 4059
1707.31 577.413 4059
1717.01 577.413 4059
1726.72 577.413 4059
1727.87 574.568 4039
1725.05 570.443 4010
1734.64 570.443 4010
1732.05 566.46 3982
1745.51 567.74 3991
1763.41 570.443 4010
1773 570.443 4010
1782.59 570.443 4010
1792.18 570.443 4010
1793.23 567.74 3991
1802.77 567.74 3991
1808.23 566.46 3982
1817.75 566.46 3982
1831.4 567.74 3991
1840.95 567.74 3991
1850.49 567.74 3991
1855.84 566.46 3982
1869.58 567.74 3991
1888.07 570.443 4010
1902.39 571.865 4020
1912 571.865 4020
1921.62 571.865 4020
1931.23 571.865 4020
1940.84 571.865 4020
1945.6 570.443 4010
1955.19 570.443 4010
1955.47 567.74 3991
1965.02 567.74 3991
1941.91 558.351 3925
1876.22 536.871 3774
1851.78 527.339 3707
1860.64 527.339 3707
1853.37 522.787 3675
1862.16 522.787 3675
1866.87 521.649 3667
1855.18 515.959 3627
1863.86 515.959 3627
1864.27 513.683 3611
1864.6 511.407 3595
1877.37 512.545 3603
1890.17 513.683 3611
1898.81 513.683 3611
1907.44 513.683 3611
1911.83 512.545 3603
1920.45 512.545 3603
1929.07 512.545 3603
1937.68 512.545 3603
1954.94 514.821 3619
1980.41 519.231 3650
1998.41 521.649 3667
2007.18 521.649 3667
2108.3 545.548 3835
2152.26 554.51 3898
2171.56 557.071 3916
2191.51 559.774 3935
2237.83 569.162 4001
2268.74 574.568 4039
2289.69 577.413 4059
2299.39 577.413 4059
2309.1 577.413 4059
2318.8 577.413 4059
2328.51 577.413 4059
2338.22 577.413 4059
2342.14 575.991 4049
2351.82 575.991 4049
2367.34 577.413 4059
2377.04 577.413 4059
2386.75 577.413 4059
2390.55 575.991 4049
2400.23 575.991 4049
2403.96 574.568 4039
2402.27 571.865 4020
2394.48 567.74 3991
2404.03 567.74 3991
2408.13 566.46 3982
2417.65 566.46 3982
2427.17 566.46 3982
2436.69 566.46 3982
2446.22 566.46 3982
2444.02 563.757 3963
2453.5 563.757 3963
2462.97 563.757 3963
2472.45 563.757 3963
2481.93 563.757 3963
2456.2 555.79 3907
2454.18 553.23 3889
2463.48 553.23 3889
2438.45 545.548 3835
2447.62 545.548 3835
2451.02 544.268 3826
2460.17 544.268 3826
2447.38 539.431 3792
2456.44 539.431 3792
2465.51 539.431 3792
2474.58 539.431 3792
2483.65 539.431 3792
526.439 105.838 744
528.218 105.838 744
529.997 105.838 744
531.776 105.838 744
533.555 105.838 744
535.334 105.838 744
535.67 105.553 742
535.271 105.126 739
537.038 105.126 739
538.076 104.984 738
539.841 104.984 738
541.606 104.984 738
543.371 104.984 738
545.135 104.984 738
546.9 104.984 738
548.665 104.984 738
550.43 104.984 738
552.195 104.984 738
553.959 104.984 738
555.724 104.984 738
557.489 104.984 738
559.254 104.984 738
561.019 104.984 738
562.783 104.984 738
564.548 104.984 738
-2330.03 450.153 3112
-2322.59 450.153 3112
-2302.5 447.693 3095
-2295.1 447.693 3095
-2283.26 446.826 3089
-2275.88 446.826 3089
-2264.82 446.102 3084
-2257.44 446.102 3084
-2262.47 448.561 3101
-2267.42 451.02 3118
-2259.96 451.02 3118
-2269.84 454.492 3142
-2266.65 455.36 3148
-2297.88 463.171 3202
-2290.22 463.171 3202
-2304.66 467.655 3233
-2333.16 475.032 3284
-2357.88 481.686 3330
-2349.92 481.686 3330
-2459.4 505.843 3497
-2525.34 521.176 3603
-2516.72 521.176 3603
-2508.11 521.176 3603
-2508.81 530.434 3667
-2510.95 532.748 3683
-2502.14 532.748 3683
-2493.34 532.748 3683
-2484.53 532.748 3683
-2475.72 532.748 3683
-2461.56 531.591 3675
-2447.43 530.434 3667
-2432.68 529.132 3658
-2423.93 529.132 3658
-2394.71 524.648 3627
-2386.04 524.648 3627
-2377.37 524.648 3627
-2368.69 524.648 3627
-2354.81 523.49 3619
-2346.16 523.49 3619
-2332.34 522.333 3611
-2323.7 522.333 3611
-2315.07 522.333 3611
-2306.43 522.333 3611
-2302.89 523.49 3619
-2294.24 523.49 3619
-2300.11 526.817 3642
-2291.4 526.817 3642
-2292.72 529.132 3658
-2289.59 530.434 3667
-2285.8 531.591 3675
-2286.92 533.905 3691
-2313.89 542.295 3749
-2320.3 545.911 3774
-2311.27 545.911 3774
-2302.25 545.911 3774
-2267.7 539.836 3732
-2258.78 539.836 3732
-2063.35 585.69 4049
-2053.66 585.69 4049
-2043.98 585.69 4049
-2029.28 584.244 4039
-2019.62 584.244 4039
-2009.96 584.244 4039
-1995.84 582.942 4030
-1986.21 582.942 4030
-1953.03 575.999 3982
-1943.5 575.999 3982
-1929.13 574.552 3972
-1919.63 574.552 3972
-1914.94 575.999 3982
-1928.38 582.942 4030
-1918.75 582.942 4030
-1909.11 582.942 4030
-1899.47 582.942 4030
-1889.84 582.942 4030
-1866.67 578.747 4001
-1848.28 575.999 3982
-1838.76 575.999 3982
-1829.24 575.999 3982
-1815.15 574.552 3972
-1805.65 574.552 3972
-1796.15 574.552 3972
-1786.65 574.552 3972
-1764.63 570.502 3944
-1751.19 569.2 3935
-1745.76 570.502 3944
-1740.29 571.804 3953
-1730.84 571.804 3953
-1725.74 573.25 3963
-1716.27 573.25 3963
-1706.79 573.25 3963
-1697.31 573.25 3963
-1675.91 569.2 3935
-1662.27 567.753 3925
-1652.88 567.753 3925
-1643.49 567.753 3925
-1630.36 566.452 3916
-1617.27 565.15 3907
-1607.93 565.15 3907
-1598.59 565.15 3907
-1589.24 565.15 3907
-1579.9 565.15 3907
-1552.47 558.64 3862
-1568.41 567.753 3925
-1559.02 567.753 3925
-1553.58 569.2 3935
-1544.17 569.2 3935
-1534.76 569.2 3935
-1521.48 567.753 3925
-677.226 257.478 1780
-675.238 258.346 1786
-670.967 258.346 1786
-666.696 258.346 1786
-660.2 257.478 1780
-655.943 257.478 1780
-651.687 257.478 1780
-647.066 257.333 1779
-642.812 257.333 1779
-638.558 257.333 1779
-634.304 257.333 1779
-624.383 255.019 1763
-617.705 254.006 1756
-612.108 253.428 1752
-607.572 253.283 1751
-603.385 253.283 1751
-599.197 253.283 1751
-593.651 252.705 1747
-588.799 252.415 1745
-584.626 252.415 1745
-579.122 251.837 1741
-573.968 251.403 1738
-567.845 250.535 1732
-563.703 250.535 1732
-559.239 250.39 1731
-554.458 250.101 1729
-548.414 249.233 1723
-544.293 249.233 1723
-539.86 249.088 1722
-534.497 248.51 1718
-529.463 248.076 1715
-525.362 248.076 1715
-520.653 247.786 1713
-515.953 247.497 1711
-511.264 247.208 1709
-507.177 247.208 1709
-502.796 247.063 1708
-497.544 246.485 1704
-493.469 246.485 1704
-489.394 246.485 1704
-484.75 246.195 1702
-480.397 246.051 1701
-476.33 246.051 1701
-472.262 246.051 1701
-468.194 246.051 1701
-464.127 246.051 1701
-459.518 245.761 1699
-455.455 245.761 1699
-451.393 245.761 1699
-447.33 245.761 1699
-443.789 246.051 1701
-439.98 246.195 1702
-435.91 246.195 1702
-431.84 246.195 1702
-427.77 246.195 1702
-424.197 246.485 1704
-420.616 246.774 1706
-416.536 246.774 1706
-413.666 247.497 1711
-410.053 247.786 1713
-406.43 248.076 1715
-402.329 248.076 1715
-398.925 248.51 1718
-395.736 249.088 1722
-391.618 249.088 1722
-387.5 249.088 1722
-383.605 249.233 1723
-379.485 249.233 1723
-376.236 249.812 1727
-372.106 249.812 1727
-368.403 250.101 1729
-365.321 250.824 1734
-362.008 251.403 1738
-357.852 251.403 1738
-354.103 251.692 1740
-350.143 251.837 1741
-346.377 252.126 1743
-342.209 252.126 1743
-338.429 252.415 1745
-335.023 252.994 1749
-330.84 252.994 1749
-326.658 252.994 1749
-322.475 252.994 1749
-318.293 252.994 1749
-314.111 252.994 1749
-309.928 252.994 1749
-304.173 251.692 1740
-300.012 251.692 1740
-295.851 251.692 1740
-291.355 251.403 1738
-287.199 251.403 1738
-283.042 251.403 1738
-278.565 251.113 1736
-274.414 251.113 1736
-269.951 250.824 1734
-265.039 250.101 1729
-260.602 249.812 1727
-256.472 249.812 1727
-252.343 249.812 1727
-248.213 249.812 1727
-244.083 249.812 1727
-239.953 249.812 1727
-235.277 249.233 1723
-231.157 249.233 1723
-227.037 249.233 1723
-222.917 249.233 1723
-218.796 249.233 1723
-215.424 250.101 1729
-211.289 250.101 1729
-207.514 250.535 1732
-203.372 250.535 1732
-199.461 250.824 1734
-195.539 251.113 1736
-191.829 251.692 1740
-187.668 251.692 1740
-183.613 251.837 1741
-179.656 252.126 1743
-175.89 252.705 1747
-171.713 252.705 1747
-167.727 252.994 1749
-163.545 252.994 1749
-159.636 253.428 1752
-155.446 253.428 1752
-151.429 253.717 1754
-147.571 254.296 1758
-143.937 255.308 1765
-139.875 255.598 1767
-135.65 255.598 1767
-132.019 256.755 1775
-128.063 257.333 1779
-124.017 257.767 1782
-119.756 257.767 1782
-115.754 258.346 1786
-111.858 259.214 1792
-107.692 259.503 1794
-103.402 259.503 1794
-99.1125 259.503 1794
-95.0339 260.082 1798
-90.9362 260.66 1802
-86.627 260.66 1802
-82.3179 260.66 1802
-78.0088 260.66 1802
-73.6997 260.66 1802
-69.3135 260.371 1800
-65.0092 260.371 1800
-60.6374 260.082 1798
-126.556 584.244 4039
-117.766 588.583 4069
-108.036 588.583 4069
-98.3058 588.583 4069
-88.5756 588.583 4069
243.442 591.476 4089
253.22 591.476 4089
262.998 591.476 4089
272.109 590.03 4079
278.478 582.942 4030
288.115 582.942 4030
293.466 574.552 3972
301.515 571.804 3953
308.057 566.452 3916
317.422 566.452 3916
326.786 566.452 3916
334.605 563.848 3898
343.927 563.848 3898
353.248 563.848 3898
362.569 563.848 3898
371.032 562.546 3889
379.451 561.244 3880
386.926 558.64 3862
396.162 558.64 3862
401.618 553.433 3826
406.15 547.213 3783
408.721 538.679 3724
417.626 538.679 3724
421.836 532.748 3683
426.784 527.975 3650
431.814 523.49 3619
440.468 523.49 3619
444.282 517.849 3580
447.024 511.195 3534
451.737 507 3505
458.15 504.83 3490
466.495 504.83 3490
470.895 500.636 3461
478.203 499.623 3454
487.448 500.636 3461
499.878 504.83 3490
508.224 504.83 3490
516.569 504.83 3490
524.915 504.83 3490
534.33 505.843 3497
542.693 505.843 3497
554.679 509.17 3520
575.094 520.019 3595
592.621 527.975 3650
601.349 527.975 3650
618.268 535.062 3699
634.064 540.993 3740
659.341 554.735 3835
668.511 554.735 3835
684.044 559.942 3871
694.912 561.244 3880
707.457 563.848 3898
716.779 563.848 3898
731.129 567.753 3925
740.515 567.753 3925
749.901 567.753 3925
759.287 567.753 3925
763.385 563.848 3898
767.354 559.942 3871
776.611 559.942 3871
784.04 558.64 3862
791.427 557.339 3853
806.251 561.244 3880
819.313 563.848 3898
834.374 567.753 3925
843.76 567.753 3925
853.146 567.753 3925
872.86 574.552 3972
882.358 574.552 3972
891.856 574.552 3972
901.355 574.552 3972
908.789 573.25 3963
918.266 573.25 3963
927.742 573.25 3963
937.219 573.25 3963
942.157 570.502 3944
951.588 570.502 3944
954.197 566.452 3916
956.918 562.546 3889
963.982 561.244 3880
973.26 561.244 3880
982.538 561.244 3880
989.516 559.942 3871
996.45 558.64 3862
1005.69 558.64 3862
1010.19 556.037 3844
1017 554.735 3835
1023.76 553.433 3826
1028.32 550.974 3809
1037.43 550.974 3809
1044.06 549.672 3800
1048.44 547.213 3783
1057.48 547.213 3783
1066.53 547.213 3783
1073.02 545.911 3774
1082.04 545.911 3774
1091.07 545.911 3774
1100.09 545.911 3774
1109.12 545.911 3774
1120.81 547.213 3783
1134.93 549.672 3800
1149.44 552.276 3818
1158.57 552.276 3818
1170.14 553.433 3826
1184.84 556.037 3844
1205.22 561.244 3880
1220.13 563.848 3898
1229.45 563.848 3898
1241.63 565.15 3907
1262.82 570.502 3944
1287.41 577.3 3991
1296.96 577.3 3991
1309.77 578.747 4001
1335.17 585.69 4049
1358.14 591.476 4089
1367.92 591.476 4089
1377.69 591.476 4089
1384.08 590.03 4079
1393.83 590.03 4079
1403.59 590.03 4079
1413.34 590.03 4079
1416.12 587.137 4059
1425.82 587.137 4059
1435.53 587.137 4059
1434.91 582.942 4030
1434.15 578.747 4001
1443.72 578.747 4001
1453.29 578.747 4001
1462.86 578.747 4001
1468.74 577.3 3991
1478.29 577.3 3991
1487.83 577.3 3991
1497.38 577.3 3991
1517.87 581.495 4020
1527.48 581.495 4020
1537.09 581.495 4020
1546.71 581.495 4020
1560.19 582.942 4030
1573.33 584.244 4039
1586.91 585.69 4049
1596.59 585.69 4049
1606.28 585.69 4049
1615.96 585.69 4049
1625.64 585.69 4049
1635.32 585.69 4049
1645.01 585.69 4049
1658.78 587.137 4059
1668.48 587.137 4059
1678.19 587.137 4059
1687.89 587.137 4059
1693.42 585.69 4049
1703.1 585.69 4049
1700.52 581.495 4020
1710.13 581.495 4020
1715.46 580.049 4010
1716.88 577.3 3991
1726.42 577.3 3991
1719.44 571.804 3953
1733.26 573.25 3963
1751.1 575.999 3982
1760.62 575.999 3982
1770.14 575.999 3982
1779.66 575.999 3982
1780.65 573.25 3963
1790.13 573.25 3963
1795.06 571.804 3953
1804.51 571.804 3953
1818.56 573.25 3963
1828.03 573.25 3963
1837.51 573.25 3963
1842.33 571.804 3953
1851.78 571.804 3953
1874.89 575.999 3982
1893.4 578.747 4001
1902.97 578.747 4001
1916.84 580.049 4010
1926.43 580.049 4010
1936.01 580.049 4010
1945.6 580.049 4010
1955.19 580.049 4010
1955.47 577.3 3991
1965.02 577.3 3991
1941.91 567.753 3925
1876.22 545.911 3774
1851.78 536.22 3707
1860.64 536.22 3707
1853.37 531.591 3675
1862.16 531.591 3675
1866.87 530.434 3667
1855.18 524.648 3627
1863.86 524.648 3627
1864.27 522.333 3611
1864.6 520.019 3595
1881.54 522.333 3611
1890.17 522.333 3611
1898.81 522.333 3611
1907.44 522.333 3611
1916.08 522.333 3611
1924.71 522.333 3611
1929.07 521.176 3603
1937.68 521.176 3603
1971.69 527.975 3650
1984.75 529.132 3658
2011.49 533.905 3691
2020.31 533.905 3691
2118.2 557.339 3853
2162.2 566.452 3916
2171.56 566.452 3916
2191.51 569.2 3935
2221.61 574.552 3972
2268.74 584.244 4039
2284.04 585.69 4049
2293.73 585.69 4049
2303.41 585.69 4049
2313.09 585.69 4049
2322.77 585.69 4049
2315.75 581.495 4020
2325.36 581.495 4020
2340.79 582.942 4030
2355.67 584.244 4039
2365.33 584.244 4039
2374.99 584.244 4039
2384.65 584.244 4039
2394.31 584.244 4039
2398.61 582.942 4030
2390.91 578.747 4001
2389.08 575.999 3982
2398.6 575.999 3982
2396.64 573.25 3963
2406.11 573.25 3963
2415.59 573.25 3963
2418.95 571.804 3953
2428.4 571.804 3953
2426.75 569.2 3935
2441.73 570.502 3944
2451.17 570.502 3944
2460.6 570.502 3944
2470.03 570.502 3944
2450.54 563.848 3898
2442.82 559.942 3871
2452.08 559.942 3871
2432.72 553.433 3826
2441.87 553.433 3826
2451.02 553.433 3826
2460.17 553.433 3826
2447.38 548.515 3792
2450.61 547.213 3783
2459.66 547.213 3783
2468.71 547.213 3783
2477.75 547.213 3783
526.439 107.62 744
528.928 107.765 745
530.709 107.765 745
532.491 107.765 745
533.555 107.62 744
535.334 107.62 744
535.67 107.331 742
535.271 106.897 739
536.312 106.752 738
538.076 106.752 738
539.841 106.752 738
541.606 106.752 738
543.371 106.752 738
545.135 106.752 738
546.9 106.752 738
548.665 106.752 738
550.43 106.752 738
552.195 106.752 738
553.959 106.752 738
555.724 106.752 738
557.489 106.752 738
558.496 106.607 737
560.258 106.607 737
562.021 106.607 737
563.783 106.607 737
-2330.03 457.607 3112
-2322.59 457.607 3112
-2298.04 454.225 3089
-2290.65 454.225 3089
-2283.26 454.225 3089
-2275.88 454.225 3089
-2264.82 453.49 3084
-2257.44 453.49 3084
-2262.47 455.99 3101
-2267.42 458.49 3118
-2259.96 458.49 3118
-2269.84 462.019 3142
-2266.65 462.901 3148
-2297.88 470.841 3202
-2290.22 470.841 3202
-2304.66 475.4 3233
-2333.16 482.899 3284
-2357.88 489.663 3330
-2349.92 489.663 3330
-2459.4 514.22 3497
-2525.34 529.807 3603
-2516.72 529.807 3603
-2508.11 529.807 3603
-2508.81 539.218 3667
-2510.95 541.571 3683
-2502.14 541.571 3683
-2493.34 541.571 3683
-2484.53 541.571 3683
-2475.72 541.571 3683
-2461.56 540.394 3675
-2447.43 539.218 3667
-2432.68 537.895 3658
-2423.93 537.895 3658
-2394.71 533.336 3627
-2386.04 533.336 3627
-2377.37 533.336 3627
-2368.69 533.336 3627
-2354.81 532.16 3619
-2346.16 532.16 3619
-2332.34 530.983 3611
-2323.7 530.983 3611
-2315.07 530.983 3611
-2306.43 530.983 3611
-2302.89 532.16 3619
-2294.24 532.16 3619
-2300.11 535.542 3642
-2291.4 535.542 3642
-2287.7 536.718 3650
-2289.59 539.218 3667
-2285.8 540.394 3675
-2286.92 542.747 3691
-2313.89 551.276 3749
-2304.93 551.276 3749
-2295.96 551.276 3749
-2287 551.276 3749
-2267.7 548.776 3732
-2258.78 548.776 3732
-2063.35 595.39 4049
-2053.66 595.39 4049
-2043.98 595.39 4049
-2029.28 593.919 4039
-2019.62 593.919 4039
-2009.96 593.919 4039
-1995.84 592.596 4030
-1986.21 592.596 4030
-1953.03 585.537 3982
-1943.5 585.537 3982
-1929.13 584.067 3972
-1919.63 584.067 3972
-1914.94 585.537 3982
-1928.38 592.596 4030
-1918.75 592.596 4030
-1909.11 592.596 4030
-1899.47 592.596 4030
-1889.84 592.596 4030
-1866.67 588.331 4001
-1848.28 585.537 3982
-1838.76 585.537 3982
-1829.24 585.537 3982
-1815.15 584.067 3972
-1805.65 584.067 3972
-1796.15 584.067 3972
-1786.65 584.067 3972
-1760.6 578.626 3935
-1746.74 577.156 3925
-1737.35 577.156 3925
-1740.29 581.273 3953
-1730.84 581.273 3953
-1721.39 581.273 3953
-1711.94 581.273 3953
-1702.48 581.273 3953
-1693.03 581.273 3953
-1667.82 575.832 3916
-1658.45 575.832 3916
-1649.09 575.832 3916
-1635.96 574.509 3907
-1622.87 573.186 3898
-1609.82 571.862 3889
-1600.52 571.862 3889
-1591.22 571.862 3889
-1581.92 571.862 3889
-1561.7 567.892 3862
-1548.85 566.568 3853
-1568.41 577.156 3925
-1559.02 577.156 3925
-1553.58 578.626 3935
-1544.17 578.626 3935
-1534.76 578.626 3935
-1511.01 573.186 3898
-677.226 261.742 1780
-675.238 262.624 1786
-670.967 262.624 1786
-666.696 262.624 1786
-660.2 261.742 1780
-655.943 261.742 1780
-651.687 261.742 1780
-647.066 261.595 1779
-642.812 261.595 1779
-638.558 261.595 1779
-634.304 261.595 1779
-624.383 259.242 1763
-618.409 258.507 1758
-613.506 258.213 1756
-608.613 257.919 1754
-604.418 257.919 1754
-600.224 257.919 1754
-595.01 257.478 1751
-589.473 256.889 1747
-585.296 256.889 1747
-580.453 256.595 1745
-574.959 256.007 1741
-569.157 255.272 1736
-565.005 255.272 1736
-559.562 254.684 1732
-554.458 254.243 1729
-548.414 253.36 1723
-544.293 253.36 1723
-539.86 253.213 1722
-534.497 252.625 1718
-529.463 252.184 1715
-525.362 252.184 1715
-520.653 251.89 1713
-515.953 251.596 1711
-511.264 251.302 1709
-507.177 251.302 1709
-502.796 251.155 1708
-497.544 250.566 1704
-493.469 250.566 1704
-489.394 250.566 1704
-484.75 250.272 1702
-480.397 250.125 1701
-476.33 250.125 1701
-472.262 250.125 1701
-468.194 250.125 1701
-464.127 250.125 1701
-460.059 250.125 1701
-455.455 249.831 1699
-451.924 250.125 1701
-447.856 250.125 1701
-443.789 250.125 1701
-439.98 250.272 1702
-435.91 250.272 1702
-431.84 250.272 1702
-428.272 250.566 1704
-424.197 250.566 1704
-421.109 251.155 1708
-417.025 251.155 1708
-413.666 251.596 1711
-410.053 251.89 1713
-406.43 252.184 1715
-402.329 252.184 1715
-399.854 253.213 1722
-395.966 253.36 1723
-391.845 253.36 1723
-387.725 253.36 1723
-384.05 253.654 1725
-379.925 253.654 1725
-376.672 254.243 1729
-372.537 254.243 1729
-369.042 254.684 1732
-365.321 254.978 1734
-362.008 255.566 1738
-357.852 255.566 1738
-354.103 255.86 1740
-350.545 256.301 1743
-346.377 256.301 1743
-342.209 256.301 1743
-338.817 256.889 1747
-335.023 257.184 1749
-330.84 257.184 1749
-326.658 257.184 1749
-322.475 257.184 1749
-318.293 257.184 1749
-314.111 257.184 1749
-309.928 257.184 1749
-304.347 256.007 1741
-300.012 255.86 1740
-295.851 255.86 1740
-291.69 255.86 1740
-287.199 255.566 1738
-283.042 255.566 1738
-278.565 255.272 1736
-274.414 255.272 1736
-269.951 254.978 1734
-265.039 254.243 1729
-260.602 253.949 1727
-256.472 253.949 1727
-252.343 253.949 1727
-248.213 253.949 1727
-244.083 253.949 1727
-239.953 253.949 1727
-235.277 253.36 1723
-231.157 253.36 1723
-227.037 253.36 1723
-222.917 253.36 1723
-218.796 253.36 1723
-215.424 254.243 1729
-211.289 254.243 1729
-207.514 254.684 1732
-203.372 254.684 1732
-199.461 254.978 1734
-195.765 255.566 1738
-191.939 256.007 1741
-187.776 256.007 1741
-183.824 256.301 1743
-179.862 256.595 1745
-176.092 257.184 1749
-171.909 257.184 1749
-167.919 257.478 1751
-163.732 257.478 1751
-159.818 257.919 1754
-155.623 257.919 1754
-151.774 258.507 1758
-147.906 259.095 1762
-143.937 259.536 1765
-139.875 259.83 1767
-135.803 260.124 1769
-132.168 261.301 1777
-128.135 261.742 1780
-124.157 262.33 1784
-119.89 262.33 1784
-115.884 262.918 1788
-111.982 263.801 1794
-107.813 264.095 1796
-103.518 264.095 1796
-99.3334 264.389 1798
-95.2453 264.977 1802
-91.0371 265.271 1804
-86.7232 265.271 1804
-82.4093 265.271 1804
-78.0954 265.271 1804
-73.986 266.006 1809
-69.6601 266.006 1809
-65.3342 266.006 1809
-60.6374 264.389 1798
-126.556 593.919 4039
-117.766 598.33 4069
-108.036 598.33 4069
-98.3058 598.33 4069
-88.5756 598.33 4069
-78.8454 598.33 4069
-69.1152 598.33 4069
233.664 601.271 4089
243.442 601.271 4089
253.22 601.271 4089
262.998 601.271 4089
272.109 599.801 4079
278.478 592.596 4030
288.115 592.596 4030
293.466 584.067 3972
301.515 581.273 3953
308.057 575.832 3916
317.422 575.832 3916
326.786 575.832 3916
334.605 573.186 3898
343.927 573.186 3898
353.248 573.186 3898
362.569 573.186 3898
371.032 571.862 3889
379.451 570.539 3880
386.926 567.892 3862
396.162 567.892 3862
401.618 562.598 3826
406.15 556.275 3783
408.721 547.6 3724
417.626 547.6 3724
421.836 541.571 3683
426.784 536.718 3650
431.814 532.16 3619
440.468 532.16 3619
444.282 526.425 3580
447.024 519.661 3534
451.737 515.396 3505
458.15 513.191 3490
466.495 513.191 3490
470.895 508.926 3461
478.203 507.897 3454
487.448 508.926 3461
499.878 513.191 3490
508.224 513.191 3490
516.569 513.191 3490
524.915 513.191 3490
534.33 514.22 3497
542.693 514.22 3497
554.679 517.602 3520
575.094 528.631 3595
592.621 536.718 3650
601.349 536.718 3650
618.268 543.923 3699
634.064 549.952 3740
659.341 563.922 3835
668.511 563.922 3835
684.044 569.215 3871
694.912 570.539 3880
707.457 573.186 3898
716.779 573.186 3898
731.129 577.156 3925
740.515 577.156 3925
749.901 577.156 3925
759.287 577.156 3925
763.385 573.186 3898
767.354 569.215 3871
776.611 569.215 3871
784.04 567.892 3862
791.427 566.568 3853
806.251 570.539 3880
819.313 573.186 3898
834.374 577.156 3925
843.76 577.156 3925
853.146 577.156 3925
872.86 584.067 3972
882.358 584.067 3972
891.856 584.067 3972
901.355 584.067 3972
908.789 582.744 3963
918.266 582.744 3963
927.742 582.744 3963
937.219 582.744 3963
942.157 579.95 3944
951.588 579.95 3944
954.197 575.832 3916
956.918 571.862 3889
963.982 570.539 3880
973.26 570.539 3880
982.538 570.539 3880
989.516 569.215 3871
996.45 567.892 3862
1005.69 567.892 3862
1010.19 565.245 3844
1017 563.922 3835
1023.76 562.598 3826
1028.32 560.098 3809
1037.43 560.098 3809
1044.06 558.775 3800
1048.44 556.275 3783
1057.48 556.275 3783
1066.53 556.275 3783
1073.02 554.952 3774
1082.04 554.952 3774
1088.75 553.776 3766
1100.09 554.952 3774
1109.12 554.952 3774
1120.81 556.275 3783
1132.54 557.599 3792
1146.73 560.098 3809
1155.84 560.098 3809
1167.7 561.422 3818
1184.84 565.245 3844
1194.03 565.245 3844
1214.49 570.539 3880
1223.77 570.539 3880
1235.91 571.862 3889
1253.86 575.832 3916
1281.28 584.067 3972
1290.78 584.067 3972
1306.5 586.861 3991
1319.34 588.331 4001
1344.85 595.39 4049
1354.54 595.39 4049
1370.96 598.33 4069
1384.08 599.801 4079
1393.83 599.801 4079
1403.59 599.801 4079
1413.34 599.801 4079
1409.14 593.919 4039
1418.8 593.919 4039
1425.27 592.596 4030
1414.26 584.067 3972
1410.5 578.626 3935
1419.91 578.626 3935
