-445.001 -58.1209 1660
-441.031 -58.1209 1660
-436.535 -58.0509 1658
-431.787 -57.9459 1655
-427.313 -57.8758 1653
-423.36 -57.8758 1653
-417.885 -57.6658 1647
-413.444 -57.5957 1645
-408.763 -57.4907 1642
-404.837 -57.4907 1642
-399.689 -57.3156 1637
-395.775 -57.3156 1637
-391.142 -57.2106 1634
-386.761 -57.1406 1632
-382.858 -57.1406 1632
-378.723 -57.1056 1631
-374.363 -57.0355 1629
-370.468 -57.0355 1629
-366.572 -57.0355 1629
-362.454 -57.0005 1628
-358.561 -57.0005 1628
-354.668 -57.0005 1628
-350.775 -57.0005 1628
-346.882 -57.0005 1628
-342.989 -57.0005 1628
-339.096 -57.0005 1628
-335.203 -57.0005 1628
-331.31 -57.0005 1628
-327.417 -57.0005 1628
-323.127 -56.9305 1626
-319.238 -56.9305 1626
-315.35 -56.9305 1626
-311.462 -56.9305 1626
-307.574 -56.9305 1626
-303.685 -56.9305 1626
-299.797 -56.9305 1626
-296.273 -57.0005 1628
-292.38 -57.0005 1628
-288.664 -57.0355 1629
-284.768 -57.0355 1629
-281.218 -57.1056 1631
-277.488 -57.1406 1632
-273.585 -57.1406 1632
-269.682 -57.1406 1632
-266.105 -57.2106 1634
-262.68 -57.3156 1637
-258.765 -57.3156 1637
-254.85 -57.3156 1637
-250.936 -57.3156 1637
-247.021 -57.3156 1637
-243.107 -57.3156 1637
-239.192 -57.3156 1637
-235.278 -57.3156 1637
-231.646 -57.3857 1639
-227.726 -57.3857 1639
-223.807 -57.3857 1639
-219.888 -57.3857 1639
-216.1 -57.4207 1640
-212.178 -57.4207 1640
-208.511 -57.4907 1642
-204.584 -57.4907 1642
-200.658 -57.4907 1642
-196.731 -57.4907 1642
-192.804 -57.4907 1642
-188.533 -57.3857 1639
-184.388 -57.3156 1637
-180.363 -57.2806 1636
-176.451 -57.2806 1636
-172.328 -57.2106 1634
-168.215 -57.1406 1632
-164.715 -57.2806 1636
-160.803 -57.2806 1636
-156.89 -57.2806 1636
-153.259 -57.3857 1639
-149.431 -57.4207 1640
-145.686 -57.4907 1642
-141.76 -57.4907 1642
-137.833 -57.4907 1642
-134.314 -57.6658 1647
-130.455 -57.7008 1648
-126.514 -57.7008 1648
-122.573 -57.7008 1648
-118.776 -57.7708 1650
-114.831 -57.7708 1650
-111.02 -57.8408 1652
-107.069 -57.8408 1652
-103.119 -57.8408 1652
-99.6485 -58.1209 1660
-95.8519 -58.226 1663
-91.8752 -58.226 1663
-87.8984 -58.226 1663
-151.285 -129.512 3699
-142.439 -129.512 3699
-133.594 -129.512 3699
-124.748 -129.512 3699
-116.154 -129.792 3707
-107.55 -130.107 3716
-98.8759 -130.387 3724
-89.9707 -130.387 3724
-81.0655 -130.387 3724
-72.1603 -130.387 3724
-63.2551 -130.387 3724
-54.3498 -130.387 3724
-45.4446 -130.387 3724
-36.5394 -130.387 3724
-27.6342 -130.387 3724
-18.6888 -130.107 3716
-9.80268 -130.107 3716
-0.916594 -130.107 3716
7.95019 -129.792 3707
16.8147 -129.792 3707
25.6239 -129.512 3699
34.4693 -129.512 3699
43.2211 -129.232 3691
52.0474 -129.232 3691
60.7417 -128.951 3683
69.3978 -128.671 3675
78.1859 -128.671 3675
86.9739 -128.671 3675
95.319 -128.076 3658
104.066 -128.076 3658
112.814 -128.076 3658
121.561 -128.076 3658
130.309 -128.076 3658
139.056 -128.076 3658
147.48 -127.796 3650
156.208 -127.796 3650
164.937 -127.796 3650
173.284 -127.516 3642
181.993 -127.516 3642
190.702 -127.516 3642
199.412 -127.516 3642
208.121 -127.516 3642
217.782 -128.076 3658
226.53 -128.076 3658
235.856 -128.391 3667
244.625 -128.391 3667
253.394 -128.391 3667
262.163 -128.391 3667
271.523 -128.671 3675
280.311 -128.671 3675
289.099 -128.671 3675
297.887 -128.671 3675
306.675 -128.671 3675
315.463 -128.671 3675
324.251 -128.671 3675
333.039 -128.671 3675
341.827 -128.671 3675
350.615 -128.671 3675
359.403 -128.671 3675
368.191 -128.671 3675
376.979 -128.671 3675
385.767 -128.671 3675
394.555 -128.671 3675
402.465 -128.391 3667
411.234 -128.391 3667
418.972 -128.076 3658
426.784 -127.796 3650
434.558 -127.516 3642
443.267 -127.516 3642
451.976 -127.516 3642
460.685 -127.516 3642
469.394 -127.516 3642
477.185 -127.271 3635
485.877 -127.271 3635
493.481 -126.991 3627
501.047 -126.711 3619
507.447 -126.15 3603
516.063 -126.15 3603
520.165 -125.065 3572
528.706 -125.065 3572
536.195 -124.82 3565
544.72 -124.82 3565
553.245 -124.82 3565
561.77 -124.82 3565
570.295 -124.82 3565
578.82 -124.82 3565
587.345 -124.82 3565
598.378 -125.345 3580
606.938 -125.345 3580
615.499 -125.345 3580
624.06 -125.345 3580
632.621 -125.345 3580
643.868 -125.87 3595
652.465 -125.87 3595
661.062 -125.87 3595
966.838 -133.678 3818
975.968 -133.678 3818
987.162 -133.958 3826
1008.03 -135.534 3871
1029.11 -137.109 3916
1038.48 -137.109 3916
1047.84 -137.109 3916
1049.92 -136.164 3889
1061.67 -136.479 3898
1070.99 -136.479 3898
1090.56 -137.775 3935
1105.01 -138.405 3953
1127.99 -140.085 4001
1137.56 -140.085 4001
1149.71 -140.401 4010
1165.08 -141.101 4030
1186.08 -142.466 4069
1195.81 -142.466 4069
1205.54 -142.466 4069
1215.27 -142.466 4069
1225 -142.466 4069
1231.7 -142.116 4059
1244.46 -142.466 4069
1254.19 -142.466 4069
1263.92 -142.466 4069
1273.65 -142.466 4069
1289.69 -143.167 4089
1299.47 -143.167 4089
1309.25 -143.167 4089
1407.23 -122.719 3505
1415.61 -122.719 3505
1423.99 -122.719 3505
1432.37 -122.719 3505
1440.76 -122.719 3505
1449.14 -122.719 3505
1445.46 -121.704 3476
1421.15 -118.973 3398
1412.03 -117.537 3357
1428.52 -118.238 3377
1436.59 -118.238 3377
1444.67 -118.238 3377
1452.74 -118.238 3377
1457.79 -117.992 3370
1465.85 -117.992 3370
1473.91 -117.992 3370
1481.97 -117.992 3370
1490.03 -117.992 3370
1498.09 -117.992 3370
1503.02 -117.747 3363
1517.35 -118.238 3377
1534.91 -118.973 3398
1546.21 -119.218 3405
1554.36 -119.218 3405
1565.71 -119.463 3412
1573.87 -119.463 3412
1585.27 -119.708 3419
1593.45 -119.708 3419
1611.46 -120.443 3440
1619.69 -120.443 3440
1627.92 -120.443 3440
1636.14 -120.443 3440
2346.76 -139.735 3991
2356.31 -139.735 3991
2365.85 -139.735 3991
2364.09 -139.07 3972
2318.61 -135.849 3880
2317.09 -135.219 3862
2331.74 -135.534 3871
2341 -135.534 3871
2350.26 -135.534 3871
2359.51 -135.534 3871
2363.26 -135.219 3862
2372.5 -135.219 3862
2370.63 -134.588 3844
2374.25 -134.273 3835
2383.42 -134.273 3835
2392.59 -134.273 3835
2396.13 -133.958 3826
2361.9 -131.542 3757
2350.06 -130.387 3724
2358.96 -130.387 3724
2357.06 -129.792 3707
2360.82 -129.512 3699
2364.54 -129.232 3691
2357.93 -128.391 3667
2366.7 -128.391 3667
2369.64 -128.076 3658
2394.64 -128.951 3683
2403.45 -128.951 3683
2412.26 -128.951 3683
2399.37 -127.796 3650
1863.39 -97.8252 2794
1870.08 -97.8252 2794
1876.76 -97.8252 2794
1883.44 -97.8252 2794
1890.12 -97.8252 2794
1913.09 -98.6655 2818
1919.83 -98.6655 2818
1949.82 -99.8559 2852
1976.53 -100.871 2881
1983.42 -100.871 2881
1990.31 -100.871 2881
1997.2 -100.871 2881
2004.09 -100.871 2881
2043.09 -102.482 2927
2050.09 -102.482 2927
2057.09 -102.482 2927
2042.22 -101.396 2896
2059.76 -101.922 2911
2066.72 -101.922 2911
2073.68 -101.922 2911
2084.93 -102.132 2917
2211.67 -107.979 3084
2239.19 -108.959 3112
2246.64 -108.959 3112
2271.46 -109.8 3136
2278.96 -109.8 3136
2286.46 -109.8 3136
2293.96 -109.8 3136
2292.65 -109.379 3124
2274.35 -108.154 3089
2281.74 -108.154 3089
2280.97 -107.769 3078
2288.33 -107.769 3078
2745.78 -128.076 3658
2767.33 -128.671 3675
2807.09 -130.107 3716
2834.16 -130.947 3740
2843.1 -130.947 3740
2871.87 -131.857 3766
2880.88 -131.857 3766
-2607.81 -113.605 3483
-2599.48 -113.605 3483
-2569.58 -112.659 3454
-2561.32 -112.659 3454
-2553.06 -112.659 3454
-2534.48 -112.203 3440
-2515.97 -111.746 3426
-2466.79 -109.92 3370
-2458.73 -109.92 3370
-2471.04 -110.833 3398
-2462.91 -110.833 3398
-2495.24 -112.659 3454
-2486.98 -112.659 3454
-2478.72 -112.659 3454
-2470.46 -112.659 3454
-2467.19 -112.888 3461
-2484.49 -114.062 3497
-2476.13 -114.062 3497
-2484 -114.812 3520
-2485.43 -115.269 3534
-2476.98 -115.269 3534
-2468.52 -115.269 3534
-2470.52 -115.758 3549
-2467.58 -116.019 3557
-2480.5 -117.03 3588
-2471.92 -117.03 3588
-2473.64 -117.519 3603
-2465.03 -117.519 3603
-2461.86 -117.78 3611
-2453.23 -117.78 3611
-2460.84 -118.563 3635
-2467.67 -119.313 3658
-2458.92 -119.313 3658
-2450.17 -119.313 3658
-2441.42 -119.313 3658
-2432.68 -119.313 3658
-2423.93 -119.313 3658
-2409.9 -119.052 3650
-2395.91 -118.791 3642
-2387.2 -118.791 3642
-2378.49 -118.791 3642
-2360.02 -118.302 3627
-2371.44 -119.313 3658
-2362.7 -119.313 3658
-2353.95 -119.313 3658
-2345.2 -119.313 3658
-2336.45 -119.313 3658
-2317.53 -118.791 3642
-2299.31 -118.302 3627
-2290.63 -118.302 3627
-2281.96 -118.302 3627
-2263.26 -117.78 3611
-2259.62 -118.041 3619
-2270.25 -119.052 3650
-2261.52 -119.052 3650
-2252.79 -119.052 3650
-2239.14 -118.791 3642
-2230.43 -118.791 3642
-2212.57 -118.302 3627
-2203.9 -118.302 3627
-2180.7 -117.519 3603
-2181.73 -118.041 3619
-2173.08 -118.041 3619
-2164.42 -118.041 3619
-2155.77 -118.041 3619
-2147.12 -118.041 3619
-2129.01 -117.519 3603
-2139.22 -118.563 3635
-2130.53 -118.563 3635
-2121.84 -118.563 3635
-2113.15 -118.563 3635
-2104.45 -118.563 3635
-2086.54 -118.041 3619
-2077.88 -118.041 3619
-2069.23 -118.041 3619
-2056.02 -117.78 3611
-2025.27 -116.508 3572
-2016.73 -116.508 3572
-1982.89 -115.04 3527
-1957.66 -114.062 3497
-1933.13 -113.116 3468
-1924.84 -113.116 3468
-1908.81 -112.659 3454
-1873.59 -111.061 3405
-1846.27 -109.92 3370
-1834.39 -109.691 3363
-1826.35 -109.691 3363
-1800.47 -108.615 3330
-1785.51 -108.191 3317
-1777.58 -108.191 3317
-1769.64 -108.191 3317
-1744.18 -107.115 3284
-1733.16 -106.919 3278
-1728.48 -107.115 3284
-1720.63 -107.115 3284
-1712.77 -107.115 3284
-1704.92 -107.115 3284
-1697.07 -107.115 3284
-1689.21 -107.115 3284
-1681.36 -107.115 3284
-1673.51 -107.115 3284
-1665.65 -107.115 3284
-1660.83 -107.31 3290
-1652.96 -107.31 3290
-1651.6 -107.734 3303
-1647.18 -107.963 3310
-1639.27 -107.963 3310
-1631.35 -107.963 3310
-1626.87 -108.191 3317
-1618.94 -108.191 3317
-1613.92 -108.387 3323
-1605.97 -108.387 3323
-1601.39 -108.615 3330
-1606.35 -109.496 3357
-1598.32 -109.496 3357
-1590.29 -109.496 3357
-1575.67 -109.039 3343
-1564.86 -108.843 3337
-1556.88 -108.843 3337
-1542.4 -108.387 3323
-1534.46 -108.387 3323
-1529.72 -108.615 3330
-1524.96 -108.843 3337
-1516.98 -108.843 3337
-1518.05 -109.496 3357
-1515.87 -109.92 3370
-1514.07 -110.376 3384
-1505.98 -110.376 3384
-1497.89 -110.376 3384
-1489.79 -110.376 3384
-1481.7 -110.376 3384
-1473.61 -110.376 3384
-1468.55 -110.605 3391
-1460.44 -110.605 3391
-1455.33 -110.833 3398
-1447.2 -110.833 3398
-1439.08 -110.833 3398
-1436.85 -111.29 3412
-1434.55 -111.746 3426
-1426.36 -111.746 3426
-1432.65 -112.888 3461
-1424.38 -112.888 3461
-1416.1 -112.888 3461
-1407.82 -112.888 3461
-1396.72 -112.659 3454
-1382.83 -112.203 3440
-1374.6 -112.203 3440
-1363.6 -111.974 3433
-1349.86 -111.518 3419
-1336.19 -111.061 3405
-1319.86 -110.376 3384
-1311.77 -110.376 3384
-1298.28 -109.92 3370
-1285.24 -109.496 3357
-703.858 -60.3416 1850
-699.434 -60.3416 1850
-695.01 -60.3416 1850
-690.586 -60.3416 1850
-684.308 -60.1785 1845
-676.948 -59.9176 1837
-672.555 -59.9176 1837
-663.07 -59.461 1823
-657.266 -59.3305 1819
-647.532 -58.8412 1804
-643.218 -58.8412 1804
-637.487 -58.7108 1800
-631.776 -58.5803 1796
-623.987 -58.2541 1786
-619.716 -58.2541 1786
-608.209 -57.5692 1765
-599.54 -57.1452 1752
-592.292 -56.8516 1743
-585.762 -56.6233 1736
-581.611 -56.6233 1736
-573.8 -56.2645 1725
-566.703 -55.9709 1716
-560.305 -55.7426 1709
-556.218 -55.7426 1709
-550.516 -55.5795 1704
-544.196 -55.3512 1697
-538.547 -55.1881 1692
-534.501 -55.1881 1692
-529.827 -55.1229 1690
-524.853 -55.025 1687
-520.819 -55.025 1687
-516.785 -55.025 1687
-511.535 -54.8946 1683
-506.605 -54.7967 1680
-501.99 -54.7315 1678
-497.68 -54.6989 1677
-493.67 -54.6989 1677
-488.492 -54.5684 1673
-484.202 -54.5358 1672
-479.629 -54.4706 1670
-475.636 -54.4706 1670
-471.077 -54.4053 1668
-466.809 -54.3727 1667
-462.267 -54.3075 1665
-458.285 -54.3075 1665
-454.304 -54.3075 1665
-449.511 -54.2096 1662
-445.001 -54.1444 1660
-441.031 -54.1444 1660
-436.535 -54.0791 1658
-431.787 -53.9813 1655
-427.313 -53.9161 1653
-423.36 -53.9161 1653
-417.885 -53.7204 1647
-413.444 -53.6551 1645
-408.763 -53.5573 1642
-404.837 -53.5573 1642
-400.178 -53.4594 1639
-395.775 -53.3942 1637
-391.621 -53.3616 1636
-387.235 -53.2963 1634
-383.327 -53.2963 1634
-378.955 -53.2311 1632
-374.363 -53.1332 1629
-370.468 -53.1332 1629
-366.572 -53.1332 1629
-362.454 -53.1006 1628
-358.561 -53.1006 1628
-354.668 -53.1006 1628
-350.775 -53.1006 1628
-346.882 -53.1006 1628
-342.989 -53.1006 1628
-339.096 -53.1006 1628
-335.203 -53.1006 1628
-331.31 -53.1006 1628
-327.417 -53.1006 1628
-323.127 -53.0354 1626
-319.238 -53.0354 1626
-315.35 -53.0354 1626
-311.462 -53.0354 1626
-307.574 -53.0354 1626
-303.685 -53.0354 1626
-299.797 -53.0354 1626
-296.273 -53.1006 1628
-292.38 -53.1006 1628
-288.664 -53.1332 1629
-284.768 -53.1332 1629
-281.218 -53.1985 1631
-277.488 -53.2311 1632
-273.585 -53.2311 1632
-269.682 -53.2311 1632
-266.105 -53.2963 1634
-262.68 -53.3942 1637
-258.765 -53.3942 1637
-255.162 -53.4594 1639
-251.242 -53.4594 1639
-247.323 -53.4594 1639
-243.107 -53.3942 1637
-239.192 -53.3942 1637
-235.278 -53.3942 1637
-231.646 -53.4594 1639
-227.726 -53.4594 1639
-223.944 -53.492 1640
-220.022 -53.492 1640
-216.364 -53.5573 1642
-212.437 -53.5573 1642
-208.511 -53.5573 1642
-204.584 -53.5573 1642
-200.658 -53.5573 1642
-196.731 -53.5573 1642
-192.804 -53.5573 1642
-188.878 -53.5573 1642
-184.388 -53.3942 1637
-180.363 -53.3616 1636
-176.451 -53.3616 1636
-172.539 -53.3616 1636
-168.215 -53.2311 1632
-164.715 -53.3616 1636
-160.803 -53.3616 1636
-156.89 -53.3616 1636
-153.259 -53.4594 1639
-149.431 -53.492 1640
-145.686 -53.5573 1642
-141.76 -53.5573 1642
-137.833 -53.5573 1642
-134.314 -53.7204 1647
-130.455 -53.753 1648
-126.514 -53.753 1648
-122.573 -53.753 1648
-118.776 -53.8182 1650
-114.97 -53.8834 1652
-111.02 -53.8834 1652
-107.069 -53.8834 1652
-103.493 -54.0791 1658
-99.6485 -54.1444 1660
-95.8519 -54.2422 1663
-91.8752 -54.2422 1663
-88.0041 -54.3075 1665
-84.0226 -54.3075 1665
-80.0411 -54.3075 1665
-133.305 -120.39 3691
-124.479 -120.39 3691
-115.652 -120.39 3691
-107.55 -121.205 3716
-98.8759 -121.466 3724
-89.9707 -121.466 3724
-81.0655 -121.466 3724
-72.1603 -121.466 3724
-63.2551 -121.466 3724
-54.3498 -121.466 3724
-45.4446 -121.466 3724
-36.5394 -121.466 3724
-27.6342 -121.466 3724
-18.6888 -121.205 3716
-9.80268 -121.205 3716
-0.916594 -121.205 3716
7.95019 -120.912 3707
16.8147 -120.912 3707
25.6239 -120.651 3699
34.4693 -120.651 3699
43.2211 -120.39 3691
52.0474 -120.39 3691
60.7417 -120.129 3683
69.3978 -119.868 3675
78.1859 -119.868 3675
86.9739 -119.868 3675
95.319 -119.313 3658
104.066 -119.313 3658
112.814 -119.313 3658
121.561 -119.313 3658
130.309 -119.313 3658
139.056 -119.313 3658
147.803 -119.313 3658
156.551 -119.313 3658
164.937 -119.052 3650
173.665 -119.052 3650
182.393 -119.052 3650
191.121 -119.052 3650
199.85 -119.052 3650
208.578 -119.052 3650
218.318 -119.607 3667
227.087 -119.607 3667
235.856 -119.607 3667
244.625 -119.607 3667
253.394 -119.607 3667
262.735 -119.868 3675
272.114 -120.129 3683
280.921 -120.129 3683
289.728 -120.129 3683
298.535 -120.129 3683
307.342 -120.129 3683
316.15 -120.129 3683
324.957 -120.129 3683
333.764 -120.129 3683
342.571 -120.129 3683
351.378 -120.129 3683
360.185 -120.129 3683
368.191 -119.868 3675
376.979 -119.868 3675
385.767 -119.868 3675
394.555 -119.868 3675
403.343 -119.868 3675
412.131 -119.868 3675
420.003 -119.607 3667
427.72 -119.313 3658
435.513 -119.052 3650
444.241 -119.052 3650
452.969 -119.052 3650
461.697 -119.052 3650
469.394 -118.791 3642
477.185 -118.563 3635
485.877 -118.563 3635
493.481 -118.302 3627
501.047 -118.041 3619
506.321 -117.258 3595
514.917 -117.258 3595
519.145 -116.28 3565
526.486 -116.019 3557
534.992 -116.019 3557
544.72 -116.28 3565
553.245 -116.28 3565
561.77 -116.28 3565
570.295 -116.28 3565
578.82 -116.28 3565
587.345 -116.28 3565
597.04 -116.508 3572
605.582 -116.508 3572
614.124 -116.508 3572
624.06 -116.769 3580
632.621 -116.769 3580
642.615 -117.03 3588
653.917 -117.519 3603
662.533 -117.519 3603
671.149 -117.519 3603
966.838 -124.532 3818
975.968 -124.532 3818
987.162 -124.793 3826
1019.75 -127.729 3916
1029.11 -127.729 3916
1038.48 -127.729 3916
1050.25 -128.022 3925
1059.63 -128.022 3925
1071.74 -128.348 3935
1081.15 -128.348 3935
1095.55 -128.935 3953
1120.94 -130.795 4010
1133.35 -131.121 4020
1142.96 -131.121 4020
1155.44 -131.447 4030
1170.57 -132.067 4049
1186.08 -132.719 4069
1195.81 -132.719 4069
1205.54 -132.719 4069
1215.27 -132.719 4069
1225 -132.719 4069
1234.73 -132.719 4069
1244.46 -132.719 4069
1254.19 -132.719 4069
1263.92 -132.719 4069
1273.65 -132.719 4069
1289.69 -133.371 4089
1299.47 -133.371 4089
1309.25 -133.371 4089
1407.23 -114.323 3505
1427.32 -115.269 3534
1435.78 -115.269 3534
1444.23 -115.269 3534
1452.68 -115.269 3534
1461.13 -115.269 3534
1448.37 -113.605 3483
1441.64 -112.431 3447
1429.28 -110.833 3398
1437.4 -110.833 3398
1445.53 -110.833 3398
1453.65 -110.833 3398
1461.78 -110.833 3398
1469.9 -110.833 3398
1478.03 -110.833 3398
1486.16 -110.833 3398
1491.2 -110.605 3391
1493.12 -110.148 3377
1501.2 -110.148 3377
1509.27 -110.148 3377
1517.35 -110.148 3377
1531.75 -110.605 3391
1539.86 -110.605 3391
1547.97 -110.605 3391
1562.5 -111.061 3405
1573.87 -111.29 3412
1582.03 -111.29 3412
1590.19 -111.29 3412
1608.18 -111.974 3433
1616.39 -111.974 3433
1624.6 -111.974 3433
1632.81 -111.974 3433
2298.62 -125.967 3862
2307.85 -125.967 3862
2317.09 -125.967 3862
2337.16 -126.554 3880
2346.44 -126.554 3880
2355.72 -126.554 3880
2365 -126.554 3880
2363.26 -125.967 3862
2372.5 -125.967 3862
2376.18 -125.674 3853
2379.82 -125.38 3844
2389.02 -125.38 3844
2398.21 -125.38 3844
2396.13 -124.793 3826
2378.24 -123.39 3783
2339.33 -120.912 3707
2348.19 -120.912 3707
2351.97 -120.651 3699
2355.71 -120.39 3691
2349.16 -119.607 3667
2352.14 -119.313 3658
2360.89 -119.313 3658
2364.46 -119.052 3650
2363.43 -118.563 3635
1863.39 -91.1322 2794
1870.08 -91.1322 2794
1876.76 -91.1322 2794
1883.44 -91.1322 2794
1890.12 -91.1322 2794
1900.19 -91.2952 2799
1910.29 -91.4583 2804
1923.15 -91.7519 2813
1942.91 -92.3716 2832
1949.69 -92.3716 2832
1956.46 -92.3716 2832
1963.23 -92.3716 2832
1980.44 -92.8609 2847
2000.51 -93.4806 2866
2024.87 -94.296 2891
2031.78 -94.296 2891
2042.22 -94.4591 2896
2059.76 -94.9484 2911
2066.72 -94.9484 2911
2073.68 -94.9484 2911
2084.93 -95.1441 2917
2121.31 -96.4814 2958
2158.61 -97.8513 3000
2165.78 -97.8513 3000
2188.89 -98.5689 3022
2200.48 -98.7646 3028
2207.72 -98.7646 3028
2214.96 -98.7646 3028
2238.34 -99.4821 3050
2245.64 -99.4821 3050
2273.61 -100.395 3078
2280.97 -100.395 3078
2288.33 -100.395 3078
2295.7 -100.395 3078
2303.06 -100.395 3078
2754.52 -119.313 3658
2794.24 -120.651 3699
2834.16 -121.988 3740
2843.1 -121.988 3740
2871.87 -122.836 3766
2880.88 -122.836 3766
-2607.81 -105.262 3483
-2599.48 -105.262 3483
-2569.58 -104.385 3454
-2561.32 -104.385 3454
-2553.06 -104.385 3454
-2534.48 -103.962 3440
-2515.97 -103.539 3426
-2466.79 -101.847 3370
-2458.73 -101.847 3370
-2471.04 -102.693 3398
-2462.91 -102.693 3398
-2495.24 -104.385 3454
-2486.98 -104.385 3454
-2478.72 -104.385 3454
-2470.46 -104.385 3454
-2467.19 -104.597 3461
-2484.49 -105.685 3497
-2476.13 -105.685 3497
-2484 -106.38 3520
-2485.43 -106.803 3534
-2476.98 -106.803 3534
-2468.52 -106.803 3534
-2470.52 -107.256 3549
-2467.58 -107.498 3557
-2474.97 -108.193 3580
-2466.41 -108.193 3580
-2468.15 -108.647 3595
-2459.55 -108.647 3595
-2461.86 -109.13 3611
-2453.23 -109.13 3611
-2455.43 -109.614 3627
-2452.15 -109.855 3635
-2453.54 -110.309 3650
-2444.81 -110.309 3650
-2436.08 -110.309 3650
-2422.04 -110.067 3642
-2413.33 -110.067 3642
-2404.62 -110.067 3642
-2391.3 -109.855 3635
-2382.61 -109.855 3635
-2373.92 -109.855 3635
-2349.61 -109.13 3611
-2371.44 -110.551 3658
-2362.7 -110.551 3658
-2353.95 -110.551 3658
-2345.2 -110.551 3658
-2331.34 -110.309 3650
-2313.07 -109.855 3635
-2299.31 -109.614 3627
-2290.63 -109.614 3627
-2281.96 -109.614 3627
-2263.26 -109.13 3611
-2259.62 -109.372 3619
-2270.25 -110.309 3650
-2261.52 -110.309 3650
-2252.79 -110.309 3650
-2239.14 -110.067 3642
-2230.43 -110.067 3642
-2217.46 -109.855 3635
-2203.9 -109.614 3627
-2190.39 -109.372 3619
-2191.38 -109.855 3635
-2182.69 -109.855 3635
-2173.99 -109.855 3635
-2165.3 -109.855 3635
-2156.61 -109.855 3635
-2138.46 -109.372 3619
-2139.22 -109.855 3635
-2130.53 -109.855 3635
-2121.84 -109.855 3635
-2113.15 -109.855 3635
-2104.45 -109.855 3635
-2086.54 -109.372 3619
-2077.88 -109.372 3619
-2069.23 -109.372 3619
-2051.46 -108.888 3603
-2008.26 -107.045 3542
-1999.79 -107.045 3542
-1966.02 -105.685 3497
-1945.91 -105.05 3476
-1929.23 -104.597 3461
-1920.96 -104.597 3461
-1885.6 -103.116 3412
-1862.03 -102.27 3384
-1846.27 -101.847 3370
-1834.39 -101.635 3363
-1826.35 -101.635 3363
-1800.47 -100.638 3330
-1788.74 -100.426 3323
-1766.86 -99.6406 3297
-1758.97 -99.6406 3297
-1744.18 -99.2477 3284
-1733.16 -99.0664 3278
-1725.32 -99.0664 3278
-1717.48 -99.0664 3278
-1709.64 -99.0664 3278
-1701.8 -99.0664 3278
-1693.97 -99.0664 3278
-1686.13 -99.0664 3278
-1674.7 -98.8548 3271
-1663.83 -98.6735 3265
-1652.47 -98.4619 3258
-1644.68 -98.4619 3258
-1636.89 -98.4619 3258
-1632.59 -98.6735 3265
-1627.77 -98.8548 3271
-1626.39 -99.2477 3284
-1618.54 -99.2477 3284
-1613.63 -99.429 3290
-1605.76 -99.429 3290
-1601.29 -99.6406 3297
-1593.41 -99.6406 3297
-1591.77 -100.033 3310
-1593.43 -100.638 3330
-1585.47 -100.638 3330
-1577.5 -100.638 3330
-1563.41 -100.245 3317
-1555.48 -100.245 3317
-1547.55 -100.245 3317
-1539.62 -100.245 3317
-1528.45 -100.033 3310
-1526.51 -100.426 3323
-1521.76 -100.638 3330
-1513.8 -100.638 3330
-1509 -100.849 3337
-1510.02 -101.454 3357
-1507.81 -101.847 3370
-1499.75 -101.847 3370
-1491.69 -101.847 3370
-1486.71 -102.058 3377
-1478.64 -102.058 3377
-1470.56 -102.058 3377
-1465.52 -102.27 3384
-1457.43 -102.27 3384
-1455.33 -102.693 3398
-1447.2 -102.693 3398
-1439.08 -102.693 3398
-1436.85 -103.116 3412
-1434.55 -103.539 3426
-1426.36 -103.539 3426
-1432.65 -104.597 3461
-1424.38 -104.597 3461
-1416.1 -104.597 3461
-1407.82 -104.597 3461
-1396.72 -104.385 3454
-1382.83 -103.962 3440
-1374.6 -103.962 3440
-1363.6 -103.751 3433
-1349.86 -103.328 3419
-1336.19 -102.905 3405
-1319.86 -102.27 3384
-1311.77 -102.27 3384
-1298.28 -101.847 3370
-1285.24 -101.454 3357
-703.858 -55.9099 1850
-699.434 -55.9099 1850
-695.01 -55.9099 1850
-690.586 -55.9099 1850
-684.308 -55.7588 1845
-676.948 -55.5171 1837
-672.555 -55.5171 1837
-663.798 -55.1544 1825
-657.266 -54.9731 1819
-649.326 -54.6708 1809
-645 -54.6708 1809
-638.195 -54.4593 1802
-631.776 -54.278 1796
-624.686 -54.0362 1788
-620.41 -54.0362 1788
-608.898 -53.4015 1767
-599.54 -52.9482 1752
-592.971 -52.7367 1745
-585.762 -52.4647 1736
-581.611 -52.4647 1736
-574.465 -52.1927 1727
-567.363 -51.9207 1718
-561.616 -51.7696 1713
-557.52 -51.7696 1713
-550.516 -51.4976 1704
-545.479 -51.4069 1701
-539.183 -51.1954 1694
-535.132 -51.1954 1694
-529.827 -51.0745 1690
-525.475 -51.0443 1689
-521.436 -51.0443 1689
-517.397 -51.0443 1689
-512.143 -50.9234 1685
-507.209 -50.8327 1682
-502.588 -50.7723 1680
-497.977 -50.7118 1678
-493.965 -50.7118 1678
-489.66 -50.6816 1677
-484.202 -50.5305 1672
-479.629 -50.4701 1670
-475.636 -50.4701 1670
-471.077 -50.4096 1668
-466.809 -50.3794 1667
-462.267 -50.3189 1665
-458.285 -50.3189 1665
-454.304 -50.3189 1665
-449.511 -50.2283 1662
-445.001 -50.1678 1660
-441.031 -50.1678 1660
-436.535 -50.1074 1658
-431.787 -50.0167 1655
-427.313 -49.9563 1653
-423.36 -49.9563 1653
-417.885 -49.775 1647
-413.444 -49.7145 1645
-408.763 -49.6238 1642
-404.837 -49.6238 1642
-400.178 -49.5332 1639
-395.775 -49.4727 1637
-391.621 -49.4425 1636
-387.235 -49.3821 1634
-383.327 -49.3821 1634
-378.955 -49.3216 1632
-374.823 -49.2914 1631
-370.468 -49.231 1629
-366.572 -49.231 1629
-362.677 -49.231 1629
-358.561 -49.2007 1628
-354.668 -49.2007 1628
-350.775 -49.2007 1628
-346.882 -49.2007 1628
-342.989 -49.2007 1628
-339.096 -49.2007 1628
-335.203 -49.2007 1628
-330.903 -49.1403 1626
-327.417 -49.2007 1628
-323.524 -49.2007 1628
-319.631 -49.2007 1628
-315.35 -49.1403 1626
-311.462 -49.1403 1626
-307.574 -49.1403 1626
-303.685 -49.1403 1626
-299.797 -49.1403 1626
-296.273 -49.2007 1628
-292.38 -49.2007 1628
-288.664 -49.231 1629
-284.768 -49.231 1629
-281.218 -49.2914 1631
-277.488 -49.3216 1632
-273.585 -49.3216 1632
-269.682 -49.3216 1632
-266.105 -49.3821 1634
-262.68 -49.4727 1637
-258.765 -49.4727 1637
-255.162 -49.5332 1639
-251.242 -49.5332 1639
-247.323 -49.5332 1639
-243.404 -49.5332 1639
-239.484 -49.5332 1639
-235.565 -49.5332 1639
-231.646 -49.5332 1639
-227.865 -49.5634 1640
-223.944 -49.5634 1640
-220.022 -49.5634 1640
-216.364 -49.6238 1642
-212.437 -49.6238 1642
-208.511 -49.6238 1642
-204.584 -49.6238 1642
-200.902 -49.6843 1644
-196.971 -49.6843 1644
-193.039 -49.6843 1644
-188.878 -49.6238 1642
-184.388 -49.4727 1637
-180.474 -49.4727 1637
-176.559 -49.4727 1637
-172.539 -49.4425 1636
-168.421 -49.3821 1634
-164.715 -49.4425 1636
-160.803 -49.4425 1636
-156.89 -49.4425 1636
-153.259 -49.5332 1639
-149.431 -49.5634 1640
-145.686 -49.6238 1642
-141.76 -49.6238 1642
-137.833 -49.6238 1642
-134.314 -49.775 1647
-130.455 -49.8052 1648
-126.514 -49.8052 1648
-122.573 -49.8052 1648
-118.776 -49.8656 1650
-114.97 -49.9261 1652
-111.087 -49.9563 1653
-107.134 -49.9563 1653
-103.618 -50.1678 1660
-99.8286 -50.2585 1663
-95.8519 -50.2585 1663
-91.8752 -50.2585 1663
-88.0041 -50.3189 1665
-84.0226 -50.3189 1665
-80.0411 -50.3189 1665
-75.9682 -50.2585 1663
-133.305 -111.548 3691
-124.479 -111.548 3691
-115.652 -111.548 3691
-107.55 -112.303 3716
-98.8759 -112.545 3724
-89.9707 -112.545 3724
-81.0655 -112.545 3724
-72.1603 -112.545 3724
-63.2551 -112.545 3724
-54.3498 -112.545 3724
-45.4446 -112.545 3724
-36.5394 -112.545 3724
-27.6342 -112.545 3724
-18.729 -112.545 3724
-9.82378 -112.545 3724
-0.916594 -112.303 3716
7.95019 -112.031 3707
16.8147 -112.031 3707
25.6793 -112.031 3707
34.4693 -111.79 3699
43.3148 -111.79 3699
52.1602 -111.79 3699
61.0056 -111.79 3699
69.5489 -111.306 3683
78.1859 -111.064 3675
86.9739 -111.064 3675
95.7619 -111.064 3675
104.066 -110.551 3658
112.814 -110.551 3658
121.561 -110.551 3658
130.309 -110.551 3658
139.056 -110.551 3658
147.803 -110.551 3658
156.551 -110.551 3658
164.937 -110.309 3650
173.665 -110.309 3650
182.393 -110.309 3650
191.121 -110.309 3650
200.288 -110.551 3658
209.035 -110.551 3658
218.318 -110.823 3667
227.087 -110.823 3667
236.371 -111.064 3675
245.159 -111.064 3675
253.947 -111.064 3675
263.307 -111.306 3683
272.114 -111.306 3683
280.921 -111.306 3683
289.728 -111.306 3683
299.184 -111.548 3691
308.01 -111.548 3691
316.836 -111.548 3691
326.368 -111.79 3699
335.214 -111.79 3699
344.059 -111.79 3699
352.905 -111.79 3699
361.75 -111.79 3699
368.993 -111.306 3683
377.8 -111.306 3683
386.607 -111.306 3683
395.414 -111.306 3683
404.221 -111.306 3683
413.029 -111.306 3683
420.919 -111.064 3675
428.772 -110.823 3667
437.541 -110.823 3667
446.31 -110.823 3667
455.079 -110.823 3667
463.848 -110.823 3667
471.457 -110.551 3658
479.154 -110.309 3650
487.882 -110.309 3650
494.569 -109.855 3635
501.047 -109.372 3619
506.321 -108.647 3595
514.917 -108.647 3595
519.145 -107.74 3565
526.486 -107.498 3557
534.992 -107.498 3557
544.72 -107.74 3565
553.245 -107.74 3565
561.77 -107.74 3565
570.295 -107.74 3565
578.82 -107.74 3565
587.345 -107.74 3565
597.04 -107.952 3572
608.295 -108.435 3588
616.875 -108.435 3588
625.455 -108.435 3588
634.035 -108.435 3588
646.734 -109.13 3611
659.725 -109.855 3635
672.646 -110.551 3658
681.394 -110.551 3658
690.141 -110.551 3658
755.545 -113.814 3766
764.551 -113.814 3766
773.557 -113.814 3766
782.562 -113.814 3766
966.838 -115.386 3818
975.968 -115.386 3818
987.162 -115.628 3826
1036.93 -120.342 3982
1046.46 -120.342 3982
1055.98 -120.342 3982
1060.42 -119.768 3963
1069.89 -119.768 3963
1084.55 -120.342 3982
1094.07 -120.342 3982
1108.86 -120.917 4001
1126.53 -121.793 4030
1136.17 -121.793 4030
1145.8 -121.793 4030
1163.75 -122.669 4059
1176.35 -122.972 4069
1186.08 -122.972 4069
1195.81 -122.972 4069
1205.54 -122.972 4069
1221.25 -123.576 4089
1231.02 -123.576 4089
1240.8 -123.576 4089
1250.58 -123.576 4089
1260.36 -123.576 4089
1270.14 -123.576 4089
1279.91 -123.576 4089
1289.69 -123.576 4089
1299.47 -123.576 4089
1309.25 -123.576 4089
1428.11 -107.498 3557
1439.84 -107.74 3565
1448.37 -107.74 3565
1456.89 -107.74 3565
1465.42 -107.74 3565
1473.94 -107.74 3565
1469.58 -106.803 3534
1444.57 -104.385 3454
1441.05 -103.539 3426
1449.25 -103.539 3426
1457.44 -103.539 3426
1465.63 -103.539 3426
1473.82 -103.539 3426
1482.02 -103.539 3426
1490.21 -103.539 3426
1492.28 -103.116 3412
1500.44 -103.116 3412
1499.31 -102.481 3391
1507.42 -102.481 3391
1509.27 -102.058 3377
1517.35 -102.058 3377
1531.75 -102.481 3391
1539.86 -102.481 3391
1547.97 -102.481 3391
1562.5 -102.905 3405
1573.87 -103.116 3412
1582.03 -103.116 3412
1590.19 -103.116 3412
1608.18 -103.751 3433
1616.39 -103.751 3433
1637.85 -104.597 3461
1646.13 -104.597 3461
1654.41 -104.597 3461
2298.62 -116.716 3862
2307.85 -116.716 3862
2317.09 -116.716 3862
2337.16 -117.26 3880
2346.44 -117.26 3880
2355.72 -117.26 3880
2365 -117.26 3880
2363.26 -116.716 3862
2372.5 -116.716 3862
2376.18 -116.444 3853
2379.82 -116.172 3844
2389.02 -116.172 3844
2398.21 -116.172 3844
2396.13 -115.628 3826
2388.93 -114.842 3800
2339.33 -112.031 3707
2348.19 -112.031 3707
2351.97 -111.79 3699
2355.71 -111.548 3691
2364.54 -111.548 3691
2352.14 -110.551 3658
2360.89 -110.551 3658
2364.46 -110.309 3650
2363.43 -109.855 3635
1863.39 -84.4391 2794
1870.08 -84.4391 2794
1876.76 -84.4391 2794
1883.44 -84.4391 2794
1890.12 -84.4391 2794
1900.19 -84.5902 2799
1910.29 -84.7413 2804
1923.15 -85.0133 2813
1942.91 -85.5875 2832
1949.69 -85.5875 2832
1956.46 -85.5875 2832
1963.23 -85.5875 2832
1980.44 -86.0409 2847
2000.51 -86.6151 2866
2024.87 -87.3706 2891
2031.78 -87.3706 2891
2042.22 -87.5217 2896
2059.76 -87.975 2911
2066.72 -87.975 2911
2073.68 -87.975 2911
2084.93 -88.1564 2917
2121.31 -89.3955 2958
2158.61 -90.6648 3000
2165.78 -90.6648 3000
2188.89 -91.3296 3022
2200.48 -91.511 3028
2207.72 -91.511 3028
2214.96 -91.511 3028
2238.34 -92.1758 3050
2245.64 -92.1758 3050
2273.61 -93.022 3078
2280.97 -93.022 3078
2288.33 -93.022 3078
2295.7 -93.022 3078
2303.06 -93.022 3078
2281.14 -91.8434 3039
2754.52 -110.551 3658
2794.24 -111.79 3699
2834.16 -113.029 3740
2843.1 -113.029 3740
2871.87 -113.814 3766
2880.88 -113.814 3766
-2613.05 -97.113 3490
-2604.7 -97.113 3490
-2574.78 -96.3061 3461
-2566.51 -96.3061 3461
-2558.23 -96.3061 3461
-2544.8 -96.1113 3454
-2526.26 -95.7217 3440
-2502.66 -95.1374 3419
-2494.48 -95.1374 3419
-2471.04 -94.553 3398
-2498.43 -95.9165 3447
-2500.3 -96.3061 3461
-2492.02 -96.3061 3461
-2483.74 -96.3061 3461
-2480.47 -96.5008 3468
-2472.18 -96.5008 3468
-2484.49 -97.3078 3497
-2476.13 -97.3078 3497
-2484 -97.9478 3520
-2485.43 -98.3374 3534
-2476.98 -98.3374 3534
-2468.52 -98.3374 3534
-2465.64 -98.56 3542
-2467.58 -98.9774 3557
-2474.97 -99.6174 3580
-2466.41 -99.6174 3580
-2457.85 -99.6174 3580
-2454.76 -99.84 3588
-2450.96 -100.035 3595
-2442.36 -100.035 3595
-2444.59 -100.48 3611
-2446.75 -100.925 3627
-2443.46 -101.148 3635
-2434.76 -101.148 3635
-2426.07 -101.148 3635
-2417.38 -101.148 3635
-2408.69 -101.148 3635
-2400 -101.148 3635
-2391.3 -101.148 3635
-2377.37 -100.925 3627
-2368.69 -100.925 3627
-2365.23 -101.148 3635
-2361.07 -101.343 3642
-2357.53 -101.565 3650
-2348.8 -101.565 3650
-2340.07 -101.565 3650
-2321.76 -101.148 3635
-2307.98 -100.925 3627
-2299.31 -100.925 3627
-2290.63 -100.925 3627
-2281.96 -100.925 3627
-2268.27 -100.703 3619
-2278.98 -101.565 3650
-2270.25 -101.565 3650
-2261.52 -101.565 3650
-2252.79 -101.565 3650
-2244.06 -101.565 3650
-2235.33 -101.565 3650
-2217.46 -101.148 3635
-2203.9 -100.925 3627
-2190.39 -100.703 3619
-2191.38 -101.148 3635
-2182.69 -101.148 3635
-2173.99 -101.148 3635
-2165.3 -101.148 3635
-2156.61 -101.148 3635
-2138.46 -100.703 3619
-2139.22 -101.148 3635
-2130.53 -101.148 3635
-2121.84 -101.148 3635
-2113.15 -101.148 3635
-2104.45 -101.148 3635
-2086.54 -100.703 3619
-2077.88 -100.703 3619
-2060.08 -100.257 3603
-2042.92 -99.84 3588
-2008.26 -98.56 3542
-1999.79 -98.56 3542
-1966.02 -97.3078 3497
-1945.91 -96.7234 3476
-1929.23 -96.3061 3461
-1920.96 -96.3061 3461
-1885.6 -94.9426 3412
-1862.03 -94.1634 3384
-1846.27 -93.7739 3370
-1834.39 -93.5791 3363
-1826.35 -93.5791 3363
-1800.47 -92.6608 3330
-1788.74 -92.4661 3323
-1766.86 -91.7426 3297
-1758.97 -91.7426 3297
-1744.18 -91.3808 3284
-1733.16 -91.2139 3278
-1725.32 -91.2139 3278
-1717.48 -91.2139 3278
-1702.86 -90.8521 3265
-1695.06 -90.8521 3265
-1687.25 -90.8521 3265
-1679.44 -90.8521 3265
-1661.91 -90.3234 3246
-1654.14 -90.3234 3246
-1642.83 -90.1287 3239
-1635.08 -90.1287 3239
-1624.32 -89.9617 3233
-1623.09 -90.3234 3246
-1618.32 -90.4904 3252
-1610.54 -90.4904 3252
-1602.76 -90.4904 3252
-1601.36 -90.8521 3265
-1593.56 -90.8521 3265
-1594.98 -91.3808 3284
-1587.12 -91.3808 3284
-1582.16 -91.5478 3290
-1577.64 -91.7426 3297
-1569.75 -91.7426 3297
-1561.87 -91.7426 3297
-1553.99 -91.7426 3297
-1548.92 -91.9095 3303
-1541.02 -91.9095 3303
-1533.12 -91.9095 3303
-1525.22 -91.9095 3303
-1520.54 -92.1043 3310
-1521.76 -92.6608 3330
-1513.8 -92.6608 3330
-1509 -92.8556 3337
-1506.87 -93.2174 3350
-1504.67 -93.5791 3363
-1496.63 -93.5791 3363
-1488.59 -93.5791 3363
-1483.63 -93.7739 3370
-1475.57 -93.7739 3370
-1467.51 -93.7739 3370
-1462.49 -93.9687 3377
-1457.43 -94.1634 3384
-1455.33 -94.553 3398
-1447.2 -94.553 3398
-1439.08 -94.553 3398
-1436.85 -94.9426 3412
-1434.55 -95.3321 3426
-1426.36 -95.3321 3426
-1429.76 -96.1113 3454
-1421.5 -96.1113 3454
-1413.24 -96.1113 3454
-1404.98 -96.1113 3454
-1393.89 -95.9165 3447
-1382.83 -95.7217 3440
-1374.6 -95.7217 3440
-1363.6 -95.5269 3433
-1349.86 -95.1374 3419
-1336.19 -94.7478 3405
-1319.86 -94.1634 3384
-1311.77 -94.1634 3384
-1298.28 -93.7739 3370
-703.858 -51.4782 1850
-699.434 -51.4782 1850
-695.01 -51.4782 1850
-690.586 -51.4782 1850
-684.308 -51.3391 1845
-676.948 -51.1165 1837
-672.555 -51.1165 1837
-663.798 -50.7826 1825
-657.266 -50.6156 1819
-649.326 -50.3374 1809
-645 -50.3374 1809
-638.195 -50.1426 1802
-631.776 -49.9756 1796
-624.686 -49.753 1788
-620.41 -49.753 1788
-608.898 -49.1687 1767
-599.54 -48.7513 1752
-592.971 -48.5565 1745
-585.762 -48.3061 1736
-581.611 -48.3061 1736
-574.465 -48.0556 1727
-567.363 -47.8052 1718
-561.616 -47.6661 1713
-557.52 -47.6661 1713
-550.516 -47.4156 1704
-545.479 -47.3322 1701
-539.183 -47.1374 1694
-535.132 -47.1374 1694
-529.827 -47.0261 1690
-525.475 -46.9982 1689
-521.436 -46.9982 1689
-517.397 -46.9982 1689
-512.143 -46.8869 1685
-507.209 -46.8035 1682
-502.588 -46.7478 1680
-497.977 -46.6922 1678
-493.965 -46.6922 1678
-489.66 -46.6643 1677
-484.202 -46.5252 1672
-479.629 -46.4696 1670
-475.636 -46.4696 1670
-471.077 -46.4139 1668
-466.809 -46.3861 1667
-462.267 -46.3304 1665
-458.285 -46.3304 1665
-454.304 -46.3304 1665
-449.511 -46.2469 1662
-445.001 -46.1913 1660
-441.031 -46.1913 1660
-436.535 -46.1356 1658
-431.787 -46.0522 1655
-427.313 -45.9965 1653
-423.36 -45.9965 1653
-417.885 -45.8296 1647
-413.444 -45.7739 1645
-408.763 -45.6904 1642
-404.837 -45.6904 1642
-400.178 -45.6069 1639
-395.775 -45.5513 1637
-391.621 -45.5235 1636
-387.235 -45.4678 1634
-383.327 -45.4678 1634
-378.955 -45.4122 1632
-374.823 -45.3843 1631
-370.468 -45.3287 1629
-366.572 -45.3287 1629
-362.677 -45.3287 1629
-358.561 -45.3009 1628
-354.668 -45.3009 1628
-350.775 -45.3009 1628
-346.882 -45.3009 1628
-342.989 -45.3009 1628
-339.096 -45.3009 1628
-335.203 -45.3009 1628
-330.903 -45.2452 1626
-327.417 -45.3009 1628
-323.524 -45.3009 1628
-319.631 -45.3009 1628
-315.35 -45.2452 1626
-311.462 -45.2452 1626
-307.574 -45.2452 1626
-303.685 -45.2452 1626
-299.797 -45.2452 1626
-296.273 -45.3009 1628
-292.38 -45.3009 1628
-288.664 -45.3287 1629
-284.768 -45.3287 1629
-280.873 -45.3287 1629
-277.488 -45.4122 1632
-273.585 -45.4122 1632
-269.682 -45.4122 1632
-266.105 -45.4678 1634
-262.68 -45.5513 1637
-258.765 -45.5513 1637
-255.162 -45.6069 1639
-251.242 -45.6069 1639
-247.323 -45.6069 1639
-243.404 -45.6069 1639
-239.484 -45.6069 1639
-235.565 -45.6069 1639
-231.646 -45.6069 1639
-227.865 -45.6348 1640
-223.944 -45.6348 1640
-220.022 -45.6348 1640
-216.364 -45.6904 1642
-212.437 -45.6904 1642
-208.511 -45.6904 1642
-204.584 -45.6904 1642
-200.902 -45.7461 1644
-196.971 -45.7461 1644
-193.039 -45.7461 1644
-188.878 -45.6904 1642
-184.388 -45.5513 1637
-180.474 -45.5513 1637
-176.559 -45.5513 1637
-172.539 -45.5235 1636
-168.421 -45.4678 1634
-164.715 -45.5235 1636
-160.803 -45.5235 1636
-156.89 -45.5235 1636
-153.072 -45.5513 1637
-149.339 -45.6069 1639
-145.509 -45.6348 1640
-141.587 -45.6348 1640
-137.833 -45.6904 1642
-134.151 -45.7739 1645
-130.455 -45.8574 1648
-126.514 -45.8574 1648
-122.573 -45.8574 1648
-118.776 -45.913 1650
-114.97 -45.9687 1652
-111.087 -45.9965 1653
-107.134 -45.9965 1653
-103.618 -46.1913 1660
-99.8286 -46.2748 1663
-95.8519 -46.2748 1663
-91.8752 -46.2748 1663
-88.0041 -46.3304 1665
-84.0226 -46.3304 1665
-80.0411 -46.3304 1665
-75.9682 -46.2748 1663
-133.016 -102.483 3683
-124.209 -102.483 3683
-115.652 -102.706 3691
-107.55 -103.402 3716
-98.6635 -103.402 3716
-89.7774 -103.402 3716
-81.0655 -103.624 3724
-72.1603 -103.624 3724
-63.2551 -103.624 3724
-54.3498 -103.624 3724
-45.4446 -103.624 3724
-36.5394 -103.624 3724
-27.6342 -103.624 3724
-18.729 -103.624 3724
-9.82378 -103.624 3724
-0.916594 -103.402 3716
7.95019 -103.151 3707
16.8147 -103.151 3707
25.6793 -103.151 3707
34.4693 -102.929 3699
43.3148 -102.929 3699
52.1602 -102.929 3699
61.0056 -102.929 3699
69.5489 -102.483 3683
78.1859 -102.261 3675
86.9739 -102.261 3675
95.7619 -102.261 3675
104.066 -101.788 3658
112.814 -101.788 3658
121.561 -101.788 3658
130.309 -101.788 3658
139.056 -101.788 3658
147.803 -101.788 3658
156.551 -101.788 3658
164.937 -101.565 3650
173.665 -101.565 3650
182.393 -101.565 3650
191.121 -101.565 3650
200.288 -101.788 3658
209.035 -101.788 3658
218.318 -102.038 3667
227.087 -102.038 3667
236.371 -102.261 3675
245.159 -102.261 3675
253.947 -102.261 3675
263.307 -102.483 3683
272.114 -102.483 3683
280.921 -102.483 3683
289.728 -102.483 3683
299.184 -102.706 3691
308.01 -102.706 3691
316.836 -102.706 3691
326.368 -102.929 3699
335.214 -102.929 3699
344.059 -102.929 3699
352.905 -102.929 3699
361.75 -102.929 3699
368.993 -102.483 3683
377.8 -102.483 3683
386.607 -102.483 3683
395.414 -102.483 3683
404.221 -102.483 3683
413.029 -102.483 3683
420.919 -102.261 3675
428.772 -102.038 3667
437.541 -102.038 3667
446.31 -102.038 3667
455.079 -102.038 3667
463.848 -102.038 3667
471.457 -101.788 3658
479.154 -101.565 3650
487.882 -101.565 3650
494.569 -101.148 3635
501.047 -100.703 3619
505.335 -99.84 3588
513.915 -99.84 3588
519.145 -99.2 3565
526.486 -98.9774 3557
534.992 -98.9774 3557
544.72 -99.2 3565
553.245 -99.2 3565
561.77 -99.2 3565
570.295 -99.2 3565
578.82 -99.2 3565
587.345 -99.2 3565
597.04 -99.3948 3572
608.295 -99.84 3588
616.875 -99.84 3588
625.455 -99.84 3588
634.035 -99.84 3588
646.734 -100.48 3611
659.725 -101.148 3635
672.646 -101.788 3658
681.394 -101.788 3658
690.141 -101.788 3658
755.545 -104.793 3766
764.551 -104.793 3766
773.557 -104.793 3766
782.562 -104.793 3766
987.162 -106.463 3826
1036.93 -110.803 3982
1046.46 -110.803 3982
1055.98 -110.803 3982
1060.42 -110.275 3963
1069.89 -110.275 3963
1084.55 -110.803 3982
1094.07 -110.803 3982
1108.86 -111.332 4001
1126.53 -112.139 4030
1136.17 -112.139 4030
1145.8 -112.139 4030
1163.75 -112.946 4059
1176.35 -113.224 4069
1186.08 -113.224 4069
1195.81 -113.224 4069
1205.54 -113.224 4069
1221.25 -113.781 4089
1231.02 -113.781 4089
1240.8 -113.781 4089
1250.58 -113.781 4089
1260.36 -113.781 4089
1270.14 -113.781 4089
1279.91 -113.781 4089
1289.69 -113.781 4089
1299.47 -113.781 4089
1309.25 -113.781 4089
1428.11 -98.9774 3557
1439.84 -99.2 3565
1448.37 -99.2 3565
1456.89 -99.2 3565
1465.42 -99.2 3565
1473.94 -99.2 3565
1469.58 -98.3374 3534
1444.57 -96.1113 3454
1441.05 -95.3321 3426
1449.25 -95.3321 3426
1457.44 -95.3321 3426
1465.63 -95.3321 3426
1473.82 -95.3321 3426
1482.02 -95.3321 3426
1490.21 -95.3321 3426
1492.28 -94.9426 3412
1500.44 -94.9426 3412
1499.31 -94.3582 3391
1507.42 -94.3582 3391
1509.27 -93.9687 3377
1517.35 -93.9687 3377
1525.42 -93.9687 3377
1539.86 -94.3582 3391
1547.97 -94.3582 3391
1559.29 -94.553 3398
1570.64 -94.7478 3405
1582.03 -94.9426 3412
1590.19 -94.9426 3412
1604.91 -95.3321 3426
1616.39 -95.5269 3433
1637.85 -96.3061 3461
1646.13 -96.3061 3461
1654.41 -96.3061 3461
2317.09 -107.464 3862
2337.16 -107.965 3880
2346.44 -107.965 3880
2355.72 -107.965 3880
2365 -107.965 3880
2363.26 -107.464 3862
2372.5 -107.464 3862
2376.18 -107.214 3853
2379.82 -106.963 3844
2389.02 -106.963 3844
2398.21 -106.963 3844
2396.13 -106.463 3826
2388.93 -105.739 3800
2339.33 -103.151 3707
2348.19 -103.151 3707
2351.97 -102.929 3699
2355.71 -102.706 3691
2364.54 -102.706 3691
2352.14 -101.788 3658
2360.89 -101.788 3658
2364.46 -101.565 3650
1863.39 -77.7461 2794
1870.08 -77.7461 2794
1876.76 -77.7461 2794
1883.44 -77.7461 2794
1890.12 -77.7461 2794
1896.8 -77.7461 2794
1910.29 -78.0243 2804
1923.15 -78.2748 2813
1929.88 -78.2748 2813
1940.05 -78.4139 2818
1956.46 -78.8035 2832
1963.23 -78.8035 2832
1973.48 -78.9426 2837
1990.74 -79.36 2852
2007.36 -79.7495 2866
2014.21 -79.7495 2866
2031.65 -80.1669 2881
2042.07 -80.3061 2886
2048.97 -80.3061 2886
2055.88 -80.3061 2886
2073.5 -80.7234 2901
2091.91 -81.1687 2917
2120.47 -82.0034 2947
2127.52 -82.0034 2947
2161.37 -83.033 2984
2168.5 -83.033 2984
2195.32 -83.7843 3011
2202.52 -83.7843 3011
2214.13 -83.9513 3017
2245.64 -84.8695 3050
2252.93 -84.8695 3050
2260.22 -84.8695 3050
2288.33 -85.6487 3078
2295.7 -85.6487 3078
2303.06 -85.6487 3078
2281.14 -84.5635 3039
2754.52 -101.788 3658
2794.24 -102.929 3699
2828.1 -103.847 3732
2837.02 -103.847 3732
2858.91 -104.32 3749
2867.87 -104.32 3749
-2613.05 -88.7527 3490
-2604.7 -88.7527 3490
-2591.15 -88.5747 3483
-2577.63 -88.3967 3476
-2569.32 -88.3967 3476
-2544.8 -87.8372 3454
-2536.54 -87.8372 3454
-2507.78 -87.1251 3426
-2499.59 -87.1251 3426
-2486.31 -86.9471 3419
-2508.57 -88.0152 3461
-2511.13 -88.3967 3476
-2502.82 -88.3967 3476
-2494.51 -88.3967 3476
-2486.2 -88.3967 3476
-2482.87 -88.5747 3483
-2490.18 -89.1341 3505
-2481.79 -89.1341 3505
-2484 -89.5156 3520
-2480.5 -89.6936 3527
-2476.98 -89.8716 3534
-2468.52 -89.8716 3534
-2460.07 -89.8716 3534
-2467.58 -90.4565 3557
-2459.07 -90.4565 3557
-2450.57 -90.4565 3557
-2457.85 -91.0414 3580
-2449.29 -91.0414 3580
-2446.18 -91.2449 3588
-2437.6 -91.2449 3588
-2429.02 -91.2449 3588
-2430.56 -91.6263 3603
-2427.32 -91.8298 3611
-2418.69 -91.8298 3611
-2410.05 -91.8298 3611
-2401.42 -91.8298 3611
-2398.09 -92.0332 3619
-2389.43 -92.0332 3619
-2380.78 -92.0332 3619
-2366.88 -91.8298 3611
-2358.24 -91.8298 3611
-2365.23 -92.4401 3635
-2356.53 -92.4401 3635
-2347.84 -92.4401 3635
-2339.15 -92.4401 3635
-2330.46 -92.4401 3635
-2321.76 -92.4401 3635
-2307.98 -92.2367 3627
-2299.31 -92.2367 3627
-2290.63 -92.2367 3627
-2281.96 -92.2367 3627
-2268.27 -92.0332 3619
-2278.98 -92.8216 3650
-2270.25 -92.8216 3650
-2261.52 -92.8216 3650
-2252.79 -92.8216 3650
-2244.06 -92.8216 3650
-2235.33 -92.8216 3650
-2217.46 -92.4401 3635
-2203.9 -92.2367 3627
-2190.39 -92.0332 3619
-2191.38 -92.4401 3635
-2182.69 -92.4401 3635
-2173.99 -92.4401 3635
-2165.3 -92.4401 3635
-2156.61 -92.4401 3635
-2138.46 -92.0332 3619
-2139.22 -92.4401 3635
-2130.53 -92.4401 3635
-2121.84 -92.4401 3635
-2113.15 -92.4401 3635
-2104.45 -92.4401 3635
-2086.54 -92.0332 3619
-2077.88 -92.0332 3619
-2055.51 -91.4229 3595
-2042.92 -91.2449 3588
-2008.26 -90.0751 3542
-1999.79 -90.0751 3542
-1970.52 -89.1341 3505
-1949.82 -88.5747 3483
-1933.13 -88.1932 3468
-1924.84 -88.1932 3468
-1889.47 -86.9471 3419
-1873.59 -86.5911 3405
-1850.11 -85.879 3377
-1842.03 -85.879 3377
-1833.96 -85.879 3377
-1815.07 -85.3704 3357
-1792.51 -84.6838 3330
-1780.79 -84.5058 3323
-1772.84 -84.5058 3323
-1747.37 -83.6666 3290
-1736.33 -83.514 3284
-1728.48 -83.514 3284
-1720.63 -83.514 3284
-1709.64 -83.3614 3278
-1695.06 -83.0308 3265
-1687.25 -83.0308 3265
-1679.44 -83.0308 3265
-1668.05 -82.8528 3258
-1657.2 -82.7002 3252
-1642.83 -82.3696 3239
-1635.08 -82.3696 3239
-1624.32 -82.217 3233
-1623.09 -82.5476 3246
-1618.32 -82.7002 3252
-1610.54 -82.7002 3252
-1602.76 -82.7002 3252
-1597.93 -82.8528 3258
-1593.56 -83.0308 3265
-1588.66 -83.1834 3271
-1580.84 -83.1834 3271
-1579.27 -83.514 3284
-1574.29 -83.6666 3290
-1566.42 -83.6666 3290
-1558.55 -83.6666 3290
-1550.69 -83.6666 3290
-1546.1 -83.8446 3297
-1538.22 -83.8446 3297
-1530.33 -83.8446 3297
-1525.22 -83.9972 3303
-1523.75 -84.3532 3317
-1521.76 -84.6838 3330
-1513.8 -84.6838 3330
-1511.71 -85.0144 3343
-1503.72 -85.0144 3343
-1501.99 -85.3704 3357
-1493.96 -85.3704 3357
-1485.93 -85.3704 3357
-1477.91 -85.3704 3357
-1469.88 -85.3704 3357
-1461.85 -85.3704 3357
-1459.45 -85.701 3370
-1451.4 -85.701 3370
-1449.33 -86.057 3384
-1441.24 -86.057 3384
-1436.11 -86.2351 3391
-1433.9 -86.5911 3405
-1431.62 -86.9471 3419
-1423.44 -86.9471 3419
-1421.06 -87.3031 3433
-1418.62 -87.6592 3447
-1410.37 -87.6592 3447
-1402.13 -87.6592 3447
-1391.06 -87.4812 3440
-1374.39 -86.9471 3419
-1366.21 -86.9471 3419
-1358.04 -86.9471 3419
-1344.33 -86.5911 3405
-1336.19 -86.5911 3405
-1317.13 -85.879 3377
-1309.05 -85.879 3377
-1293.27 -85.3704 3357
-1262.27 -83.8446 3297
-705.38 -47.1483 1854
-700.947 -47.1483 1854
-696.513 -47.1483 1854
-690.586 -47.0466 1850
-684.308 -46.9194 1845
-678.422 -46.8177 1841
-674.02 -46.8177 1841
-663.798 -46.4108 1825
-658.711 -46.3599 1823
-650.762 -46.1056 1813
-646.427 -46.1056 1813
-639.258 -45.9022 1805
-633.183 -45.775 1800
-624.686 -45.4699 1788
-620.41 -45.4699 1788
-610.276 -45.0375 1771
-599.54 -44.5544 1752
-592.971 -44.3763 1745
-585.762 -44.1475 1736
-581.611 -44.1475 1736
-574.465 -43.9186 1727
-567.363 -43.6897 1718
-561.616 -43.5626 1713
-557.52 -43.5626 1713
-550.516 -43.3337 1704
-545.479 -43.2574 1701
-539.183 -43.0794 1694
-535.132 -43.0794 1694
-529.827 -42.9777 1690
-525.475 -42.9522 1689
-521.436 -42.9522 1689
-517.397 -42.9522 1689
-512.143 -42.8505 1685
-507.209 -42.7742 1682
-503.186 -42.7742 1682
-498.571 -42.7234 1680
-494.553 -42.7234 1680
-489.66 -42.6471 1677
-484.202 -42.5199 1672
-479.629 -42.4691 1670
-475.636 -42.4691 1670
-471.077 -42.4182 1668
-466.809 -42.3928 1667
-462.267 -42.3419 1665
-458.285 -42.3419 1665
-454.304 -42.3419 1665
-449.511 -42.2656 1662
-445.001 -42.2147 1660
-441.031 -42.2147 1660
-436.535 -42.1639 1658
-431.787 -42.0876 1655
-427.313 -42.0367 1653
-423.36 -42.0367 1653
-417.885 -41.8841 1647
-413.444 -41.8333 1645
-409.261 -41.8079 1644
-405.33 -41.8079 1644
-400.178 -41.6807 1639
-395.775 -41.6298 1637
-391.621 -41.6044 1636
-387.235 -41.5536 1634
-383.327 -41.5536 1634
-379.42 -41.5536 1634
-374.823 -41.4773 1631
-370.468 -41.4264 1629
-366.572 -41.4264 1629
-362.677 -41.4264 1629
-358.782 -41.4264 1629
-354.668 -41.401 1628
-350.775 -41.401 1628
-346.882 -41.401 1628
-342.989 -41.401 1628
-339.096 -41.401 1628
-335.203 -41.401 1628
-330.903 -41.3501 1626
-327.417 -41.401 1628
-323.524 -41.401 1628
-319.631 -41.401 1628
-315.35 -41.3501 1626
-311.462 -41.3501 1626
-307.574 -41.3501 1626
-303.685 -41.3501 1626
-299.797 -41.3501 1626
-296.273 -41.401 1628
-292.38 -41.401 1628
-288.664 -41.4264 1629
-284.768 -41.4264 1629
-280.873 -41.4264 1629
-277.488 -41.5027 1632
-273.585 -41.5027 1632
-269.682 -41.5027 1632
-266.105 -41.5536 1634
-262.68 -41.6298 1637
-258.765 -41.6298 1637
-255.162 -41.6807 1639
-251.242 -41.6807 1639
-247.323 -41.6807 1639
-243.404 -41.6807 1639
-239.484 -41.6807 1639
-235.565 -41.6807 1639
-231.787 -41.7061 1640
-228.143 -41.757 1642
-224.217 -41.757 1642
-220.29 -41.757 1642
-216.364 -41.757 1642
-212.437 -41.757 1642
-208.511 -41.757 1642
-204.584 -41.757 1642
-200.902 -41.8079 1644
-196.971 -41.8079 1644
-193.039 -41.8079 1644
-188.878 -41.757 1642
-184.388 -41.6298 1637
-180.474 -41.6298 1637
-176.559 -41.6298 1637
-172.539 -41.6044 1636
-168.421 -41.5536 1634
-164.513 -41.5536 1634
-160.803 -41.6044 1636
-156.89 -41.6044 1636
