-187.86 -108.645 1704
-184.001 -108.772 1706
-179.922 -108.772 1706
-176.151 -108.964 1709
-172.266 -109.091 1711
-168.666 -109.41 1716
-164.562 -109.41 1716
-160.646 -109.537 1718
-156.72 -109.665 1720
-152.873 -109.856 1723
-148.753 -109.856 1723
-145.136 -110.239 1729
-141.409 -110.558 1734
-137.738 -110.94 1740
-133.577 -110.94 1740
-130.085 -111.514 1749
-126.263 -111.833 1754
-122.973 -112.662 1767
-118.748 -112.662 1767
-115.3 -113.427 1779
-111.982 -114.383 1794
-108.053 -114.766 1800
-103.748 -114.766 1800
-99.8307 -115.212 1807
-95.9324 -115.722 1815
-91.895 -116.105 1821
-87.5404 -116.105 1821
-83.46 -116.487 1827
-79.2642 -116.742 1831
-74.9675 -116.87 1833
-70.5843 -116.87 1833
-66.4177 -117.252 1839
-62.155 -117.507 1843
-57.9672 -117.954 1850
-53.5433 -117.954 1850
-49.2255 -118.209 1854
-44.8404 -118.336 1856
-40.4021 -118.336 1856
-35.9639 -118.336 1856
-31.5596 -118.464 1858
-27.1165 -118.464 1858
-22.6735 -118.464 1858
-18.6435 -236.354 3707
-9.77893 -236.354 3707
-0.914374 -236.354 3707
7.96949 -236.927 3716
16.8556 -236.927 3716
25.7417 -236.927 3716
34.6277 -236.927 3716
43.5138 -236.927 3716
52.3999 -236.927 3716
61.286 -236.927 3716
70.1721 -236.927 3716
78.8667 -236.354 3707
87.7312 -236.354 3707
96.3873 -235.843 3699
105.233 -235.843 3699
114.078 -235.843 3699
122.924 -235.843 3699
131.769 -235.843 3699
140.614 -235.843 3699
149.46 -235.843 3699
158.648 -236.354 3707
167.512 -236.354 3707
176.377 -236.354 3707
185.241 -236.354 3707
194.106 -236.354 3707
202.971 -236.354 3707
211.835 -236.354 3707
220.223 -235.843 3699
229.069 -235.843 3699
237.914 -235.843 3699
246.76 -235.843 3699
255.605 -235.843 3699
264.451 -235.843 3699
273.296 -235.843 3699
282.141 -235.843 3699
290.987 -235.843 3699
299.832 -235.843 3699
308.678 -235.843 3699
317.523 -235.843 3699
326.368 -235.843 3699
334.489 -235.333 3691
343.315 -235.333 3691
352.142 -235.333 3691
360.968 -235.333 3691
368.993 -234.823 3683
377.8 -234.823 3683
385.767 -234.313 3675
394.555 -234.313 3675
402.465 -233.803 3667
411.234 -233.803 3667
418.972 -233.229 3658
425.849 -232.209 3642
434.558 -232.209 3642
443.267 -232.209 3642
451.976 -232.209 3642
460.685 -232.209 3642
469.394 -232.209 3642
479.154 -232.719 3650
490.154 -233.803 3667
498.923 -233.803 3667
507.692 -233.803 3667
517.588 -234.313 3675
530.959 -236.354 3707
539.824 -236.354 3707
552.389 -237.948 3732
561.313 -237.948 3732
570.237 -237.948 3732
575.282 -236.354 3707
1711.61 -255.099 4001
1721.18 -255.099 4001
1730.75 -255.099 4001
1727.7 -253.25 3972
1728.89 -252.038 3953
1734.39 -251.464 3944
1743.82 -251.464 3944
2292.39 -252.676 3963
2301.87 -252.676 3963
2311.35 -252.676 3963
2293.3 -249.679 3916
2302.66 -249.679 3916
2333.87 -252.038 3953
2360.52 -253.887 3982
2370.04 -253.887 3982
2384.94 -254.461 3991
2394.48 -254.461 3991
2404.03 -254.461 3991
2408.13 -253.887 3982
2400.04 -252.038 3953
2409.49 -252.038 3953
2413.44 -251.464 3944
2422.87 -251.464 3944
2432.3 -251.464 3944
2436.16 -250.891 3935
2433.76 -249.679 3916
2443.13 -249.679 3916
2446.86 -249.105 3907
2450.54 -248.531 3898
2476.9 -250.253 3925
2486.29 -250.253 3925
2495.67 -250.253 3925
2499.31 -249.679 3916
2502.91 -249.105 3907
2512.26 -249.105 3907
2515.79 -248.531 3898
2519.28 -247.958 3889
2528.58 -247.958 3889
2532.01 -247.384 3880
2547.18 -247.958 3889
2556.48 -247.958 3889
2571.72 -248.531 3898
2592.96 -249.679 3916
2602.32 -249.679 3916
2611.69 -249.679 3916
2621.05 -249.679 3916
2636.46 -250.253 3925
2645.85 -250.253 3925
2655.23 -250.253 3925
2658.51 -249.679 3916
2649.48 -247.958 3889
2664.93 -248.531 3898
2674.25 -248.531 3898
2683.57 -248.531 3898
2692.89 -248.531 3898
2702.22 -248.531 3898
2711.54 -248.531 3898
2720.86 -248.531 3898
2730.18 -248.531 3898
2695.22 -244.515 3835
2704.4 -244.515 3835
2695.17 -242.857 3809
2704.28 -242.857 3809
2694.86 -241.199 3783
2703.91 -241.199 3783
2700.77 -240.115 3766
2703.3 -239.541 3757
2700.01 -238.458 3740
2703.16 -237.948 3732
2712.08 -237.948 3732
2721 -237.948 3732
2729.93 -237.948 3732
2732.98 -237.437 3724
2741.89 -237.437 3724
2750.79 -237.437 3724
2759.7 -237.437 3724
2768.6 -237.437 3724
2777.51 -237.437 3724
2780.43 -236.927 3716
2801.32 -237.948 3732
2816.27 -238.458 3740
2844.86 -240.115 3766
2859.92 -240.625 3774
2868.95 -240.625 3774
2884.84 -241.199 3783
2893.88 -241.199 3783
-2645.99 -216.858 3534
-2637.54 -216.858 3534
-2629.09 -216.858 3534
-2620.64 -216.858 3534
-2612.19 -216.858 3534
-2495.24 -211.949 3454
-2486.98 -211.949 3454
-2478.72 -211.949 3454
-2460.45 -211.089 3440
-2452.22 -211.089 3440
-2444 -211.089 3440
-2440.73 -211.519 3447
-2432.48 -211.519 3447
-2429.16 -211.949 3454
-2420.9 -211.949 3454
-2412.64 -211.949 3454
-2404.38 -211.949 3454
-2386.41 -211.089 3440
-2423.12 -215.078 3505
-2414.74 -215.078 3505
-2406.36 -215.078 3505
-2402.77 -215.508 3512
-2440.73 -219.68 3580
-2432.17 -219.68 3580
-2433.76 -220.601 3595
-2430.56 -221.092 3603
-2438.08 -222.564 3627
-2429.41 -222.564 3627
-2430.74 -223.485 3642
-2427.36 -223.976 3650
-2435.19 -225.51 3675
-2426.41 -225.51 3675
-2422.88 -226.001 3683
-2414.07 -226.001 3683
-2420.94 -227.473 3707
-2412.07 -227.473 3707
-2446.65 -231.585 3774
-2443.43 -232.137 3783
-2434.39 -232.137 3783
-2425.34 -232.137 3783
-2410.55 -231.585 3774
-658.326 -99.8993 1628
-655.638 -100.083 1631
-651.738 -100.083 1631
-647.838 -100.083 1631
-643.938 -100.083 1631
-640.038 -100.083 1631
-636.137 -100.083 1631
-630.299 -99.7766 1626
-626.411 -99.7766 1626
-622.522 -99.7766 1626
-617.873 -99.6538 1624
-613.99 -99.6538 1624
-610.106 -99.6538 1624
-606.223 -99.6538 1624
-602.339 -99.6538 1624
-598.456 -99.6538 1624
-595.305 -99.7766 1626
-591.416 -99.7766 1626
-587.528 -99.7766 1626
-583.64 -99.7766 1626
-579.752 -99.7766 1626
-576.926 -99.9607 1629
-573.03 -99.9607 1629
-569.135 -99.9607 1629
-565.24 -99.9607 1629
-561.344 -99.9607 1629
-557.449 -99.9607 1629
-553.553 -99.9607 1629
-549.658 -99.9607 1629
-545.427 -99.8993 1628
-541.534 -99.8993 1628
-536.981 -99.7766 1626
-533.093 -99.7766 1626
-528.553 -99.6538 1624
-524.67 -99.6538 1624
-520.786 -99.6538 1624
-516.903 -99.6538 1624
-513.019 -99.6538 1624
-509.136 -99.6538 1624
-505.253 -99.6538 1624
-501.369 -99.6538 1624
-497.486 -99.6538 1624
-493.602 -99.6538 1624
-489.719 -99.6538 1624
-485.835 -99.6538 1624
-481.655 -99.5925 1623
-477.774 -99.5925 1623
-473.893 -99.5925 1623
-470.012 -99.5925 1623
-466.131 -99.5925 1623
-462.249 -99.5925 1623
-458.368 -99.5925 1623
-454.487 -99.5925 1623
-450.606 -99.5925 1623
-446.725 -99.5925 1623
-442.844 -99.5925 1623
-438.963 -99.5925 1623
-435.082 -99.5925 1623
-431.201 -99.5925 1623
-426.793 -99.4697 1621
-422.917 -99.4697 1621
-419.04 -99.4697 1621
-415.164 -99.4697 1621
-411.288 -99.4697 1621
-407.16 -99.4084 1620
-403.286 -99.4084 1620
-399.412 -99.4084 1620
-395.539 -99.4084 1620
-391.665 -99.4084 1620
-387.791 -99.4084 1620
-383.917 -99.4084 1620
-380.043 -99.4084 1620
-376.169 -99.4084 1620
-372.295 -99.4084 1620
-368.421 -99.4084 1620
-364.772 -99.4697 1621
-360.896 -99.4697 1621
-357.02 -99.4697 1621
-353.579 -99.5925 1623
-350.344 -99.7766 1626
-346.456 -99.7766 1626
-342.989 -99.8993 1628
-339.096 -99.8993 1628
-335.409 -99.9607 1629
-331.514 -99.9607 1629
-328.02 -100.083 1631
-324.319 -100.145 1632
-320.416 -100.145 1632
-316.514 -100.145 1632
-312.994 -100.267 1634
-309.087 -100.267 1634
-305.179 -100.267 1634
-301.272 -100.267 1634
-297.365 -100.267 1634
-293.457 -100.267 1634
-290.436 -100.574 1639
-286.517 -100.574 1639
-282.597 -100.574 1639
-279.188 -100.758 1642
-275.764 -100.942 1645
-271.831 -100.942 1645
-268.223 -101.065 1647
-264.766 -101.249 1650
-261.136 -101.372 1652
-257.186 -101.372 1652
-254.155 -101.74 1658
-250.794 -101.986 1662
-246.968 -102.047 1663
-242.991 -102.047 1663
-240.02 -102.477 1670
-236.31 -102.599 1672
-233.145 -102.967 1678
-229.132 -102.967 1678
-225.791 -103.274 1683
-222.293 -103.52 1687
-218.647 -103.704 1690
-214.606 -103.704 1690
-211.063 -103.949 1694
-207.012 -103.949 1694
-203.321 -104.133 1697
-199.497 -104.256 1699
-195.435 -104.256 1699
-191.71 -104.44 1702
-187.86 -104.563 1704
-184.001 -104.686 1706
-179.922 -104.686 1706
-176.151 -104.87 1709
-172.266 -104.992 1711
-168.666 -105.299 1716
-164.562 -105.299 1716
-160.646 -105.422 1718
-156.72 -105.545 1720
-152.873 -105.729 1723
-148.753 -105.729 1723
-145.304 -106.22 1731
-141.572 -106.527 1736
-137.817 -106.833 1741
-133.654 -106.833 1741
-130.234 -107.447 1751
-126.407 -107.754 1756
-123.113 -108.552 1769
-118.882 -108.552 1769
-115.495 -109.349 1782
-112.232 -110.331 1798
-108.173 -110.576 1802
-103.864 -110.576 1802
-100.052 -111.129 1811
-96.1438 -111.62 1819
-91.9959 -111.865 1823
-87.6366 -111.865 1823
-83.5513 -112.233 1829
-79.2642 -112.356 1831
-75.0493 -112.601 1835
-70.6613 -112.601 1835
-66.4899 -112.97 1841
-62.155 -113.092 1843
-57.9672 -113.522 1850
-53.5433 -113.522 1850
-49.2255 -113.767 1854
-44.8404 -113.89 1856
-40.4021 -113.89 1856
-35.9639 -113.89 1856
-31.5596 -114.013 1858
-27.1165 -114.013 1858
-22.6735 -114.013 1858
-18.6435 -227.473 3707
-9.77893 -227.473 3707
-0.914374 -227.473 3707
7.96949 -228.026 3716
16.8556 -228.026 3716
25.7417 -228.026 3716
34.6277 -228.026 3716
43.5138 -228.026 3716
52.3999 -228.026 3716
61.286 -228.026 3716
70.1721 -228.026 3716
78.8667 -227.473 3707
87.7312 -227.473 3707
96.3873 -226.982 3699
105.233 -226.982 3699
114.078 -226.982 3699
122.924 -226.982 3699
131.769 -226.982 3699
140.614 -226.982 3699
149.46 -226.982 3699
158.648 -227.473 3707
167.512 -227.473 3707
176.377 -227.473 3707
185.241 -227.473 3707
194.106 -227.473 3707
202.971 -227.473 3707
211.835 -227.473 3707
220.223 -226.982 3699
229.069 -226.982 3699
237.914 -226.982 3699
246.76 -226.982 3699
255.605 -226.982 3699
264.451 -226.982 3699
273.296 -226.982 3699
282.141 -226.982 3699
290.987 -226.982 3699
299.832 -226.982 3699
308.678 -226.982 3699
317.523 -226.982 3699
326.368 -226.982 3699
334.489 -226.492 3691
343.315 -226.492 3691
352.142 -226.492 3691
360.968 -226.492 3691
368.993 -226.001 3683
377.8 -226.001 3683
386.607 -226.001 3683
394.555 -225.51 3675
402.465 -225.019 3667
411.234 -225.019 3667
420.003 -225.019 3667
427.72 -224.467 3658
434.558 -223.485 3642
443.267 -223.485 3642
451.976 -223.485 3642
460.685 -223.485 3642
470.426 -223.976 3650
481.385 -225.019 3667
490.154 -225.019 3667
498.923 -225.019 3667
507.692 -225.019 3667
517.588 -225.51 3675
530.959 -227.473 3707
539.824 -227.473 3707
552.389 -229.007 3732
561.313 -229.007 3732
570.237 -229.007 3732
575.282 -227.473 3707
584.147 -227.473 3707
594.451 -228.026 3716
608.695 -230.051 3749
617.66 -230.051 3749
626.625 -230.051 3749
635.59 -230.051 3749
644.555 -230.051 3749
653.52 -230.051 3749
662.485 -230.051 3749
671.45 -230.051 3749
680.415 -230.051 3749
689.38 -230.051 3749
698.345 -230.051 3749
1711.61 -245.514 4001
1721.18 -245.514 4001
1730.75 -245.514 4001
1727.7 -243.735 3972
1728.89 -242.569 3953
1734.39 -242.016 3944
1743.82 -242.016 3944
2241.31 -239.746 3907
2250.66 -239.746 3907
2292.39 -243.182 3963
2301.87 -243.182 3963
2311.35 -243.182 3963
2293.3 -240.298 3916
2313.83 -241.464 3935
2333.87 -242.569 3953
2360.52 -244.348 3982
2370.04 -244.348 3982
2384.94 -244.901 3991
2394.48 -244.901 3991
2404.03 -244.901 3991
2408.13 -244.348 3982
2400.04 -242.569 3953
2409.49 -242.569 3953
2413.44 -242.016 3944
2422.87 -242.016 3944
2432.3 -242.016 3944
2436.16 -241.464 3935
2433.76 -240.298 3916
2443.13 -240.298 3916
2446.86 -239.746 3907
2450.54 -239.194 3898
2476.9 -240.851 3925
2486.29 -240.851 3925
2495.67 -240.851 3925
2499.31 -240.298 3916
2502.91 -239.746 3907
2512.26 -239.746 3907
2515.79 -239.194 3898
2519.28 -238.641 3889
2528.58 -238.641 3889
2537.88 -238.641 3889
2558.97 -239.746 3907
2568.31 -239.746 3907
2602.07 -242.016 3944
2611.5 -242.016 3944
2620.93 -242.016 3944
2630.36 -242.016 3944
2639.79 -242.016 3944
2649.22 -242.016 3944
2658.65 -242.016 3944
2668.08 -242.016 3944
2671.41 -241.464 3935
2674 -240.851 3925
2683.39 -240.851 3925
2692.77 -240.851 3925
2702.16 -240.851 3925
2711.55 -240.851 3925
2720.93 -240.851 3925
2730.32 -240.851 3925
2720.86 -239.194 3898
2730.18 -239.194 3898
2695.22 -235.328 3835
2704.4 -235.328 3835
2695.17 -233.732 3809
2704.28 -233.732 3809
2694.86 -232.137 3783
2703.91 -232.137 3783
2700.77 -231.094 3766
2703.3 -230.542 3757
2700.01 -229.498 3740
2703.16 -229.007 3732
2712.08 -229.007 3732
2721 -229.007 3732
2729.93 -229.007 3732
2732.98 -228.517 3724
2741.89 -228.517 3724
2750.79 -228.517 3724
2759.7 -228.517 3724
2768.6 -228.517 3724
2777.51 -228.517 3724
2780.43 -228.026 3716
2801.32 -229.007 3732
2816.27 -229.498 3740
2844.86 -231.094 3766
2859.92 -231.585 3774
2868.95 -231.585 3774
2884.84 -232.137 3783
2893.88 -232.137 3783
-2645.99 -208.392 3534
-2637.54 -208.392 3534
-2629.09 -208.392 3534
-2620.64 -208.392 3534
-2612.19 -208.392 3534
-2495.24 -203.674 3454
-2486.98 -203.674 3454
-2478.72 -203.674 3454
-2455.44 -202.436 3433
-2442.24 -202.023 3426
-2439.02 -202.436 3433
-2440.73 -203.262 3447
-2432.48 -203.262 3447
-2429.16 -203.674 3454
-2420.9 -203.674 3454
-2412.64 -203.674 3454
-2404.38 -203.674 3454
-2386.41 -202.849 3440
-2423.12 -206.682 3505
-2414.74 -206.682 3505
-2406.36 -206.682 3505
-2402.77 -207.095 3512
-2440.73 -211.104 3580
-2432.17 -211.104 3580
-2433.76 -211.989 3595
-2430.56 -212.461 3603
-2438.08 -213.876 3627
-2429.41 -213.876 3627
-2430.74 -214.76 3642
-2427.36 -215.232 3650
-2435.19 -216.706 3675
-2426.41 -216.706 3675
-2422.88 -217.178 3683
-2414.07 -217.178 3683
-2420.94 -218.593 3707
-2412.07 -218.593 3707
-2446.65 -222.544 3774
-2437.62 -222.544 3774
-2428.6 -222.544 3774
-2419.57 -222.544 3774
-2410.55 -222.544 3774
-656.304 -95.7046 1623
-654.433 -95.9994 1628
-650.539 -95.9994 1628
-646.646 -95.9994 1628
-642.753 -95.9994 1628
-638.86 -95.9994 1628
-634.967 -95.9994 1628
-630.299 -95.8815 1626
-626.411 -95.8815 1626
-622.522 -95.8815 1626
-617.873 -95.7635 1624
-613.99 -95.7635 1624
-610.106 -95.7635 1624
-606.223 -95.7635 1624
-602.339 -95.7635 1624
-598.456 -95.7635 1624
-595.305 -95.8815 1626
-591.416 -95.8815 1626
-587.528 -95.8815 1626
-583.64 -95.8815 1626
-579.752 -95.8815 1626
-576.926 -96.0584 1629
-573.03 -96.0584 1629
-569.135 -96.0584 1629
-565.24 -96.0584 1629
-561.344 -96.0584 1629
-557.449 -96.0584 1629
-553.553 -96.0584 1629
-549.658 -96.0584 1629
-545.427 -95.9994 1628
-541.534 -95.9994 1628
-536.981 -95.8815 1626
-533.093 -95.8815 1626
-528.553 -95.7635 1624
-524.67 -95.7635 1624
-520.786 -95.7635 1624
-516.903 -95.7635 1624
-513.019 -95.7635 1624
-509.136 -95.7635 1624
-505.253 -95.7635 1624
-501.369 -95.7635 1624
-497.486 -95.7635 1624
-493.602 -95.7635 1624
-489.719 -95.7635 1624
-485.835 -95.7635 1624
-481.655 -95.7046 1623
-477.774 -95.7046 1623
-473.893 -95.7046 1623
-470.012 -95.7046 1623
-466.131 -95.7046 1623
-462.249 -95.7046 1623
-458.368 -95.7046 1623
-454.487 -95.7046 1623
-450.606 -95.7046 1623
-446.725 -95.7046 1623
-442.844 -95.7046 1623
-438.963 -95.7046 1623
-435.082 -95.7046 1623
-431.201 -95.7046 1623
-426.793 -95.5866 1621
-422.656 -95.5277 1620
-418.782 -95.5277 1620
-414.908 -95.5277 1620
-411.034 -95.5277 1620
-407.16 -95.5277 1620
-403.286 -95.5277 1620
-399.412 -95.5277 1620
-395.539 -95.5277 1620
-391.181 -95.4097 1618
-387.791 -95.5277 1620
-383.917 -95.5277 1620
-380.043 -95.5277 1620
-376.169 -95.5277 1620
-372.295 -95.5277 1620
-368.421 -95.5277 1620
-364.772 -95.5866 1621
-360.896 -95.5866 1621
-357.02 -95.5866 1621
-353.579 -95.7046 1623
-350.344 -95.8815 1626
-346.456 -95.8815 1626
-342.989 -95.9994 1628
-339.096 -95.9994 1628
-335.409 -96.0584 1629
-331.514 -96.0584 1629
-328.02 -96.1763 1631
-324.319 -96.2353 1632
-320.416 -96.2353 1632
-316.514 -96.2353 1632
-312.994 -96.3532 1634
-309.087 -96.3532 1634
-305.179 -96.3532 1634
-301.272 -96.3532 1634
-297.365 -96.3532 1634
-293.457 -96.3532 1634
-290.436 -96.648 1639
-286.517 -96.648 1639
-282.597 -96.648 1639
-279.188 -96.825 1642
-275.597 -96.9429 1644
-271.665 -96.9429 1644
-268.223 -97.1198 1647
-264.766 -97.2967 1650
-261.136 -97.4146 1652
-257.186 -97.4146 1652
-254.155 -97.7684 1658
-250.794 -98.0043 1662
-246.968 -98.0633 1663
-242.991 -98.0633 1663
-240.02 -98.476 1670
-236.31 -98.594 1672
-233.145 -98.9478 1678
-229.132 -98.9478 1678
-225.791 -99.2426 1683
-222.293 -99.4785 1687
-218.647 -99.6554 1690
-214.606 -99.6554 1690
-211.063 -99.8913 1694
-207.012 -99.8913 1694
-203.321 -100.068 1697
-199.497 -100.186 1699
-195.435 -100.186 1699
-191.71 -100.363 1702
-187.86 -100.481 1704
-184.001 -100.599 1706
-179.922 -100.599 1706
-176.151 -100.776 1709
-172.266 -100.894 1711
-168.666 -101.189 1716
-164.562 -101.189 1716
-160.646 -101.306 1718
-156.72 -101.424 1720
-152.873 -101.601 1723
-148.753 -101.601 1723
-145.304 -102.073 1731
-141.572 -102.368 1736
-137.817 -102.663 1741
-133.654 -102.663 1741
-130.234 -103.252 1751
-126.407 -103.547 1756
-123.113 -104.314 1769
-118.882 -104.314 1769
-115.495 -105.08 1782
-112.232 -106.024 1798
-108.173 -106.26 1802
-103.864 -106.26 1802
-100.052 -106.79 1811
-96.1438 -107.262 1819
-91.9959 -107.498 1823
-87.6366 -107.498 1823
-83.5513 -107.852 1829
-79.2642 -107.97 1831
-75.0493 -108.206 1835
-70.6613 -108.206 1835
-66.4899 -108.56 1841
-62.155 -108.677 1843
-57.9672 -109.09 1850
-53.5433 -109.09 1850
-49.1724 -109.208 1852
-44.7921 -109.326 1854
-40.4021 -109.444 1856
-35.9639 -109.444 1856
-31.5596 -109.562 1858
-27.1165 -109.562 1858
-22.6735 -109.562 1858
-18.6435 -218.593 3707
-9.77893 -218.593 3707
-0.914374 -218.593 3707
7.96949 -219.124 3716
16.8556 -219.124 3716
25.7417 -219.124 3716
34.6277 -219.124 3716
43.5138 -219.124 3716
52.3999 -219.124 3716
61.286 -219.124 3716
70.1721 -219.124 3716
78.8667 -218.593 3707
87.7312 -218.593 3707
96.3873 -218.121 3699
105.233 -218.121 3699
113.831 -217.65 3691
122.658 -217.65 3691
131.484 -217.65 3691
140.31 -217.65 3691
149.46 -218.121 3699
158.305 -218.121 3699
167.151 -218.121 3699
176.377 -218.593 3707
185.241 -218.593 3707
194.106 -218.593 3707
202.532 -218.121 3699
211.378 -218.121 3699
220.223 -218.121 3699
229.069 -218.121 3699
237.914 -218.121 3699
246.226 -217.65 3691
255.605 -218.121 3699
264.451 -218.121 3699
273.296 -218.121 3699
282.141 -218.121 3699
290.987 -218.121 3699
299.832 -218.121 3699
308.678 -218.121 3699
317.523 -218.121 3699
326.368 -218.121 3699
334.489 -217.65 3691
343.315 -217.65 3691
352.142 -217.65 3691
360.968 -217.65 3691
368.993 -217.178 3683
377.8 -217.178 3683
386.607 -217.178 3683
394.555 -216.706 3675
402.465 -216.235 3667
411.234 -216.235 3667
420.003 -216.235 3667
427.72 -215.704 3658
434.558 -214.76 3642
443.267 -214.76 3642
451.976 -214.76 3642
460.685 -214.76 3642
470.426 -215.232 3650
481.385 -216.235 3667
490.154 -216.235 3667
498.923 -216.235 3667
507.692 -216.235 3667
516.461 -216.235 3667
528.668 -217.65 3691
537.494 -217.65 3691
547.504 -218.121 3699
556.35 -218.121 3699
566.417 -218.593 3707
575.282 -218.593 3707
584.147 -218.593 3707
594.451 -219.124 3716
608.695 -221.07 3749
617.66 -221.07 3749
626.625 -221.07 3749
635.59 -221.07 3749
644.555 -221.07 3749
653.52 -221.07 3749
662.485 -221.07 3749
671.45 -221.07 3749
680.415 -221.07 3749
689.38 -221.07 3749
698.345 -221.07 3749
1706.09 -232.569 3944
1715.52 -232.569 3944
1724.95 -232.569 3944
1734.39 -232.569 3944
1743.82 -232.569 3944
2241.31 -230.387 3907
2250.66 -230.387 3907
2260 -230.387 3907
2274.57 -230.917 3916
2283.93 -230.917 3916
2293.3 -230.917 3916
2313.83 -232.038 3935
2328.56 -232.569 3944
2360.52 -234.809 3982
2370.04 -234.809 3982
2379.56 -234.809 3982
2389.08 -234.809 3982
2398.6 -234.809 3982
2396.64 -233.689 3963
2400.04 -233.099 3953
2392.43 -231.448 3925
2401.81 -231.448 3925
2411.2 -231.448 3925
2420.58 -231.448 3925
2424.4 -230.917 3916
2433.76 -230.917 3916
2443.13 -230.917 3916
2435.58 -229.325 3889
2444.88 -229.325 3889
2459.86 -229.856 3898
2474.88 -230.387 3907
2484.23 -230.387 3907
2493.57 -230.387 3907
2502.91 -230.387 3907
2512.26 -230.387 3907
2515.79 -229.856 3898
2519.28 -229.325 3889
2528.58 -229.325 3889
2537.88 -229.325 3889
2558.97 -230.387 3907
2568.31 -230.387 3907
2602.07 -232.569 3944
2611.5 -232.569 3944
2620.93 -232.569 3944
2630.36 -232.569 3944
2639.79 -232.569 3944
2649.22 -232.569 3944
2658.65 -232.569 3944
2668.08 -232.569 3944
2671.41 -232.038 3935
2674 -231.448 3925
2683.39 -231.448 3925
2692.77 -231.448 3925
2702.16 -231.448 3925
2711.55 -231.448 3925
2720.93 -231.448 3925
2730.32 -231.448 3925
2720.86 -229.856 3898
2717.57 -228.795 3880
2688.9 -225.61 3826
2698.05 -225.61 3826
2676.77 -223.075 3783
2685.82 -223.075 3783
2682.75 -222.072 3766
2691.76 -222.072 3766
2694.31 -221.542 3757
2691.06 -220.539 3740
2694.23 -220.067 3732
2691.57 -219.124 3716
2706.27 -219.596 3724
2715.17 -219.596 3724
2724.08 -219.596 3724
2727.11 -219.124 3716
2736 -219.124 3716
2738.23 -218.593 3707
2747.1 -218.593 3707
2755.96 -218.593 3707
2764.83 -218.593 3707
2767.71 -218.121 3699
2782.56 -218.593 3707
2791.42 -218.593 3707
2819.17 -220.067 3732
2828.1 -220.067 3732
2837.02 -220.067 3732
2845.94 -220.067 3732
2854.87 -220.067 3732
-2657.22 -200.775 3549
-2648.74 -200.775 3549
-2646.2 -201.227 3557
-2637.7 -201.227 3557
-2629.19 -201.227 3557
-2495.24 -195.4 3454
-2486.98 -195.4 3454
-2478.72 -195.4 3454
-2450.43 -193.816 3426
-2427.27 -192.628 3405
-2439.02 -194.212 3433
-2445.68 -195.4 3454
-2437.42 -195.4 3454
-2429.16 -195.4 3454
-2425.81 -195.796 3461
-2417.53 -195.796 3461
-2409.26 -195.796 3461
-2400.98 -195.796 3461
-2423.12 -198.286 3505
-2419.56 -198.682 3512
-2411.17 -198.682 3512
-2423.29 -200.379 3542
-2440.73 -202.528 3580
-2432.17 -202.528 3580
-2429.02 -202.981 3588
-2435.96 -204.282 3611
-2438.08 -205.187 3627
-2429.41 -205.187 3627
-2430.74 -206.036 3642
-2432.68 -206.941 3658
-2435.19 -207.903 3675
-2426.41 -207.903 3675
-2422.88 -208.355 3683
-2414.07 -208.355 3683
-2420.94 -209.713 3707
-2412.07 -209.713 3707
-2424.6 -211.58 3740
-2437.62 -213.503 3774
-2428.6 -213.503 3774
-2419.57 -213.503 3774
-2399.69 -212.542 3757
-1616.44 -195.004 3447
-1621.73 -196.645 3476
-1613.42 -196.645 3476
-1605.11 -196.645 3476
-1593.12 -196.192 3468
-1604.93 -198.682 3512
-1596.54 -198.682 3512
-1588.14 -198.682 3512
-1579.74 -198.682 3512
-1571.34 -198.682 3512
-1530.48 -199.926 3534
-1522.03 -199.926 3534
-1513.58 -199.926 3534
-655.495 -91.7035 1621
-652.825 -91.8732 1624
-648.941 -91.8732 1624
-645.058 -91.8732 1624
-641.174 -91.8732 1624
-637.291 -91.8732 1624
-633.407 -91.8732 1624
-629.524 -91.8732 1624
-625.255 -91.8167 1623
-621.374 -91.8167 1623
-616.732 -91.7035 1621
-612.856 -91.7035 1621
-608.979 -91.7035 1621
-605.103 -91.7035 1621
-601.227 -91.7035 1621
-598.087 -91.8167 1623
-594.572 -91.8732 1624
-591.416 -91.9864 1626
-587.528 -91.9864 1626
-583.64 -91.9864 1626
-579.752 -91.9864 1626
-576.926 -92.1561 1629
-573.03 -92.1561 1629
-569.135 -92.1561 1629
-565.24 -92.1561 1629
-561.344 -92.1561 1629
-557.449 -92.1561 1629
-553.553 -92.1561 1629
-549.658 -92.1561 1629
-545.762 -92.1561 1629
-541.867 -92.1561 1629
-537.641 -92.0995 1628
-533.748 -92.0995 1628
-529.204 -91.9864 1626
-525.316 -91.9864 1626
-521.428 -91.9864 1626
-518.176 -92.0995 1628
-514.283 -92.0995 1628
-510.39 -92.0995 1628
-506.497 -92.0995 1628
-502.604 -92.0995 1628
-498.711 -92.0995 1628
-494.818 -92.0995 1628
-490.322 -91.9864 1626
-485.835 -91.8732 1624
-481.952 -91.8732 1624
-478.068 -91.8732 1624
-474.185 -91.8732 1624
-470.301 -91.8732 1624
-466.418 -91.8732 1624
-462.534 -91.8732 1624
-458.368 -91.8167 1623
-454.487 -91.8167 1623
-450.606 -91.8167 1623
-446.725 -91.8167 1623
-442.844 -91.8167 1623
-438.963 -91.8167 1623
-435.082 -91.8167 1623
-431.201 -91.8167 1623
-426.793 -91.7035 1621
-422.917 -91.7035 1621
-418.782 -91.6469 1620
-414.908 -91.6469 1620
-411.034 -91.6469 1620
-407.16 -91.6469 1620
-403.286 -91.6469 1620
-399.412 -91.6469 1620
-395.539 -91.6469 1620
-391.181 -91.5338 1618
-387.791 -91.6469 1620
-383.917 -91.6469 1620
-380.043 -91.6469 1620
-376.169 -91.6469 1620
-372.295 -91.6469 1620
-368.649 -91.7035 1621
-364.772 -91.7035 1621
-360.896 -91.7035 1621
-357.02 -91.7035 1621
-353.579 -91.8167 1623
-350.344 -91.9864 1626
-346.456 -91.9864 1626
-342.989 -92.0995 1628
-339.096 -92.0995 1628
-335.409 -92.1561 1629
-331.514 -92.1561 1629
-328.02 -92.2692 1631
-324.319 -92.3258 1632
-320.809 -92.4389 1634
-316.902 -92.4389 1634
-312.994 -92.4389 1634
-309.087 -92.4389 1634
-305.179 -92.4389 1634
-301.272 -92.4389 1634
-297.365 -92.4389 1634
-293.816 -92.5521 1636
-290.436 -92.7218 1639
-286.517 -92.7218 1639
-282.77 -92.7784 1640
-279.188 -92.8915 1642
-275.597 -93.0047 1644
-271.665 -93.0047 1644
-268.223 -93.1744 1647
-265.086 -93.4572 1652
-261.136 -93.4572 1652
-257.186 -93.4572 1652
-254.155 -93.7967 1658
-250.945 -94.0795 1663
-247.265 -94.1927 1665
-243.283 -94.1927 1665
-240.02 -94.4755 1670
-236.451 -94.6453 1673
-233.423 -95.0413 1680
-229.406 -95.0413 1680
-225.791 -95.211 1683
-222.293 -95.4373 1687
-218.647 -95.607 1690
-214.606 -95.607 1690
-211.063 -95.8333 1694
-207.012 -95.8333 1694
-203.321 -96.003 1697
-199.497 -96.1161 1699
-195.435 -96.1161 1699
-191.597 -96.2293 1701
-187.86 -96.399 1704
-184.001 -96.5121 1706
-179.922 -96.5121 1706
-176.151 -96.6819 1709
-172.266 -96.795 1711
-168.666 -97.0779 1716
-164.562 -97.0779 1716
-160.646 -97.191 1718
-156.72 -97.3042 1720
-152.873 -97.4739 1723
-148.753 -97.4739 1723
-145.304 -97.9265 1731
-141.572 -98.2093 1736
-137.817 -98.4922 1741
-133.654 -98.4922 1741
-130.234 -99.0579 1751
-126.407 -99.3408 1756
-123.113 -100.076 1769
-118.882 -100.076 1769
-115.495 -100.812 1782
-112.357 -101.83 1800
-108.293 -102.056 1804
-103.979 -102.056 1804
-100.052 -102.452 1811
-96.2496 -103.018 1821
-92.0968 -103.244 1825
-87.7327 -103.244 1825
-83.6427 -103.584 1831
-79.2642 -103.584 1831
-75.0493 -103.81 1835
-70.6613 -103.81 1835
-66.4899 -104.149 1841
-62.155 -104.263 1843
-57.8732 -104.489 1847
-53.4564 -104.489 1847
-49.1724 -104.772 1852
-44.7921 -104.885 1854
-40.4021 -104.998 1856
-35.9639 -104.998 1856
-31.5596 -105.111 1858
-27.1165 -105.111 1858
-22.6735 -105.111 1858
-18.6033 -209.261 3699
-9.75783 -209.261 3699
-0.912401 -209.261 3699
7.95019 -209.713 3707
16.8147 -209.713 3707
25.6793 -209.713 3707
34.6277 -210.222 3716
43.5138 -210.222 3716
52.3999 -210.222 3716
61.286 -210.222 3716
70.1721 -210.222 3716
78.8667 -209.713 3707
87.7312 -209.713 3707
96.3873 -209.261 3699
105.005 -208.808 3691
113.831 -208.808 3691
122.658 -208.808 3691
131.484 -208.808 3691
140.31 -208.808 3691
149.137 -208.808 3691
158.305 -209.261 3699
167.151 -209.261 3699
175.996 -209.261 3699
184.842 -209.261 3699
193.687 -209.261 3699
202.532 -209.261 3699
211.378 -209.261 3699
220.223 -209.261 3699
228.573 -208.808 3691
237.4 -208.808 3691
246.226 -208.808 3691
255.052 -208.808 3691
263.879 -208.808 3691
272.705 -208.808 3691
281.531 -208.808 3691
290.987 -209.261 3699
299.832 -209.261 3699
308.678 -209.261 3699
317.523 -209.261 3699
326.368 -209.261 3699
334.489 -208.808 3691
343.315 -208.808 3691
352.142 -208.808 3691
360.968 -208.808 3691
368.993 -208.355 3683
377.8 -208.355 3683
386.607 -208.355 3683
394.555 -207.903 3675
403.343 -207.903 3675
412.131 -207.903 3675
420.003 -207.45 3667
427.72 -206.941 3658
436.467 -206.941 3658
445.214 -206.941 3658
455.079 -207.45 3667
463.848 -207.45 3667
472.617 -207.45 3667
482.436 -207.903 3675
491.224 -207.903 3675
500.012 -207.903 3675
508.8 -207.903 3675
518.715 -208.355 3683
527.522 -208.355 3683
536.329 -208.355 3683
547.504 -209.261 3699
556.35 -209.261 3699
566.417 -209.713 3707
575.282 -209.713 3707
590.765 -212.089 3749
599.73 -212.089 3749
608.695 -212.089 3749
617.66 -212.089 3749
626.625 -212.089 3749
635.59 -212.089 3749
644.555 -212.089 3749
653.52 -212.089 3749
662.485 -212.089 3749
671.45 -212.089 3749
680.415 -212.089 3749
689.38 -212.089 3749
698.345 -212.089 3749
1655.05 -202.981 3588
1663.63 -202.981 3588
1672.21 -202.981 3588
1680.79 -202.981 3588
2241.31 -221.028 3907
2250.66 -221.028 3907
2260 -221.028 3907
2269.34 -221.028 3907
2278.68 -221.028 3907
2288.03 -221.028 3907
2319.13 -223.121 3944
2328.56 -223.121 3944
2354.59 -224.705 3972
2364.09 -224.705 3972
2373.58 -224.705 3972
2383.08 -224.705 3972
2392.58 -224.705 3972
2396.64 -224.196 3963
2383.04 -222.046 3925
2392.43 -222.046 3925
2396.31 -221.537 3916
2405.67 -221.537 3916
2415.03 -221.537 3916
2424.4 -221.537 3916
2416.98 -220.009 3889
2426.28 -220.009 3889
2435.58 -220.009 3889
2439.22 -219.5 3880
2454.18 -220.009 3889
2474.88 -221.028 3907
2484.23 -221.028 3907
2493.57 -221.028 3907
2502.91 -221.028 3907
2512.26 -221.028 3907
2515.79 -220.518 3898
2513.45 -219.5 3880
2528.58 -220.009 3889
2537.88 -220.009 3889
2558.97 -221.028 3907
2568.31 -221.028 3907
2602.07 -223.121 3944
2617.46 -223.63 3953
2626.91 -223.63 3953
2636.36 -223.63 3953
2645.81 -223.63 3953
2655.27 -223.63 3953
2664.72 -223.63 3953
2674.17 -223.63 3953
2671.41 -222.612 3935
2680.82 -222.612 3935
2690.23 -222.612 3935
2699.64 -222.612 3935
2709.05 -222.612 3935
2718.46 -222.612 3935
2720.93 -222.046 3925
2730.32 -222.046 3925
2733.42 -221.537 3916
2717.57 -219.5 3880
2688.9 -216.445 3826
2698.05 -216.445 3826
2676.77 -214.013 3783
2685.82 -214.013 3783
2682.75 -213.051 3766
2691.76 -213.051 3766
2682.12 -211.58 3740
2679.55 -210.675 3724
2688.46 -210.675 3724
2691.57 -210.222 3716
2700.45 -210.222 3716
2709.34 -210.222 3716
2718.22 -210.222 3716
2727.11 -210.222 3716
2736 -210.222 3716
2738.23 -209.713 3707
2747.1 -209.713 3707
2755.96 -209.713 3707
2764.83 -209.713 3707
2761.72 -208.808 3691
2770.55 -208.808 3691
2791.42 -209.713 3707
2807.09 -210.222 3716
2815.97 -210.222 3716
2824.86 -210.222 3716
2833.74 -210.222 3716
2835.75 -209.713 3707
-2663.21 -192.706 3557
-2654.71 -192.706 3557
-2646.2 -192.706 3557
-2637.7 -192.706 3557
-2629.19 -192.706 3557
-2480.07 -185.989 3433
-2471.86 -185.989 3433
-2463.65 -185.989 3433
-2450.43 -185.609 3426
-2437.25 -185.23 3419
-2444 -186.368 3440
-2445.68 -187.126 3454
-2437.42 -187.126 3454
-2449.56 -188.697 3483
-2446.14 -189.077 3490
-2437.79 -189.077 3490
-2429.44 -189.077 3490
-2431.5 -189.889 3505
-2427.96 -190.268 3512
-2419.56 -190.268 3512
-2436.57 -192.273 3549
-2433.55 -192.706 3557
-2446.18 -194.386 3588
-2437.6 -194.386 3588
-2439.18 -195.199 3603
-2446.75 -196.499 3627
-2443.46 -196.932 3635
-2434.76 -196.932 3635
-2436.08 -197.745 3650
-2438.66 -198.666 3667
-2435.19 -199.099 3675
-2426.41 -199.099 3675
-2422.88 -199.533 3683
-2414.07 -199.533 3683
-2410.49 -199.966 3691
-2401.66 -199.966 3691
-2424.6 -202.621 3740
-2421.47 -203.108 3749
-2412.51 -203.108 3749
-2403.54 -203.108 3749
-2394.58 -203.108 3749
-2353.8 -200.4 3699
-2344.95 -200.4 3699
-1870.29 -189.077 3490
-1861.94 -189.077 3490
-1853.59 -189.077 3490
-1841.55 -188.697 3483
-1833.22 -188.697 3483
-1821.22 -188.318 3476
-1801.44 -187.126 3454
-1793.18 -187.126 3454
-1616.44 -186.747 3447
-1621.73 -188.318 3476
-1613.42 -188.318 3476
-1605.11 -188.318 3476
-1593.12 -187.885 3468
-1604.93 -190.268 3512
-1596.54 -190.268 3512
-1588.14 -190.268 3512
-1586.49 -191.081 3527
-1578.05 -191.081 3527
-1569.62 -191.081 3527
-1561.18 -191.081 3527
-1552.75 -191.081 3527
-1544.32 -191.081 3527
-1535.88 -191.081 3527
-1530.48 -191.46 3534
-1522.03 -191.46 3534
-1513.58 -191.46 3534
-1505.13 -191.46 3534
-1496.67 -191.46 3534
-1485.28 -191.081 3527
-1476.84 -191.081 3527
-1468.41 -191.081 3527
-1457.08 -190.702 3520
-654.282 -87.6579 1618
-651.619 -87.8204 1621
-647.742 -87.8204 1621
-643.866 -87.8204 1621
-640.779 -87.9287 1623
-636.898 -87.9287 1623
-633.017 -87.9287 1623
-627.973 -87.7662 1620
-624.099 -87.7662 1620
-620.225 -87.7662 1620
-616.351 -87.7662 1620
-612.478 -87.7662 1620
-608.979 -87.8204 1621
-605.103 -87.8204 1621
-601.227 -87.8204 1621
-597.35 -87.8204 1621
-594.572 -87.9829 1624
-591.416 -88.0913 1626
-587.528 -88.0913 1626
-583.64 -88.0913 1626
-580.465 -88.1996 1628
-577.634 -88.3622 1631
-573.734 -88.3622 1631
-569.834 -88.3622 1631
-565.934 -88.3622 1631
-562.033 -88.3622 1631
-558.133 -88.3622 1631
-554.233 -88.3622 1631
-549.658 -88.2538 1629
-545.762 -88.2538 1629
-541.867 -88.2538 1629
-537.641 -88.1996 1628
-533.748 -88.1996 1628
-529.855 -88.1996 1628
-525.962 -88.1996 1628
-522.069 -88.1996 1628
-518.176 -88.1996 1628
-514.283 -88.1996 1628
-510.39 -88.1996 1628
-506.497 -88.1996 1628
-502.604 -88.1996 1628
-498.711 -88.1996 1628
-494.818 -88.1996 1628
-490.925 -88.1996 1628
-486.433 -88.0913 1626
-481.952 -87.9829 1624
-478.068 -87.9829 1624
-474.185 -87.9829 1624
-470.301 -87.9829 1624
-466.418 -87.9829 1624
-462.534 -87.9829 1624
-458.651 -87.9829 1624
-454.767 -87.9829 1624
-450.884 -87.9829 1624
-447 -87.9829 1624
-443.117 -87.9829 1624
-438.963 -87.9287 1623
-435.082 -87.9287 1623
-431.201 -87.9287 1623
-426.793 -87.8204 1621
-422.917 -87.8204 1621
-419.04 -87.8204 1621
-415.164 -87.8204 1621
-411.034 -87.7662 1620
-407.16 -87.7662 1620
-403.286 -87.7662 1620
-398.919 -87.6579 1618
-395.05 -87.6579 1618
-391.181 -87.6579 1618
-387.312 -87.6579 1618
-383.443 -87.6579 1618
-380.043 -87.7662 1620
-376.169 -87.7662 1620
-372.295 -87.7662 1620
-368.649 -87.8204 1621
-364.772 -87.8204 1621
-360.896 -87.8204 1621
-357.02 -87.8204 1621
-353.579 -87.9287 1623
-350.344 -88.0913 1626
-346.456 -88.0913 1626
-342.989 -88.1996 1628
-339.304 -88.2538 1629
-335.409 -88.2538 1629
-331.514 -88.2538 1629
-328.02 -88.3622 1631
-324.319 -88.4163 1632
-320.809 -88.5247 1634
-316.902 -88.5247 1634
-312.994 -88.5247 1634
-309.087 -88.5247 1634
-305.179 -88.5247 1634
-301.272 -88.5247 1634
-297.729 -88.633 1636
-293.816 -88.633 1636
-290.436 -88.7956 1639
-286.517 -88.7956 1639
-283.114 -88.9581 1642
-279.528 -89.0665 1644
-276.1 -89.229 1647
-272.161 -89.229 1647
-268.711 -89.3915 1650
-265.086 -89.4999 1652
-261.61 -89.6624 1655
-257.653 -89.6624 1655
-254.768 -90.0416 1662
-251.246 -90.2042 1665
-247.71 -90.3667 1668
-243.722 -90.3667 1668
-240.02 -90.475 1670
-236.734 -90.7459 1675
-233.423 -91.0168 1680
-229.406 -91.0168 1680
-225.791 -91.1793 1683
-222.293 -91.396 1687
-218.647 -91.5586 1690
-214.606 -91.5586 1690
-210.814 -91.6669 1692
-207.012 -91.7753 1694
-203.081 -91.8295 1695
-199.263 -91.9378 1697
-195.205 -91.9378 1697
-191.597 -92.1545 1701
-187.86 -92.3171 1704
-184.001 -92.4254 1706
-179.922 -92.4254 1706
-176.151 -92.5879 1709
-172.266 -92.6963 1711
-168.666 -92.9672 1716
-164.562 -92.9672 1716
-160.646 -93.0755 1718
-156.72 -93.1839 1720
-152.873 -93.3464 1723
-148.753 -93.3464 1723
-145.304 -93.7798 1731
-141.572 -94.0507 1736
-137.817 -94.3216 1741
-133.654 -94.3216 1741
-130.234 -94.8634 1751
-126.407 -95.1342 1756
-123.113 -95.8385 1769
-118.882 -95.8385 1769
-115.495 -96.5428 1782
-112.357 -97.518 1800
-108.473 -97.8973 1807
-104.152 -97.8973 1807
-100.273 -98.3307 1815
-96.3553 -98.7641 1823
-92.1978 -98.9808 1827
-87.8289 -98.9808 1827
-83.6427 -99.1975 1831
-79.3508 -99.3058 1833
-75.0493 -99.4142 1835
-70.6613 -99.4142 1835
-66.4899 -99.7393 1841
-62.2225 -99.956 1845
-57.8732 -100.064 1847
-53.4564 -100.064 1847
-49.1724 -100.335 1852
-44.8404 -100.552 1856
-40.4021 -100.552 1856
-35.9639 -100.552 1856
-31.5256 -100.552 1856
-27.0874 -100.552 1856
-22.6491 -100.552 1856
-18.6033 -200.4 3699
-9.75783 -200.4 3699
-0.912401 -200.4 3699
7.93303 -200.4 3699
16.7785 -200.4 3699
25.6239 -200.4 3699
34.6277 -201.321 3716
43.5138 -201.321 3716
52.3999 -201.321 3716
61.286 -201.321 3716
70.1721 -201.321 3716
78.8667 -200.833 3707
87.7312 -200.833 3707
96.3873 -200.4 3699
105.005 -199.966 3691
113.831 -199.966 3691
122.658 -199.966 3691
131.199 -199.533 3683
140.006 -199.533 3683
149.137 -199.966 3691
157.963 -199.966 3691
166.789 -199.966 3691
175.996 -200.4 3699
184.842 -200.4 3699
193.687 -200.4 3699
202.532 -200.4 3699
211.378 -200.4 3699
219.747 -199.966 3691
228.573 -199.966 3691
237.4 -199.966 3691
246.226 -199.966 3691
255.052 -199.966 3691
263.879 -199.966 3691
272.705 -199.966 3691
281.531 -199.966 3691
290.357 -199.966 3691
299.184 -199.966 3691
308.01 -199.966 3691
316.836 -199.966 3691
325.663 -199.966 3691
334.489 -199.966 3691
343.315 -199.966 3691
352.142 -199.966 3691
360.968 -199.966 3691
368.993 -199.533 3683
377.8 -199.533 3683
386.607 -199.533 3683
395.414 -199.533 3683
403.343 -199.099 3675
412.131 -199.099 3675
420.919 -199.099 3675
427.72 -198.178 3658
436.467 -198.178 3658
446.31 -198.666 3667
455.079 -198.666 3667
463.848 -198.666 3667
472.617 -198.666 3667
483.486 -199.533 3683
492.293 -199.533 3683
501.1 -199.533 3683
509.907 -199.533 3683
518.715 -199.533 3683
527.522 -199.533 3683
536.329 -199.533 3683
545.136 -199.533 3683
553.943 -199.533 3683
565.195 -200.4 3699
574.041 -200.4 3699
590.765 -203.108 3749
599.73 -203.108 3749
608.695 -203.108 3749
612.223 -201.321 3716
621.109 -201.321 3716
634.064 -202.621 3740
643.008 -202.621 3740
651.951 -202.621 3740
662.485 -203.108 3749
671.45 -203.108 3749
680.415 -203.108 3749
689.38 -203.108 3749
698.345 -203.108 3749
1639.13 -193.519 3572
1655.05 -194.386 3588
1663.63 -194.386 3588
1672.21 -194.386 3588
1680.79 -194.386 3588
2254.79 -211.181 3898
2269.34 -211.668 3907
2278.68 -211.668 3907
2288.03 -211.668 3907
2319.13 -213.673 3944
2328.56 -213.673 3944
2354.59 -215.19 3972
2364.09 -215.19 3972
2373.58 -215.19 3972
2383.08 -215.19 3972
2392.58 -215.19 3972
2385.15 -213.673 3944
2383.04 -212.643 3925
2381.46 -211.668 3907
2379.78 -210.693 3889
2389.08 -210.693 3889
2398.38 -210.693 3889
2402.11 -210.206 3880
2405.8 -209.718 3871
2415.05 -209.718 3871
2424.31 -209.718 3871
2416.59 -208.255 3844
2448.5 -210.206 3880
2457.78 -210.206 3880
2467.06 -210.206 3880
2476.34 -210.206 3880
2485.62 -210.206 3880
2494.89 -210.206 3880
2498.36 -209.718 3871
2501.79 -209.23 3862
2534.43 -211.181 3898
2543.75 -211.181 3898
2558.97 -211.668 3907
2568.31 -211.668 3907
2608 -214.16 3953
2617.46 -214.16 3953
2626.91 -214.16 3953
2636.36 -214.16 3953
2645.81 -214.16 3953
2661.98 -214.702 3963
2671.46 -214.702 3963
2680.94 -214.702 3963
2671.41 -213.185 3935
2680.82 -213.185 3935
2690.23 -213.185 3935
2699.64 -213.185 3935
2709.05 -213.185 3935
2718.46 -213.185 3935
2720.93 -212.643 3925
2730.32 -212.643 3925
2733.42 -212.156 3916
2717.57 -210.206 3880
2688.9 -207.28 3826
2698.05 -207.28 3826
2676.77 -204.95 3783
2685.82 -204.95 3783
2670.64 -203.108 3749
2679.61 -203.108 3749
2676.38 -202.187 3732
2679.55 -201.754 3724
2682.68 -201.321 3716
2685.05 -200.833 3707
2693.91 -200.833 3707
2702.78 -200.833 3707
2711.64 -200.833 3707
2720.51 -200.833 3707
2729.37 -200.833 3707
2738.23 -200.833 3707
2741.17 -200.4 3699
2744.07 -199.966 3691
2752.9 -199.966 3691
2755.74 -199.533 3683
2764.54 -199.533 3683
2791.42 -200.833 3707
2800.29 -200.833 3707
2809.15 -200.833 3707
2818.02 -200.833 3707
2826.88 -200.833 3707
2829.63 -200.4 3699
-2697.65 -186.568 3603
-2689.04 -186.568 3603
-2680.42 -186.568 3603
-2695.54 -188.225 3635
-2686.84 -188.225 3635
-2678.15 -188.225 3635
-2480.07 -177.765 3433
-2471.86 -177.765 3433
-2463.65 -177.765 3433
-2450.43 -177.402 3426
-2437.25 -177.04 3419
-2444 -178.127 3440
-2455.59 -179.577 3468
-2447.3 -179.577 3468
-2465.03 -181.493 3505
-2461.56 -181.855 3512
-2453.16 -181.855 3512
-2444.76 -181.855 3512
-2436.36 -181.855 3512
-2459.07 -184.186 3557
-2450.57 -184.186 3557
-2442.06 -184.186 3557
-2439.03 -184.6 3565
-2456.41 -186.568 3603
-2447.79 -186.568 3603
-2444.59 -186.982 3611
-2446.75 -187.81 3627
-2448.16 -188.587 3642
-2439.45 -188.587 3642
-2441.42 -189.416 3658
-2438.66 -189.882 3667
-2435.19 -190.296 3675
-2426.41 -190.296 3675
-2422.88 -190.71 3683
-2414.07 -190.71 3683
-2410.49 -191.124 3691
-2401.66 -191.124 3691
-2424.6 -193.662 3740
-2421.47 -194.128 3749
-2412.51 -194.128 3749
-2403.54 -194.128 3749
-2394.58 -194.128 3749
-2353.8 -191.539 3699
-2344.95 -191.539 3699
-1910.59 -175.227 3384
-1902.49 -175.227 3384
-1894.4 -175.227 3384
-1894.11 -175.952 3398
-1909.3 -178.127 3440
-1901.07 -178.127 3440
-1896.7 -178.49 3447
-1888.46 -178.49 3447
-1880.21 -178.49 3447
-1860.57 -177.402 3426
-1852.37 -177.402 3426
-1844.18 -177.402 3426
-1870.29 -180.716 3490
-1861.94 -180.716 3490
-1853.59 -180.716 3490
-1841.55 -180.354 3483
-1833.22 -180.354 3483
-1821.22 -179.991 3476
-1801.44 -178.852 3454
-1793.18 -178.852 3454
-1763.21 -176.677 3412
-1755.05 -176.677 3412
-1566.24 -172.069 3323
-1616.44 -178.49 3447
-1621.73 -179.991 3476
-1613.42 -179.991 3476
-1605.11 -179.991 3476
-1593.12 -179.577 3468
-1604.93 -181.855 3512
-1596.54 -181.855 3512
-1588.14 -181.855 3512
-1586.49 -182.632 3527
-1578.05 -182.632 3527
-1569.62 -182.632 3527
-1561.18 -182.632 3527
-1552.75 -182.632 3527
-1544.32 -182.632 3527
-1535.88 -182.632 3527
-1530.48 -182.995 3534
-1522.03 -182.995 3534
-1513.58 -182.995 3534
-1505.13 -182.995 3534
-1496.67 -182.995 3534
-1485.28 -182.632 3527
-1476.84 -182.632 3527
-1468.41 -182.632 3527
-1457.08 -182.27 3520
-654.282 -83.7819 1618
-651.619 -83.9373 1621
-647.742 -83.9373 1621
-643.866 -83.9373 1621
-640.779 -84.0408 1623
-636.898 -84.0408 1623
-633.017 -84.0408 1623
-627.973 -83.8855 1620
-624.099 -83.8855 1620
-620.225 -83.8855 1620
-616.351 -83.8855 1620
-612.478 -83.8855 1620
-608.979 -83.9373 1621
-605.103 -83.9373 1621
-601.227 -83.9373 1621
-597.35 -83.9373 1621
-594.572 -84.0926 1624
-591.416 -84.1962 1626
-587.528 -84.1962 1626
-583.64 -84.1962 1626
-580.465 -84.2997 1628
-577.634 -84.4551 1631
-573.734 -84.4551 1631
-569.834 -84.4551 1631
-565.934 -84.4551 1631
-562.378 -84.5069 1632
-558.475 -84.5069 1632
-554.573 -84.5069 1632
-549.658 -84.3515 1629
-545.762 -84.3515 1629
-541.867 -84.3515 1629
-537.972 -84.3515 1629
-534.076 -84.3515 1629
-530.181 -84.3515 1629
-526.285 -84.3515 1629
-522.39 -84.3515 1629
-518.494 -84.3515 1629
-514.599 -84.3515 1629
-510.703 -84.3515 1629
-506.808 -84.3515 1629
-502.913 -84.3515 1629
-499.017 -84.3515 1629
-495.122 -84.3515 1629
-490.925 -84.2997 1628
-487.032 -84.2997 1628
-482.545 -84.1962 1626
-478.657 -84.1962 1626
-474.769 -84.1962 1626
-470.301 -84.0926 1624
-466.418 -84.0926 1624
-462.534 -84.0926 1624
-458.651 -84.0926 1624
-454.767 -84.0926 1624
-450.884 -84.0926 1624
-447 -84.0926 1624
-443.117 -84.0926 1624
-438.963 -84.0408 1623
-435.082 -84.0408 1623
-431.201 -84.0408 1623
-426.793 -83.9373 1621
-422.917 -83.9373 1621
-419.04 -83.9373 1621
-415.164 -83.9373 1621
-411.034 -83.8855 1620
-407.16 -83.8855 1620
-403.286 -83.8855 1620
-398.919 -83.7819 1618
-395.05 -83.7819 1618
-391.181 -83.7819 1618
-387.312 -83.7819 1618
-383.443 -83.7819 1618
-380.043 -83.8855 1620
-376.169 -83.8855 1620
-372.295 -83.8855 1620
-368.649 -83.9373 1621
-364.772 -83.9373 1621
-360.896 -83.9373 1621
-357.02 -83.9373 1621
-353.579 -84.0408 1623
-350.344 -84.1962 1626
-346.456 -84.1962 1626
-342.989 -84.2997 1628
-339.304 -84.3515 1629
-335.409 -84.3515 1629
-331.514 -84.3515 1629
-328.02 -84.4551 1631
-324.319 -84.5069 1632
-320.809 -84.6104 1634
-316.902 -84.6104 1634
-312.994 -84.6104 1634
-309.087 -84.6104 1634
-305.179 -84.6104 1634
-301.272 -84.6104 1634
-297.729 -84.714 1636
-293.816 -84.714 1636
-290.436 -84.8693 1639
-286.517 -84.8693 1639
-283.114 -85.0247 1642
-279.528 -85.1282 1644
-276.1 -85.2836 1647
-272.161 -85.2836 1647
-268.711 -85.4389 1650
-265.247 -85.5943 1653
-261.61 -85.6978 1655
-257.653 -85.6978 1655
-254.768 -86.0603 1662
-251.246 -86.2156 1665
-247.71 -86.371 1668
-243.722 -86.371 1668
-240.02 -86.4745 1670
-236.734 -86.7335 1675
-233.423 -86.9924 1680
-229.406 -86.9924 1680
-225.791 -87.1477 1683
-222.293 -87.3548 1687
-218.647 -87.5102 1690
-214.606 -87.5102 1690
-210.814 -87.6137 1692
-207.012 -87.7173 1694
-203.321 -87.8726 1697
-199.497 -87.9762 1699
-195.435 -87.9762 1699
-191.597 -88.0798 1701
-187.86 -88.2351 1704
-184.217 -88.4422 1708
-180.133 -88.4422 1708
-176.151 -88.494 1709
-172.266 -88.5976 1711
-168.666 -88.8565 1716
-164.562 -88.8565 1716
-160.646 -88.96 1718
-156.72 -89.0636 1720
-152.873 -89.2189 1723
-148.753 -89.2189 1723
-145.304 -89.6332 1731
-141.572 -89.8921 1736
-137.975 -90.2546 1743
-133.807 -90.2546 1743
-130.234 -90.6688 1751
-126.407 -90.9277 1756
-123.53 -91.9116 1775
-119.286 -91.9116 1775
-115.624 -92.3776 1784
-112.482 -93.3097 1802
-108.473 -93.5686 1807
-104.152 -93.5686 1807
-100.383 -94.0864 1817
-96.461 -94.5006 1825
-92.2987 -94.7078 1829
-87.925 -94.7078 1829
-83.6427 -94.8113 1831
-79.4374 -95.0184 1835
-75.2129 -95.2256 1839
-70.8153 -95.2256 1839
-66.5622 -95.4327 1843
-62.2899 -95.6398 1847
-58.0298 -95.8987 1852
-53.6011 -95.8987 1852
-49.2255 -96.0023 1854
-44.8404 -96.1058 1856
-40.4021 -96.1058 1856
-35.9639 -96.1058 1856
-31.5596 -96.2094 1858
-27.1165 -96.2094 1858
-22.6735 -96.2094 1858
-18.6435 -191.953 3707
-9.77893 -191.953 3707
-0.914374 -191.953 3707
7.95019 -191.953 3707
16.8147 -191.953 3707
25.6793 -191.953 3707
34.6277 -192.419 3716
43.6075 -192.833 3724
52.5127 -192.833 3724
61.4179 -192.833 3724
70.3231 -192.833 3724
78.8667 -191.953 3707
87.7312 -191.953 3707
96.3873 -191.539 3699
105.005 -191.124 3691
113.831 -191.124 3691
122.658 -191.124 3691
131.199 -190.71 3683
140.006 -190.71 3683
149.137 -191.124 3691
157.963 -191.124 3691
166.789 -191.124 3691
175.996 -191.539 3699
184.842 -191.539 3699
193.687 -191.539 3699
202.532 -191.539 3699
211.378 -191.539 3699
219.747 -191.124 3691
228.573 -191.124 3691
237.4 -191.124 3691
246.226 -191.124 3691
255.052 -191.124 3691
263.879 -191.124 3691
272.705 -191.124 3691
281.531 -191.124 3691
290.357 -191.124 3691
299.184 -191.124 3691
308.01 -191.124 3691
316.836 -191.124 3691
325.663 -191.124 3691
334.489 -191.124 3691
343.315 -191.124 3691
352.142 -191.124 3691
360.968 -191.124 3691
368.993 -190.71 3683
377.8 -190.71 3683
386.607 -190.71 3683
395.414 -190.71 3683
403.343 -190.296 3675
412.131 -190.296 3675
420.919 -190.296 3675
428.772 -189.882 3667
436.467 -189.416 3658
446.31 -189.882 3667
455.079 -189.882 3667
463.848 -189.882 3667
472.617 -189.882 3667
483.486 -190.71 3683
492.293 -190.71 3683
501.1 -190.71 3683
509.907 -190.71 3683
518.715 -190.71 3683
527.522 -190.71 3683
536.329 -190.71 3683
545.136 -190.71 3683
553.943 -190.71 3683
565.195 -191.539 3699
574.041 -191.539 3699
590.765 -194.128 3749
599.73 -194.128 3749
608.695 -194.128 3749
612.223 -192.419 3716
621.109 -192.419 3716
634.064 -193.662 3740
643.008 -193.662 3740
651.951 -193.662 3740
662.485 -194.128 3749
671.45 -194.128 3749
680.415 -194.128 3749
689.38 -194.128 3749
698.345 -194.128 3749
1582.42 -191.539 3699
1591.27 -191.539 3699
1600.11 -191.539 3699
1591.12 -189.416 3658
1579.31 -186.982 3611
1577.83 -185.791 3588
1586.41 -185.791 3588
1587.88 -184.962 3572
1617.12 -185.377 3580
1625.68 -185.377 3580
1634.24 -185.377 3580
1639.13 -184.962 3572
1655.05 -185.791 3588
1663.63 -185.791 3588
1672.21 -185.791 3588
1680.79 -185.791 3588
1653.59 -181.855 3512
1661.99 -181.855 3512
2254.79 -201.843 3898
2269.34 -202.309 3907
2278.68 -202.309 3907
2288.03 -202.309 3907
2319.13 -204.225 3944
2328.56 -204.225 3944
2354.59 -205.675 3972
2364.09 -205.675 3972
2373.58 -205.675 3972
2383.08 -205.675 3972
2392.58 -205.675 3972
2385.15 -204.225 3944
2383.04 -203.241 3925
2381.46 -202.309 3907
2379.78 -201.377 3889
2389.08 -201.377 3889
2398.38 -201.377 3889
2402.11 -200.911 3880
2405.8 -200.445 3871
2415.05 -200.445 3871
2424.31 -200.445 3871
2422.25 -199.513 3853
2448.5 -200.911 3880
2469.18 -201.843 3898
2478.5 -201.843 3898
2493.57 -202.309 3907
2502.91 -202.309 3907
2518.04 -202.775 3916
2527.41 -202.775 3916
2536.77 -202.775 3916
2546.14 -202.775 3916
2555.5 -202.775 3916
2583.2 -204.225 3944
2592.63 -204.225 3944
2608 -204.691 3953
2617.46 -204.691 3953
2626.91 -204.691 3953
2636.36 -204.691 3953
2645.81 -204.691 3953
2661.98 -205.209 3963
2671.46 -205.209 3963
2680.94 -205.209 3963
2671.41 -203.759 3935
2680.82 -203.759 3935
2690.23 -203.759 3935
2699.64 -203.759 3935
2709.05 -203.759 3935
2718.46 -203.759 3935
2720.93 -203.241 3925
2730.32 -203.241 3925
2733.42 -202.775 3916
2717.57 -200.911 3880
2688.9 -198.115 3826
2698.05 -198.115 3826
2676.77 -195.888 3783
2685.82 -195.888 3783
2670.64 -194.128 3749
2679.61 -194.128 3749
2676.38 -193.247 3732
