92.0878 832.893 3534
100.539 832.893 3534
108.558 829.593 3520
116.975 829.593 3520
125.393 829.593 3520
134.076 831.243 3527
142.51 831.243 3527
150.944 831.243 3527
159.378 831.243 3527
167.813 831.243 3527
175.897 829.593 3520
183.895 827.708 3512
192.294 827.708 3512
200.692 827.708 3512
208.673 826.058 3505
217.055 826.058 3505
225.436 826.058 3505
233.818 826.058 3505
242.199 826.058 3505
250.581 826.058 3505
258.962 826.058 3505
266.734 824.173 3497
275.096 824.173 3497
284.107 826.058 3505
294.324 831.243 3527
302.759 831.243 3527
311.81 832.893 3534
320.261 832.893 3534
329.456 834.778 3542
337.926 834.778 3542
346.396 834.778 3542
356.369 838.313 3557
364.875 838.313 3557
373.381 838.313 3557
380.276 834.778 3542
386.332 829.593 3520
394.749 829.593 3520
402.25 827.708 3512
410.648 827.708 3512
419.047 827.708 3512
424.767 822.523 3490
433.113 822.523 3490
439.688 819.223 3476
445.164 814.038 3454
451.586 810.739 3440
459.812 810.739 3440
464.229 804.14 3412
468.511 797.541 3384
472.801 791.177 3357
480.828 791.177 3357
487.836 789.528 3350
494.811 787.878 3343
500.85 784.814 3330
508.813 784.814 3330
516.776 784.814 3330
524.739 784.814 3330
532.702 784.814 3330
540.665 784.814 3330
549.782 786.464 3337
557.761 786.464 3337
565.741 786.464 3337
573.721 786.464 3337
582.747 787.878 3343
590.741 787.878 3343
599.989 789.528 3350
607.999 789.528 3350
618.401 792.591 3363
626.443 792.591 3363
634.485 792.591 3363
642.527 792.591 3363
650.569 792.591 3363
658.611 792.591 3363
668.04 794.241 3370
676.099 794.241 3370
684.158 794.241 3370
692.216 794.241 3370
698.82 792.591 3363
705.601 791.177 3357
713.629 791.177 3357
721.656 791.177 3357
729.684 791.177 3357
736.173 789.528 3350
744.184 789.528 3350
752.195 789.528 3350
760.206 789.528 3350
766.612 787.878 3343
774.606 787.878 3343
782.6 787.878 3343
789.175 786.464 3337
797.155 786.464 3337
805.135 786.464 3337
813.114 786.464 3337
821.094 786.464 3337
829.074 786.464 3337
837.054 786.464 3337
845.033 786.464 3337
853.013 786.464 3337
866.153 791.177 3357
879.389 795.891 3377
892.983 800.84 3398
901.109 800.84 3398
912.981 804.14 3412
930.589 812.389 3447
944.551 817.338 3468
952.844 817.338 3468
969.174 824.173 3497
981.73 827.708 3512
996.33 832.893 3534
1007.06 834.778 3542
1019.83 838.313 3557
1032.67 841.849 3572
1050.25 849.155 3603
1063.56 852.926 3619
1072.22 852.926 3619
1090.13 860.232 3650
1103.98 864.238 3667
1115.17 866.124 3675
1123.96 866.124 3675
1132.75 866.124 3675
1144.02 868.009 3683
1157.84 871.78 3699
1166.68 871.78 3699
1178.07 873.665 3707
1186.94 873.665 3707
1195.8 873.665 3707
1204.67 873.665 3707
1210.91 871.78 3699
1217.12 869.894 3691
1225.95 869.894 3691
1234.77 869.894 3691
1243.6 869.894 3691
1252.42 869.894 3691
1261.25 869.894 3691
1270.08 869.894 3691
1276.13 868.009 3683
1282.15 866.124 3675
1290.94 866.124 3675
1296.89 864.238 3667
1302.46 862.117 3658
1311.21 862.117 3658
1319.95 862.117 3658
1328.7 862.117 3658
1334.52 860.232 3650
1337.73 856.696 3635
1343.46 854.811 3627
1352.13 854.811 3627
1354.8 851.04 3611
1363.44 851.04 3611
1369.03 849.155 3603
1377.65 849.155 3603
1383.19 847.269 3595
1391.78 847.269 3595
1391.42 841.849 3572
1399.96 841.849 3572
1402.59 838.313 3557
1411.1 838.313 3557
1416.41 836.428 3549
1418.87 832.893 3534
1427.32 832.893 3534
1426.84 827.708 3512
1432.37 826.058 3505
1434.59 822.523 3490
1442.94 822.523 3490
1448.37 820.873 3483
1450.43 817.338 3468
1462.08 819.223 3476
1473.36 820.873 3483
1481.69 820.873 3483
1496 824.173 3497
1520.28 832.893 3534
1538.68 838.313 3557
1547.19 838.313 3557
1565.76 843.734 3580
1584.43 849.155 3603
1603.66 854.811 3627
1612.33 854.811 3627
1642.46 866.124 3675
1673.26 877.672 3724
1777.48 927.4 3935
1786.89 927.4 3935
1800.41 929.521 3944
1818.56 933.999 3963
1840.95 940.598 3991
1850.49 940.598 3991
1864.7 942.955 4001
1878.48 945.076 4010
1888.07 945.076 4010
1897.66 945.076 4010
1902.97 942.955 4001
1907.75 940.598 3991
1912.97 938.477 3982
1922.5 938.477 3982
1904.36 925.044 3925
1887.42 912.317 3871
1879.04 903.832 3835
1888.21 903.832 3835
1888.97 899.826 3818
1867.77 885.449 3757
1864.27 879.557 3732
1873.19 879.557 3732
1865.47 871.78 3699
1862.16 866.124 3675
1858.22 860.232 3650
1866.95 860.232 3650
1884.41 864.238 3667
1893.18 864.238 3667
1906.1 866.124 3675
1914.89 866.124 3675
1923.67 866.124 3675
1923.52 862.117 3658
1945.48 868.009 3683
1967.02 873.665 3707
2002.53 885.449 3757
2011.52 885.449 3757
2029.64 889.456 3774
2052.71 895.584 3800
2071.57 899.826 3818
2080.7 899.826 3818
2128.69 916.559 3889
2173.17 931.643 3953
2198.64 938.477 3982
2208.16 938.477 3982
2228.26 942.955 4001
2242.87 945.076 4010
2258.07 947.433 4020
2267.69 947.433 4020
2277.3 947.433 4020
2286.91 947.433 4020
2290.81 945.076 4010
2300.4 945.076 4010
2309.99 945.076 4010
2319.58 945.076 4010
2334.98 947.433 4020
2355.67 951.911 4039
2365.33 951.911 4039
2374.99 951.911 4039
2384.65 951.911 4039
2394.31 951.911 4039
2403.96 951.911 4039
2413.62 951.911 4039
2423.28 951.911 4039
2432.94 951.911 4039
2442.6 951.911 4039
2458.33 954.268 4049
2468.01 954.268 4049
2477.69 954.268 4049
2487.37 954.268 4049
2490.89 951.911 4039
2494.98 949.79 4030
2498.4 947.433 4020
2508.01 947.433 4020
2511.36 945.076 4010
2533.52 949.79 4030
2543.16 949.79 4030
2552.8 949.79 4030
2562.44 949.79 4030
2565.69 947.433 4020
2563.13 942.955 4001
2572.7 942.955 4001
2582.27 942.955 4001
2591.83 942.955 4001
2594.9 940.598 3991
2604.44 940.598 3991
2613.99 940.598 3991
2623.53 940.598 3991
2627.14 938.477 3982
2624.08 933.999 3963
2633.55 933.999 3963
2630.36 929.521 3944
2627.07 925.044 3925
2624.37 920.801 3907
2633.71 920.801 3907
2643.05 920.801 3907
2652.4 920.801 3907
2637.21 912.317 3871
2646.47 912.317 3871
2631.03 903.832 3835
2634 901.711 3826
2643.15 901.711 3826
2628.73 893.698 3792
2637.8 893.698 3792
2646.87 893.698 3792
534.302 169.925 721
536.026 169.925 721
537.751 169.925 721
539.475 169.925 721
539.698 169.454 719
541.417 169.454 719
543.136 169.454 719
544.098 169.218 718
545.815 169.218 718
547.532 169.218 718
548.484 168.982 717
-2365.97 752.318 3160
-2358.41 752.318 3160
-2341.93 749.461 3148
-2329.95 748.033 3142
-2322.44 748.033 3142
-2314.93 748.033 3142
-2307.41 748.033 3142
-2295.51 746.604 3136
-2279.25 743.748 3124
-2271.78 743.748 3124
-2264.31 743.748 3124
-2274.18 749.461 3148
-2283.93 755.175 3172
-2293.57 760.889 3196
-2285.93 760.889 3196
-2296.11 766.841 3221
-2310.43 774.221 3252
-2329.56 783.268 3290
-2321.69 783.268 3290
-2313.82 783.268 3290
-2416 820.646 3447
-2407.75 820.646 3447
-2409.26 823.979 3461
-2425.95 832.55 3497
-2417.59 832.55 3497
-2409.23 832.55 3497
-2400.87 832.55 3497
-2378.14 827.55 3476
-2389.6 834.454 3505
-2381.22 834.454 3505
-2372.83 834.454 3505
-2364.45 834.454 3505
-2356.07 834.454 3505
-2337.64 830.883 3490
-2333.97 832.55 3497
-2325.61 832.55 3497
-2322.54 834.454 3505
-2318.79 836.121 3512
-2310.39 836.121 3512
-2301.99 836.121 3512
-2293.59 836.121 3512
-2285.19 836.121 3512
-2276.79 836.121 3512
-2268.4 836.121 3512
-2260 836.121 3512
-2256.73 838.025 3520
-2248.31 838.025 3520
-2248.8 841.358 3534
-2245.42 843.263 3542
-2241.37 844.93 3549
-2232.89 844.93 3549
-2229.41 846.834 3557
-2230.27 850.405 3572
-2221.73 850.405 3572
-2213.19 850.405 3572
-2209.59 852.31 3580
-2210.25 855.881 3595
-2206.55 857.786 3603
-2197.93 857.786 3603
-2189.32 857.786 3603
-2185.54 859.69 3611
-2176.91 859.69 3611
-2168.27 859.69 3611
-2173.99 865.404 3635
-2169.47 867.071 3642
-2170.25 870.88 3658
-2161.51 870.88 3658
-2152.76 870.88 3658
-2144.01 870.88 3658
-2135.26 870.88 3658
-2121.87 868.975 3650
-2117.77 870.88 3658
-2109.02 870.88 3658
-2100.28 870.88 3658
-2091.53 870.88 3658
-2078.23 868.975 3650
-2074.03 870.88 3658
-2065.29 870.88 3658
-2056.54 870.88 3658
-2047.79 870.88 3658
-2044.06 873.023 3667
-2035.29 873.023 3667
-2026.52 873.023 3667
-2017.75 873.023 3667
-2004.05 870.88 3658
-2000.22 873.023 3667
-1991.45 873.023 3667
-1982.68 873.023 3667
-1986.83 878.736 3691
-1982.29 880.641 3699
-1973.44 880.641 3699
-1968.85 882.546 3707
-1959.98 882.546 3707
-1951.12 882.546 3707
-1942.25 882.546 3707
-1916.7 874.927 3675
-1907.91 874.927 3675
-1899.12 874.927 3675
-1890.33 874.927 3675
-1872.84 870.88 3658
-1860.02 868.975 3650
-1851.29 868.975 3650
-1838.52 867.071 3642
-1826.3 865.404 3635
-1813.61 863.5 3627
-1804.93 863.5 3627
-1788.33 859.69 3611
-1775.76 857.786 3603
-1767.14 857.786 3603
-1758.53 857.786 3603
-1746.02 855.881 3595
-1734.04 854.215 3588
-1714.4 848.739 3565
-1705.88 848.739 3565
-1697.35 848.739 3565
-1688.83 848.739 3565
-1676.53 846.834 3557
-1668.03 846.834 3557
-1659.52 846.834 3557
-1651.02 846.834 3557
-1642.51 846.834 3557
-1634 846.834 3557
-1625.5 846.834 3557
-1616.99 846.834 3557
-1608.49 846.834 3557
-1599.98 846.834 3557
-1591.47 846.834 3557
-1579.41 844.93 3549
-1570.92 844.93 3549
-1562.43 844.93 3549
-1553.95 844.93 3549
-1545.46 844.93 3549
-1540.44 846.834 3557
-1531.93 846.834 3557
-1523.43 846.834 3557
-1514.92 846.834 3557
-1509.8 848.739 3565
-1507.6 852.31 3580
-1499.03 852.31 3580
-1490.47 852.31 3580
-1481.91 852.31 3580
-1473.35 852.31 3580
-1470.93 855.881 3595
-1462.33 855.881 3595
-1453.73 855.881 3595
-1448.35 857.786 3603
-1439.74 857.786 3603
-1431.12 857.786 3603
-1422.51 857.786 3603
-1417.03 859.69 3611
-1417.76 865.404 3635
-1409.06 865.404 3635
-1400.37 865.404 3635
-1391.68 865.404 3635
-1382.99 865.404 3635
-1374.29 865.404 3635
-1362.6 863.5 3627
-597.856 410.204 1723
-595.114 411.156 1727
-590.985 411.156 1727
-586.855 411.156 1727
-582.725 411.156 1727
-578.595 411.156 1727
-574.465 411.156 1727
-569.675 410.68 1725
-564.894 410.204 1723
-560.774 410.204 1723
-556.654 410.204 1723
-551.572 409.49 1720
-547.459 409.49 1720
-543.346 409.49 1720
-539.233 409.49 1720
-535.12 409.49 1720
-529.772 408.537 1716
-525.668 408.537 1716
-521.261 408.299 1715
-516.557 407.823 1713
-512.46 407.823 1713
-508.364 407.823 1713
-503.679 407.347 1711
-499.003 406.871 1709
-494.917 406.871 1709
-490.83 406.871 1709
-486.458 406.633 1708
-482.374 406.633 1708
-478.29 406.633 1708
-474.205 406.633 1708
-470.121 406.633 1708
-466.037 406.633 1708
-461.952 406.633 1708
-457.868 406.633 1708
-454.049 406.871 1709
-449.963 406.871 1709
-445.876 406.871 1709
-441.789 406.871 1709
-437.702 406.871 1709
-433.616 406.871 1709
-430.032 407.347 1711
-425.94 407.347 1711
-422.342 407.823 1713
-418.245 407.823 1713
-414.633 408.299 1715
-411.728 409.49 1720
-408.089 409.966 1722
-403.971 409.966 1722
-400.55 410.68 1725
-396.885 411.156 1727
-393.21 411.632 1729
-389.075 411.632 1729
-385.386 412.109 1731
-381.467 412.347 1732
-377.325 412.347 1732
-373.184 412.347 1732
-369.894 413.299 1736
-365.743 413.299 1736
-362.425 414.251 1740
-358.264 414.251 1740
-354.306 414.489 1741
-350.545 414.965 1743
-346.377 414.965 1743
-342.209 414.965 1743
-338.429 415.442 1745
-334.639 415.918 1747
-330.462 415.918 1747
-326.284 415.918 1747
-322.107 415.918 1747
-317.201 414.965 1743
-313.033 414.965 1743
-308.511 414.489 1741
-304.347 414.489 1741
-300.012 414.251 1740
-295.851 414.251 1740
-291.355 413.775 1738
-287.199 413.775 1738
-282.717 413.299 1736
-278.565 413.299 1736
-274.414 413.299 1736
-270.263 413.299 1736
-265.805 412.823 1734
-261.658 412.823 1734
-257.512 412.823 1734
-253.365 412.823 1734
-249.219 412.823 1734
-245.072 412.823 1734
-240.926 412.823 1734
-236.779 412.823 1734
-232.633 412.823 1734
-229.013 413.775 1738
-224.857 413.775 1738
-220.701 413.775 1738
-216.794 414.251 1740
-212.633 414.251 1740
-208.592 414.489 1741
-204.429 414.489 1741
-200.496 414.965 1743
-196.778 415.918 1747
-193.152 417.108 1752
-188.962 417.108 1752
-185.195 418.06 1756
-181.202 418.537 1758
-177.703 420.203 1765
-173.482 420.203 1765
-169.645 421.155 1769
-165.976 422.584 1775
-162.096 423.536 1779
-157.842 423.536 1779
-153.846 424.25 1782
-149.753 424.727 1784
-145.813 425.679 1788
-141.537 425.679 1788
-137.415 426.155 1790
-133.581 427.583 1796
-129.574 428.536 1800
-125.27 428.536 1800
-121.234 429.488 1804
-117.115 430.202 1807
-112.919 430.678 1809
-108.593 430.678 1809
-104.267 430.678 1809
-145.674 900.639 3783
-136.628 900.639 3783
-127.581 900.639 3783
-118.535 900.639 3783
-109.228 898.497 3774
-100.203 898.497 3774
-90.3572 890.402 3740
-81.2396 888.497 3732
-71.8309 882.546 3707
-62.9663 882.546 3707
-53.6347 874.927 3675
-44.444 867.071 3642
-35.5877 863.5 3627
-26.9144 863.5 3627
-18.0802 855.881 3595
-9.44391 852.31 3580
-0.879348 848.739 3565
7.64565 848.739 3565
16.1706 848.739 3565
24.5848 844.93 3549
33.0715 844.93 3549
41.4763 843.263 3542
49.9463 843.263 3542
58.4163 843.263 3542
66.8863 843.263 3542
75.3563 843.263 3542
83.8263 843.263 3542
92.0878 841.358 3534
100.34 839.692 3527
108.558 838.025 3520
116.975 838.025 3520
125.393 838.025 3520
134.076 839.692 3527
142.51 839.692 3527
150.944 839.692 3527
159.378 839.692 3527
167.479 838.025 3520
175.497 836.121 3512
183.895 836.121 3512
192.294 836.121 3512
200.692 836.121 3512
208.673 834.454 3505
217.055 834.454 3505
225.436 834.454 3505
233.284 832.55 3497
242.199 834.454 3505
250.581 834.454 3505
258.962 834.454 3505
266.734 832.55 3497
275.096 832.55 3497
284.674 836.121 3512
294.909 841.358 3534
303.359 841.358 3534
311.81 841.358 3534
320.986 843.263 3542
329.456 843.263 3542
337.926 843.263 3542
347.863 846.834 3557
356.369 846.834 3557
364.875 846.834 3557
373.381 846.834 3557
381.887 846.834 3557
387.868 841.358 3534
396.319 841.358 3534
402.25 836.121 3512
410.648 836.121 3512
419.047 836.121 3512
425.619 832.55 3497
433.982 832.55 3497
439.688 827.55 3476
445.164 822.312 3454
451.586 818.979 3440
459.812 818.979 3440
464.229 812.313 3412
468.511 805.647 3384
472.801 799.219 3357
480.828 799.219 3357
487.836 797.553 3350
494.811 795.886 3343
501.903 794.458 3337
509.883 794.458 3337
517.862 794.458 3337
525.842 794.458 3337
533.822 794.458 3337
541.802 794.458 3337
550.77 795.886 3343
558.764 795.886 3343
566.758 795.886 3343
574.753 795.886 3343
583.967 797.553 3350
591.978 797.553 3350
601.242 799.219 3357
609.27 799.219 3357
619.688 802.314 3370
627.747 802.314 3370
635.805 802.314 3370
643.864 802.314 3370
651.923 802.314 3370
659.981 802.314 3370
668.04 802.314 3370
676.099 802.314 3370
684.158 802.314 3370
692.216 802.314 3370
698.82 800.648 3363
705.601 799.219 3357
713.629 799.219 3357
721.656 799.219 3357
729.684 799.219 3357
736.173 797.553 3350
744.184 797.553 3350
752.195 797.553 3350
760.206 797.553 3350
766.612 795.886 3343
774.606 795.886 3343
782.6 795.886 3343
789.175 794.458 3337
797.155 794.458 3337
805.135 794.458 3337
813.114 794.458 3337
821.094 794.458 3337
829.074 794.458 3337
837.054 794.458 3337
845.033 794.458 3337
853.013 794.458 3337
866.153 799.219 3357
879.389 803.981 3377
892.983 808.98 3398
901.109 808.98 3398
912.981 812.313 3412
932.478 822.312 3454
946.73 827.55 3476
955.042 827.55 3476
973.331 836.121 3512
985.923 839.692 3527
998.586 843.263 3542
1007.06 843.263 3542
1019.83 846.834 3557
1039.32 855.881 3595
1052.58 859.69 3611
1065.92 863.5 3627
1074.59 863.5 3627
1092.52 870.88 3658
1103.98 873.023 3667
1115.17 874.927 3675
1123.96 874.927 3675
1132.75 874.927 3675
1144.02 876.832 3683
1157.84 880.641 3699
1166.68 880.641 3699
1178.07 882.546 3707
1186.94 882.546 3707
1195.8 882.546 3707
1204.67 882.546 3707
1210.91 880.641 3699
1219.76 880.641 3699
1228.6 880.641 3699
1234.77 878.736 3691
1243.6 878.736 3691
1252.42 878.736 3691
1261.25 878.736 3691
1270.08 878.736 3691
1276.13 876.832 3683
1282.15 874.927 3675
1290.94 874.927 3675
1296.89 873.023 3667
1302.46 870.88 3658
1311.21 870.88 3658
1319.95 870.88 3658
1328.7 870.88 3658
1334.52 868.975 3650
1337.73 865.404 3635
1343.46 863.5 3627
1352.13 863.5 3627
1354.8 859.69 3611
1363.44 859.69 3611
1369.03 857.786 3603
1377.65 857.786 3603
1383.19 855.881 3595
1391.78 855.881 3595
1391.42 850.405 3572
1399.96 850.405 3572
1402.59 846.834 3557
1411.1 846.834 3557
1416.41 844.93 3549
1418.87 841.358 3534
1427.32 841.358 3534
1426.84 836.121 3512
1432.37 834.454 3505
1434.59 830.883 3490
1442.94 830.883 3490
1448.37 829.217 3483
1450.43 825.646 3468
1462.08 827.55 3476
1473.36 829.217 3483
1481.69 829.217 3483
1496 832.55 3497
1520.28 841.358 3534
1538.68 846.834 3557
1547.19 846.834 3557
1569.25 854.215 3588
1584.43 857.786 3603
1607.19 865.404 3635
1615.89 865.404 3635
1646.03 876.832 3683
1673.26 886.593 3724
1777.48 936.827 3935
1786.89 936.827 3935
1800.41 938.969 3944
1818.56 943.493 3963
1840.95 950.159 3991
1850.49 950.159 3991
1864.7 952.54 4001
1878.48 954.682 4010
1888.07 954.682 4010
1897.66 954.682 4010
1902.97 952.54 4001
1907.75 950.159 3991
1912.97 948.016 3982
1922.5 948.016 3982
1904.36 934.446 3925
1887.42 921.59 3871
1879.04 913.019 3835
1888.21 913.019 3835
1888.97 908.972 3818
1872.25 896.592 3766
1864.27 888.497 3732
1873.19 888.497 3732
1865.47 880.641 3699
1866.21 876.832 3683
1858.22 868.975 3650
1866.95 868.975 3650
1884.41 873.023 3667
1893.18 873.023 3667
1906.1 874.927 3675
1914.89 874.927 3675
1923.67 874.927 3675
1923.52 870.88 3658
1945.48 876.832 3683
1958.53 878.736 3691
1993.47 890.402 3740
2002.42 890.402 3740
2020.5 894.449 3757
2048.39 902.782 3792
2066.68 906.829 3809
2075.79 906.829 3809
2118.84 921.59 3871
2173.17 941.112 3953
2198.64 948.016 3982
2208.16 948.016 3982
2217.68 948.016 3982
2242.87 954.682 4010
2252.46 954.682 4010
2262.04 954.682 4010
2271.63 954.682 4010
2281.22 954.682 4010
2285.67 952.54 4001
2295.24 952.54 4001
2304.81 952.54 4001
2319.58 954.682 4010
2334.98 957.063 4020
2350.42 959.444 4030
2360.06 959.444 4030
2369.7 959.444 4030
2379.33 959.444 4030
2388.97 959.444 4030
2398.61 959.444 4030
2413.62 961.587 4039
2423.28 961.587 4039
2438.96 963.967 4049
2448.65 963.967 4049
2458.33 963.967 4049
2474.11 966.348 4059
2483.81 966.348 4059
2493.52 966.348 4059
2490.89 961.587 4039
2494.98 959.444 4030
2498.4 957.063 4020
2508.01 957.063 4020
2517.62 957.063 4020
2533.52 959.444 4030
2543.16 959.444 4030
2552.8 959.444 4030
2562.44 959.444 4030
2565.69 957.063 4020
2568.9 954.682 4010
2578.49 954.682 4010
2582.27 952.54 4001
2591.83 952.54 4001
2594.9 950.159 3991
2604.44 950.159 3991
2613.99 950.159 3991
2623.53 950.159 3991
2627.14 948.016 3982
2624.08 943.493 3963
2633.55 943.493 3963
2630.36 938.969 3944
2627.07 934.446 3925
2630.41 932.303 3916
2639.78 932.303 3916
2649.14 932.303 3916
2652.4 930.161 3907
2643.35 923.733 3880
2652.62 923.733 3880
2631.03 913.019 3835
2634 910.876 3826
2643.15 910.876 3826
2628.73 902.782 3792
2637.8 902.782 3792
2634.3 898.497 3774
534.302 171.652 721
536.026 171.652 721
537.751 171.652 721
539.475 171.652 721
539.698 171.176 719
541.417 171.176 719
543.136 171.176 719
544.098 170.938 718
545.815 170.938 718
547.532 170.938 718
548.484 170.7 717
-2365.97 759.888 3160
-2358.41 759.888 3160
-2346.39 758.445 3154
-2334.4 757.002 3148
-2322.44 755.56 3142
-2314.93 755.56 3142
-2307.41 755.56 3142
-2295.51 754.117 3136
-2270.5 748.345 3112
-2271.78 751.231 3124
-2264.31 751.231 3124
-2269.84 755.56 3142
-2275.29 759.888 3160
-2276.35 762.774 3172
-2268.76 762.774 3172
-2282.56 769.988 3202
-2288.4 774.557 3221
-2302.65 782.011 3252
-2294.87 782.011 3252
-2313.82 791.149 3290
-2348.01 805.578 3350
-2368.64 815.437 3391
-2360.53 815.437 3391
-2376.7 823.853 3426
-2368.51 823.853 3426
-2360.32 823.853 3426
-2352.12 823.853 3426
-2339.14 822.17 3419
-2354.83 830.587 3454
-2346.57 830.587 3454
-2338.31 830.587 3454
-2334.77 832.27 3461
-2331.2 833.953 3468
-2332.95 837.56 3483
-2324.62 837.56 3483
-2320.95 839.243 3490
-2317.24 840.927 3497
-2314.16 842.851 3505
-2305.78 842.851 3505
-2297.4 842.851 3505
-2289.02 842.851 3505
-2280.64 842.851 3505
-2272.26 842.851 3505
-2268.4 844.534 3512
-2260 844.534 3512
-2256.73 846.458 3520
-2248.31 846.458 3520
-2248.8 849.824 3534
-2245.42 851.748 3542
-2241.37 853.431 3549
-2232.89 853.431 3549
-2229.41 855.355 3557
-2230.27 858.962 3572
-2221.73 858.962 3572
-2213.19 858.962 3572
-2209.59 860.886 3580
-2210.25 864.493 3595
-2206.55 866.417 3603
-2197.93 866.417 3603
-2189.32 866.417 3603
-2185.54 868.34 3611
-2181.73 870.264 3619
-2173.08 870.264 3619
-2173.99 874.112 3635
-2169.47 875.795 3642
-2170.25 879.643 3658
-2161.51 879.643 3658
-2152.76 879.643 3658
-2144.01 879.643 3658
-2135.26 879.643 3658
-2121.87 877.719 3650
-2117.77 879.643 3658
-2109.02 879.643 3658
-2100.28 879.643 3658
-2091.53 879.643 3658
-2078.23 877.719 3650
-2069.5 877.719 3650
-2060.77 877.719 3650
-2052.04 877.719 3650
-2043.31 877.719 3650
-2034.58 877.719 3650
-2025.86 877.719 3650
-2017.13 877.719 3650
-2008.4 877.719 3650
-2004.05 879.643 3658
-1995.31 879.643 3658
-1986.56 879.643 3658
-1977.81 879.643 3658
-1973.91 881.807 3667
-1978 887.578 3691
-1969.18 887.578 3691
-1964.6 889.502 3699
-1955.75 889.502 3699
-1946.91 889.502 3699
-1925.49 883.731 3675
-1916.7 883.731 3675
-1907.91 883.731 3675
-1899.12 883.731 3675
-1886.22 881.807 3667
-1868.75 877.719 3650
-1860.02 877.719 3650
-1851.29 877.719 3650
-1838.52 875.795 3642
-1822.28 872.188 3627
-1809.6 870.264 3619
-1800.95 870.264 3619
-1788.33 868.34 3611
-1771.81 864.493 3595
-1763.22 864.493 3595
-1754.62 864.493 3595
-1746.02 864.493 3595
-1734.04 862.81 3588
-1717.77 858.962 3572
-1709.23 858.962 3572
-1697.35 857.279 3565
-1688.83 857.279 3565
-1680.3 857.279 3565
-1668.03 855.355 3557
-1659.52 855.355 3557
-1651.02 855.355 3557
-1642.51 855.355 3557
-1634 855.355 3557
-1625.5 855.355 3557
-1616.99 855.355 3557
-1608.49 855.355 3557
-1596.38 853.431 3549
-1587.89 853.431 3549
-1579.41 853.431 3549
-1570.92 853.431 3549
-1562.43 853.431 3549
-1553.95 853.431 3549
-1545.46 853.431 3549
-1536.97 853.431 3549
-1531.93 855.355 3557
-1523.43 855.355 3557
-1514.92 855.355 3557
-1506.42 855.355 3557
-1507.6 860.886 3580
-1499.03 860.886 3580
-1490.47 860.886 3580
-1481.91 860.886 3580
-1476.64 862.81 3588
-1470.93 864.493 3595
-1462.33 864.493 3595
-1453.73 864.493 3595
-1448.35 866.417 3603
-1439.74 866.417 3603
-1431.12 866.417 3603
-1422.51 866.417 3603
-1417.03 868.34 3611
-1417.76 874.112 3635
-1409.06 874.112 3635
-1400.37 874.112 3635
-1391.68 874.112 3635
-1382.99 874.112 3635
-1374.29 874.112 3635
-1374.24 879.643 3658
-1365.49 879.643 3658
-1356.75 879.643 3658
-595.114 415.293 1727
-590.985 415.293 1727
-588.214 416.255 1731
-584.075 416.255 1731
-579.935 416.255 1731
-575.796 416.255 1731
-570.996 415.774 1729
-566.206 415.293 1727
-562.076 415.293 1727
-556.654 414.331 1723
-552.213 414.091 1722
-548.095 414.091 1722
-543.978 414.091 1722
-539.86 414.091 1722
-535.12 413.61 1720
-530.389 413.129 1718
-526.281 413.129 1718
-521.261 412.408 1715
-517.16 412.408 1715
-513.059 412.408 1715
-508.958 412.408 1715
-504.268 411.927 1713
-499.587 411.446 1711
-494.917 410.965 1709
-490.83 410.965 1709
-486.458 410.724 1708
-482.374 410.724 1708
-477.73 410.243 1706
-473.65 410.243 1706
-470.121 410.724 1708
-466.037 410.724 1708
-461.952 410.724 1708
-457.868 410.724 1708
-453.784 410.724 1708
-449.699 410.724 1708
-445.615 410.724 1708
-441.789 410.965 1709
-437.702 410.965 1709
-433.616 410.965 1709
-429.529 410.965 1709
-425.442 410.965 1709
-422.342 411.927 1713
-418.245 411.927 1713
-414.633 412.408 1715
-411.728 413.61 1720
-408.089 414.091 1722
-403.971 414.091 1722
-400.086 414.331 1723
-396.885 415.293 1727
-393.21 415.774 1729
-389.075 415.774 1729
-385.386 416.255 1731
-381.467 416.496 1732
-377.325 416.496 1732
-373.184 416.496 1732
-369.894 417.457 1736
-366.164 417.938 1738
-362.425 418.419 1740
-358.264 418.419 1740
-354.713 419.141 1743
-350.545 419.141 1743
-346.775 419.622 1745
-342.602 419.622 1745
-338.429 419.622 1745
-334.256 419.622 1745
-330.084 419.622 1745
-325.911 419.622 1745
-321.738 419.622 1745
-316.837 418.66 1741
-312.674 418.66 1741
-308.511 418.66 1741
-304.173 418.419 1740
-299.667 417.938 1738
-295.511 417.938 1738
-291.355 417.938 1738
-286.868 417.457 1736
-282.717 417.457 1736
-278.245 416.977 1734
-274.098 416.977 1734
-269.951 416.977 1734
-265.805 416.977 1734
-261.357 416.496 1732
-257.215 416.496 1732
-253.073 416.496 1732
-249.219 416.977 1734
-245.072 416.977 1734
-240.926 416.977 1734
-236.779 416.977 1734
-232.633 416.977 1734
-229.013 417.938 1738
-224.857 417.938 1738
-220.701 417.938 1738
-216.794 418.419 1740
-212.633 418.419 1740
-208.592 418.66 1741
-204.429 418.66 1741
-200.496 419.141 1743
-197.229 421.065 1751
-193.152 421.305 1752
-188.962 421.305 1752
-185.195 422.267 1756
-181.202 422.748 1758
-177.703 424.431 1765
-173.482 424.431 1765
-169.837 425.874 1771
-165.789 426.355 1773
-162.096 427.798 1779
-157.842 427.798 1779
-153.846 428.519 1782
-149.921 429.481 1786
-145.813 429.962 1788
-141.537 429.962 1788
-137.415 430.443 1790
-133.73 432.367 1798
-129.862 433.81 1804
-125.548 433.81 1804
-121.302 434.05 1805
-117.115 434.531 1807
-113.168 435.974 1813
-108.833 435.974 1813
-104.498 435.974 1813
-155.415 913.789 3800
-146.329 913.789 3800
-137.242 913.789 3800
-127.581 909.701 3783
-118.535 909.701 3783
-109.228 907.537 3774
-100.203 907.537 3774
-90.3572 899.361 3740
-81.2396 897.437 3732
-72.0052 893.59 3716
-63.1192 893.59 3716
-53.7515 885.654 3683
-44.6392 879.643 3658
-35.7348 875.795 3642
-27.0257 875.795 3642
-18.1205 866.417 3603
-9.48348 864.493 3595
-0.881075 858.962 3572
7.64565 857.279 3565
16.1706 857.279 3565
24.6402 855.355 3557
33.0715 853.431 3549
41.4763 851.748 3542
49.9463 851.748 3542
58.4163 851.748 3542
66.8863 851.748 3542
75.3563 851.748 3542
83.8263 851.748 3542
92.0878 849.824 3534
100.34 848.141 3527
108.558 846.458 3520
116.975 846.458 3520
125.393 846.458 3520
133.81 846.458 3520
142.227 846.458 3520
150.645 846.458 3520
159.062 846.458 3520
167.479 846.458 3520
175.497 844.534 3512
183.895 844.534 3512
192.294 844.534 3512
200.692 844.534 3512
208.673 842.851 3505
216.559 840.927 3497
224.922 840.927 3497
233.284 840.927 3497
241.647 840.927 3497
250.009 840.927 3497
258.371 840.927 3497
266.734 840.927 3497
275.096 840.927 3497
284.674 844.534 3512
294.909 849.824 3534
303.359 849.824 3534
311.81 849.824 3534
320.986 851.748 3542
329.456 851.748 3542
337.926 851.748 3542
347.863 855.355 3557
356.369 855.355 3557
364.875 855.355 3557
373.381 855.355 3557
381.887 855.355 3557
387.868 849.824 3534
396.319 849.824 3534
402.25 844.534 3512
410.648 844.534 3512
419.047 844.534 3512
425.619 840.927 3497
433.982 840.927 3497
439.688 835.877 3476
445.164 830.587 3454
451.586 827.22 3440
459.812 827.22 3440
464.229 820.487 3412
468.511 813.754 3384
472.801 807.261 3357
480.828 807.261 3357
487.836 805.578 3350
494.811 803.894 3343
501.903 802.451 3337
509.883 802.451 3337
517.862 802.451 3337
525.842 802.451 3337
533.822 802.451 3337
541.802 802.451 3337
550.77 803.894 3343
558.764 803.894 3343
566.758 803.894 3343
574.753 803.894 3343
583.967 805.578 3350
591.978 805.578 3350
601.242 807.261 3357
609.27 807.261 3357
619.688 810.387 3370
627.747 810.387 3370
635.805 810.387 3370
643.864 810.387 3370
651.923 810.387 3370
659.981 810.387 3370
668.04 810.387 3370
676.099 810.387 3370
684.158 810.387 3370
692.216 810.387 3370
698.82 808.704 3363
705.601 807.261 3357
713.629 807.261 3357
721.656 807.261 3357
728.162 805.578 3350
736.173 805.578 3350
742.629 803.894 3343
750.623 803.894 3343
758.617 803.894 3343
765.236 802.451 3337
773.215 802.451 3337
781.195 802.451 3337
789.175 802.451 3337
797.155 802.451 3337
805.135 802.451 3337
813.114 802.451 3337
821.094 802.451 3337
829.074 802.451 3337
837.054 802.451 3337
845.033 802.451 3337
853.013 802.451 3337
866.153 807.261 3357
879.389 812.07 3377
892.983 817.12 3398
901.109 817.12 3398
912.981 820.487 3412
932.478 830.587 3454
946.73 835.877 3476
955.042 835.877 3476
973.331 844.534 3512
985.923 848.141 3527
998.586 851.748 3542
1007.06 851.748 3542
1019.83 855.355 3557
1039.32 864.493 3595
1052.58 868.34 3611
1065.92 872.188 3627
1074.59 872.188 3627
1092.52 879.643 3658
1103.98 881.807 3667
1115.17 883.731 3675
1123.96 883.731 3675
1132.75 883.731 3675
1144.02 885.654 3683
1157.84 889.502 3699
1166.68 889.502 3699
1178.07 891.426 3707
1186.94 891.426 3707
1195.8 891.426 3707
1204.67 891.426 3707
1210.91 889.502 3699
1219.76 889.502 3699
1228.6 889.502 3699
1234.77 887.578 3691
1243.6 887.578 3691
1252.42 887.578 3691
1261.25 887.578 3691
1270.08 887.578 3691
1276.13 885.654 3683
1282.15 883.731 3675
1290.94 883.731 3675
1296.89 881.807 3667
1302.46 879.643 3658
1311.21 879.643 3658
1317.07 877.719 3650
1325.79 877.719 3650
1334.52 877.719 3650
1337.73 874.112 3635
1343.46 872.188 3627
1352.13 872.188 3627
1354.8 868.34 3611
1360.42 866.417 3603
1369.03 866.417 3603
1377.65 866.417 3603
1383.19 864.493 3595
1391.78 864.493 3595
1391.42 858.962 3572
1399.96 858.962 3572
1402.59 855.355 3557
1407.92 853.431 3549
1413.62 851.748 3542
1416.06 848.141 3527
1424.5 848.141 3527
1423.99 842.851 3505
1429.11 840.927 3497
1431.71 837.56 3483
1440.04 837.56 3483
1442.13 833.953 3468
1447.5 832.27 3461
1455.78 832.27 3461
1470.4 835.877 3476
1478.71 835.877 3476
1490.02 837.56 3483
1517.27 848.141 3527
1538.68 855.355 3557
1547.19 855.355 3557
1569.25 862.81 3588
1584.43 866.417 3603
1607.19 874.112 3635
1615.89 874.112 3635
1646.03 885.654 3683
1673.26 895.514 3724
1781.54 948.417 3944
1790.97 948.417 3944
1809.08 952.986 3963
1818.56 952.986 3963
1840.95 959.719 3991
1850.49 959.719 3991
1864.7 962.124 4001
1878.48 964.288 4010
1888.07 964.288 4010
1897.66 964.288 4010
1902.97 962.124 4001
1907.75 959.719 3991
1912.97 957.555 3982
1922.5 957.555 3982
1909.21 946.253 3935
1896.2 935.191 3889
1883.45 924.37 3844
1892.64 924.37 3844
1892.93 920.042 3826
1876.22 907.537 3774
1860.27 895.514 3724
1869.18 895.514 3724
1869.51 891.426 3707
1866.21 885.654 3683
1854.15 875.795 3642
1866.95 877.719 3650
1879.79 879.643 3658
1888.53 879.643 3658
1897.28 879.643 3658
1906.03 879.643 3658
1914.78 879.643 3658
1919.32 877.719 3650
1928.04 877.719 3650
1958.53 887.578 3691
1993.47 899.361 3740
2002.42 899.361 3740
2020.5 903.449 3757
2048.39 911.866 3792
2066.68 915.954 3809
2075.79 915.954 3809
2118.84 930.863 3871
2173.17 950.581 3953
2198.64 957.555 3982
2208.16 957.555 3982
2217.68 957.555 3982
2248.46 966.693 4020
2258.07 966.693 4020
2267.69 966.693 4020
2277.3 966.693 4020
2281.22 964.288 4010
2285.67 962.124 4001
2295.24 962.124 4001
2304.81 962.124 4001
2319.58 964.288 4010
2334.98 966.693 4020
2350.42 969.098 4030
2360.06 969.098 4030
2369.7 969.098 4030
2379.33 969.098 4030
2394.31 971.262 4039
2403.96 971.262 4039
2419.6 973.667 4049
2429.28 973.667 4049
2444.99 976.071 4059
2454.69 976.071 4059
2464.4 976.071 4059
2480.2 978.476 4069
2489.93 978.476 4069
2499.66 978.476 4069
2503.22 976.071 4059
2500.55 971.262 4039
2504.61 969.098 4030
2514.25 969.098 4030
2523.89 969.098 4030
2533.52 969.098 4030
2543.16 969.098 4030
2552.8 969.098 4030
2562.44 969.098 4030
2572.07 969.098 4030
2568.9 964.288 4010
2578.49 964.288 4010
2582.27 962.124 4001
2591.83 962.124 4001
2594.9 959.719 3991
2604.44 959.719 3991
2613.99 959.719 3991
2623.53 959.719 3991
2627.14 957.555 3982
2624.08 952.986 3963
2633.55 952.986 3963
2630.36 948.417 3944
2627.07 943.848 3925
2630.41 941.684 3916
2639.78 941.684 3916
2649.14 941.684 3916
2652.4 939.52 3907
2643.35 933.027 3880
2652.62 933.027 3880
2631.03 922.206 3835
2634 920.042 3826
2643.15 920.042 3826
2628.73 911.866 3792
2637.8 911.866 3792
2634.3 907.537 3774
534.302 173.38 721
536.026 173.38 721
537.751 173.38 721
539.475 173.38 721
539.698 172.899 719
541.417 172.899 719
543.136 172.899 719
544.098 172.658 718
545.815 172.658 718
547.532 172.658 718
548.484 172.418 717
-2365.97 767.458 3160
-2358.41 767.458 3160
-2346.39 766.001 3154
-2334.4 764.544 3148
-2322.44 763.086 3142
-2314.93 763.086 3142
-2307.41 763.086 3142
-2295.51 761.629 3136
-2270.5 755.8 3112
-2271.78 758.715 3124
-2264.31 758.715 3124
-2269.84 763.086 3142
-2275.29 767.458 3160
-2276.35 770.372 3172
-2268.76 770.372 3172
-2282.56 777.658 3202
-2288.4 782.273 3221
-2302.65 789.802 3252
-2294.87 789.802 3252
-2313.82 799.031 3290
-2348.01 813.602 3350
-2368.64 823.56 3391
-2360.53 823.56 3391
-2376.7 832.06 3426
-2368.51 832.06 3426
-2360.32 832.06 3426
-2352.12 832.06 3426
-2339.14 830.36 3419
-2354.83 838.861 3454
-2346.57 838.861 3454
-2338.31 838.861 3454
-2334.77 840.561 3461
-2331.2 842.261 3468
-2332.95 845.904 3483
-2324.62 845.904 3483
-2320.95 847.604 3490
-2317.24 849.304 3497
-2314.16 851.247 3505
-2305.78 851.247 3505
-2297.4 851.247 3505
-2289.02 851.247 3505
-2280.64 851.247 3505
-2272.26 851.247 3505
-2268.4 852.947 3512
-2260 852.947 3512
-2256.73 854.89 3520
-2248.31 854.89 3520
-2248.8 858.29 3534
-2245.42 860.233 3542
-2241.37 861.933 3549
-2232.89 861.933 3549
-2229.41 863.876 3557
-2230.27 867.519 3572
-2221.73 867.519 3572
-2213.19 867.519 3572
-2209.59 869.462 3580
-2210.25 873.105 3595
-2206.55 875.048 3603
-2197.93 875.048 3603
-2189.32 875.048 3603
-2185.54 876.991 3611
-2181.73 878.934 3619
-2173.08 878.934 3619
-2173.99 882.819 3635
-2169.47 884.52 3642
-2170.25 888.405 3658
-2161.51 888.405 3658
-2152.76 888.405 3658
-2144.01 888.405 3658
-2135.26 888.405 3658
-2121.87 886.462 3650
-2117.77 888.405 3658
-2109.02 888.405 3658
-2100.28 888.405 3658
-2091.53 888.405 3658
-2078.23 886.462 3650
-2069.5 886.462 3650
-2060.77 886.462 3650
-2052.04 886.462 3650
-2043.31 886.462 3650
-2034.58 886.462 3650
-2025.86 886.462 3650
-2017.13 886.462 3650
-2008.4 886.462 3650
-2004.05 888.405 3658
-1995.31 888.405 3658
-1986.56 888.405 3658
-1977.81 888.405 3658
-1973.91 890.591 3667
-1978 896.42 3691
-1969.18 896.42 3691
-1964.6 898.363 3699
-1955.75 898.363 3699
-1946.91 898.363 3699
-1925.49 892.534 3675
-1916.7 892.534 3675
-1907.91 892.534 3675
-1899.12 892.534 3675
-1886.22 890.591 3667
-1868.75 886.462 3650
-1860.02 886.462 3650
-1851.29 886.462 3650
-1838.52 884.52 3642
-1822.28 880.877 3627
-1809.6 878.934 3619
-1800.95 878.934 3619
-1788.33 876.991 3611
-1771.81 873.105 3595
-1763.22 873.105 3595
-1754.62 873.105 3595
-1746.02 873.105 3595
-1737.43 873.105 3595
-1717.77 867.519 3572
-1709.23 867.519 3572
-1700.69 867.519 3572
-1688.83 865.819 3565
-1680.3 865.819 3565
-1671.78 865.819 3565
-1663.25 865.819 3565
-1651.02 863.876 3557
-1642.51 863.876 3557
-1634 863.876 3557
-1625.5 863.876 3557
-1616.99 863.876 3557
-1608.49 863.876 3557
-1599.98 863.876 3557
-1591.47 863.876 3557
-1582.97 863.876 3557
-1574.46 863.876 3557
-1565.96 863.876 3557
-1557.45 863.876 3557
-1545.46 861.933 3549
-1536.97 861.933 3549
-1531.93 863.876 3557
-1523.43 863.876 3557
-1514.92 863.876 3557
-1509.8 865.819 3565
-1507.6 869.462 3580
-1499.03 869.462 3580
-1490.47 869.462 3580
-1481.91 869.462 3580
-1476.64 871.405 3588
-1470.93 873.105 3595
-1462.33 873.105 3595
-1453.73 873.105 3595
-1448.35 875.048 3603
-1439.74 875.048 3603
-1431.12 875.048 3603
-1422.51 875.048 3603
-1417.03 876.991 3611
-1417.76 882.819 3635
-1409.06 882.819 3635
-1400.37 882.819 3635
-1391.68 882.819 3635
-1382.99 882.819 3635
-1374.29 882.819 3635
-1374.24 888.405 3658
-1365.49 888.405 3658
-1356.75 888.405 3658
-598.905 422.102 1738
-594.749 422.102 1738
-590.593 422.102 1738
-586.437 422.102 1738
-582.281 422.102 1738
-577.459 421.616 1736
-571.657 420.402 1731
-566.862 419.916 1729
-562.727 419.916 1729
-557.946 419.43 1727
-552.534 418.459 1723
-548.414 418.459 1723
-544.293 418.459 1723
-540.173 418.459 1723
-536.053 418.459 1723
-530.389 417.245 1718
-526.281 417.245 1718
-521.565 416.759 1716
-517.461 416.759 1716
-513.059 416.516 1715
-508.958 416.516 1715
-504.856 416.516 1715
-500.171 416.03 1713
-494.917 415.059 1709
-490.83 415.059 1709
-486.743 415.059 1709
-482.374 414.816 1708
-477.73 414.33 1706
-473.65 414.33 1706
-470.121 414.816 1708
-466.037 414.816 1708
-461.952 414.816 1708
-457.868 414.816 1708
-453.784 414.816 1708
-449.699 414.816 1708
-445.615 414.816 1708
-441.531 414.816 1708
-437.702 415.059 1709
-433.616 415.059 1709
-429.529 415.059 1709
-425.442 415.059 1709
-422.342 416.03 1713
-418.245 416.03 1713
-414.633 416.516 1715
-411.728 417.73 1720
-408.089 418.216 1722
-403.971 418.216 1722
-400.086 418.459 1723
-396.885 419.43 1727
-393.21 419.916 1729
-389.075 419.916 1729
-385.386 420.402 1731
-381.467 420.645 1732
-377.761 421.13 1734
-373.614 421.13 1734
-369.894 421.616 1736
-366.586 422.588 1740
-362.425 422.588 1740
-358.264 422.588 1740
-354.713 423.316 1743
-350.545 423.316 1743
-346.775 423.802 1745
-342.602 423.802 1745
-338.429 423.802 1745
-334.256 423.802 1745
-330.084 423.802 1745
-325.911 423.802 1745
-321.738 423.802 1745
-316.837 422.83 1741
-312.674 422.83 1741
-308.511 422.83 1741
-304.173 422.588 1740
-299.667 422.102 1738
-295.511 422.102 1738
-291.355 422.102 1738
-286.868 421.616 1736
-282.717 421.616 1736
-278.245 421.13 1734
-274.098 421.13 1734
-269.951 421.13 1734
-265.498 420.645 1732
-261.357 420.645 1732
-257.512 421.13 1734
-253.365 421.13 1734
-249.219 421.13 1734
-245.072 421.13 1734
-240.926 421.13 1734
-236.779 421.13 1734
-232.901 421.616 1736
-229.013 422.102 1738
-225.116 422.588 1740
-220.955 422.588 1740
-216.794 422.588 1740
-212.756 422.83 1741
-208.832 423.316 1743
-204.664 423.316 1743
-200.726 423.802 1745
-197.229 425.259 1751
-193.152 425.502 1752
-188.962 425.502 1752
-185.406 426.959 1758
-181.614 427.931 1762
-178.105 429.631 1769
-173.875 429.631 1769
-169.837 430.116 1771
-165.976 431.088 1775
-162.096 432.059 1779
-157.842 432.059 1779
-153.846 432.788 1782
-149.921 433.759 1786
-145.976 434.731 1790
-141.696 434.731 1790
-137.415 434.731 1790
-133.73 436.674 1798
-129.862 438.131 1804
-125.548 438.131 1804
-121.302 438.374 1805
-117.115 438.86 1807
-113.168 440.317 1813
-108.833 440.317 1813
-104.498 440.317 1813
-188.253 951.065 3916
-178.888 951.065 3916
-169.524 951.065 3916
-155.784 925.078 3809
-146.329 922.892 3800
-137.242 922.892 3800
-127.581 918.764 3783
-118.535 918.764 3783
-108.736 912.449 3757
-99.7521 912.449 3757
-90.5747 910.506 3749
-81.4138 908.32 3740
-72.0052 902.492 3716
-63.1192 902.492 3716
-53.8682 896.42 3691
-44.6392 888.405 3658
-35.7348 884.52 3642
-27.0257 884.52 3642
-18.1607 876.991 3611
-9.48348 873.105 3595
-0.881075 867.519 3572
7.64565 865.819 3565
16.1706 865.819 3565
24.6956 865.819 3565
33.1461 863.876 3557
41.5583 861.933 3549
50.045 861.933 3549
58.4163 860.233 3542
66.7352 858.29 3534
75.1861 858.29 3534
83.6369 858.29 3534
91.9054 856.59 3527
100.14 854.89 3520
108.558 854.89 3520
116.975 854.89 3520
125.393 854.89 3520
133.81 854.89 3520
142.227 854.89 3520
150.645 854.89 3520
159.062 854.89 3520
167.479 854.89 3520
175.497 852.947 3512
183.895 852.947 3512
192.294 852.947 3512
200.692 852.947 3512
208.673 851.247 3505
216.559 849.304 3497
224.922 849.304 3497
233.284 849.304 3497
241.647 849.304 3497
250.009 849.304 3497
258.371 849.304 3497
266.734 849.304 3497
275.096 849.304 3497
284.674 852.947 3512
294.909 858.29 3534
303.359 858.29 3534
312.516 860.233 3542
320.986 860.233 3542
330.107 861.933 3549
338.594 861.933 3549
347.863 863.876 3557
356.369 863.876 3557
364.875 863.876 3557
373.381 863.876 3557
381.887 863.876 3557
387.868 858.29 3534
396.319 858.29 3534
402.25 852.947 3512
410.648 852.947 3512
419.047 852.947 3512
425.619 849.304 3497
433.982 849.304 3497
439.688 844.204 3476
445.164 838.861 3454
450.667 833.76 3433
458.876 833.76 3433
464.229 828.66 3412
468.511 821.86 3384
472.801 815.303 3357
480.828 815.303 3357
486.817 811.902 3343
494.811 811.902 3343
501.903 810.445 3337
509.883 810.445 3337
517.862 810.445 3337
525.842 810.445 3337
533.822 810.445 3337
542.776 811.902 3343
550.77 811.902 3343
558.764 811.902 3343
566.758 811.902 3343
574.753 811.902 3343
583.967 813.602 3350
591.978 813.602 3350
601.242 815.303 3357
610.359 816.76 3363
619.688 818.46 3370
627.747 818.46 3370
635.805 818.46 3370
643.864 818.46 3370
651.923 818.46 3370
659.981 818.46 3370
668.04 818.46 3370
674.694 816.76 3363
682.736 816.76 3363
690.778 816.76 3363
698.82 816.76 3363
705.601 815.303 3357
713.629 815.303 3357
721.656 815.303 3357
728.162 813.602 3350
734.635 811.902 3343
742.629 811.902 3343
750.623 811.902 3343
758.617 811.902 3343
765.236 810.445 3337
773.215 810.445 3337
781.195 810.445 3337
787.52 808.745 3330
795.483 808.745 3330
803.446 808.745 3330
811.409 808.745 3330
819.372 808.745 3330
827.335 808.745 3330
837.054 810.445 3337
845.033 810.445 3337
853.013 810.445 3337
866.153 815.303 3357
879.389 820.16 3377
892.983 825.26 3398
901.109 825.26 3398
912.981 828.66 3412
932.478 838.861 3454
946.73 844.204 3476
955.042 844.204 3476
973.331 852.947 3512
987.88 858.29 3534
1000.56 861.933 3549
1009.05 861.933 3549
1019.83 863.876 3557
1039.32 873.105 3595
1052.58 876.991 3611
1065.92 880.877 3627
1074.59 880.877 3627
1095.21 890.591 3667
1103.98 890.591 3667
1115.17 892.534 3675
1123.96 892.534 3675
1132.75 892.534 3675
1144.02 894.477 3683
1157.84 898.363 3699
1166.68 898.363 3699
1178.07 900.306 3707
1186.94 900.306 3707
1195.8 900.306 3707
1204.67 900.306 3707
1210.91 898.363 3699
1219.76 898.363 3699
1228.6 898.363 3699
1234.77 896.42 3691
1243.6 896.42 3691
1252.42 896.42 3691
1261.25 896.42 3691
1270.08 896.42 3691
1273.36 892.534 3675
1279.36 890.591 3667
1288.12 890.591 3667
1296.89 890.591 3667
1302.46 888.405 3658
1308.34 886.462 3650
1317.07 886.462 3650
1325.79 886.462 3650
1331.6 884.52 3642
1337.73 882.819 3635
1340.5 878.934 3619
1349.15 878.934 3619
1354.8 876.991 3611
1360.42 875.048 3603
1365.99 873.105 3595
1374.59 873.105 3595
1383.19 873.105 3595
1389.07 871.405 3588
1391.42 867.519 3572
1399.96 867.519 3572
1399.44 861.933 3549
1407.92 861.933 3549
1413.62 860.233 3542
1416.06 856.59 3527
1424.5 856.59 3527
1423.99 851.247 3505
1426.24 847.604 3490
1434.59 847.604 3490
1442.94 847.604 3490
1442.13 842.261 3468
1450.43 842.261 3468
1455.78 840.561 3461
1470.4 844.204 3476
1478.71 844.204 3476
1496 849.304 3497
1523.73 860.233 3542
1548.63 869.462 3580
1557.19 869.462 3580
1572.32 873.105 3595
1594.98 880.877 3627
1624.88 892.534 3675
1633.67 892.534 3675
1664.36 904.435 3724
1692.13 914.635 3766
1781.54 957.865 3944
1790.97 957.865 3944
1809.08 962.48 3963
1818.56 962.48 3963
1840.95 969.28 3991
1850.49 969.28 3991
1864.7 971.709 4001
1878.48 973.894 4010
1888.07 973.894 4010
1897.66 973.894 4010
1902.97 971.709 4001
1907.75 969.28 3991
1912.97 967.094 3982
1922.5 967.094 3982
1909.21 955.679 3935
1896.2 944.508 3889
1883.45 933.578 3844
1892.64 933.578 3844
1892.93 929.207 3826
1876.22 916.578 3774
1860.27 904.435 3724
1869.18 904.435 3724
1869.51 900.306 3707
1866.21 894.477 3683
1854.15 884.52 3642
1866.95 886.462 3650
1875.67 886.462 3650
1884.4 886.462 3650
1893.13 886.462 3650
1901.86 886.462 3650
1910.59 886.462 3650
1915.11 884.52 3642
1923.82 884.52 3642
1954.28 894.477 3683
1993.47 908.32 3740
2002.42 908.32 3740
2020.5 912.449 3757
2048.39 920.949 3792
2061.8 922.892 3800
2070.89 922.892 3800
2108.98 935.764 3853
2173.17 960.051 3953
2193.12 964.665 3972
2202.62 964.665 3972
2217.68 967.094 3982
2248.46 976.323 4020
2258.07 976.323 4020
2267.69 976.323 4020
2277.3 976.323 4020
2281.22 973.894 4010
2285.67 971.709 4001
2295.24 971.709 4001
2299.04 969.28 3991
2314.37 971.709 4001
2329.17 973.894 4010
2344.59 976.323 4020
2354.2 976.323 4020
2369.7 978.752 4030
2379.33 978.752 4030
2394.31 980.938 4039
2403.96 980.938 4039
2419.6 983.366 4049
2429.28 983.366 4049
2444.99 985.795 4059
2454.69 985.795 4059
2464.4 985.795 4059
2480.2 988.223 4069
2489.93 988.223 4069
2499.66 988.223 4069
2503.22 985.795 4059
2500.55 980.938 4039
2504.61 978.752 4030
2514.25 978.752 4030
2523.89 978.752 4030
2533.52 978.752 4030
2543.16 978.752 4030
2552.8 978.752 4030
2562.44 978.752 4030
2572.07 978.752 4030
2568.9 973.894 4010
2578.49 973.894 4010
2582.27 971.709 4001
2591.83 971.709 4001
2594.9 969.28 3991
2604.44 969.28 3991
2613.99 969.28 3991
2623.53 969.28 3991
2627.14 967.094 3982
2624.08 962.48 3963
2633.55 962.48 3963
2624.36 955.679 3935
2627.07 953.251 3925
2630.41 951.065 3916
2639.78 951.065 3916
2649.14 951.065 3916
2652.4 948.879 3907
2643.35 942.322 3880
2652.62 942.322 3880
2624.86 929.207 3826
2610.6 920.949 3792
2619.67 920.949 3792
2616.25 916.578 3774
2625.28 916.578 3774
2634.3 916.578 3774
534.54 174.621 719
536.259 174.621 719
537.978 174.621 719
539.698 174.621 719
541.417 174.621 719
543.136 174.621 719
544.098 174.378 718
545.815 174.378 718
547.532 174.378 718
548.484 174.135 717
-2365.97 775.028 3160
-2358.41 775.028 3160
-2346.39 773.556 3154
-2334.4 772.085 3148
-2322.44 770.613 3142
-2314.93 770.613 3142
-2307.41 770.613 3142
-2295.51 769.141 3136
-2270.5 763.255 3112
-2271.78 766.198 3124
-2264.31 766.198 3124
-2265.51 769.141 3136
-2262.33 770.613 3142
-2267.73 775.028 3160
-2260.18 775.028 3160
-2269.73 780.914 3184
-2283.43 788.272 3214
-2289.2 792.932 3233
-2281.47 792.932 3233
-2287.1 797.592 3252
-2319.97 811.817 3310
-2344.89 823.344 3357
-2336.86 823.344 3357
-2342.71 828.25 3377
-2334.63 828.25 3377
-2326.56 828.25 3377
-2318.48 828.25 3377
-2319.98 831.683 3391
-2326.19 836.834 3412
-2322.79 838.551 3419
-2314.61 838.551 3419
-2315.88 841.984 3433
-2312.38 843.701 3440
-2318.22 848.852 3461
-2309.94 848.852 3461
-2306.32 850.568 3468
-2307.97 854.247 3483
-2308.88 857.681 3497
-2300.52 857.681 3497
-2292.16 857.681 3497
-2283.79 857.681 3497
-2275.43 857.681 3497
-2267.07 857.681 3497
-2258.71 857.681 3497
-2255.49 859.643 3505
-2251.6 861.36 3512
-2243.2 861.36 3512
-2244.35 865.039 3527
-2245.42 868.718 3542
-2241.37 870.435 3549
-2232.89 870.435 3549
-2229.41 872.397 3557
-2225.9 874.359 3565
-2221.73 876.076 3572
-2213.19 876.076 3572
-2209.59 878.038 3580
-2210.25 881.717 3595
-2201.65 881.717 3595
-2193.05 881.717 3595
-2189.32 883.679 3603
-2185.54 885.641 3611
-2181.73 887.603 3619
-2173.08 887.603 3619
-2173.99 891.527 3635
-2169.47 893.244 3642
-2170.25 897.168 3658
-2161.51 897.168 3658
-2152.76 897.168 3658
-2144.01 897.168 3658
-2135.26 897.168 3658
-2121.87 895.206 3650
-2113.14 895.206 3650
-2104.41 895.206 3650
-2095.68 895.206 3650
-2086.95 895.206 3650
-2078.23 895.206 3650
-2069.5 895.206 3650
-2060.77 895.206 3650
-2052.04 895.206 3650
-2043.31 895.206 3650
-2030.12 893.244 3642
-2021.42 893.244 3642
-2012.71 893.244 3642
-2004 893.244 3642
-1995.29 893.244 3642
-1986.58 893.244 3642
-1977.87 893.244 3642
-1973.49 895.206 3650
-1969.06 897.168 3658
-1960.32 897.168 3658
-1951.57 897.168 3658
-1947.6 899.375 3667
-1938.83 899.375 3667
-1930.06 899.375 3667
-1921.3 899.375 3667
-1912.53 899.375 3667
-1894.93 895.206 3650
-1886.2 895.206 3650
-1877.48 895.206 3650
-1864.65 893.244 3642
-1852.38 891.527 3635
-1843.68 891.527 3635
-1834.99 891.527 3635
-1822.28 889.565 3627
-1809.6 887.603 3619
-1800.95 887.603 3619
-1788.33 885.641 3611
-1771.81 881.717 3595
-1763.22 881.717 3595
-1754.62 881.717 3595
-1746.02 881.717 3595
-1737.43 881.717 3595
-1717.77 876.076 3572
-1709.23 876.076 3572
-1700.69 876.076 3572
-1688.83 874.359 3565
-1680.3 874.359 3565
-1671.78 874.359 3565
-1663.25 874.359 3565
-1651.02 872.397 3557
-1642.51 872.397 3557
-1634 872.397 3557
-1625.5 872.397 3557
-1616.99 872.397 3557
-1608.49 872.397 3557
-1599.98 872.397 3557
-1591.47 872.397 3557
-1582.97 872.397 3557
-1574.46 872.397 3557
-1565.96 872.397 3557
-1557.45 872.397 3557
-1545.46 870.435 3549
-1536.97 870.435 3549
-1531.93 872.397 3557
-1523.43 872.397 3557
-1514.92 872.397 3557
-1509.8 874.359 3565
-1507.6 878.038 3580
-1499.03 878.038 3580
-1490.47 878.038 3580
-1481.91 878.038 3580
-1476.64 880 3588
-1470.93 881.717 3595
-1462.33 881.717 3595
-1453.73 881.717 3595
-1448.35 883.679 3603
-1439.74 883.679 3603
-1431.12 883.679 3603
-1422.51 883.679 3603
-1417.03 885.641 3611
-1417.76 891.527 3635
-1409.06 891.527 3635
-1400.37 891.527 3635
-1391.68 891.527 3635
-1382.99 891.527 3635
-1374.29 891.527 3635
-1374.24 897.168 3658
-1365.49 897.168 3658
-1356.75 897.168 3658
-599.939 427.001 1741
-595.775 427.001 1741
-591.612 427.001 1741
-587.449 427.001 1741
-583.286 427.001 1741
-578.79 426.756 1740
-573.308 425.775 1736
