212.32 1205.06 2699
218.775 1205.06 2699
225.98 1209.08 2708
232.455 1209.08 2708
238.931 1209.08 2708
245.407 1209.08 2708
251.882 1209.08 2708
259.598 1214.88 2721
266.105 1214.88 2721
272.612 1214.88 2721
279.631 1217.12 2726
286.15 1217.12 2726
292.669 1217.12 2726
299.187 1217.12 2726
306.155 1218.9 2730
312.683 1218.9 2730
320.264 1222.92 2739
326.813 1222.92 2739
334.459 1226.94 2748
341.03 1226.94 2748
348.74 1230.96 2757
355.332 1230.96 2757
361.925 1230.96 2757
367.983 1229.17 2753
374.567 1229.17 2753
381.15 1229.17 2753
387.029 1226.94 2748
393.6 1226.94 2748
399.589 1225.15 2744
406.151 1225.15 2744
409.253 1214.88 2721
412.398 1205.06 2699
416.214 1197.47 2682
422.628 1197.47 2682
425.682 1188.1 2661
432.695 1189.88 2665
439.726 1191.67 2669
446.109 1191.67 2669
452.491 1191.67 2669
458.874 1191.67 2669
465.256 1191.67 2669
471.638 1191.67 2669
477.304 1189.88 2665
483.677 1189.88 2665
493.912 1199.26 2686
501.266 1201.49 2691
510.154 1207.29 2704
521.587 1218.9 2730
532.565 1229.17 2753
539.931 1230.96 2757
547.515 1233.19 2762
554.12 1233.19 2762
560.725 1233.19 2762
567.33 1233.19 2762
573.935 1233.19 2762
580.539 1233.19 2762
586.081 1230.96 2757
589.879 1225.15 2744
597.311 1226.94 2748
603.882 1226.94 2748
611.564 1229.17 2753
620.168 1233.19 2762
627.907 1235.42 2767
634.524 1235.42 2767
641.141 1235.42 2767
647.758 1235.42 2767
654.374 1235.42 2767
659.797 1233.19 2762
663.024 1226.94 2748
666.427 1221.14 2735
672.967 1221.14 2735
679.508 1221.14 2735
684.794 1218.9 2730
695.88 1226.94 2748
708.331 1237.21 2771
718.569 1243.46 2785
725.229 1243.46 2785
733.203 1245.69 2790
743.587 1251.94 2804
750.292 1251.94 2804
756.998 1251.94 2804
763.703 1251.94 2804
769.034 1249.71 2799
775.727 1249.71 2799
775.991 1239.44 2776
776.145 1229.17 2753
780.17 1225.15 2744
789.312 1229.17 2753
795.895 1229.17 2753
803.644 1230.96 2757
815.821 1239.44 2776
822.459 1239.44 2776
829.097 1239.44 2776
834.23 1237.21 2771
839.643 1235.42 2767
846.26 1235.42 2767
844.246 1222.92 2739
837.128 1203.28 2695
835.435 1191.67 2669
835.193 1182.29 2648
842.797 1184.08 2652
849.138 1184.08 2652
855.48 1184.08 2652
861.822 1184.08 2652
868.164 1184.08 2652
874.505 1184.08 2652
882.176 1185.86 2656
888.527 1185.86 2656
902.291 1195.69 2678
908.695 1195.69 2678
915.099 1195.69 2678
919.782 1193.45 2673
926.174 1193.45 2673
929.775 1189.88 2665
934.742 1188.1 2661
941.106 1188.1 2661
944.264 1184.08 2652
950.606 1184.08 2652
952.618 1178.72 2640
957.115 1176.49 2635
966.706 1180.51 2644
973.029 1180.51 2644
979.352 1180.51 2644
990.148 1185.86 2656
996.499 1185.86 2656
1004.74 1188.1 2661
1011.1 1188.1 2661
1018.99 1189.88 2665
1030.37 1195.69 2678
1041.81 1201.49 2691
1048.24 1201.49 2691
1054.68 1201.49 2691
1055.98 1195.69 2678
1062.39 1195.69 2678
1065.2 1191.67 2669
1066.36 1185.86 2656
1072.71 1185.86 2656
1081.1 1188.1 2661
1097.68 1199.26 2686
1104.1 1199.26 2686
1117.97 1207.29 2704
1128.17 1211.31 2713
1138.01 1214.88 2721
1144.51 1214.88 2721
1156.94 1221.14 2735
1165.19 1222.92 2739
1175.59 1226.94 2748
1182.16 1226.94 2748
1188.73 1226.94 2748
1193.56 1225.15 2744
1200.12 1225.15 2744
1202.72 1221.14 2735
1209.27 1221.14 2735
1206.03 1211.31 2713
1212.51 1211.31 2713
1214.96 1207.29 2704
1217.36 1203.28 2695
1316.31 1211.31 2713
1342.31 1229.17 2753
1348.89 1229.17 2753
1362.36 1235.42 2767
1373.43 1239.44 2776
1380.07 1239.44 2776
1386.71 1239.44 2776
1393.35 1239.44 2776
1399.99 1239.44 2776
1408.65 1241.23 2780
1415.3 1241.23 2780
1421.95 1241.23 2780
1426.54 1239.44 2776
1430.6 1237.21 2771
1441.89 1241.23 2780
1448.54 1241.23 2780
1455.19 1241.23 2780
1461.84 1241.23 2780
1473.77 1245.69 2790
1480.44 1245.69 2790
1487.11 1245.69 2790
1493.78 1245.69 2790
1500.45 1245.69 2790
1499.56 1239.44 2776
1506.2 1239.44 2776
1500.3 1229.17 2753
1506.89 1229.17 2753
1510.72 1226.94 2748
1517.29 1226.94 2748
1521.65 1225.15 2744
1518.18 1217.12 2726
1524.7 1217.12 2726
1521.11 1209.08 2708
1520.25 1203.28 2695
1521.6 1199.26 2686
1528.02 1199.26 2686
1534.44 1199.26 2686
1538.57 1197.47 2682
1535.19 1189.88 2665
1541.57 1189.88 2665
1540.39 1184.08 2652
1542.06 1180.51 2644
1546.04 1178.72 2640
1549.42 1176.49 2635
1555.72 1176.49 2635
1562.02 1176.49 2635
1568.32 1176.49 2635
1569.84 1172.92 2627
1576.12 1172.92 2627
1577.59 1169.34 2619
1574.17 1162.2 2603
1582.83 1163.99 2607
1593.94 1167.56 2615
1600.19 1167.56 2615
1613.81 1172.92 2627
1620.1 1172.92 2627
1626.38 1172.92 2627
1632.66 1172.92 2627
1633.95 1169.34 2619
1640.21 1169.34 2619
1651.51 1172.92 2627
1657.79 1172.92 2627
1664.07 1172.92 2627
1670.35 1172.92 2627
1691.4 1165.77 2611
1705.44 1171.13 2623
1711.71 1171.13 2623
1729.12 1178.72 2640
1757.13 1193.45 2673
1778.03 1203.28 2695
1784.48 1203.28 2695
1790.92 1203.28 2695
1797.37 1203.28 2695
1803.81 1203.28 2695
1778.69 1182.29 2648
1779.63 1178.72 2640
1785.94 1178.72 2640
1788.86 1176.49 2635
1795.16 1176.49 2635
1801.46 1176.49 2635
1799.53 1171.13 2623
1800.29 1167.56 2615
1806.55 1167.56 2615
1812.8 1167.56 2615
1827.4 1172.92 2627
1833.68 1172.92 2627
1839.96 1172.92 2627
1829.38 1162.2 2603
1835.31 1120.23 2509
1841.31 1120.23 2509
1847.31 1120.23 2509
1842.23 1113.53 2494
1842.27 1109.96 2486
1848.21 1109.96 2486
1848.94 1106.84 2479
1843.64 1100.14 2464
1849.53 1100.14 2464
1860.7 1103.26 2471
1866.61 1103.26 2471
1875.55 1105.05 2475
1881.46 1105.05 2475
1887.38 1105.05 2475
-1317.33 1235.77 2753
-1317.41 1242.05 2767
-1310.8 1242.05 2767
-1304.18 1242.05 2767
-1286.78 1231.73 2744
-1251.29 1203.9 2682
-1244.88 1203.9 2682
-1220.92 1186.84 2644
-1212.75 1185.04 2640
-1204.16 1182.8 2635
-1200.13 1185.04 2640
-1197.43 1188.63 2648
-1191.1 1188.63 2648
-1186.56 1190.43 2652
-1180.22 1190.43 2652
-1173.88 1190.43 2652
-1164.01 1186.84 2644
-1152 1181 2631
-1140.48 1175.62 2619
-1134.22 1175.62 2619
-1124.51 1172.03 2611
-1109.27 1162.6 2590
-1097.97 1157.21 2578
-1091.8 1157.21 2578
-1079.32 1150.48 2563
-1064.82 1141.5 2543
-1058.74 1141.5 2543
-1052.65 1141.5 2543
-1070.21 1181 2631
-1114.87 1237.56 2757
-1108.27 1237.56 2757
-1116.47 1254.17 2794
-1113.76 1258.66 2804
-1112.58 1264.94 2818
-1105.84 1264.94 2818
-1099.1 1264.94 2818
-1092.36 1264.94 2818
-1085.62 1264.94 2818
-1075.44 1260.9 2809
-1068.72 1260.9 2809
-1058.23 1256.42 2799
-1051.53 1256.42 2799
-1039.61 1250.13 2785
-1027.76 1243.85 2771
-1021.13 1243.85 2771
-1014.51 1243.85 2771
-1004.61 1239.81 2762
-991.499 1231.73 2744
-983.142 1229.48 2739
-976.593 1229.48 2739
-963.668 1221.4 2721
-952.588 1215.57 2708
-940.173 1207.94 2691
-933.738 1207.94 2691
-919.722 1198.06 2669
-910.602 1194.47 2661
-902.54 1192.23 2656
-894.839 1190.43 2652
-888.497 1190.43 2652
-879.494 1186.84 2644
-873.172 1186.84 2644
-868.161 1188.63 2648
-861.828 1188.63 2648
-855.496 1188.63 2648
-846.599 1185.04 2640
-823.098 1160.8 2586
-816.914 1160.8 2586
-806.027 1154.07 2571
-554.409 799.904 1782
-549.221 798.558 1779
-544.967 798.558 1779
-540.105 797.66 1777
-534.65 795.865 1773
-528.615 793.171 1767
-524.389 793.171 1767
-520.164 793.171 1767
-515.355 792.273 1765
-509.107 789.131 1758
-504.903 789.131 1758
-498.99 786.438 1752
-493.953 785.091 1749
-489.211 784.194 1747
-485.033 784.194 1747
-479.755 782.398 1743
-473.677 779.256 1736
-467.632 776.114 1729
-463.498 776.114 1729
-459.363 776.114 1729
-453.649 773.421 1723
-449.268 772.972 1722
-445.15 772.972 1722
-440.52 772.074 1720
-435.392 770.278 1716
-431.288 770.278 1716
-426.438 768.932 1713
-422.342 768.932 1713
-418.245 768.932 1713
-413.182 767.136 1709
-409.095 767.136 1709
-405.009 767.136 1709
-400.687 766.687 1708
-396.138 765.79 1706
-392.059 765.79 1706
-387.979 765.79 1706
-383.45 764.892 1704
-379.375 764.892 1704
-374.639 763.545 1701
-370.572 763.545 1701
-366.504 763.545 1701
-362.01 762.647 1699
-357.526 761.75 1697
-353.468 761.75 1697
-349.41 761.75 1697
-345.352 761.75 1697
-341.294 761.75 1697
-337.236 761.75 1697
-332.589 760.403 1694
-328.538 760.403 1694
-324.487 760.403 1694
-320.436 760.403 1694
-316.385 760.403 1694
-312.335 760.403 1694
-308.284 760.403 1694
-304.413 760.852 1695
-300.714 761.75 1697
-296.656 761.75 1697
-292.598 761.75 1697
-289.39 763.994 1702
-286.326 766.687 1708
-282.241 766.687 1708
-278.645 768.034 1711
-275.998 772.074 1720
-272.675 774.318 1725
-268.55 774.318 1725
-265.498 777.46 1732
-262.715 781.5 1741
-259.443 784.194 1747
-255.265 784.194 1747
-252.381 788.234 1756
-249.171 791.376 1763
-247.178 798.558 1779
-242.924 798.558 1779
-240.146 803.496 1790
-237.447 808.882 1802
-233.137 808.882 1802
-229.971 812.922 1811
-226.388 815.615 1817
-223.021 819.206 1825
-218.657 819.206 1825
-214.527 820.104 1827
-210.388 821.002 1829
-206.015 821.002 1829
-201.641 821.002 1829
-197.267 821.002 1829
-192.683 820.104 1827
-188.108 819.206 1825
-184.146 821.002 1829
-179.773 821.002 1829
-175.591 821.9 1831
-171.773 824.593 1837
-167.563 825.491 1839
-163.165 825.491 1839
-159.458 829.082 1847
-155.461 831.326 1852
-151.685 834.917 1860
-147.237 834.917 1860
-143.096 836.713 1864
-138.639 836.713 1864
-134.181 836.713 1864
-129.724 836.713 1864
-158.717 1186.84 2644
-152.395 1186.84 2644
-147.232 1196.27 2665
-140.859 1196.27 2665
-134.487 1196.27 2665
-128.114 1196.27 2665
-120.964 1188.63 2648
-113.896 1181 2631
-107.605 1181 2631
-101.313 1181 2631
-95.1662 1182.8 2635
-88.8651 1182.8 2635
-82.564 1182.8 2635
-76.1472 1181 2631
-69.4309 1173.82 2615
-63.081 1172.03 2611
-56.8373 1172.03 2611
-50.6711 1173.82 2615
-44.4178 1173.82 2615
-38.3981 1181 2631
-32.2164 1185.04 2640
-25.9818 1188.63 2648
-19.6497 1188.63 2648
-13.3577 1192.23 2656
-7.04073 1198.06 2669
-0.663766 1207.94 2691
5.77123 1207.94 2691
12.306 1217.81 2713
18.8837 1223.65 2726
25.4862 1227.69 2735
32.0265 1227.69 2735
38.5667 1227.69 2735
45.1069 1227.69 2735
51.6471 1227.69 2735
58.0809 1225.44 2730
64.3962 1221.4 2721
70.6945 1217.81 2713
77.1821 1217.81 2713
83.1145 1209.73 2695
89.26 1205.69 2686
95.6831 1205.69 2686
102.296 1207.94 2691
108.731 1207.94 2691
115.166 1207.94 2691
121.194 1203.9 2682
127.608 1203.9 2682
134.021 1203.9 2682
140.644 1205.69 2686
147.341 1207.94 2691
153.776 1207.94 2691
160.211 1207.94 2691
166.646 1207.94 2691
172.76 1205.69 2686
179.183 1205.69 2686
184.155 1196.27 2665
189.598 1190.43 2652
196.605 1194.47 2661
204.57 1203.9 2682
210.983 1203.9 2682
217.397 1203.9 2682
224.144 1205.69 2686
230.567 1205.69 2686
236.99 1205.69 2686
243.413 1205.69 2686
250.673 1209.73 2695
257.118 1209.73 2695
263.562 1209.73 2695
270.007 1209.73 2695
276.041 1207.94 2691
281.951 1205.69 2686
288.374 1205.69 2686
294.797 1205.69 2686
301.781 1207.94 2691
308.216 1207.94 2691
315.119 1209.73 2695
321.563 1209.73 2695
330.686 1219.61 2717
337.183 1219.61 2717
343.68 1219.61 2717
350.177 1219.61 2717
356.674 1219.61 2717
363.706 1221.4 2721
370.213 1221.4 2721
376.72 1221.4 2721
382.663 1219.61 2717
389.16 1219.61 2717
395.075 1217.81 2713
401.562 1217.81 2713
405.944 1211.53 2699
406.592 1194.47 2661
411.559 1190.43 2652
417.9 1190.43 2652
423.602 1188.63 2648
429.934 1188.63 2648
436.926 1190.43 2652
443.936 1192.23 2656
450.287 1192.23 2656
456.639 1192.23 2656
462.99 1192.23 2656
469.341 1192.23 2656
475.692 1192.23 2656
481.318 1190.43 2652
486.924 1188.63 2648
500.335 1205.69 2686
510.154 1213.77 2704
516.62 1213.77 2704
529.083 1227.69 2735
536.406 1229.48 2739
545.731 1235.77 2753
552.315 1235.77 2753
559.71 1237.56 2757
566.303 1237.56 2757
572.896 1237.56 2757
577.597 1233.52 2748
583.318 1231.73 2744
587.945 1227.69 2735
594.485 1227.69 2735
601.025 1227.69 2735
608.454 1229.48 2739
617.024 1233.52 2748
624.73 1235.77 2753
631.314 1235.77 2753
637.897 1235.77 2753
644.48 1235.77 2753
651.063 1235.77 2753
656.452 1233.52 2748
659.887 1227.69 2735
663.016 1221.4 2721
669.523 1221.4 2721
674.042 1217.81 2713
679.275 1215.57 2708
689.043 1221.4 2721
702.451 1233.52 2748
714.957 1243.85 2771
721.583 1243.85 2771
730.575 1247.89 2780
739.874 1252.38 2790
746.546 1252.38 2790
753.218 1252.38 2790
759.89 1252.38 2790
762.715 1246.09 2776
769.353 1246.09 2776
769.562 1235.77 2753
773.608 1231.73 2744
776.189 1225.44 2730
782.718 1225.44 2730
789.246 1225.44 2730
802.478 1235.77 2753
809.062 1235.77 2753
819.793 1242.05 2767
826.409 1242.05 2767
833.026 1242.05 2767
838.126 1239.81 2762
844.73 1239.81 2762
843.013 1227.69 2735
829.052 1198.06 2669
827.609 1186.84 2644
832.67 1185.04 2640
840.254 1186.84 2644
846.577 1186.84 2644
852.9 1186.84 2644
859.222 1186.84 2644
865.545 1186.84 2644
871.867 1186.84 2644
880.847 1190.43 2652
887.189 1190.43 2652
896.563 1194.47 2661
902.926 1194.47 2661
909.289 1194.47 2661
917.029 1196.27 2665
923.402 1196.27 2665
929.775 1196.27 2665
934.742 1194.47 2661
941.106 1194.47 2661
944.264 1190.43 2652
950.606 1190.43 2652
952.618 1185.04 2640
957.115 1182.8 2635
966.706 1186.84 2644
973.029 1186.84 2644
979.352 1186.84 2644
990.148 1192.23 2656
996.499 1192.23 2656
1004.74 1194.47 2661
1011.1 1194.47 2661
1018.99 1196.27 2665
1030.37 1202.1 2678
1041.81 1207.94 2691
1048.24 1207.94 2691
1054.68 1207.94 2691
1055.98 1202.1 2678
1062.39 1202.1 2678
1065.2 1198.06 2669
1066.36 1192.23 2656
1072.71 1192.23 2656
1081.1 1194.47 2661
1097.68 1205.69 2686
1104.1 1205.69 2686
1117.97 1213.77 2704
1128.17 1217.81 2713
1138.01 1221.4 2721
1144.51 1221.4 2721
1156.94 1227.69 2735
1165.19 1229.48 2739
1175.59 1233.52 2748
1182.16 1233.52 2748
1188.73 1233.52 2748
1193.56 1231.73 2744
1200.12 1231.73 2744
1202.72 1227.69 2735
1209.27 1227.69 2735
1206.03 1217.81 2713
1212.51 1217.81 2713
1214.96 1213.77 2704
1217.36 1209.73 2695
1316.31 1217.81 2713
1342.31 1235.77 2753
1348.89 1235.77 2753
1362.36 1242.05 2767
1373.43 1246.09 2776
1380.07 1246.09 2776
1386.71 1246.09 2776
1393.35 1246.09 2776
1399.99 1246.09 2776
1408.65 1247.89 2780
1415.3 1247.89 2780
1421.95 1247.89 2780
1426.54 1246.09 2776
1430.6 1243.85 2771
1441.89 1247.89 2780
1448.54 1247.89 2780
1455.19 1247.89 2780
1461.84 1247.89 2780
1473.77 1252.38 2790
1480.44 1252.38 2790
1487.11 1252.38 2790
1493.78 1252.38 2790
1500.45 1252.38 2790
1499.56 1246.09 2776
1506.2 1246.09 2776
1500.3 1235.77 2753
1506.89 1235.77 2753
1510.72 1233.52 2748
1517.29 1233.52 2748
1521.65 1231.73 2744
1518.18 1223.65 2726
1524.7 1223.65 2726
1521.11 1215.57 2708
1520.25 1209.73 2695
1521.6 1205.69 2686
1528.02 1205.69 2686
1534.44 1205.69 2686
1538.57 1203.9 2682
1535.19 1196.27 2665
1541.57 1196.27 2665
1540.39 1190.43 2652
1542.06 1186.84 2644
1546.04 1185.04 2640
1549.42 1182.8 2635
1555.72 1182.8 2635
1562.02 1182.8 2635
1568.32 1182.8 2635
1569.84 1179.21 2627
1576.12 1179.21 2627
1577.59 1175.62 2619
1574.17 1168.44 2603
1565.22 1157.21 2578
1589.06 1170.23 2607
1595.29 1170.23 2607
1603.98 1172.03 2611
1610.23 1172.03 2611
1616.47 1172.03 2611
1625.2 1173.82 2615
1631.46 1173.82 2615
1637.71 1173.82 2615
1643.96 1173.82 2615
1652.74 1175.62 2619
1659 1175.62 2619
1665.26 1175.62 2619
1693.99 1173.82 2615
1702.84 1175.62 2619
1709.1 1175.62 2619
1725.85 1182.8 2635
1754.5 1198.06 2669
1769.46 1203.9 2682
1775.87 1203.9 2682
1782.28 1203.9 2682
1788.7 1203.9 2682
1795.11 1203.9 2682
1767.27 1181 2631
1773.56 1181 2631
1779.85 1181 2631
1786.14 1181 2631
1792.43 1181 2631
1798.73 1181 2631
1799.53 1177.41 2623
1785.84 1164.4 2594
1792.04 1164.4 2594
1798.24 1164.4 2594
1810.71 1168.44 2603
1816.93 1168.44 2603
1823.15 1168.44 2603
1829.38 1168.44 2603
1818.38 1119.51 2494
1835.31 1126.24 2509
1841.31 1126.24 2509
1847.31 1126.24 2509
1842.23 1119.51 2494
1842.27 1115.92 2486
1848.21 1115.92 2486
1848.94 1112.77 2479
1843.64 1106.04 2464
1849.53 1106.04 2464
1855.43 1106.04 2464
1861.32 1106.04 2464
1875.55 1110.98 2475
1881.46 1110.98 2475
1887.38 1110.98 2475
-1328.08 1240.11 2748
-1321.51 1240.11 2748
-1317.33 1242.36 2753
-1312.65 1244.17 2757
-1306.06 1244.17 2757
-1299.47 1244.17 2757
-1286.78 1238.3 2744
-1251.29 1210.32 2682
-1244.88 1210.32 2682
-1220.92 1193.17 2644
-1212.75 1191.37 2640
-1204.16 1189.11 2635
-1200.13 1191.37 2640
-1197.43 1194.98 2648
-1191.1 1194.98 2648
-1186.56 1196.78 2652
-1180.22 1196.78 2652
-1173.88 1196.78 2652
-1164.01 1193.17 2644
-1152 1187.31 2631
-1140.48 1181.89 2619
-1134.22 1181.89 2619
-1124.51 1178.28 2611
-1109.27 1168.8 2590
-1097.97 1163.39 2578
-1091.8 1163.39 2578
-1079.32 1156.62 2563
-1064.82 1147.59 2543
-1058.74 1147.59 2543
-1052.65 1147.59 2543
-1070.21 1187.31 2631
-1114.87 1244.17 2757
-1108.27 1244.17 2757
-1116.47 1260.86 2794
-1113.76 1265.38 2804
-1112.58 1271.69 2818
-1105.84 1271.69 2818
-1099.1 1271.69 2818
-1092.36 1271.69 2818
-1085.62 1271.69 2818
-1075.44 1267.63 2809
-1068.72 1267.63 2809
-1058.23 1263.12 2799
-1051.53 1263.12 2799
-1039.61 1256.8 2785
-1027.76 1250.48 2771
-1021.13 1250.48 2771
-1014.51 1250.48 2771
-1004.61 1246.42 2762
-991.499 1238.3 2744
-983.142 1236.04 2739
-976.593 1236.04 2739
-963.668 1227.92 2721
-952.588 1222.05 2708
-940.173 1214.38 2691
-933.738 1214.38 2691
-919.722 1204.45 2669
-910.602 1200.84 2661
-902.54 1198.59 2656
-894.839 1196.78 2652
-888.497 1196.78 2652
-879.494 1193.17 2644
-873.172 1193.17 2644
-868.161 1194.98 2648
-861.828 1194.98 2648
-855.496 1194.98 2648
-846.599 1191.37 2640
-823.098 1167 2586
-816.914 1167 2586
-806.027 1160.23 2571
-554.409 804.173 1782
-549.221 802.819 1779
-544.967 802.819 1779
-540.105 801.917 1777
-534.65 800.112 1773
-528.615 797.404 1767
-524.389 797.404 1767
-520.164 797.404 1767
-515.355 796.502 1765
-509.107 793.343 1758
-504.903 793.343 1758
-498.99 790.635 1752
-493.953 789.281 1749
-489.211 788.379 1747
-485.033 788.379 1747
-479.755 786.574 1743
-473.677 783.415 1736
-467.632 780.256 1729
-463.498 780.256 1729
-459.363 780.256 1729
-453.649 777.548 1723
-449.268 777.097 1722
-445.15 777.097 1722
-440.52 776.194 1720
-435.392 774.389 1716
-431.288 774.389 1716
-426.438 773.035 1713
-422.342 773.035 1713
-418.245 773.035 1713
-413.666 772.133 1711
-409.095 771.23 1709
-405.009 771.23 1709
-400.687 770.779 1708
-396.138 769.876 1706
-392.059 769.876 1706
-387.979 769.876 1706
-383.45 768.974 1704
-379.375 768.974 1704
-374.639 767.62 1701
-370.572 767.62 1701
-366.504 767.62 1701
-362.01 766.717 1699
-357.948 766.717 1699
-353.885 766.717 1699
-349.41 765.815 1697
-345.352 765.815 1697
-341.294 765.815 1697
-337.236 765.815 1697
-332.785 764.912 1695
-328.538 764.461 1694
-324.487 764.461 1694
-320.436 764.461 1694
-316.385 764.461 1694
-312.335 764.461 1694
-308.284 764.461 1694
-304.413 764.912 1695
-300.714 765.815 1697
-296.656 765.815 1697
-292.598 765.815 1697
-289.39 768.071 1702
-286.326 770.779 1708
-282.241 770.779 1708
-278.645 772.133 1711
-275.677 775.292 1718
-272.675 778.451 1725
-268.55 778.451 1725
-265.498 781.609 1732
-262.564 785.22 1740
-259.443 788.379 1747
-255.265 788.379 1747
-252.093 791.538 1754
-249.03 795.148 1762
-246.622 801.014 1775
-242.378 801.014 1775
-239.877 806.881 1788
-237.183 812.296 1800
-232.879 812.296 1800
-229.971 817.26 1811
-226.637 820.87 1819
-223.021 823.578 1825
-218.657 823.578 1825
-214.527 824.481 1827
-210.388 825.383 1829
-206.015 825.383 1829
-201.641 825.383 1829
-197.267 825.383 1829
-192.683 824.481 1827
-188.314 824.481 1827
-184.146 825.383 1829
-179.773 825.383 1829
-175.591 826.286 1831
-171.586 828.091 1835
-167.563 829.896 1839
-163.165 829.896 1839
-159.113 831.701 1843
-155.293 834.86 1850
-151.359 837.568 1856
-146.92 837.568 1856
-142.943 840.275 1862
-138.639 841.178 1864
-134.469 842.983 1868
-130.002 842.983 1868
-125.535 842.983 1868
-158.717 1193.17 2644
-152.395 1193.17 2644
-146.072 1193.17 2644
-139.749 1193.17 2644
-133.427 1193.17 2644
-127.104 1193.17 2644
-120.371 1189.11 2635
-113.377 1181.89 2619
-107.114 1181.89 2619
-100.543 1178.28 2611
-94.4439 1180.09 2615
-88.1906 1180.09 2615
-81.9374 1180.09 2615
-75.6841 1180.09 2615
-69.1122 1174.67 2603
-62.791 1172.87 2599
-56.576 1172.87 2599
-50.5161 1176.48 2607
-44.2819 1176.48 2607
-38.1646 1180.09 2615
-32.1066 1187.31 2631
-25.8543 1189.11 2635
-19.5532 1189.11 2635
-13.2773 1191.37 2640
-6.98533 1194.98 2648
-0.65834 1204.45 2669
5.72405 1204.45 2669
12.1473 1208.52 2678
18.7936 1224.31 2713
25.3185 1226.12 2717
31.8157 1226.12 2717
38.3692 1227.92 2721
44.876 1227.92 2721
51.3827 1227.92 2721
57.8895 1227.92 2721
64.2069 1224.31 2713
70.1212 1214.38 2691
76.5562 1214.38 2691
82.4361 1206.26 2673
88.6951 1204.45 2669
95.0775 1204.45 2669
101.46 1204.45 2669
107.842 1204.45 2669
114.225 1204.45 2669
120.426 1202.65 2665
126.799 1202.65 2665
133.172 1202.65 2665
139.754 1204.45 2669
146.137 1204.45 2669
152.519 1204.45 2669
158.901 1204.45 2669
165.036 1202.65 2665
171.152 1200.84 2661
176.648 1194.98 2648
182.98 1194.98 2648
188.097 1187.31 2631
195.053 1191.37 2640
201.976 1194.98 2648
208.308 1194.98 2648
214.641 1194.98 2648
220.973 1194.98 2648
226.962 1193.17 2644
233.284 1193.17 2644
239.244 1191.37 2640
245.929 1193.17 2644
252.252 1193.17 2644
258.575 1193.17 2644
264.897 1193.17 2644
270.81 1191.37 2640
275.338 1183.7 2623
281.61 1183.7 2623
287.883 1183.7 2623
294.155 1183.7 2623
300.886 1185.5 2627
308.103 1189.11 2635
314.404 1189.11 2635
323.261 1198.59 2656
329.613 1198.59 2656
335.964 1198.59 2656
342.315 1198.59 2656
348.666 1198.59 2656
354.483 1196.78 2652
360.825 1196.78 2652
367.167 1196.78 2652
373.508 1196.78 2652
379.277 1194.98 2648
385.027 1193.17 2644
391.349 1193.17 2644
397.07 1191.37 2640
402.619 1189.11 2635
407.679 1185.5 2627
414.591 1187.31 2631
420.883 1187.31 2631
427.174 1187.31 2631
434.125 1189.11 2635
440.426 1189.11 2635
446.727 1189.11 2635
453.028 1189.11 2635
459.329 1189.11 2635
465.63 1189.11 2635
471.215 1187.31 2631
476.78 1185.5 2627
485.453 1191.37 2640
494.001 1196.78 2652
507.701 1214.38 2691
514.136 1214.38 2691
526.374 1227.92 2721
534.644 1231.98 2730
542.163 1234.24 2735
548.703 1234.24 2735
557.071 1238.3 2744
563.632 1238.3 2744
570.194 1238.3 2744
576.756 1238.3 2744
580.342 1231.98 2730
586.01 1230.18 2726
592.529 1230.18 2726
599.047 1230.18 2726
606.455 1231.98 2730
612.983 1231.98 2730
622.688 1238.3 2744
629.25 1238.3 2744
636.738 1240.11 2748
643.31 1240.11 2748
649.881 1240.11 2748
653.347 1234.24 2735
656.509 1227.92 2721
661.067 1224.31 2713
667.554 1224.31 2713
672.799 1222.05 2708
676.014 1216.19 2695
684.738 1220.25 2704
697.85 1231.98 2730
710.313 1242.36 2753
716.896 1242.36 2753
727.158 1248.68 2767
736.162 1252.74 2776
742.8 1252.74 2776
749.438 1252.74 2776
753.625 1248.68 2767
755.022 1240.11 2748
761.593 1240.11 2748
763.133 1231.98 2730
765.996 1226.12 2717
769.934 1222.05 2708
776.41 1222.05 2708
779.127 1216.19 2695
793.151 1227.92 2721
803.772 1234.24 2735
815.645 1242.36 2753
822.228 1242.36 2753
828.811 1242.36 2753
835.395 1242.36 2753
841.978 1242.36 2753
843.013 1234.24 2735
822.529 1194.98 2648
824.792 1189.11 2635
826.047 1181.89 2619
838.983 1191.37 2640
845.296 1191.37 2640
851.609 1191.37 2640
859.222 1193.17 2644
865.545 1193.17 2644
871.867 1193.17 2644
878.19 1193.17 2644
884.513 1193.17 2644
892.183 1194.98 2648
898.515 1194.98 2648
906.214 1196.78 2652
915.653 1200.84 2661
922.016 1200.84 2661
928.379 1200.84 2661
932.986 1198.59 2656
937.923 1196.78 2652
939.992 1191.37 2640
946.305 1191.37 2640
950.814 1189.11 2635
955.662 1187.31 2631
963.416 1189.11 2635
971.557 1191.37 2640
977.87 1191.37 2640
985.674 1193.17 2644
991.997 1193.17 2644
1002.85 1198.59 2656
1009.2 1198.59 2656
1015.55 1198.59 2656
1025.37 1202.65 2665
1039.87 1212.13 2686
1046.29 1212.13 2686
1052.72 1212.13 2686
1050.86 1202.65 2665
1057.23 1202.65 2665
1058.42 1196.78 2652
1063.15 1194.98 2648
1067.87 1193.17 2644
1079.07 1198.59 2656
1097.68 1212.13 2686
1104.1 1212.13 2686
1117.97 1220.25 2704
1126.09 1222.05 2708
1138.01 1227.92 2721
1144.51 1227.92 2721
1154.83 1231.98 2730
1165.19 1236.04 2739
1175.59 1240.11 2748
1182.16 1240.11 2748
1188.73 1240.11 2748
1193.56 1238.3 2744
1200.12 1238.3 2744
1202.72 1234.24 2735
1209.27 1234.24 2735
1206.03 1224.31 2713
1212.51 1224.31 2713
1214.96 1220.25 2704
1333.53 1234.24 2735
1340.07 1234.24 2735
1359.9 1246.42 2762
1373.43 1252.74 2776
1380.07 1252.74 2776
1386.71 1252.74 2776
1393.35 1252.74 2776
1399.99 1252.74 2776
1406.63 1252.74 2776
1413.26 1252.74 2776
1419.9 1252.74 2776
1426.54 1252.74 2776
1428.53 1248.68 2767
1437.22 1250.48 2771
1443.85 1250.48 2771
1450.48 1250.48 2771
1457.1 1250.48 2771
1463.73 1250.48 2771
1462.93 1244.17 2757
1479.65 1252.74 2776
1486.28 1252.74 2776
1492.92 1252.74 2776
1487.14 1242.36 2753
1493.72 1242.36 2753
1497.58 1240.11 2748
1504.15 1240.11 2748
1510.72 1240.11 2748
1510.11 1234.24 2735
1511.66 1230.18 2726
1510.94 1224.31 2713
1517.43 1224.31 2713
1511.56 1214.38 2691
1512.92 1210.32 2682
1511.97 1204.45 2669
1518.35 1204.45 2669
1524.73 1204.45 2669
1526.53 1200.84 2661
1527.7 1196.78 2652
1534.05 1196.78 2652
1533.42 1191.37 2640
1534.48 1187.31 2631
1538.43 1185.5 2627
1542.36 1183.7 2623
1548.63 1183.7 2623
1554.91 1183.7 2623
1561.18 1183.7 2623
1562.67 1180.09 2615
1568.92 1180.09 2615
1560.12 1168.8 2590
1561.47 1165.19 2582
1565.22 1163.39 2578
1589.06 1176.48 2607
1595.29 1176.48 2607
1603.98 1178.28 2611
1610.23 1178.28 2611
1616.47 1178.28 2611
1625.2 1180.09 2615
1631.46 1180.09 2615
1637.71 1180.09 2615
1643.96 1180.09 2615
1652.74 1181.89 2619
1659 1181.89 2619
1665.26 1181.89 2619
1696.58 1181.89 2619
1705.44 1183.7 2623
1711.71 1183.7 2623
1729.12 1191.37 2640
1754.5 1204.45 2669
1769.46 1210.32 2682
1775.87 1210.32 2682
1782.28 1210.32 2682
1788.7 1210.32 2682
1795.11 1210.32 2682
1767.27 1187.31 2631
1773.56 1187.31 2631
1779.85 1187.31 2631
1786.14 1187.31 2631
1792.43 1187.31 2631
1798.73 1187.31 2631
1799.53 1183.7 2623
1785.84 1170.61 2594
1792.04 1170.61 2594
1798.24 1170.61 2594
1810.71 1174.67 2603
1816.93 1174.67 2603
1823.15 1174.67 2603
1829.38 1174.67 2603
1814.59 1126.84 2497
1820.56 1126.84 2497
1835.31 1132.25 2509
1841.31 1132.25 2509
1847.31 1132.25 2509
1842.23 1125.48 2494
1842.27 1121.87 2486
1848.21 1121.87 2486
1848.94 1118.71 2479
1843.64 1111.94 2464
1849.53 1111.94 2464
1855.43 1111.94 2464
1861.32 1111.94 2464
1875.55 1116.91 2475
1881.46 1116.91 2475
1887.38 1116.91 2475
1851.99 1092.54 2421
-1328.08 1246.69 2748
-1321.51 1246.69 2748
-1314.94 1246.69 2748
-1308.37 1246.69 2748
-1301.8 1246.69 2748
-1295.22 1246.69 2748
-1286.78 1244.87 2744
-1231.69 1197.69 2640
-1225.38 1197.69 2640
-1219.07 1197.69 2640
-1203.11 1188.16 2619
-1196.85 1188.16 2619
-1192.4 1189.98 2623
-1187.94 1191.79 2627
-1181.66 1191.79 2627
-1182.98 1199.51 2644
-1176.66 1199.51 2644
-1170.33 1199.51 2644
-1158.29 1193.61 2631
-1150.25 1191.79 2627
-1135.25 1182.72 2607
-1129.02 1182.72 2607
-1119.34 1179.09 2599
-1109.27 1175.01 2590
-1097.97 1169.56 2578
-1091.8 1169.56 2578
-1079.32 1162.76 2563
-1064.82 1153.69 2543
-1055.41 1150.06 2535
-1049.34 1150.06 2535
-1070.21 1193.61 2631
-1065.53 1195.42 2635
-1059.23 1195.42 2635
-1052.93 1195.42 2635
-1045.04 1193.61 2631
-1038.75 1193.61 2631
-1095.59 1274.36 2809
-1088.87 1274.36 2809
-1082.16 1274.36 2809
-1069.7 1267.56 2794
-1063.02 1267.56 2794
-1054.82 1265.74 2790
-1048.15 1265.74 2790
-1036.25 1259.39 2776
-1027.76 1257.12 2771
-1017.82 1253.04 2762
-1011.21 1253.04 2762
-999.516 1246.69 2748
-989.692 1242.61 2739
-976.682 1234.44 2721
-970.175 1234.44 2721
-959.064 1228.54 2708
-949.422 1224.46 2699
-937.029 1216.75 2682
-930.615 1216.75 2682
-916.965 1207.22 2661
-910.602 1207.22 2661
-902.54 1204.95 2656
-894.839 1203.14 2652
-888.497 1203.14 2652
-878.164 1197.69 2640
-870.2 1195.42 2635
-863.898 1195.42 2635
-857.597 1195.42 2635
-851.296 1195.42 2635
-834.733 1180.91 2603
-823.098 1173.19 2586
-816.914 1173.19 2586
-806.027 1166.39 2571
-549.742 801.637 1767
-548.604 806.174 1777
-544.355 806.174 1777
-540.105 806.174 1777
-532.84 801.637 1767
-528.615 801.637 1767
-524.389 801.637 1767
-520.164 801.637 1767
-515.355 800.73 1765
-508.528 796.647 1756
-504.329 796.647 1756
-498.705 794.378 1751
-493.388 792.564 1747
-489.211 792.564 1747
-485.033 792.564 1747
-479.204 789.842 1741
-473.677 787.573 1736
-467.632 784.398 1729
-463.498 784.398 1729
-458.832 783.49 1727
-453.649 781.675 1723
-449.268 781.222 1722
-445.15 781.222 1722
-440.007 779.407 1718
-435.392 778.5 1716
-431.288 778.5 1716
-426.438 777.139 1713
-422.342 777.139 1713
-418.245 777.139 1713
-413.666 776.231 1711
-409.095 775.324 1709
-405.009 775.324 1709
-400.687 774.87 1708
-396.138 773.963 1706
-392.059 773.963 1706
-387.979 773.963 1706
-383.45 773.056 1704
-379.375 773.056 1704
-374.639 771.695 1701
-370.572 771.695 1701
-366.504 771.695 1701
-362.01 770.787 1699
-357.948 770.787 1699
-353.885 770.787 1699
-349.41 769.88 1697
-345.352 769.88 1697
-341.294 769.88 1697
-337.236 769.88 1697
-332.785 768.973 1695
-328.538 768.519 1694
-324.487 768.519 1694
-320.436 768.519 1694
-316.385 768.519 1694
-312.335 768.519 1694
-308.284 768.519 1694
-304.413 768.973 1695
-300.714 769.88 1697
-296.656 769.88 1697
-292.598 769.88 1697
-289.39 772.148 1702
-286.326 774.87 1708
-282.241 774.87 1708
-278.645 776.231 1711
-275.677 779.407 1718
-272.675 782.583 1725
-268.55 782.583 1725
-265.498 785.758 1732
-262.564 789.388 1740
-259.443 792.564 1747
-255.265 792.564 1747
-252.093 795.739 1754
-249.03 799.369 1762
-246.622 805.266 1775
-242.378 805.266 1775
-239.877 811.164 1788
-237.183 816.608 1800
-232.879 816.608 1800
-229.971 821.599 1811
-226.637 825.228 1819
-223.021 827.95 1825
-218.657 827.95 1825
-214.527 828.857 1827
-210.388 829.765 1829
-206.015 829.765 1829
-201.641 829.765 1829
-197.267 829.765 1829
-192.683 828.857 1827
-188.314 828.857 1827
-184.348 830.672 1831
-179.969 830.672 1831
-175.591 830.672 1831
-171.586 832.487 1835
-167.745 835.209 1841
-163.342 835.209 1841
-159.113 836.116 1843
-155.293 839.292 1850
-151.359 842.014 1856
-146.92 842.014 1856
-142.943 844.736 1862
-138.639 845.643 1864
-135.117 851.541 1877
-130.629 851.541 1877
-126.14 851.541 1877
-158.717 1199.51 2644
-152.395 1199.51 2644
-146.072 1199.51 2644
-139.749 1199.51 2644
-133.427 1199.51 2644
-127.104 1199.51 2644
-120.371 1195.42 2635
-113.377 1188.16 2619
-107.114 1188.16 2619
-100.543 1184.54 2611
-94.4439 1186.35 2615
-88.1906 1186.35 2615
-81.9374 1186.35 2615
-75.6841 1186.35 2615
-69.1122 1180.91 2603
-62.791 1179.09 2599
-56.576 1179.09 2599
-50.5161 1182.72 2607
-44.2819 1182.72 2607
-38.1646 1186.35 2615
-32.1066 1193.61 2631
-25.8543 1195.42 2635
-19.5532 1195.42 2635
-13.2773 1197.69 2640
-6.98533 1201.32 2648
-0.65834 1210.85 2669
5.72405 1210.85 2669
12.1473 1214.93 2678
18.7936 1230.81 2713
25.3185 1232.62 2717
31.8157 1232.62 2717
38.3692 1234.44 2721
44.876 1234.44 2721
51.3827 1234.44 2721
57.8895 1234.44 2721
64.2069 1230.81 2713
70.1212 1220.83 2691
76.5562 1220.83 2691
82.4361 1212.66 2673
88.6951 1210.85 2669
95.0775 1210.85 2669
101.46 1210.85 2669
107.842 1210.85 2669
114.225 1210.85 2669
120.426 1209.03 2665
126.799 1209.03 2665
133.172 1209.03 2665
138.864 1203.14 2652
145.206 1203.14 2652
151.548 1203.14 2652
157.889 1203.14 2652
163.983 1201.32 2648
170.058 1199.51 2644
175.514 1193.61 2631
181.805 1193.61 2631
187.239 1188.16 2619
193.797 1189.98 2623
200.68 1193.61 2631
206.971 1193.61 2631
213.263 1193.61 2631
219.554 1193.61 2631
225.502 1191.79 2627
231.784 1191.79 2627
236.979 1186.35 2615
243.232 1186.35 2615
249.104 1184.54 2611
255.347 1184.54 2611
261.591 1184.54 2611
267.424 1182.72 2607
272.819 1179.09 2599
279.034 1179.09 2599
284.7 1176.82 2594
290.903 1176.82 2594
298.137 1180.91 2603
306.232 1188.16 2619
313.927 1193.61 2631
320.218 1193.61 2631
326.51 1193.61 2631
332.802 1193.61 2631
339.093 1193.61 2631
345.385 1193.61 2631
350.607 1189.98 2623
356.879 1189.98 2623
363.152 1189.98 2623
369.424 1189.98 2623
375.696 1189.98 2623
382.551 1191.79 2627
388.833 1191.79 2627
395.115 1191.79 2627
401.397 1191.79 2627
406.437 1188.16 2619
413.331 1189.98 2623
419.603 1189.98 2623
425.875 1189.98 2623
432.807 1191.79 2627
439.089 1191.79 2627
445.371 1191.79 2627
451.653 1191.79 2627
457.237 1189.98 2623
463.51 1189.98 2623
468.349 1186.35 2615
474.603 1186.35 2615
480.12 1184.54 2611
493.256 1201.32 2648
504.305 1212.66 2673
510.697 1212.66 2673
522.119 1224.46 2699
529.552 1226.73 2704
539.388 1234.44 2721
545.895 1234.44 2721
552.401 1234.44 2721
558.908 1234.44 2721
565.415 1234.44 2721
571.081 1232.62 2717
575.665 1228.54 2708
581.281 1226.73 2704
587.747 1226.73 2704
593.114 1224.46 2699
599.568 1224.46 2699
607.145 1226.73 2704
619.511 1238.52 2730
626.039 1238.52 2730
632.568 1238.52 2730
639.096 1238.52 2730
645.624 1238.52 2730
651.197 1236.71 2726
654.579 1230.81 2713
658.874 1226.73 2704
665.34 1226.73 2704
668.576 1220.83 2691
673.757 1218.56 2686
673.849 1207.22 2661
691.204 1226.73 2704
704.378 1238.52 2730
710.907 1238.52 2730
718.749 1240.79 2735
727.676 1244.87 2744
734.238 1244.87 2744
740.799 1244.87 2744
744.91 1240.79 2735
748.977 1236.71 2726
755.496 1236.71 2726
756.983 1228.54 2708
757.256 1218.56 2686
761.405 1214.93 2678
767.809 1214.93 2678
770.454 1209.03 2665
785.572 1222.64 2695
792.016 1222.64 2695
798.461 1222.64 2695
804.905 1222.64 2695
799.609 1204.95 2656
805.96 1204.95 2656
809.865 1201.32 2648
816.197 1201.32 2648
818.491 1195.42 2635
818.532 1186.35 2615
823.523 1184.54 2611
834.852 1191.79 2627
841.134 1191.79 2627
851.609 1197.69 2640
857.922 1197.69 2640
864.235 1197.69 2640
870.548 1197.69 2640
871.215 1189.98 2623
877.487 1189.98 2623
889.487 1197.69 2640
895.801 1197.69 2640
906.214 1203.14 2652
912.556 1203.14 2652
918.898 1203.14 2652
925.239 1203.14 2652
931.581 1203.14 2652
936.508 1201.32 2648
938.211 1195.42 2635
944.513 1195.42 2635
949.37 1193.61 2631
954.209 1191.79 2627
960.491 1191.79 2627
969.717 1195.42 2635
976.018 1195.42 2635
985.674 1199.51 2644
991.997 1199.51 2644
998.319 1199.51 2644
1003.12 1197.69 2640
1009.44 1197.69 2640
1021.9 1204.95 2656
1030.19 1207.22 2661
1036.55 1207.22 2661
1042.92 1207.22 2661
1044.16 1201.32 2648
1050.49 1201.32 2648
1056.82 1201.32 2648
1061.55 1199.51 2644
1067.87 1199.51 2644
1074.19 1199.51 2644
1082.15 1201.32 2648
1088.48 1201.32 2648
1110.52 1218.56 2686
1124.43 1226.73 2704
1132.57 1228.54 2708
1139.05 1228.54 2708
1151.02 1234.44 2721
1157.53 1234.44 2721
1173.87 1244.87 2744
1180.44 1244.87 2744
1187 1244.87 2744
1189.64 1240.79 2735
1196.18 1240.79 2735
1202.72 1240.79 2735
1201.31 1232.62 2717
1192.24 1216.75 2682
1198.66 1216.75 2682
1191.59 1203.14 2652
1333.53 1240.79 2735
1340.07 1240.79 2735
1346.61 1240.79 2735
1366.51 1253.04 2762
1373.11 1253.04 2762
1379.72 1253.04 2762
1383.81 1250.77 2757
1390.41 1250.77 2757
1406.63 1259.39 2776
1413.26 1259.39 2776
1419.9 1259.39 2776
1414.72 1248.96 2753
1421.3 1248.96 2753
1427.89 1248.96 2753
1415.71 1232.62 2717
1422.21 1232.62 2717
1428.71 1232.62 2717
1435.2 1232.62 2717
1434.8 1226.73 2704
1441.27 1226.73 2704
1447.74 1226.73 2704
1454.2 1226.73 2704
1490.49 1240.79 2735
1497.03 1240.79 2735
1503.57 1240.79 2735
1497.97 1230.81 2713
1492.26 1220.83 2691
1491.45 1214.93 2678
1497.85 1214.93 2678
1499.2 1210.85 2669
1505.59 1210.85 2669
1509.7 1209.03 2665
1516.07 1209.03 2665
1522.45 1209.03 2665
1519.07 1201.32 2648
1515.61 1193.61 2631
1521.9 1193.61 2631
1525.87 1191.79 2627
1532.15 1191.79 2627
1533.75 1188.16 2619
1535.3 1184.54 2611
1541.55 1184.54 2611
1543.05 1180.91 2603
1549.27 1180.91 2603
1547.73 1175.01 2590
1553.92 1175.01 2590
1555.3 1171.38 2582
1559.05 1169.56 2578
1558.54 1164.57 2567
1581.14 1176.82 2594
1587.34 1176.82 2594
1601.53 1182.72 2607
1607.76 1182.72 2607
1614 1182.72 2607
1620.23 1182.72 2607
1621.47 1179.09 2599
1627.69 1179.09 2599
1633.9 1179.09 2599
1640.12 1179.09 2599
1646.33 1179.09 2599
1652.55 1179.09 2599
1696.58 1188.16 2619
1705.44 1189.98 2623
1711.71 1189.98 2623
1729.12 1197.69 2640
1754.5 1210.85 2669
1769.46 1216.75 2682
1775.87 1216.75 2682
1782.28 1216.75 2682
1788.7 1216.75 2682
1795.11 1216.75 2682
1767.27 1193.61 2631
1770.86 1191.79 2627
1779.85 1193.61 2631
1786.14 1193.61 2631
1792.43 1193.61 2631
1798.73 1193.61 2631
1791.3 1184.54 2611
1777.57 1171.38 2582
1783.75 1171.38 2582
1787.15 1169.56 2578
1793.31 1169.56 2578
1799.48 1169.56 2578
1805.64 1169.56 2578
1814.59 1132.82 2497
1820.56 1132.82 2497
1826.54 1132.82 2497
1830.31 1131.46 2494
1836.27 1131.46 2494
1834.11 1126.47 2483
1837.08 1124.65 2479
1843.01 1124.65 2479
1842.97 1121.02 2471
1835.41 1112.86 2453
1844.28 1114.67 2457
1850.15 1114.67 2457
1856.03 1114.67 2457
1867.21 1117.85 2464
1873.1 1117.85 2464
1878.99 1117.85 2464
1851.99 1098.34 2421
-1451.57 1172.55 2571
-1445.42 1172.55 2571
-1439.28 1172.55 2571
-1345.82 1263.76 2771
-1339.2 1263.76 2771
-1332.57 1263.76 2771
-1314.94 1253.27 2748
-1306.46 1251.45 2744
-1299.9 1251.45 2744
-1293.34 1251.45 2744
-1286.78 1251.45 2744
-1221.9 1194.44 2619
-1215.63 1194.44 2619
-1209.37 1194.44 2619
-1203.11 1194.44 2619
-1195.02 1192.61 2615
-1188.76 1192.61 2615
-1184.32 1194.44 2619
-1178.06 1194.44 2619
-1175.37 1198.09 2627
-1169.09 1198.09 2627
-1162.81 1198.09 2627
-1156.53 1198.09 2627
-1141.49 1188.97 2607
-1131.77 1185.32 2599
-1125.56 1185.32 2599
-1115.46 1181.21 2590
-1104.13 1175.74 2578
-1091.58 1168.9 2563
-1085.45 1168.9 2563
-1075.95 1165.25 2555
-1063.14 1157.95 2539
-1054.16 1154.76 2532
-1048.1 1154.76 2532
-1068.58 1198.09 2627
-1063.92 1199.91 2631
-1057.62 1199.91 2631
-1051.33 1199.91 2631
-1045.04 1199.91 2631
-1038.75 1199.91 2631
-1005.77 1168.9 2563
-1082.72 1266.04 2776
-1076.08 1266.04 2776
-1069.44 1266.04 2776
-1062.81 1266.04 2776
-1056.17 1266.04 2776
-1047.64 1263.76 2771
-1041.01 1263.76 2771
-1029.16 1257.38 2757
-1014.41 1247.34 2735
-1007.87 1247.34 2735
-1001.33 1247.34 2735
-986.785 1237.31 2713
-977.046 1233.2 2704
-964.119 1225 2686
-957.695 1225 2686
-940.648 1211.31 2656
-932.889 1209.49 2652
-920.608 1201.74 2635
-908.755 1194.44 2619
-902.492 1194.44 2619
-896.23 1194.44 2619
-889.967 1194.44 2619
-883.704 1194.44 2619
-877.441 1194.44 2619
-865.856 1187.14 2603
-858.311 1185.32 2599
-850.456 1183.04 2594
-844.253 1183.04 2594
-838.05 1183.04 2594
-830.565 1181.21 2590
-820.552 1175.74 2578
-814.387 1175.74 2578
-804.773 1170.72 2567
-549.12 804.958 1765
-547.986 809.518 1775
-543.742 809.518 1775
-539.497 809.518 1775
-532.84 805.87 1767
-528.615 805.87 1767
-524.389 805.87 1767
-519.575 804.958 1765
-513.895 802.677 1760
-507.369 799.029 1752
-503.18 799.029 1752
-498.136 797.661 1749
-493.388 796.749 1747
-488.091 794.924 1743
-483.923 794.924 1743
-478.929 793.556 1740
-473.677 791.732 1736
-467.632 788.539 1729
-463.498 788.539 1729
-458.832 787.627 1727
-453.649 785.803 1723
-449.268 785.347 1722
-445.15 785.347 1722
-440.007 783.523 1718
-435.392 782.61 1716
-431.037 782.154 1715
-426.438 781.242 1713
-422.342 781.242 1713
-418.245 781.242 1713
-413.666 780.33 1711
-409.095 779.418 1709
-405.009 779.418 1709
-400.687 778.962 1708
-396.138 778.05 1706
-392.059 778.05 1706
-387.979 778.05 1706
-383.45 777.138 1704
-379.375 777.138 1704
-374.639 775.769 1701
-370.572 775.769 1701
-366.504 775.769 1701
-362.01 774.857 1699
-357.948 774.857 1699
-353.885 774.857 1699
-349.41 773.945 1697
-345.352 773.945 1697
-341.294 773.945 1697
-337.236 773.945 1697
-332.785 773.033 1695
-328.538 772.577 1694
-324.487 772.577 1694
-320.436 772.577 1694
-316.385 772.577 1694
-312.335 772.577 1694
-308.284 772.577 1694
-304.413 773.033 1695
-300.714 773.945 1697
-296.656 773.945 1697
-292.598 773.945 1697
-289.22 775.769 1701
-285.99 778.05 1706
-281.911 778.05 1706
-278.32 779.418 1709
-275.196 782.154 1715
-272.201 785.347 1722
-268.083 785.347 1722
-264.732 787.627 1727
-261.658 790.82 1734
-258.551 794.012 1741
-254.388 794.012 1741
-251.087 796.749 1747
-248.747 802.677 1760
-246.067 807.694 1771
-241.832 807.694 1771
-239.609 814.535 1786
-237.183 820.92 1800
-232.879 820.92 1800
-229.971 825.937 1811
-226.637 829.585 1819
-223.021 832.322 1825
-218.657 832.322 1825
-214.527 833.234 1827
-210.388 834.146 1829
-206.015 834.146 1829
-201.641 834.146 1829
-197.267 834.146 1829
-192.683 833.234 1827
-188.314 833.234 1827
-184.348 835.058 1831
-179.969 835.058 1831
-175.591 835.058 1831
-171.586 836.882 1835
-167.745 839.619 1841
-163.342 839.619 1841
-159.113 840.531 1843
-154.873 841.443 1845
-151.359 846.46 1856
-146.92 846.46 1856
-142.789 848.284 1860
-138.639 850.108 1864
-135.117 856.037 1877
-130.629 856.037 1877
-126.14 856.037 1877
-145.575 1201.74 2635
-139.274 1201.74 2635
-132.973 1201.74 2635
-126.479 1199.91 2631
-119.64 1194.44 2619
-112.857 1188.97 2607
-106.623 1188.97 2607
-100.235 1187.14 2603
-94.2994 1190.79 2611
-88.0557 1190.79 2611
-81.812 1190.79 2611
-75.3368 1187.14 2603
-69.006 1185.32 2599
-62.477 1179.39 2586
-56.2931 1179.39 2586
-50.2642 1183.04 2594
-44.0611 1183.04 2594
-38.0478 1188.97 2607
-31.8137 1188.97 2607
-25.6188 1190.79 2611
-19.3751 1190.79 2611
-13.1515 1192.61 2615
-6.91938 1196.26 2623
-0.651186 1204.02 2640
5.66185 1204.02 2640
12.1064 1217.24 2669
18.5512 1221.35 2678
25.1135 1229.1 2695
31.5581 1229.1 2695
38.0026 1229.1 2695
44.4472 1229.1 2695
50.8917 1229.1 2695
57.2512 1227.28 2691
63.4732 1223.17 2682
69.4437 1215.42 2665
75.8165 1215.42 2665
81.7884 1209.49 2652
88.2631 1211.31 2656
94.6144 1211.31 2656
100.966 1211.31 2656
107.155 1209.49 2652
113.497 1209.49 2652
119.658 1207.66 2648
125.99 1207.66 2648
132.322 1207.66 2648
138.864 1209.49 2652
145.206 1209.49 2652
151.548 1209.49 2652
157.889 1209.49 2652
163.983 1207.66 2648
170.058 1205.84 2644
175.514 1199.91 2631
181.805 1199.91 2631
187.239 1194.44 2619
193.797 1196.26 2623
200.68 1199.91 2631
206.971 1199.91 2631
213.263 1199.91 2631
219.554 1199.91 2631
225.502 1198.09 2627
231.784 1198.09 2627
236.979 1192.61 2615
243.232 1192.61 2615
249.104 1190.79 2611
255.347 1190.79 2611
261.591 1190.79 2611
267.424 1188.97 2607
272.819 1185.32 2599
279.034 1185.32 2599
284.7 1183.04 2594
290.903 1183.04 2594
298.137 1187.14 2603
306.232 1194.44 2619
313.927 1199.91 2631
320.218 1199.91 2631
326.51 1199.91 2631
332.802 1199.91 2631
339.093 1199.91 2631
345.385 1199.91 2631
350.607 1196.26 2623
356.879 1196.26 2623
363.152 1196.26 2623
369.424 1196.26 2623
375.696 1196.26 2623
382.551 1198.09 2627
388.833 1198.09 2627
395.115 1198.09 2627
401.397 1198.09 2627
406.437 1194.44 2619
413.331 1196.26 2623
419.603 1196.26 2623
425.875 1196.26 2623
432.807 1198.09 2627
439.089 1198.09 2627
445.371 1198.09 2627
451.653 1198.09 2627
457.237 1196.26 2623
463.51 1196.26 2623
468.349 1192.61 2615
474.603 1192.61 2615
480.12 1190.79 2611
493.256 1207.66 2648
504.305 1219.07 2673
510.697 1219.07 2673
522.119 1230.92 2699
529.552 1233.2 2704
539.388 1240.96 2721
545.895 1240.96 2721
552.401 1240.96 2721
558.908 1240.96 2721
565.415 1240.96 2721
571.081 1239.13 2717
575.665 1235.03 2708
581.281 1233.2 2704
587.747 1233.2 2704
593.114 1230.92 2699
599.568 1230.92 2699
607.145 1233.2 2704
619.511 1245.06 2730
626.039 1245.06 2730
632.568 1245.06 2730
639.096 1245.06 2730
645.624 1245.06 2730
651.197 1243.24 2726
654.579 1237.31 2713
658.874 1233.2 2704
665.34 1233.2 2704
668.576 1227.28 2691
673.757 1225 2686
673.849 1213.59 2661
691.204 1233.2 2704
704.378 1245.06 2730
710.907 1245.06 2730
718.749 1247.34 2735
727.676 1251.45 2744
734.238 1251.45 2744
740.799 1251.45 2744
744.91 1247.34 2735
748.977 1243.24 2726
755.496 1243.24 2726
756.983 1235.03 2708
757.256 1225 2686
761.405 1221.35 2678
767.809 1221.35 2678
770.454 1215.42 2665
785.572 1229.1 2695
792.016 1229.1 2695
798.461 1229.1 2695
804.905 1229.1 2695
799.609 1211.31 2656
805.96 1211.31 2656
804.665 1199.91 2631
810.957 1199.91 2631
814.763 1196.26 2623
817.28 1190.79 2611
823.523 1190.79 2611
834.852 1198.09 2627
841.134 1198.09 2627
847.416 1198.09 2627
853.698 1198.09 2627
859.98 1198.09 2627
864.943 1196.26 2623
869.886 1194.44 2619
874.811 1192.61 2615
882.412 1194.44 2619
888.675 1194.44 2619
900.405 1201.74 2635
911.179 1207.66 2648
917.512 1207.66 2648
923.844 1207.66 2648
930.176 1207.66 2648
933.679 1204.02 2640
935.363 1198.09 2627
941.645 1198.09 2627
947.927 1198.09 2627
952.756 1196.26 2623
959.028 1196.26 2623
965.301 1196.26 2623
971.573 1196.26 2623
977.846 1196.26 2623
984.118 1196.26 2623
990.39 1196.26 2623
996.663 1196.26 2623
1002.94 1196.26 2623
1004.59 1190.79 2611
1012.38 1192.61 2615
1018.64 1192.61 2615
1026.46 1194.44 2619
1032.72 1194.44 2619
1038.98 1194.44 2619
1045.25 1194.44 2619
1049.9 1192.61 2615
1054.54 1190.79 2611
1060.78 1190.79 2611
1067.03 1190.79 2611
1073.27 1190.79 2611
1084.48 1196.26 2623
1092.41 1198.09 2627
1100.37 1199.91 2631
1106.66 1199.91 2631
1125.64 1213.59 2661
1135.41 1217.24 2669
1149.06 1225 2686
1155.48 1225 2686
1161.91 1225 2686
1168.33 1225 2686
1174.75 1225 2686
1179.42 1223.17 2682
1185.83 1223.17 2682
1175.35 1205.84 2644
1181.68 1205.84 2644
1188 1205.84 2644
1331.09 1245.06 2730
1337.62 1245.06 2730
1344.15 1245.06 2730
1353.15 1247.34 2735
1359.69 1247.34 2735
1366.23 1247.34 2735
1368.25 1243.24 2726
1363.68 1233.2 2704
1370.14 1233.2 2704
1376.61 1233.2 2704
1345.74 1199.91 2631
1328.9 1179.39 2586
1384.65 1223.17 2682
1402.47 1233.2 2704
1408.94 1233.2 2704
1415.41 1233.2 2704
1421.87 1233.2 2704
1428.34 1233.2 2704
1434.8 1233.2 2704
1441.27 1233.2 2704
1447.74 1233.2 2704
1454.2 1233.2 2704
1432.58 1209.49 2652
1438.92 1209.49 2652
1445.26 1209.49 2652
1451.6 1209.49 2652
1457.95 1209.49 2652
1437.23 1187.14 2603
1443.46 1187.14 2603
1454.14 1190.79 2611
1460.38 1190.79 2611
1466.62 1190.79 2611
1472.87 1190.79 2611
1488.17 1198.09 2627
1494.46 1198.09 2627
1500.74 1198.09 2627
1502.43 1194.44 2619
1508.69 1194.44 2619
1514.96 1194.44 2619
1518.9 1192.61 2615
1525.15 1192.61 2615
1526.72 1188.97 2607
1530.6 1187.14 2603
1536.82 1187.14 2603
1537.71 1183.04 2594
1541.54 1181.21 2590
1545.34 1179.39 2586
1551.52 1179.39 2586
1552.89 1175.74 2578
1549.98 1168.9 2563
1553.68 1167.07 2559
1578.7 1181.21 2590
1584.89 1181.21 2590
1593.54 1183.04 2594
1602.83 1185.32 2599
1609.04 1185.32 2599
1615.26 1185.32 2599
1618.35 1183.04 2594
1624.56 1183.04 2594
1630.76 1183.04 2594
1640.12 1185.32 2599
1646.33 1185.32 2599
1652.55 1185.32 2599
1699.17 1196.26 2623
1708.04 1198.09 2627
1714.33 1198.09 2627
1736.98 1209.49 2652
1751.87 1215.42 2665
1760.88 1217.24 2669
1767.26 1217.24 2669
1773.65 1217.24 2669
1774.69 1213.59 2661
1781.06 1213.59 2661
1759.21 1194.44 2619
1751.99 1185.32 2599
1760.91 1187.14 2603
1767.13 1187.14 2603
1773.36 1187.14 2603
1779.58 1187.14 2603
1771.4 1177.56 2582
1758.99 1165.25 2555
1765.1 1165.25 2555
1771.21 1165.25 2555
1771.75 1161.6 2547
1775.05 1159.78 2543
1781.13 1159.78 2543
1788.76 1152.94 2528
1794.81 1152.94 2528
1800.85 1152.94 2528
1806.9 1152.94 2528
1802.65 1138.8 2497
1808.62 1138.8 2497
1814.59 1138.8 2497
1820.56 1138.8 2497
1826.54 1138.8 2497
1830.31 1137.43 2494
1833.32 1135.61 2490
1834.11 1132.41 2483
1831.15 1126.94 2471
1837.06 1126.94 2471
1835.51 1122.38 2461
1830.17 1115.54 2446
1836.02 1115.54 2446
1841.87 1115.54 2446
1847.72 1115.54 2446
1848.27 1112.35 2439
1854.1 1112.35 2439
1859.93 1112.35 2439
1860.41 1109.15 2432
-1489.06 1155.32 2520
-1487.75 1158.99 2528
-1481.7 1158.99 2528
-1475.66 1158.99 2528
-1476.01 1164.04 2539
-1469.93 1164.04 2539
-1463.86 1164.04 2539
-1476.31 1183.75 2582
-1470.13 1183.75 2582
-1463.96 1183.75 2582
-1451.57 1178.71 2571
-1445.42 1178.71 2571
-1439.28 1178.71 2571
-1426.44 1173.2 2559
-1352.45 1270.4 2771
-1345.82 1270.4 2771
-1339.2 1270.4 2771
-1332.57 1270.4 2771
-1314.94 1259.85 2748
-1304.08 1255.73 2739
-1297.53 1255.73 2739
-1289.1 1253.89 2735
-1205.68 1197.04 2611
-1199.43 1197.04 2611
-1193.19 1197.04 2611
-1183.31 1193.38 2603
-1180.7 1197.04 2611
-1174.46 1197.04 2611
-1173.58 1202.55 2623
-1167.31 1202.55 2623
-1161.04 1202.55 2623
-1151.24 1198.88 2615
-1141.49 1195.21 2607
-1131.77 1191.54 2599
-1125.56 1191.54 2599
-1112.02 1183.75 2582
-1101.13 1178.71 2571
-1088.17 1171.37 2555
-1082.06 1171.37 2555
-1074.27 1169.54 2551
-1063.14 1164.04 2539
-1052.49 1158.99 2528
-1046.45 1158.99 2528
-1057.19 1191.54 2599
-1060.68 1202.55 2623
-1054.41 1202.55 2623
