1153.49 511.339 3925
1171.17 514.987 3953
1183.61 516.29 3963
1198.81 518.765 3982
1208.33 518.765 3982
1217.86 518.765 3982
1227.38 518.765 3982
1236.9 518.765 3982
1246.42 518.765 3982
1255.94 518.765 3982
1265.47 518.765 3982
1277.87 519.938 3991
1290.64 521.24 4001
1300.21 521.24 4001
1325.49 527.494 4049
1348.36 532.705 4089
1358.14 532.705 4089
1367.92 532.705 4089
1409.88 530.099 4069
1419.61 530.099 4069
1429.34 530.099 4069
1435.53 528.796 4059
1438.12 526.191 4039
1454.94 528.796 4059
1475.48 532.705 4089
1485.25 532.705 4089
1495.03 532.705 4089
1936.03 525.018 4030
1945.67 525.018 4030
1955.31 525.018 4030
1964.94 525.018 4030
1955.47 519.938 3991
1965.02 519.938 3991
1924.09 506.649 3889
1889.15 495.055 3800
1847.78 481.896 3699
1856.63 481.896 3699
1849.34 477.728 3667
1858.1 477.728 3667
1838.36 470.432 3611
1827.05 465.351 3572
1835.59 465.351 3572
1828.65 461.443 3542
1821.56 457.535 3512
1834.12 458.577 3520
1842.54 458.577 3520
1850.96 458.577 3520
1859.37 458.577 3520
1855.59 455.58 3497
1863.95 455.58 3497
1868.56 454.668 3490
1876.91 454.668 3490
1893.36 456.623 3505
1905.54 457.535 3512
1913.94 457.535 3512
1922.33 457.535 3512
1930.73 457.535 3512
2139.55 496.227 3809
2173.48 501.959 3853
2182.69 501.959 3853
2227.75 510.167 3916
2247.97 512.642 3935
2262.54 513.814 3944
2271.97 513.814 3944
2286.61 514.987 3953
2318.13 519.938 3991
2355.67 526.191 4039
2365.33 526.191 4039
2380.87 527.494 4049
2402.36 530.099 4069
2412.09 530.099 4069
2421.82 530.099 4069
2431.55 530.099 4069
2429.28 527.494 4049
2438.96 527.494 4049
2442.6 526.191 4039
2482.61 532.705 4089
2492.39 532.705 4089
2502.17 532.705 4089
2511.95 532.705 4089
2509.39 530.099 4069
2531.5 532.705 4089
2541.28 532.705 4089
2551.06 532.705 4089
2560.84 532.705 4089
2570.62 532.705 4089
2580.39 532.705 4089
2590.17 532.705 4089
2568.16 526.191 4039
521.101 96.9265 744
522.881 96.9265 744
524.66 96.9265 744
525.024 96.6659 742
526.798 96.6659 742
528.572 96.6659 742
530.347 96.6659 742
532.121 96.6659 742
533.895 96.6659 742
534.948 96.5356 741
536.72 96.5356 741
537.765 96.4054 740
540.264 96.5356 741
542.036 96.5356 741
543.808 96.5356 741
545.58 96.5356 741
547.352 96.5356 741
549.123 96.5356 741
550.152 96.4054 740
551.922 96.4054 740
553.691 96.4054 740
555.461 96.4054 740
557.23 96.4054 740
559 96.4054 740
560.769 96.4054 740
563.299 96.5356 741
565.071 96.5356 741
566.843 96.5356 741
-2334.52 413.674 3118
-2331.54 414.47 3124
-2324.07 414.47 3124
-2316.6 414.47 3124
-2309.13 414.47 3124
-2301.66 414.47 3124
-2294.19 414.47 3124
-2282.33 413.674 3118
-2279.25 414.47 3124
-2276.14 415.267 3130
-2268.66 415.267 3130
-2261.18 415.267 3130
-2270.97 418.451 3154
-2324.43 429.728 3239
-2316.68 429.728 3239
-2308.94 429.728 3239
-2488.94 467.938 3527
-2480.5 467.938 3527
-2570.19 486.512 3667
-2561.43 486.512 3667
-2569.36 489.696 3691
-2606.32 498.453 3757
-2597.34 498.453 3757
-2588.35 498.453 3757
-2579.37 498.453 3757
-2530.71 490.757 3699
-2521.86 490.757 3699
-2485.16 485.318 3658
-2455.43 481.205 3627
-2430.56 478.021 3603
-2421.95 478.021 3603
-2413.33 478.021 3603
-2404.72 478.021 3603
-2390.78 476.959 3595
-2382.18 476.959 3595
-2363.68 474.969 3580
-2345.25 472.979 3565
-2326.24 470.857 3549
-2317.75 470.857 3549
-2309.27 470.857 3549
-2296.24 469.928 3542
-2273.56 467.009 3520
-2269.65 467.938 3527
-2280.45 471.918 3557
-2271.94 471.918 3557
-2268.53 472.979 3565
-2264.44 473.908 3572
-2295.69 482.266 3635
-2286.99 482.266 3635
-2287.7 484.257 3650
-2314.56 491.819 3707
-2305.7 491.819 3707
-2307.37 494.074 3724
-2298.46 494.074 3724
-2289.56 494.074 3724
-2280.65 494.074 3724
-2023.66 519.548 3916
-2014.3 519.548 3916
-2004.94 519.548 3916
-2005.25 522.068 3935
-1995.84 522.068 3935
-1986.43 522.068 3935
-1949.39 514.771 3880
-1917.61 508.801 3835
-1908.44 508.801 3835
-1899.27 508.801 3835
-1894.54 509.995 3844
-1885.34 509.995 3844
-1876.15 509.995 3844
-1866.96 509.995 3844
-1875.16 514.771 3880
-1900.99 524.456 3953
-1905.42 528.304 3982
-1895.89 528.304 3982
-1886.37 528.304 3982
-1876.85 528.304 3982
-1867.33 528.304 3982
-1853.14 526.977 3972
-1848.28 528.304 3982
-1838.76 528.304 3982
-1829.24 528.304 3982
-1819.72 528.304 3982
-1810.19 528.304 3982
-1792.08 525.783 3963
-1782.6 525.783 3963
-1764.63 523.262 3944
-1755.19 523.262 3944
-1754.17 525.783 3963
-1748.66 526.977 3972
-1739.16 526.977 3972
-1750.56 533.346 4020
-1740.95 533.346 4020
-1731.34 533.346 4020
-1721.73 533.346 4020
-1691.67 526.977 3972
-1666.5 522.068 3935
-1657.09 522.068 3935
-1639.73 519.548 3916
-1619.12 515.965 3889
-1609.82 515.965 3889
-1596.82 514.771 3880
-1587.54 514.771 3880
-1567.28 511.189 3853
-1554.42 509.995 3844
-1548.85 511.189 3853
-1539.64 511.189 3853
-1530.42 511.189 3853
-1521.21 511.189 3853
-1398.16 509.995 3844
-1388.97 509.995 3844
-1379.77 509.995 3844
-672.811 250.354 1887
-661.57 247.833 1868
-653.585 246.506 1858
-646.347 245.445 1850
-641.923 245.445 1850
-631.641 243.19 1833
-627.258 243.19 1833
-622.195 242.924 1831
-617.817 242.924 1831
-613.438 242.924 1831
-606.399 241.863 1823
-599.397 240.802 1815
-595.057 240.802 1815
-589.415 240.271 1811
-583.146 239.475 1805
-576.585 238.546 1798
-568.466 236.954 1786
-564.195 236.954 1786
-557.73 236.025 1779
-553.475 236.025 1779
-544.899 234.168 1765
-540.679 234.168 1765
-535.85 233.903 1763
-530.126 233.239 1758
-525.324 232.974 1756
-521.125 232.974 1756
-515.748 232.443 1752
-511.267 232.31 1751
-505.921 231.78 1747
-501.744 231.78 1747
-496.996 231.514 1745
-492.259 231.249 1743
-487.251 230.851 1740
-483.09 230.851 1740
-478.378 230.586 1738
-473.677 230.32 1736
-469.525 230.32 1736
-465.91 230.586 1738
-461.754 230.586 1738
-457.598 230.586 1738
-453.442 230.586 1738
-449.286 230.586 1738
-445.13 230.586 1738
-440.466 230.32 1736
-435.812 230.055 1734
-431.168 229.79 1732
-427.026 229.79 1732
-421.175 228.861 1725
-415.841 228.198 1720
-411.25 227.932 1718
-407.141 227.932 1718
-402.329 227.534 1715
-397.299 227.004 1711
-392.059 226.34 1706
-387.979 226.34 1706
-383.9 226.34 1706
-378.93 225.809 1702
-373.318 224.881 1695
-369.265 224.881 1695
-364.565 224.483 1692
-359.454 223.819 1687
-354.998 223.554 1685
-350.969 223.554 1685
-346.528 223.289 1683
-342.299 223.156 1682
-337.272 222.493 1677
-332.864 222.227 1675
-328.859 222.227 1675
-324.465 221.962 1673
-320.465 221.962 1673
-316.464 221.962 1673
-312.463 221.962 1673
-308.463 221.962 1673
-304.462 221.962 1673
-300.461 221.962 1673
-297.17 222.493 1677
-293.159 222.493 1677
-289.149 222.493 1677
-285.139 222.493 1677
-281.129 222.493 1677
-277.118 222.493 1677
-273.108 222.493 1677
-269.098 222.493 1677
-265.088 222.493 1677
-261.078 222.493 1677
-257.221 222.625 1678
-253.208 222.625 1678
-249.493 222.891 1680
-245.475 222.891 1680
-241.458 222.891 1680
-237.44 222.891 1680
-233.701 223.156 1682
-229.679 223.156 1682
-225.657 223.156 1682
-221.634 223.156 1682
-217.612 223.156 1682
-213.59 223.156 1682
-209.568 223.156 1682
-205.546 223.156 1682
-201.523 223.156 1682
-197.266 222.891 1680
-193.019 222.625 1678
-189.006 222.625 1678
-184.994 222.625 1678
-180.981 222.625 1678
-176.863 222.493 1677
-172.853 222.493 1677
-168.44 221.962 1673
-164.439 221.962 1673
-160.439 221.962 1673
-156.438 221.962 1673
-152.437 221.962 1673
-148.792 222.493 1677
-144.781 222.493 1677
-140.855 222.625 1678
-136.843 222.625 1678
-132.988 222.891 1680
-128.971 222.891 1680
-124.953 222.891 1680
-120.936 222.891 1680
-117.058 223.156 1682
-113.036 223.156 1682
-109.078 223.289 1683
-105.491 224.217 1690
-101.449 224.217 1690
-97.4081 224.217 1690
-93.2011 223.819 1687
-180.168 523.262 3944
-170.736 523.262 3944
-162.082 525.783 3963
-152.605 525.783 3963
-143.815 528.304 3982
-134.293 528.304 3982
-124.77 528.304 3982
-115.509 529.498 3991
-106.469 532.019 4010
-96.8804 532.019 4010
-87.9225 535.866 4039
-79.2329 542.5 4089
-69.4549 542.5 4089
-59.6768 542.5 4089
281.863 541.173 4079
291.618 541.173 4079
301.372 541.173 4079
306.626 533.346 4020
313.249 528.304 3982
322.772 528.304 3982
331.459 526.977 3972
340.185 525.783 3963
346.309 520.742 3925
356.601 522.068 3935
366.011 522.068 3935
375.421 522.068 3935
384.83 522.068 3935
393.238 520.742 3925
402.624 520.742 3925
407.286 514.771 3880
409.908 506.546 3818
412.343 498.453 3757
421.327 498.453 3757
428.364 496.197 3740
432.514 490.757 3699
434.558 483.195 3642
443.267 483.195 3642
449.122 480.144 3619
450.945 472.979 3565
456.506 469.928 3542
463.007 467.938 3527
471.441 467.938 3527
477.834 465.948 3512
485.263 465.019 3505
497.729 468.866 3534
506.18 468.866 3534
514.631 468.866 3534
523.082 468.866 3534
530.48 467.938 3527
541.206 469.928 3542
549.676 469.928 3542
567.758 478.021 3603
590.452 489.696 3691
612.754 500.708 3774
621.779 500.708 3774
630.804 500.708 3774
673.396 526.977 3972
691.147 533.346 4020
700.76 533.346 4020
717.265 538.52 4059
728.762 539.846 4069
738.492 539.846 4069
748.223 539.846 4069
757.953 539.846 4069
767.683 539.846 4069
777.413 539.846 4069
783.275 537.193 4049
792.957 537.193 4049
804.622 538.52 4059
814.328 538.52 4059
824.034 538.52 4059
835.795 539.846 4069
845.525 539.846 4069
855.255 539.846 4069
864.985 539.846 4069
874.715 539.846 4069
884.446 539.846 4069
898.571 542.5 4089
908.349 542.5 4089
918.127 542.5 4089
925.636 541.173 4079
933.097 539.846 4069
942.827 539.846 4069
950.216 538.52 4059
953.064 534.672 4030
960.312 533.346 4020
969.925 533.346 4020
977.102 532.019 4010
989.151 533.346 4020
998.764 533.346 4020
1008.38 533.346 4020
1017.99 533.346 4020
1027.6 533.346 4020
1032.31 530.825 4001
1041.88 530.825 4001
1051.45 530.825 4001
1053.33 526.977 3972
1062.82 526.977 3972
1069.89 525.783 3963
1079.37 525.783 3963
1083.63 523.262 3944
1087.79 520.742 3925
1092.15 518.353 3907
1101.49 518.353 3907
1105.71 515.965 3889
1112.43 514.771 3880
1124.31 515.965 3889
1138.86 518.353 3907
1148.2 518.353 3907
1160.21 519.548 3916
1175.25 522.068 3935
1193.09 525.783 3963
1202.57 525.783 3963
1212.04 525.783 3963
1221.52 525.783 3963
1231 525.783 3963
1240.47 525.783 3963
1249.95 525.783 3963
1259.43 525.783 3963
1271.79 526.977 3972
1284.51 528.304 3982
1294.03 528.304 3982
1322.21 535.866 4039
1348.36 542.5 4089
1358.14 542.5 4089
1367.92 542.5 4089
1390.42 539.846 4069
1400.15 539.846 4069
1409.88 539.846 4069
1419.61 539.846 4069
1429.34 539.846 4069
1435.53 538.52 4059
1438.12 535.866 4039
1447.77 535.866 4039
1475.48 542.5 4089
1485.25 542.5 4089
1495.03 542.5 4089
1936.03 534.672 4030
1945.67 534.672 4030
1955.31 534.672 4030
1960.07 533.346 4020
1951.06 528.304 3982
1960.58 528.304 3982
1910.74 512.383 3862
1872.25 499.647 3766
1847.78 490.757 3699
1856.63 490.757 3699
1849.34 486.512 3667
1858.1 486.512 3667
1838.36 479.082 3611
1827.05 473.908 3572
1835.59 473.908 3572
1828.65 469.928 3542
1821.56 465.948 3512
1834.12 467.009 3520
1842.54 467.009 3520
1850.96 467.009 3520
1859.37 467.009 3520
1855.59 463.958 3497
1863.95 463.958 3497
1868.56 463.029 3490
1876.91 463.029 3490
1893.36 465.019 3505
1905.54 465.948 3512
1913.94 465.948 3512
1922.33 465.948 3512
1930.73 465.948 3512
2139.55 505.352 3809
2173.48 511.189 3853
2182.69 511.189 3853
2227.75 519.548 3916
2247.97 522.068 3935
2262.54 523.262 3944
2271.97 523.262 3944
2286.61 524.456 3953
2318.13 529.498 3991
2355.67 535.866 4039
2365.33 535.866 4039
2380.87 537.193 4049
2396.45 538.52 4059
2406.16 538.52 4059
2415.87 538.52 4059
2419.6 537.193 4049
2429.28 537.193 4049
2438.96 537.193 4049
2442.6 535.866 4039
2482.61 542.5 4089
2492.39 542.5 4089
2502.17 542.5 4089
2511.95 542.5 4089
2509.39 539.846 4069
2531.5 542.5 4089
2541.28 542.5 4089
2551.06 542.5 4089
2560.84 542.5 4089
2570.62 542.5 4089
2580.39 542.5 4089
2590.17 542.5 4089
2568.16 535.866 4039
522.544 98.3107 741
524.316 98.3107 741
526.088 98.3107 741
527.86 98.3107 741
529.632 98.3107 741
531.404 98.3107 741
533.176 98.3107 741
534.948 98.3107 741
535.995 98.178 740
537.765 98.178 740
539.535 98.178 740
541.304 98.178 740
543.074 98.178 740
544.843 98.178 740
546.613 98.178 740
548.382 98.178 740
550.152 98.178 740
551.922 98.178 740
553.691 98.178 740
555.461 98.178 740
557.23 98.178 740
559 98.178 740
560.769 98.178 740
562.539 98.178 740
564.308 98.178 740
566.078 98.178 740
-2334.52 421.144 3118
-2331.54 421.954 3124
-2324.07 421.954 3124
-2316.6 421.954 3124
-2309.13 421.954 3124
-2301.66 421.954 3124
-2294.19 421.954 3124
-2282.33 421.144 3118
-2279.25 421.954 3124
-2276.14 422.764 3130
-2268.66 422.764 3130
-2265.51 423.575 3136
-2270.97 426.006 3154
-2324.43 437.487 3239
-2316.68 437.487 3239
-2308.94 437.487 3239
-2515.75 481.519 3565
-2567.01 493 3650
-2570.19 495.296 3667
-2561.43 495.296 3667
-2592.34 502.995 3724
-2606.32 507.452 3757
-2603.56 508.668 3766
-2594.56 508.668 3766
-2585.55 508.668 3766
-2570.39 507.452 3757
-2561.4 507.452 3757
-2513.01 499.618 3699
-2476.41 494.081 3658
-2456.87 491.92 3642
-2448.16 491.92 3642
-2424.05 488.813 3619
-2415.39 488.813 3619
-2396.1 486.652 3603
-2387.48 486.652 3603
-2373.59 485.571 3595
-2355.12 483.545 3580
-2331.48 480.439 3557
-2322.98 480.439 3557
-2309.27 479.358 3549
-2296.24 478.413 3542
-2278.08 476.387 3527
-2283.81 479.358 3549
-2285.58 481.519 3565
-2277.05 481.519 3565
-2283.16 484.626 3588
-2274.58 484.626 3588
-2295.69 490.974 3635
-2286.99 490.974 3635
-2287.7 493 3650
-2314.56 500.699 3707
-2305.7 500.699 3707
-2307.37 502.995 3724
-2298.46 502.995 3724
-2289.56 502.995 3724
-2280.65 502.995 3724
-2023.66 528.928 3916
-2014.3 528.928 3916
-2004.94 528.928 3916
-2005.25 531.495 3935
-1995.84 531.495 3935
-1986.43 531.495 3935
-1972 530.144 3925
-1940.11 524.066 3880
-1930.83 524.066 3880
-1912.64 521.635 3862
-1907.84 522.85 3871
-1898.59 522.85 3871
-1898.11 525.281 3889
-1888.81 525.281 3889
-1896.91 530.144 3925
-1900.99 533.926 3953
-1918.81 541.625 4010
-1909.23 541.625 4010
-1899.64 541.625 4010
-1890.05 541.625 4010
-1880.46 541.625 4010
-1853.14 536.492 3972
-1848.28 537.843 3982
-1838.76 537.843 3982
-1829.24 537.843 3982
-1819.72 537.843 3982
-1810.19 537.843 3982
-1796.15 536.492 3972
-1786.65 536.492 3972
-1764.63 532.71 3944
-1755.19 532.71 3944
-1754.17 535.277 3963
-1748.66 536.492 3972
-1739.16 536.492 3972
-1750.56 542.975 4020
-1740.95 542.975 4020
-1731.34 542.975 4020
-1721.73 542.975 4020
-1691.67 536.492 3972
-1666.5 531.495 3935
-1657.09 531.495 3935
-1639.73 528.928 3916
-1619.12 525.281 3889
-1609.82 525.281 3889
-1596.82 524.066 3880
-1587.54 524.066 3880
-1570.94 521.635 3862
-1554.42 519.203 3844
-1548.85 520.419 3853
-1539.64 520.419 3853
-1530.42 520.419 3853
-1521.21 520.419 3853
-1508.46 519.203 3844
-1499.27 519.203 3844
-1444.29 506.372 3749
-1435.32 506.372 3749
-1426.36 506.372 3749
-1417.39 506.372 3749
-1398.16 519.203 3844
-1388.97 519.203 3844
-1379.77 519.203 3844
-1370.58 519.203 3844
-668.299 254.874 1887
-657.103 252.308 1868
-647.046 250.147 1852
-642.617 250.147 1852
-632.331 247.851 1835
-627.258 247.581 1833
-622.195 247.31 1831
-617.817 247.31 1831
-613.438 247.31 1831
-606.399 246.23 1823
-599.397 245.149 1815
-595.057 245.149 1815
-589.415 244.609 1811
-583.146 243.799 1805
-576.585 242.853 1798
-568.466 241.232 1786
-564.195 241.232 1786
-557.73 240.287 1779
-553.475 240.287 1779
-544.899 238.396 1765
-540.679 238.396 1765
-535.85 238.126 1763
-530.126 237.45 1758
-525.324 237.18 1756
-521.125 237.18 1756
-515.748 236.64 1752
-511.267 236.505 1751
-505.921 235.965 1747
-501.744 235.965 1747
-496.996 235.695 1745
-492.824 235.695 1745
-487.251 235.019 1740
-483.09 235.019 1740
-478.929 235.019 1740
-474.222 234.749 1738
-470.066 234.749 1738
-465.91 234.749 1738
-461.754 234.749 1738
-457.598 234.749 1738
-453.442 234.749 1738
-449.286 234.749 1738
-445.13 234.749 1738
-440.974 234.749 1738
-436.818 234.749 1738
-431.666 234.209 1734
-427.519 234.209 1734
-422.884 233.939 1732
-417.05 232.993 1725
-411.728 232.318 1720
-407.615 232.318 1720
-403.033 232.048 1718
-398.228 231.643 1715
-393.668 231.372 1713
-389.571 231.372 1713
-385.025 231.102 1711
-379.82 230.427 1706
-374.86 229.887 1702
-370.79 229.887 1702
-365.211 228.941 1695
-360.519 228.536 1692
-355.419 227.861 1687
-351.385 227.861 1687
-346.939 227.59 1685
-342.503 227.32 1683
-337.473 226.645 1678
-333.262 226.51 1677
-329.251 226.51 1677
-324.853 226.24 1675
-320.465 225.97 1673
-316.464 225.97 1673
-312.463 225.97 1673
-308.463 225.97 1673
-304.462 225.97 1673
-300.461 225.97 1673
-297.17 226.51 1677
-293.159 226.51 1677
-289.149 226.51 1677
-285.139 226.51 1677
-281.129 226.51 1677
-277.118 226.51 1677
-273.108 226.51 1677
-269.098 226.51 1677
-265.088 226.51 1677
-261.078 226.51 1677
-257.221 226.645 1678
-253.208 226.645 1678
-249.493 226.915 1680
-245.475 226.915 1680
-241.458 226.915 1680
-237.44 226.915 1680
-233.701 227.185 1682
-229.679 227.185 1682
-225.657 227.185 1682
-221.634 227.185 1682
-217.612 227.185 1682
-213.59 227.185 1682
-209.568 227.185 1682
-205.546 227.185 1682
-201.523 227.185 1682
-197.266 226.915 1680
-193.019 226.645 1678
-189.006 226.645 1678
-184.994 226.645 1678
-180.981 226.645 1678
-176.969 226.645 1678
-172.853 226.51 1677
-168.843 226.51 1677
-164.832 226.51 1677
-160.822 226.51 1677
-156.812 226.51 1677
-152.802 226.51 1677
-149.058 226.915 1680
-145.04 226.915 1680
-141.191 227.185 1682
-137.169 227.185 1682
-133.147 227.185 1682
-128.971 226.915 1680
-124.953 226.915 1680
-120.936 226.915 1680
-117.127 227.32 1683
-113.103 227.32 1683
-109.532 228.266 1690
-105.616 228.536 1692
-101.569 228.536 1692
-97.5234 228.536 1692
-93.3668 228.266 1690
-181.447 536.492 3972
-171.948 536.492 3972
-162.859 537.843 3982
-153.683 539.058 3991
-145.187 542.975 4020
-135.574 542.975 4020
-125.961 542.975 4020
-116.348 542.975 4020
-107.001 544.326 4030
-97.3636 544.326 4030
-88.7933 550.945 4079
-79.2329 552.295 4089
-69.4549 552.295 4089
-59.6768 552.295 4089
281.863 550.945 4079
291.618 550.945 4079
301.372 550.945 4079
306.626 542.975 4020
313.249 537.843 3982
322.772 537.843 3982
331.459 536.492 3972
340.185 535.277 3963
346.309 530.144 3925
356.601 531.495 3935
366.011 531.495 3935
375.421 531.495 3935
384.83 531.495 3935
392.336 528.928 3916
401.701 528.928 3916
407.286 524.066 3880
409.908 515.692 3818
412.343 507.452 3757
421.327 507.452 3757
426.532 502.995 3724
432.514 499.618 3699
433.723 490.974 3635
442.415 490.974 3635
446.143 485.571 3595
448.036 478.413 3542
455.475 477.332 3534
461.038 474.361 3512
469.436 474.361 3512
475.793 472.335 3497
483.187 471.389 3490
492.518 472.335 3497
500.881 472.335 3497
509.243 472.335 3497
517.605 472.335 3497
527.171 473.415 3505
539.984 477.332 3534
548.435 477.332 3534
560.51 480.439 3557
582.613 491.92 3642
608.695 506.372 3749
617.66 506.372 3749
630.804 509.749 3774
639.828 509.749 3774
684.614 537.843 3982
694.136 537.843 3982
710.373 542.975 4020
723.389 545.542 4039
733.048 545.542 4039
742.706 545.542 4039
752.365 545.542 4039
762.023 545.542 4039
771.682 545.542 4039
777.665 542.975 4020
789.236 544.326 4030
802.639 546.892 4049
812.322 546.892 4049
822.004 546.892 4049
831.686 546.892 4049
843.447 548.243 4059
853.153 548.243 4059
862.859 548.243 4059
872.566 548.243 4059
884.446 549.594 4069
898.571 552.295 4089
908.349 552.295 4089
918.127 552.295 4089
925.636 550.945 4079
933.097 549.594 4069
942.827 549.594 4069
945.534 545.542 4039
953.064 544.326 4030
955.773 540.409 4001
965.341 540.409 4001
974.909 540.409 4001
984.476 540.409 4001
994.044 540.409 4001
1003.61 540.409 4001
1008.37 537.843 3982
1017.89 537.843 3982
1024.83 536.492 3972
1034.33 536.492 3972
1043.83 536.492 3972
1050.94 535.277 3963
1055.33 532.71 3944
1062.33 531.495 3935
1071.74 531.495 3935
1078.41 530.144 3925
1077.81 525.281 3889
1084.6 524.066 3880
1093.88 524.066 3880
1100.6 522.85 3871
1104.69 520.419 3853
1113.91 520.419 3853
1125.74 521.635 3862
1134.98 521.635 3862
1146.88 522.85 3871
1166.89 527.713 3907
1184.66 531.495 3935
1194.07 531.495 3935
1203.48 531.495 3935
1209.81 530.144 3925
1219.19 530.144 3925
1228.58 530.144 3925
1243.96 532.71 3944
1253.39 532.71 3944
1265.7 533.926 3953
1284.51 537.843 3982
1294.03 537.843 3982
1315.99 542.975 4020
1335.17 546.892 4049
1351.5 549.594 4069
1361.23 549.594 4069
1370.96 549.594 4069
1390.42 549.594 4069
1400.15 549.594 4069
1409.88 549.594 4069
1416.12 548.243 4059
1425.82 548.243 4059
1428.46 545.542 4039
1431.35 542.975 4020
1444.55 544.326 4030
1468.26 549.594 4069
1477.99 549.594 4069
1491.38 550.945 4079
1501.13 550.945 4079
1510.88 550.945 4079
1954.6 552.295 4089
1964.38 552.295 4089
1974.16 552.295 4089
1950.46 542.975 4020
1945.93 539.058 3991
1936.85 533.926 3953
1946.31 533.926 3953
1915.19 522.85 3871
1867.77 507.452 3757
1851.78 500.699 3707
1860.64 500.699 3707
1857.4 497.457 3683
1858.1 495.296 3667
1842.44 488.813 3619
1827.05 482.465 3572
1835.59 482.465 3572
1832.26 479.358 3549
1829.34 476.387 3527
1837.77 476.387 3527
1846.2 476.387 3527
1854.64 476.387 3527
1863.07 476.387 3527
1867.79 475.441 3520
1876.21 475.441 3520
1884.63 475.441 3520
1893.04 475.441 3520
1901.46 475.441 3520
1909.88 475.441 3520
1938.46 480.439 3557
1946.97 480.439 3557
1955.47 480.439 3557
2164.27 520.419 3853
2209.02 528.928 3916
2218.38 528.928 3916
2248.8 533.926 3953
2258.25 533.926 3953
2278.6 536.492 3972
2288.1 536.492 3972
2303.38 537.843 3982
2334.98 542.975 4020
2350.42 544.326 4030
2360.06 544.326 4030
2374.99 545.542 4039
2384.65 545.542 4039
2394.31 545.542 4039
2403.96 545.542 4039
2419.6 546.892 4049
2429.28 546.892 4049
2438.96 546.892 4049
2448.65 546.892 4049
2476.54 550.945 4079
2486.3 550.945 4079
2496.05 550.945 4079
2505.8 550.945 4079
2509.39 549.594 4069
2531.5 552.295 4089
2541.28 552.295 4089
2551.06 552.295 4089
2560.84 552.295 4089
2539.18 545.542 4039
2548.84 545.542 4039
2558.5 545.542 4039
2568.16 545.542 4039
2559.31 541.625 4010
524.316 100.086 741
526.088 100.086 741
527.86 100.086 741
529.632 100.086 741
531.404 100.086 741
533.176 100.086 741
534.226 99.9507 740
535.995 99.9507 740
537.038 99.8156 739
539.535 99.9507 740
541.304 99.9507 740
543.074 99.9507 740
544.843 99.9507 740
546.613 99.9507 740
548.382 99.9507 740
550.152 99.9507 740
551.922 99.9507 740
553.691 99.9507 740
555.461 99.9507 740
556.477 99.8156 739
558.244 99.8156 739
560.012 99.8156 739
562.539 99.9507 740
564.308 99.9507 740
566.078 99.9507 740
-2334.52 428.613 3118
-2331.54 429.438 3124
-2324.07 429.438 3124
-2316.6 429.438 3124
-2309.13 429.438 3124
-2301.66 429.438 3124
-2294.19 429.438 3124
-2282.33 428.613 3118
-2279.25 429.438 3124
-2276.14 430.262 3130
-2268.66 430.262 3130
-2265.51 431.087 3136
-2266.65 432.737 3148
-2324.43 445.246 3239
-2316.68 445.246 3239
-2308.94 445.246 3239
-2515.75 490.059 3565
-2567.01 501.744 3650
-2570.19 504.081 3667
-2561.43 504.081 3667
-2592.34 511.916 3724
-2606.32 516.452 3757
-2603.56 517.69 3766
-2594.56 517.69 3766
-2585.55 517.69 3766
-2570.39 516.452 3757
-2561.4 516.452 3757
-2513.01 508.479 3699
-2476.41 502.843 3658
-2456.87 500.644 3642
-2448.16 500.644 3642
-2424.05 497.482 3619
-2415.39 497.482 3619
-2396.1 495.283 3603
-2387.48 495.283 3603
-2373.59 494.183 3595
-2355.12 492.121 3580
-2331.48 488.96 3557
-2322.98 488.96 3557
-2309.27 487.86 3549
-2296.24 486.898 3542
-2278.08 484.836 3527
-2283.81 487.86 3549
-2285.58 490.059 3565
-2277.05 490.059 3565
-2283.16 493.221 3588
-2274.58 493.221 3588
-2266 493.221 3588
-2257.42 493.221 3588
-2248.84 493.221 3588
-2314.56 509.579 3707
-2305.7 509.579 3707
-2307.37 511.916 3724
-2298.46 511.916 3724
-2289.56 511.916 3724
-2280.65 511.916 3724
-2023.66 538.309 3916
-2014.3 538.309 3916
-2004.94 538.309 3916
-2005.25 540.921 3935
-1995.84 540.921 3935
-1986.43 540.921 3935
-1972 539.546 3925
-1940.11 533.36 3880
-1930.83 533.36 3880
-1912.64 530.886 3862
-1907.84 532.123 3871
-1898.59 532.123 3871
-1898.11 534.598 3889
-1888.81 534.598 3889
-1896.91 539.546 3925
-1900.99 543.395 3953
-1918.81 551.231 4010
-1909.23 551.231 4010
-1899.64 551.231 4010
-1890.05 551.231 4010
-1880.46 551.231 4010
-1853.14 546.007 3972
-1848.28 547.382 3982
-1838.76 547.382 3982
-1829.24 547.382 3982
-1819.72 547.382 3982
-1810.19 547.382 3982
-1796.15 546.007 3972
-1786.65 546.007 3972
-1764.63 542.158 3944
-1755.19 542.158 3944
-1754.17 544.77 3963
-1748.66 546.007 3972
-1739.16 546.007 3972
-1737.94 548.619 3991
-1728.39 548.619 3991
-1718.85 548.619 3991
-1709.31 548.619 3991
-1667.82 538.309 3916
-1658.45 538.309 3916
-1649.09 538.309 3916
-1639.73 538.309 3916
-1619.12 534.598 3889
-1609.82 534.598 3889
-1596.82 533.36 3880
-1587.54 533.36 3880
-1570.94 530.886 3862
-1550.79 527.175 3835
-1548.85 529.649 3853
-1539.64 529.649 3853
-1530.42 529.649 3853
-1521.21 529.649 3853
-1508.46 528.412 3844
-1499.27 528.412 3844
-1444.29 515.353 3749
-1435.32 515.353 3749
-1426.36 515.353 3749
-1417.39 515.353 3749
-1398.16 528.412 3844
-1388.97 528.412 3844
-1379.77 528.412 3844
-1370.58 528.412 3844
-668.299 259.395 1887
-657.103 256.783 1868
-647.046 254.583 1852
-642.617 254.583 1852
-632.331 252.246 1835
-627.258 251.972 1833
-622.195 251.697 1831
-617.817 251.697 1831
-611.428 250.872 1825
-605.068 250.047 1819
-598.076 248.947 1811
-593.746 248.947 1811
-588.113 248.398 1807
-582.177 247.71 1802
-575.302 246.61 1794
-567.829 245.236 1784
-563.563 245.236 1784
-557.73 244.549 1779
-552.231 243.999 1775
-544.282 242.349 1763
-540.066 242.349 1763
-535.85 242.349 1763
-530.729 241.937 1760
-525.324 241.387 1756
-521.125 241.387 1756
-515.748 240.837 1752
-511.559 240.837 1752
-505.921 240.15 1747
-501.744 240.15 1747
-497.566 240.15 1747
-492.824 239.875 1745
-487.251 239.187 1740
-483.09 239.187 1740
-478.929 239.187 1740
-474.768 239.187 1740
-470.607 239.187 1740
-466.446 239.187 1740
-462.285 239.187 1740
-458.125 239.187 1740
-453.964 239.187 1740
-449.803 239.187 1740
-445.642 239.187 1740
-440.974 238.912 1738
-436.818 238.912 1738
-432.164 238.638 1736
-428.012 238.638 1736
-422.884 238.088 1732
-417.534 237.4 1727
-412.207 236.713 1722
-408.089 236.713 1722
-403.502 236.438 1720
-398.46 235.888 1716
-394.127 235.751 1715
-390.026 235.751 1715
-385.475 235.476 1713
-380.933 235.201 1711
-375.741 234.514 1706
-371.661 234.514 1706
-366.504 233.826 1701
-360.945 232.864 1694
-356.051 232.314 1690
-352.01 232.314 1690
-347.351 231.902 1687
-342.91 231.627 1685
-337.473 230.665 1678
-333.46 230.665 1678
-329.448 230.665 1678
-325.241 230.527 1677
-320.848 230.252 1675
-316.464 229.977 1673
-312.463 229.977 1673
-308.463 229.977 1673
-304.826 230.252 1675
-300.821 230.252 1675
-297.17 230.527 1677
-293.159 230.527 1677
-289.149 230.527 1677
-285.139 230.527 1677
-281.129 230.527 1677
-277.118 230.527 1677
-273.108 230.527 1677
-269.259 230.665 1678
-265.246 230.665 1678
-261.233 230.665 1678
-257.221 230.665 1678
-253.208 230.665 1678
-249.493 230.94 1680
-245.475 230.94 1680
-241.458 230.94 1680
-237.44 230.94 1680
-233.701 231.215 1682
-229.679 231.215 1682
-225.657 231.215 1682
-221.634 231.215 1682
-217.612 231.215 1682
-213.59 231.215 1682
-209.568 231.215 1682
-205.546 231.215 1682
-201.523 231.215 1682
-197.266 230.94 1680
-193.019 230.665 1678
-189.006 230.665 1678
-185.214 230.94 1680
-181.197 230.94 1680
-177.18 230.94 1680
-172.956 230.665 1678
-168.943 230.665 1678
-164.931 230.665 1678
-160.822 230.527 1677
-156.906 230.665 1678
-153.257 231.215 1682
-149.235 231.215 1682
-145.213 231.215 1682
-141.275 231.352 1683
-137.25 231.352 1683
-133.226 231.352 1683
-129.201 231.352 1683
-125.177 231.352 1683
-121.152 231.352 1683
-117.406 231.902 1687
-113.372 231.902 1687
-109.662 232.589 1692
-105.74 232.864 1694
-101.69 232.864 1694
-97.6387 232.864 1694
-93.4773 232.589 1692
-181.903 547.382 3982
-172.381 547.382 3982
-163.636 549.994 4001
-154.8 552.605 4020
-145.873 555.217 4039
-136.215 555.217 4039
-126.556 555.217 4039
-116.637 553.98 4030
-107.239 555.217 4039
-97.581 555.217 4039
-88.7933 560.716 4079
-79.2329 562.09 4089
-69.4549 562.09 4089
-59.6768 562.09 4089
270.775 557.966 4059
281.863 560.716 4079
291.618 560.716 4079
301.372 560.716 4079
306.626 552.605 4020
313.249 547.382 3982
322.772 547.382 3982
331.459 546.007 3972
340.185 544.77 3963
346.309 539.546 3925
356.601 540.921 3935
366.011 540.921 3935
375.421 540.921 3935
384.83 540.921 3935
392.336 538.309 3916
401.701 538.309 3916
407.286 533.36 3880
409.908 524.838 3818
412.343 516.452 3757
421.327 516.452 3757
426.532 511.916 3724
432.514 508.479 3699
435.513 501.744 3650
444.241 501.744 3650
447.136 495.283 3603
448.922 487.86 3549
455.475 485.798 3534
461.038 482.774 3512
469.436 482.774 3512
475.793 480.712 3497
483.187 479.749 3490
492.518 480.712 3497
502.026 481.811 3505
510.408 481.811 3505
518.79 481.811 3505
527.171 481.811 3505
539.984 485.798 3534
548.435 485.798 3534
560.51 488.96 3557
582.613 500.644 3642
608.695 515.353 3749
617.66 515.353 3749
630.804 518.789 3774
644.236 522.363 3800
684.614 547.382 3982
694.136 547.382 3982
710.373 552.605 4020
723.389 555.217 4039
733.048 555.217 4039
742.706 555.217 4039
752.365 555.217 4039
762.023 555.217 4039
771.682 555.217 4039
777.665 552.605 4020
789.236 553.98 4030
802.639 556.592 4049
812.322 556.592 4049
822.004 556.592 4049
831.686 556.592 4049
843.447 557.966 4059
853.153 557.966 4059
862.859 557.966 4059
872.566 557.966 4059
884.446 559.341 4069
898.571 562.09 4089
908.349 562.09 4089
918.127 562.09 4089
925.636 560.716 4079
933.097 559.341 4069
942.827 559.341 4069
945.534 555.217 4039
953.064 553.98 4030
955.773 549.994 4001
965.341 549.994 4001
974.909 549.994 4001
984.476 549.994 4001
994.044 549.994 4001
1003.61 549.994 4001
1008.37 547.382 3982
1017.89 547.382 3982
1024.83 546.007 3972
1034.33 546.007 3972
1043.83 546.007 3972
1050.94 544.77 3963
1055.33 542.158 3944
1062.33 540.921 3935
1071.74 540.921 3935
1078.41 539.546 3925
1077.81 534.598 3889
1084.6 533.36 3880
1093.88 533.36 3880
1100.6 532.123 3871
1104.69 529.649 3853
1113.91 529.649 3853
1125.74 530.886 3862
1134.98 530.886 3862
1146.88 532.123 3871
1166.89 537.072 3907
1184.66 540.921 3935
1194.07 540.921 3935
1203.48 540.921 3935
1209.81 539.546 3925
1219.19 539.546 3925
1228.58 539.546 3925
1243.96 542.158 3944
1253.39 542.158 3944
1265.7 543.395 3953
1284.51 547.382 3982
1294.03 547.382 3982
1315.99 552.605 4020
1335.17 556.592 4049
1351.5 559.341 4069
1361.23 559.341 4069
1370.96 559.341 4069
1370.51 555.217 4039
1390.42 559.341 4069
1400.15 559.341 4069
1409.88 559.341 4069
1416.12 557.966 4059
1425.82 557.966 4059
1428.46 555.217 4039
1431.35 552.605 4020
1444.55 553.98 4030
1468.26 559.341 4069
1477.99 559.341 4069
1491.38 560.716 4079
1501.13 560.716 4079
1510.88 560.716 4079
1520.64 560.716 4079
1559.65 560.716 4079
1569.41 560.716 4079
1579.16 560.716 4079
1798.15 562.09 4089
1807.93 562.09 4089
1817.71 562.09 4089
1827.48 562.09 4089
1837.26 562.09 4089
1847.04 562.09 4089
1954.6 562.09 4089
1964.38 562.09 4089
1974.16 562.09 4089
1955.31 553.98 4030
1945.93 548.619 3991
1941.75 544.77 3963
1951.23 544.77 3963
1937.45 538.309 3916
1876.22 518.789 3774
1864.27 513.016 3732
1873.19 513.016 3732
1865.47 508.479 3699
1862.16 505.18 3675
1854.15 500.644 3642
1838.81 494.183 3595
1847.41 494.183 3595
1840.52 490.059 3565
1840.75 487.86 3549
1849.23 487.86 3549
1866.09 490.059 3565
1874.62 490.059 3565
1883.14 490.059 3565
1879.47 486.898 3542
1887.94 486.898 3542
1892.12 485.798 3534
1900.57 485.798 3534
1921.45 488.96 3557
1934.29 490.059 3565
1976.61 498.582 3627
1985.28 498.582 3627
1993.95 498.582 3627
2164.27 529.649 3853
2246.25 547.382 3982
2255.77 547.382 3982
2276.1 549.994 4001
2285.67 549.994 4001
2295.24 549.994 4001
2304.81 549.994 4001
2319.58 551.231 4010
2334.98 552.605 4020
2350.42 553.98 4030
2360.06 553.98 4030
2374.99 555.217 4039
2384.65 555.217 4039
2394.31 555.217 4039
2403.96 555.217 4039
2419.6 556.592 4049
2429.28 556.592 4049
2438.96 556.592 4049
2448.65 556.592 4049
2476.54 560.716 4079
2486.3 560.716 4079
2496.05 560.716 4079
2505.8 560.716 4079
2509.39 559.341 4069
2531.5 562.09 4089
2541.28 562.09 4089
2551.06 562.09 4089
2560.84 562.09 4089
2539.18 555.217 4039
2543.16 553.98 4030
2552.8 553.98 4030
2562.44 553.98 4030
2559.31 551.231 4010
2563.13 549.994 4001
2572.7 549.994 4001
2582.27 549.994 4001
2591.83 549.994 4001
2589.05 547.382 3982
524.668 101.586 739
526.435 101.586 739
528.917 101.723 740
530.687 101.723 740
532.456 101.723 740
533.504 101.586 739
535.271 101.586 739
537.038 101.586 739
538.805 101.586 739
541.304 101.723 740
543.074 101.723 740
544.843 101.723 740
546.613 101.723 740
548.382 101.723 740
549.409 101.586 739
551.176 101.586 739
552.943 101.586 739
554.71 101.586 739
556.477 101.586 739
558.244 101.586 739
560.012 101.586 739
561.779 101.586 739
563.546 101.586 739
565.313 101.586 739
-2334.52 436.082 3118
-2327.07 436.082 3118
-2319.61 436.082 3118
-2316.6 436.921 3124
-2309.13 436.921 3124
-2301.66 436.921 3124
-2289.79 436.082 3118
-2277.94 435.243 3112
-2274.87 436.082 3118
-2276.14 437.76 3130
-2268.66 437.76 3130
-2265.51 438.6 3136
-2270.97 441.117 3154
-2324.43 453.005 3239
-2316.68 453.005 3239
-2308.94 453.005 3239
-2505.81 493.285 3527
-2497.37 493.285 3527
-2515.75 498.599 3565
-2567.01 510.487 3650
-2570.19 512.865 3667
-2561.43 512.865 3667
-2592.34 520.837 3724
-2606.32 525.452 3757
-2603.56 526.711 3766
-2594.56 526.711 3766
-2585.55 526.711 3766
-2570.39 525.452 3757
-2561.4 525.452 3757
-2524.56 519.718 3716
-2482.51 512.865 3667
-2473.74 512.865 3667
-2464.97 512.865 3667
-2439.45 509.368 3642
-2430.74 509.368 3642
-2406.74 506.152 3619
-2398.09 506.152 3619
-2378.87 503.914 3603
-2364.99 502.795 3595
-2336.73 498.599 3565
-2328.2 498.599 3565
-2314.47 497.48 3557
-2300.78 496.362 3549
-2292.29 496.362 3549
-2294.1 498.599 3565
-2290.07 499.578 3572
-2281.52 499.578 3572
-2292.71 503.914 3603
-2284.09 503.914 3603
-2275.48 503.914 3603
-2261.83 502.795 3595
-2037.7 548.949 3925
-2033.48 550.347 3935
-2024.07 550.347 3935
-2014.66 550.347 3935
-2019.52 554.263 3963
-2010.05 554.263 3963
-2000.57 554.263 3963
-1977.02 550.347 3935
-1949.11 545.172 3898
-1939.79 545.172 3898
-1926.01 543.914 3889
-1930.02 547.69 3916
-1920.66 547.69 3916
-1911.29 547.69 3916
-1901.93 547.69 3916
-1901.75 550.347 3935
-1900.99 552.865 3953
-1918.81 560.837 4010
-1909.23 560.837 4010
-1899.64 560.837 4010
-1890.05 560.837 4010
-1880.46 560.837 4010
-1853.14 555.522 3972
-1843.64 555.522 3972
-1838.76 556.921 3982
-1829.24 556.921 3982
-1819.72 556.921 3982
-1810.19 556.921 3982
-1796.15 555.522 3972
-1786.65 555.522 3972
-1764.63 551.606 3944
-1755.19 551.606 3944
-1745.76 551.606 3944
-1736.33 551.606 3944
-1726.9 551.606 3944
-1734.02 556.921 3982
-1724.49 556.921 3982
-1714.97 556.921 3982
-1689.18 551.606 3944
-1663.99 546.431 3907
-1654.64 546.431 3907
-1641.51 545.172 3898
-1632.19 545.172 3898
-1619.12 543.914 3889
-1609.82 543.914 3889
-1596.82 542.655 3880
-1587.54 542.655 3880
-1570.94 540.138 3862
-1540.27 532.725 3809
-1534.78 533.984 3818
-1528.85 535.103 3826
-1519.7 535.103 3826
-1517.66 537.62 3844
-1508.46 537.62 3844
-1499.27 537.62 3844
-1473.02 531.466 3800
-1447.37 525.452 3757
-1438.39 525.452 3757
-1429.4 525.452 3757
-1417.39 524.333 3749
-1430.97 532.725 3809
-1421.86 532.725 3809
-1412.75 532.725 3809
-1394.06 529.089 3783
-1385.02 529.089 3783
-1398.16 537.62 3844
-1388.97 537.62 3844
-1379.77 537.62 3844
-1370.58 537.62 3844
-1361.39 537.62 3844
-1352.2 537.62 3844
-1336.72 535.103 3826
-644.699 259.859 1858
-633.709 257.202 1839
-627.943 256.642 1835
-621.516 255.803 1829
-617.142 255.803 1829
-611.428 255.244 1825
-604.403 254.125 1817
-597.416 253.006 1809
-593.09 253.006 1809
-587.137 252.307 1804
-582.177 252.027 1802
-575.302 250.908 1794
-567.193 249.23 1782
-562.931 249.23 1782
-558.043 248.95 1780
-551.609 247.971 1773
-546.134 247.412 1769
-541.904 247.412 1769
-535.85 246.572 1763
-530.729 246.153 1760
-525.324 245.593 1756
-521.125 245.593 1756
-515.748 245.034 1752
-511.559 245.034 1752
-505.921 244.335 1747
-501.744 244.335 1747
-497.566 244.335 1747
-492.824 244.055 1745
-487.251 243.356 1740
-483.09 243.356 1740
-478.929 243.356 1740
-474.768 243.356 1740
-470.607 243.356 1740
-466.446 243.356 1740
-462.285 243.356 1740
-458.125 243.356 1740
-453.964 243.356 1740
-449.803 243.356 1740
-445.642 243.356 1740
-440.974 243.076 1738
-436.818 243.076 1738
-432.164 242.796 1736
-428.012 242.796 1736
-422.884 242.237 1732
-417.534 241.537 1727
-412.207 240.838 1722
-408.089 240.838 1722
-403.502 240.558 1720
-398.46 239.999 1716
-394.127 239.859 1715
-390.026 239.859 1715
-385.475 239.579 1713
-380.933 239.3 1711
-375.741 238.6 1706
-371.661 238.6 1706
-366.504 237.901 1701
-360.945 236.922 1694
-356.051 236.363 1690
-352.01 236.363 1690
-347.351 235.943 1687
-342.91 235.663 1685
-337.473 234.684 1678
-333.46 234.684 1678
-329.448 234.684 1678
-325.241 234.544 1677
-320.848 234.265 1675
-316.464 233.985 1673
-312.463 233.985 1673
-308.463 233.985 1673
-304.826 234.265 1675
-300.821 234.265 1675
-296.815 234.265 1675
-292.81 234.265 1675
-289.149 234.544 1677
-285.139 234.544 1677
-281.129 234.544 1677
-277.118 234.544 1677
-273.108 234.544 1677
-269.259 234.684 1678
-265.246 234.684 1678
-261.233 234.684 1678
-257.221 234.684 1678
-253.208 234.684 1678
-249.493 234.964 1680
-245.475 234.964 1680
-241.458 234.964 1680
-237.44 234.964 1680
-233.701 235.244 1682
-229.679 235.244 1682
-225.657 235.244 1682
-221.634 235.244 1682
-217.612 235.244 1682
-213.59 235.244 1682
-209.568 235.244 1682
-205.546 235.244 1682
-201.523 235.244 1682
-197.266 234.964 1680
-193.019 234.684 1678
-189.006 234.684 1678
-185.214 234.964 1680
-181.197 234.964 1680
-177.18 234.964 1680
-172.956 234.684 1678
-168.943 234.684 1678
-164.931 234.684 1678
-160.822 234.544 1677
-156.906 234.684 1678
-153.257 235.244 1682
-149.235 235.244 1682
-145.213 235.244 1682
-141.275 235.384 1683
-137.25 235.384 1683
-133.226 235.384 1683
-129.201 235.384 1683
-125.177 235.384 1683
-121.152 235.384 1683
-117.406 235.943 1687
-113.372 235.943 1687
-109.662 236.642 1692
-105.74 236.922 1694
-101.69 236.922 1694
-97.6387 236.922 1694
-93.4773 236.642 1692
-181.903 556.921 3982
-172.381 556.921 3982
-163.636 559.578 4001
-154.8 562.235 4020
-145.873 564.893 4039
-136.215 564.893 4039
-126.556 564.893 4039
-116.637 563.634 4030
-107.239 564.893 4039
-97.581 564.893 4039
-88.7933 570.487 4079
-79.0391 570.487 4079
-69.285 570.487 4079
270.775 567.69 4059
280.481 567.69 4059
290.188 567.69 4059
299.894 567.69 4059
305.863 560.837 4010
313.249 556.921 3982
322.772 556.921 3982
330.708 554.263 3963
339.327 552.865 3953
346.309 548.949 3925
356.601 550.347 3935
366.011 550.347 3935
375.421 550.347 3935
383.852 548.949 3925
391.435 546.431 3907
400.778 546.431 3907
404.452 538.879 3853
408.942 532.725 3809
411.465 524.333 3749
420.43 524.333 3749
425.615 519.718 3716
431.578 516.222 3691
435.513 510.487 3650
444.241 510.487 3650
447.136 503.914 3603
448.922 496.362 3549
453.671 492.306 3520
460.119 490.208 3505
468.5 490.208 3505
474.841 488.11 3490
482.218 487.131 3483
491.532 488.11 3490
502.026 490.208 3505
510.408 490.208 3505
518.79 490.208 3505
527.171 490.208 3505
537.844 492.306 3520
546.262 492.306 3520
559.249 496.362 3549
578.934 506.152 3619
597.979 515.103 3683
606.786 515.103 3683
626.625 524.333 3749
644.236 531.466 3800
679.628 552.865 3953
689.081 552.865 3953
703.658 556.921 3982
716.583 559.578 4001
727.784 560.837 4010
737.374 560.837 4010
746.963 560.837 4010
756.552 560.837 4010
766.141 560.837 4010
772.055 558.179 3991
781.598 558.179 3991
794.908 560.837 4010
804.497 560.837 4010
814.087 560.837 4010
825.73 562.235 4020
835.343 562.235 4020
844.956 562.235 4020
854.569 562.235 4020
864.182 562.235 4020
880.098 566.291 4049
894.176 569.088 4069
903.906 569.088 4069
913.636 569.088 4069
923.367 569.088 4069
930.804 567.69 4059
940.51 567.69 4059
943.427 563.634 4030
948.334 560.837 4010
955.773 559.578 4001
965.341 559.578 4001
970.279 556.921 3982
977.341 555.522 3972
984.603 554.263 3963
994.08 554.263 3963
1003.56 554.263 3963
1008.18 551.606 3944
1015.29 550.347 3935
1024.7 550.347 3935
1034.1 550.347 3935
1043.51 550.347 3935
1052.92 550.347 3935
1049.92 543.914 3889
1059.22 543.914 3889
1068.52 543.914 3889
1067.84 538.879 3853
1069.5 535.103 3826
1078.65 535.103 3826
1082.97 532.725 3809
1092.08 532.725 3809
1101.19 532.725 3809
1110.29 532.725 3809
1119.4 532.725 3809
1133.55 535.103 3826
1150.76 538.879 3853
1170.81 543.914 3889
1180.11 543.914 3889
1189.41 543.914 3889
1201.49 545.172 3898
1210.81 545.172 3898
1220.13 545.172 3898
1229.45 545.172 3898
1238.77 545.172 3898
1253.86 547.69 3916
1275.16 552.865 3953
1284.61 552.865 3953
1303.55 556.921 3982
1325.61 562.235 4020
1351.5 569.088 4069
1361.23 569.088 4069
1370.96 569.088 4069
1370.51 564.893 4039
1380.17 564.893 4039
1389.82 564.893 4039
1399.48 564.893 4039
1406 563.634 4030
1415.64 563.634 4030
1421.74 562.235 4020
1417.82 556.921 3982
1444.55 563.634 4030
1461.04 566.291 4049
1470.72 566.291 4049
1491.38 570.487 4079
1501.13 570.487 4079
1510.88 570.487 4079
1520.64 570.487 4079
1530.39 570.487 4079
1543.92 571.886 4089
1553.7 571.886 4089
1563.48 571.886 4089
1569.41 570.487 4079
1579.16 570.487 4079
1592.81 571.886 4089
1602.59 571.886 4089
1612.37 571.886 4089
1622.15 571.886 4089
1705.97 570.487 4079
1715.72 570.487 4079
1725.47 570.487 4079
1730.97 569.088 4069
1740.7 569.088 4069
1750.43 569.088 4069
1764.49 570.487 4079
1774.24 570.487 4079
1788.37 571.886 4089
1798.15 571.886 4089
1807.93 571.886 4089
1817.71 571.886 4089
1827.48 571.886 4089
1837.26 571.886 4089
1847.04 571.886 4089
1856.82 571.886 4089
1866.6 571.886 4089
1876.37 571.886 4089
1886.15 571.886 4089
1895.93 571.886 4089
1930.31 570.487 4079
1940.06 570.487 4079
1954.6 571.886 4089
1964.38 571.886 4089
1974.16 571.886 4089
1955.31 563.634 4030
1945.93 558.179 3991
1951.06 556.921 3982
1960.58 556.921 3982
1937.45 547.69 3916
1880.7 529.089 3783
1872.76 524.333 3749
1881.72 524.333 3749
1865.47 517.34 3699
1870.27 516.222 3691
1866.87 512.865 3667
1851.09 506.152 3619
1859.74 506.152 3619
1852.39 501.816 3588
1849.04 498.599 3565
1861.22 499.578 3572
1878.13 501.816 3588
1886.71 501.816 3588
1895.29 501.816 3588
1903.87 501.816 3588
1912.45 501.816 3588
1921.03 501.816 3588
1929.61 501.816 3588
1946.3 503.914 3603
1967.93 507.271 3627
1989.14 510.487 3650
1997.87 510.487 3650
2006.6 510.487 3650
2132.38 540.138 3862
2151.6 542.655 3880
2160.88 542.655 3880
2195.32 548.949 3925
2236.73 556.921 3982
2256.97 559.578 4001
2266.54 559.578 4001
2286.91 562.235 4020
2296.52 562.235 4020
2306.14 562.235 4020
2315.75 562.235 4020
2325.36 562.235 4020
2334.98 562.235 4020
2350.42 563.634 4030
2360.06 563.634 4030
2374.99 564.893 4039
2384.65 564.893 4039
2394.31 564.893 4039
2403.96 564.893 4039
2419.6 566.291 4049
2429.28 566.291 4049
2438.96 566.291 4049
2448.65 566.291 4049
2476.54 570.487 4079
2486.3 570.487 4079
2496.05 570.487 4079
2505.8 570.487 4079
2509.39 569.088 4069
2531.5 571.886 4089
2541.28 571.886 4089
2551.06 571.886 4089
2560.84 571.886 4089
2539.18 564.893 4039
2543.16 563.634 4030
2552.8 563.634 4030
2562.44 563.634 4030
2559.31 560.837 4010
2563.13 559.578 4001
2572.7 559.578 4001
2582.27 559.578 4001
2591.83 559.578 4001
2589.05 556.921 3982
2579.65 552.865 3953
2589.1 552.865 3953
2592.63 551.606 3944
524.668 103.356 739
526.435 103.356 739
528.917 103.496 740
530.687 103.496 740
532.456 103.496 740
533.504 103.356 739
535.271 103.356 739
537.038 103.356 739
538.805 103.356 739
541.304 103.496 740
543.074 103.496 740
544.843 103.496 740
546.613 103.496 740
548.382 103.496 740
549.409 103.356 739
551.176 103.356 739
552.943 103.356 739
554.71 103.356 739
556.477 103.356 739
558.244 103.356 739
560.012 103.356 739
561.779 103.356 739
563.546 103.356 739
565.313 103.356 739
-2334.52 443.551 3118
-2327.07 443.551 3118
-2319.61 443.551 3118
-2312.15 443.551 3118
-2304.7 443.551 3118
-2297.24 443.551 3118
-2277.3 441.133 3101
-2274.28 441.986 3107
-2274.87 443.551 3118
-2271.78 444.405 3124
-2264.31 444.405 3124
-2265.51 446.112 3136
-2270.97 448.672 3154
-2324.43 460.764 3239
-2316.68 460.764 3239
-2308.94 460.764 3239
-2505.81 501.734 3527
-2497.37 501.734 3527
-2515.75 507.139 3565
-2567.01 519.231 3650
-2570.19 521.649 3667
-2561.43 521.649 3667
-2592.34 529.758 3724
-2600.77 533.314 3749
-2597.34 534.452 3757
-2588.35 534.452 3757
-2579.37 534.452 3757
-2558.76 532.034 3740
-2549.81 532.034 3740
-2535.43 530.896 3732
-2504.17 526.201 3699
-2484.53 523.925 3683
-2475.72 523.925 3683
-2456.2 521.649 3667
-2430.74 518.093 3642
-2422.04 518.093 3642
-2413.33 518.093 3642
-2400 517.097 3635
-2370.25 512.545 3603
-2356.39 511.407 3595
-2347.8 511.407 3595
-2329.44 509.273 3580
-2311.15 507.139 3565
-2302.63 507.139 3565
-2308.9 510.411 3588
-2309.94 512.545 3603
-2301.32 512.545 3603
-2302.89 514.821 3619
-2299.31 515.959 3627
-2295.69 517.097 3635
-2286.99 517.097 3635
-2278.3 517.097 3635
-2037.7 558.351 3925
-2033.48 559.774 3935
-2024.07 559.774 3935
-2014.66 559.774 3935
-2024.11 565.037 3972
-2014.61 565.037 3972
-2005.11 565.037 3972
-1986.07 562.334 3953
-1962.61 558.351 3925
-1953.23 558.351 3925
-1943.84 558.351 3925
-1934.46 558.351 3925
-1925.07 558.351 3925
-1920.57 559.774 3935
-1911.16 559.774 3935
-1901.75 559.774 3935
-1910.13 565.037 3972
-1918.81 570.443 4010
-1909.23 570.443 4010
-1899.64 570.443 4010
-1890.05 570.443 4010
-1880.46 570.443 4010
-1848.94 563.757 3963
-1843.64 565.037 3972
-1838.76 566.46 3982
-1829.24 566.46 3982
-1819.72 566.46 3982
-1810.19 566.46 3982
-1796.15 565.037 3972
-1786.65 565.037 3972
-1764.63 561.054 3944
-1742.73 557.071 3916
-1745.76 561.054 3944
-1736.33 561.054 3944
-1726.9 561.054 3944
-1717.47 561.054 3944
-1708.04 561.054 3944
-1698.61 561.054 3944
-1681.04 558.351 3925
-1660.15 554.51 3898
-1650.83 554.51 3898
-1641.51 554.51 3898
-1632.19 554.51 3898
-1619.12 553.23 3889
-1609.82 553.23 3889
-1596.82 551.95 3880
-1587.54 551.95 3880
-1570.94 549.389 3862
-1533.4 539.431 3792
-1531.16 541.849 3809
-1528.85 544.268 3826
-1519.7 544.268 3826
-1514.1 545.548 3835
-1504.93 545.548 3835
-1495.76 545.548 3835
-1473.02 540.569 3800
-1460.85 539.431 3792
-1451.79 539.431 3792
-1449.19 541.849 3809
-1440.08 541.849 3809
-1430.97 541.849 3809
-1421.86 541.849 3809
-1412.75 541.849 3809
-1400.33 540.569 3800
-1400.76 544.268 3826
-1398.16 546.828 3844
-1388.97 546.828 3844
-1379.77 546.828 3844
-1370.58 546.828 3844
-1361.39 546.828 3844
-1352.2 546.828 3844
-1343 546.828 3844
-1333.81 546.828 3844
-635.776 262.461 1845
-629.311 261.607 1839
-622.195 260.469 1831
-617.817 260.469 1831
-611.428 259.615 1825
-604.403 258.477 1817
-597.416 257.339 1809
-593.09 257.339 1809
-587.137 256.628 1804
-582.177 256.344 1802
-575.302 255.206 1794
-567.193 253.499 1782
-562.931 253.499 1782
-558.043 253.214 1780
-551.609 252.218 1773
-546.134 251.649 1769
-541.904 251.649 1769
-536.458 251.08 1765
-531.333 250.653 1762
-525.922 250.084 1758
-521.719 250.084 1758
-515.748 249.231 1752
-511.559 249.231 1752
-506.5 248.804 1749
-502.318 248.804 1749
-497.566 248.52 1747
-492.824 248.235 1745
-487.531 247.666 1741
-483.367 247.666 1741
-478.929 247.524 1740
-475.041 247.666 1741
-470.878 247.666 1741
-466.714 247.666 1741
-462.551 247.666 1741
-458.388 247.666 1741
-454.225 247.666 1741
-450.061 247.666 1741
-445.898 247.666 1741
-441.735 247.666 1741
-437.32 247.524 1740
-432.662 247.239 1738
-428.505 247.239 1738
-423.373 246.67 1734
-417.534 245.674 1727
-412.447 245.105 1723
-408.326 245.105 1723
-403.502 244.679 1720
-399.389 244.679 1720
-394.357 244.11 1716
-390.254 244.11 1716
-385.925 243.967 1715
-381.379 243.683 1713
-376.181 242.972 1708
-372.097 242.972 1708
-367.151 242.403 1704
-361.584 241.407 1697
-356.894 240.98 1694
-352.843 240.98 1694
-347.969 240.411 1690
-342.91 239.7 1685
-338.277 239.273 1682
-333.46 238.704 1678
-329.448 238.704 1678
-325.435 238.704 1678
-321.231 238.562 1677
-317.221 238.562 1677
-313.21 238.562 1677
-309.2 238.562 1677
-305.19 238.562 1677
-301.18 238.562 1677
