681.657 269.815 3707
689.031 269.233 3699
696.367 268.651 3691
705.194 268.651 3691
715.567 269.233 3699
724.413 269.233 3699
733.258 269.233 3699
740.499 268.651 3691
749.325 268.651 3691
756.508 268.068 3683
765.315 268.068 3683
770.759 266.904 3667
779.528 266.904 3667
788.297 266.904 3667
795.11 266.249 3658
803.857 266.249 3658
812.605 266.249 3658
821.352 266.249 3658
830.099 266.249 3658
837.012 265.666 3650
847.594 266.249 3658
856.342 266.249 3658
871.001 268.068 3683
879.808 268.068 3683
888.616 268.068 3683
897.423 268.068 3683
906.23 268.068 3683
915.037 268.068 3683
923.844 268.068 3683
936.703 269.233 3699
945.549 269.233 3699
958.78 270.47 3716
969.75 271.052 3724
978.655 271.052 3724
987.56 271.052 3724
991.916 269.815 3707
1003.21 270.47 3716
1012.1 270.47 3716
1020.98 270.47 3716
1029.87 270.47 3716
1040.99 271.052 3724
1052.15 271.635 3732
1061.08 271.635 3732
1070 271.635 3732
1078.92 271.635 3732
1087.85 271.635 3732
1094.42 271.052 3724
1098.29 269.815 3707
1112.23 271.052 3724
1123.55 271.635 3732
1132.47 271.635 3732
1141.4 271.635 3732
1147.85 271.052 3724
1148.99 269.233 3699
1157.84 269.233 3699
1166.68 269.233 3699
1178.07 269.815 3707
1189.82 270.47 3716
1198.7 270.47 3716
1207.59 270.47 3716
1216.48 270.47 3716
1225.36 270.47 3716
1234.25 270.47 3716
1243.13 270.47 3716
1252.02 270.47 3716
1260.91 270.47 3716
1269.79 270.47 3716
1275.58 269.815 3707
1284.45 269.815 3707
1296.45 270.47 3716
1305.34 270.47 3716
1314.22 270.47 3716
1323.11 270.47 3716
1332 270.47 3716
1340.88 270.47 3716
1358.49 272.217 3740
1367.43 272.217 3740
1379.68 272.872 3749
1388.65 272.872 3749
1397.61 272.872 3749
1406.58 272.872 3749
1415.54 272.872 3749
1421.09 272.217 3740
1430.03 272.217 3740
1438.98 272.217 3740
1447.92 272.217 3740
1453.75 271.635 3732
1462.67 271.635 3732
1471.6 271.635 3732
1470.6 269.815 3707
1479.47 269.815 3707
1488.33 269.815 3707
1493.97 269.233 3699
1496.31 268.068 3683
1505.12 268.068 3683
1530.78 271.052 3724
1539.68 271.052 3724
1548.59 271.052 3724
1557.49 271.052 3724
1552.52 268.651 3691
1575.3 271.052 3724
1584.21 271.052 3724
1596.54 271.635 3732
1608.9 272.217 3740
1617.85 272.217 3740
1626.79 272.217 3740
1632.23 271.635 3732
1634.12 270.47 3716
1643.01 270.47 3716
1644.34 269.233 3699
1671.51 272.217 3740
1695.73 274.692 3774
1720.56 277.239 3809
1729.67 277.239 3809
1754.76 279.787 3844
1780.47 282.407 3880
1789.75 282.407 3880
1799.02 282.407 3880
1808.3 282.407 3880
1817.58 282.407 3880
1809.91 279.787 3844
1819.1 279.787 3844
1811.65 277.239 3809
1816.45 276.584 3800
1825.54 276.584 3800
1834.63 276.584 3800
1839.83 276.002 3792
1807.46 269.815 3707
1808.48 268.651 3691
1817.31 268.651 3691
1826.13 268.651 3691
1834.96 268.651 3691
1831.8 266.904 3667
1816.47 263.41 3619
1825.13 263.41 3619
1818.07 261.154 3588
1810.87 258.897 3557
1800.45 256.204 3520
1808.87 256.204 3520
1801.8 254.021 3490
1810.14 254.021 3490
1826.31 255.112 3505
1854.06 257.806 3542
1862.53 257.806 3542
1874.69 258.315 3549
1883.18 258.315 3549
1895.93 258.897 3557
1908.72 259.48 3565
1917.24 259.48 3565
1925.77 259.48 3565
1929.95 258.897 3557
1938.46 258.897 3557
1946.97 258.897 3557
1985.16 262.828 3611
2002.63 263.992 3627
2024.06 265.666 3650
2032.78 265.666 3650
2051.02 266.904 3667
2096.3 271.635 3732
2143.58 276.584 3800
2152.67 276.584 3800
2161.76 276.584 3800
2181.13 277.894 3818
2190.26 277.894 3818
2199.39 277.894 3818
2188.27 275.347 3783
2202.55 276.002 3792
2226.78 277.894 3818
2235.91 277.894 3818
2245.04 277.894 3818
2254.17 277.894 3818
2273.37 279.132 3835
2282.55 279.132 3835
2291.72 279.132 3835
2290.69 277.894 3818
2278.73 275.347 3783
2287.78 275.347 3783
2296.83 275.347 3783
2311.36 276.002 3792
2325.32 276.584 3800
2339.94 277.239 3809
2349.05 277.239 3809
2358.16 277.239 3809
2367.26 277.239 3809
2403.82 280.442 3853
2413.04 280.442 3853
2433.57 281.752 3871
2442.82 281.752 3871
2452.08 281.752 3871
2455.61 281.097 3862
2420.17 276.002 3792
2429.24 276.002 3792
2443.45 276.584 3800
2452.54 276.584 3800
2461.63 276.584 3800
2482.42 277.894 3818
2502.64 279.132 3835
2511.81 279.132 3835
2520.98 279.132 3835
2530.15 279.132 3835
2533.36 278.477 3826
2542.51 278.477 3826
2546.33 277.894 3818
2532.03 275.347 3783
2518.24 272.872 3749
2527.2 272.872 3749
2553.08 274.692 3774
2562.11 274.692 3774
2571.13 274.692 3774
2551.44 271.635 3732
2560.37 271.635 3732
2569.29 271.635 3732
1889.23 193.682 2661
1901.29 194.264 2669
1907.68 194.264 2669
1914.06 194.264 2669
1923.32 194.555 2673
1929.71 194.555 2673
1936.1 194.555 2673
1942.49 194.555 2673
1974.4 197.103 2708
2000.63 199.068 2735
2007.17 199.068 2735
2026.96 200.378 2753
2053.49 202.343 2780
2063.84 202.707 2785
2070.5 202.707 2785
2083.88 203.362 2794
2094.3 203.726 2799
2104.75 204.09 2804
2111.45 204.09 2804
2121.93 204.454 2809
2128.65 204.454 2809
2146.01 205.473 2823
2152.76 205.473 2823
2159.51 205.473 2823
-2334.52 234.414 3118
-2327.07 234.414 3118
-2311.43 233.587 3107
-2299.55 233.136 3101
-2292.13 233.136 3101
-2289.14 233.587 3107
-2281.71 233.587 3107
-2282.33 234.414 3118
-2279.25 234.865 3124
-2276.14 235.316 3130
-2268.66 235.316 3130
-2269.84 236.218 3142
-2266.65 236.669 3148
-2267.73 237.571 3160
-2260.18 237.571 3160
-2252.62 237.571 3160
-2249.33 238.022 3166
-2250.25 238.925 3178
-2242.65 238.925 3178
-2239.27 239.376 3184
-2235.87 239.827 3190
-2254.08 242.608 3227
-2246.37 242.608 3227
-2238.65 242.608 3227
-2252.36 244.939 3258
-2275.58 248.322 3303
-2267.68 248.322 3303
-2259.78 248.322 3303
-2270.29 250.352 3330
-2280.67 252.382 3357
-2272.64 252.382 3357
-2315.88 258.096 3433
-2331.2 260.727 3468
-2337.64 262.381 3490
-2329.3 262.381 3490
-2325.61 262.907 3497
-2317.24 262.907 3497
-2308.88 262.907 3497
-2300.52 262.907 3497
-2273.15 260.727 3468
-2264.86 260.727 3468
-2294.95 265.163 3527
-2286.52 265.163 3527
-2278.08 265.163 3527
-2279.3 266.29 3542
-2270.83 266.29 3542
-2262.36 266.29 3542
-2253.89 266.29 3542
-2245.42 266.29 3542
-2236.95 266.29 3542
-2223.45 265.689 3534
-2215 265.689 3534
-2197.81 264.636 3520
-2189.39 264.636 3520
-2180.97 264.636 3520
-2149.72 261.855 3483
-2093.43 255.991 3405
-2085.29 255.991 3405
-2077.15 255.991 3405
-2086.02 258.096 3433
-2098.99 260.727 3468
-2099.74 261.855 3483
-2091.42 261.855 3483
-2096.24 263.509 3505
-2087.86 263.509 3505
-2079.48 263.509 3505
-2062.24 262.381 3490
-2045.65 261.328 3476
-2028.55 260.201 3461
-2020.27 260.201 3461
-2011.99 260.201 3461
-2007.77 260.727 3468
-2008.13 261.855 3483
-1999.8 261.855 3483
-1991.47 261.855 3483
-1983.14 261.855 3483
-1978.78 262.381 3490
-1978.9 263.509 3505
-1970.52 263.509 3505
-1962.14 263.509 3505
-1953.76 263.509 3505
-1945.38 263.509 3505
-1932.57 262.907 3497
-1924.21 262.907 3497
-1915.85 262.907 3497
-1907.49 262.907 3497
-1891.52 261.855 3483
-1895.09 263.509 3505
-1894.78 264.636 3520
-1901.9 266.817 3549
-1893.42 266.817 3549
-1893.43 268.02 3565
-1884.9 268.02 3565
-1876.38 268.02 3565
-1867.85 268.02 3565
-1850.98 266.817 3549
-1831.08 265.163 3527
-1822.64 265.163 3527
-1810.61 264.636 3520
-1798.09 264.035 3512
-1789.69 264.035 3512
-1788.9 265.163 3527
-1780.47 265.163 3527
-1787.11 267.418 3557
-1778.6 267.418 3557
-1770.1 267.418 3557
-1746.73 265.163 3527
-1738.3 265.163 3527
-1729.87 265.163 3527
-1721.43 265.163 3527
-1713 265.163 3527
-1701.18 264.636 3520
-1685.55 263.509 3505
-1677.17 263.509 3505
-1668.79 263.509 3505
-1660.41 263.509 3505
-1655.32 264.035 3512
-1650.68 264.636 3520
-1642.26 264.636 3520
-1633.84 264.636 3520
-1625.42 264.636 3520
-1617.01 264.636 3520
-1608.59 264.636 3520
-1600.17 264.636 3520
-1581.35 262.907 3497
-1572.99 262.907 3497
-1571.34 264.035 3512
-1562.94 264.035 3512
-1554.54 264.035 3512
-1539.54 262.907 3497
-1531.18 262.907 3497
-1522.82 262.907 3497
-1514.45 262.907 3497
-1506.09 262.907 3497
-1504.15 264.035 3512
-1495.76 264.035 3512
-1487.36 264.035 3512
-1469.69 262.381 3490
-1461.35 262.381 3490
-1453 262.381 3490
-1457.08 264.636 3520
-1451.54 265.163 3527
-1443.11 265.163 3527
-1434.67 265.163 3527
-1426.24 265.163 3527
-1426.65 266.817 3549
-1418.16 266.817 3549
-1409.67 266.817 3549
-1401.19 266.817 3549
-1381.32 264.636 3520
-1372.9 264.636 3520
-1364.48 264.636 3520
-1364.54 266.29 3542
-1356.07 266.29 3542
-1347.6 266.29 3542
-597.501 122.695 1632
-593.599 122.695 1632
-589.696 122.695 1632
-585.794 122.695 1632
-580.465 122.394 1628
-576.572 122.394 1628
-571.272 122.094 1624
-567.039 122.018 1623
-563.158 122.018 1623
-558.243 121.793 1620
-554.369 121.793 1620
-549.815 121.643 1618
-545.946 121.643 1618
-542.077 121.643 1618
-538.208 121.643 1618
-533.348 121.417 1615
-528.503 121.191 1612
-523.997 121.041 1610
-520.147 121.041 1610
-515.335 120.816 1607
-511.174 120.74 1606
-506.701 120.59 1604
-502.866 120.59 1604
-499.03 120.59 1604
-495.195 120.59 1604
-491.972 120.74 1606
-488.435 120.816 1607
-484.592 120.816 1607
-481.348 120.966 1609
-477.797 121.041 1610
-473.947 121.041 1610
-470.097 121.041 1610
-466.826 121.191 1612
-463.833 121.417 1615
-460.541 121.567 1617
-456.674 121.567 1617
-453.087 121.643 1618
-450.606 122.018 1623
-447 122.094 1624
-443.117 122.094 1624
-440.315 122.394 1628
-437.226 122.62 1631
-434.123 122.845 1634
-430.216 122.845 1634
-426.83 122.996 1636
-423.177 123.071 1637
-419.774 123.221 1639
-415.855 123.221 1639
-412.187 123.297 1640
-408.265 123.297 1640
-404.837 123.447 1642
-400.91 123.447 1642
-397.467 123.597 1644
-393.775 123.672 1645
-390.315 123.823 1647
-386.377 123.823 1647
-382.671 123.898 1648
-379.189 124.048 1650
-375.926 124.274 1653
-371.973 124.274 1653
-368.02 124.274 1653
-364.508 124.424 1655
-360.986 124.575 1657
-357.67 124.8 1660
-353.701 124.8 1660
-350.152 124.95 1662
-347.219 125.326 1667
-343.851 125.552 1670
-339.857 125.552 1670
-335.864 125.552 1670
-332.467 125.777 1673
-328.859 125.928 1675
-324.853 125.928 1675
-321.231 126.078 1677
-317.41 126.153 1678
-314.705 126.68 1685
-310.675 126.68 1685
-306.646 126.68 1685
-303.515 127.056 1690
-300.182 127.356 1694
-296.131 127.356 1694
-292.598 127.582 1697
-289.39 127.958 1702
-285.655 128.108 1704
-281.58 128.108 1704
-277.831 128.258 1706
-274.554 128.634 1711
-270.778 128.785 1713
-266.682 128.785 1713
-263.352 129.161 1718
-259.546 129.311 1720
-256.175 129.687 1725
-252.05 129.687 1725
-248.213 129.837 1727
-244.366 129.988 1729
-240.926 130.364 1734
-236.779 130.364 1734
-232.901 130.514 1736
-229.277 130.815 1740
-225.245 130.89 1741
-221.082 130.89 1741
-216.919 130.89 1741
-213.244 131.191 1745
-209.311 131.341 1747
-205.134 131.341 1747
-201.186 131.491 1749
-197.229 131.642 1751
-193.152 131.717 1752
-188.962 131.717 1752
-184.984 131.867 1754
-180.79 131.867 1754
-176.998 132.168 1758
-172.794 132.168 1758
-168.59 132.168 1758
-164.573 132.318 1760
-161.002 132.844 1767
-156.777 132.844 1767
-153.242 133.446 1775
-149.165 133.596 1777
-144.916 133.596 1777
-140.667 133.596 1777
-136.571 133.747 1779
-132.391 133.822 1780
-128.135 133.822 1780
-123.878 133.822 1780
-218.626 273.808 3642
-210.84 275.011 3658
-202.092 275.011 3658
-193.345 275.011 3658
-184.597 275.011 3658
-176.283 275.688 3667
-167.514 275.688 3667
-158.745 275.688 3667
-149.608 275.011 3658
-140.86 275.011 3658
-132.113 275.011 3658
-123.096 274.41 3650
-114.368 274.41 3650
-106.131 275.688 3667
-97.3625 275.688 3667
-88.5936 275.688 3667
-79.8247 275.688 3667
-71.2108 276.289 3675
-62.4228 276.289 3675
-53.6347 276.289 3675
-44.8467 276.289 3675
-36.1371 276.891 3683
-27.3893 277.492 3691
-18.563 277.492 3691
-9.73673 277.492 3691
-0.910428 277.492 3691
7.89872 276.891 3683
16.7785 278.094 3699
25.6239 278.094 3699
34.6277 279.372 3716
43.5138 279.372 3716
52.8652 281.853 3749
61.8302 281.853 3749
70.9463 282.454 3757
79.9304 282.454 3757
88.9146 282.454 3757
97.4557 281.176 3740
106.399 281.176 3740
116.669 284.409 3783
125.715 284.409 3783
134.761 284.409 3783
339.745 281.853 3749
348.71 281.853 3749
357.675 281.853 3749
362.533 278.695 3707
368.191 276.289 3675
376.979 276.289 3675
383.143 274.41 3650
387.684 271.478 3611
391.27 268.02 3565
399.795 268.02 3565
406.488 266.817 3549
411.584 264.636 3520
415.586 261.855 3483
418.682 258.622 3440
426.908 258.622 3440
428.936 254.938 3391
433.436 252.833 3363
438.065 250.878 3337
446.044 250.878 3337
454.024 250.878 3337
460.066 249.826 3323
468.012 249.826 3323
475.958 249.826 3323
483.031 249.375 3317
486.078 246.894 3284
495.887 247.871 3297
504.688 248.322 3303
520.966 252.382 3357
528.994 252.382 3357
548.059 257.569 3426
584.99 270.876 3603
593.606 270.876 3603
610.078 274.41 3650
618.806 274.41 3650
648.853 283.732 3774
657.878 283.732 3774
670.083 285.086 3792
679.151 285.086 3792
688.219 285.086 3792
697.287 285.086 3792
699.835 282.454 3757
705.612 281.176 3740
714.555 281.176 3740
723.499 281.176 3740
732.442 281.176 3740
739.8 280.575 3732
748.724 280.575 3732
757.649 280.575 3732
761.438 278.695 3707
768.64 278.094 3699
774.122 276.891 3683
782.93 276.891 3683
791.737 276.891 3683
798.805 276.289 3675
807.593 276.289 3675
816.381 276.289 3675
825.169 276.289 3675
833.957 276.289 3675
842.745 276.289 3675
853.387 276.891 3683
862.194 276.891 3683
871.001 276.891 3683
885.542 278.695 3707
894.406 278.695 3707
903.271 278.695 3707
912.135 278.695 3707
921 278.695 3707
929.865 278.695 3707
945.06 280.575 3732
953.984 280.575 3732
967.295 281.853 3749
976.26 281.853 3749
985.225 281.853 3749
994.19 281.853 3749
1003.15 281.853 3749
1012.12 281.853 3749
1023.26 282.454 3757
1032.25 282.454 3757
1043.73 283.131 3766
1052.73 283.131 3766
1063.99 283.732 3774
1073.02 283.732 3774
1084.62 284.409 3783
1093.67 284.409 3783
1102.72 284.409 3783
1111.76 284.409 3783
1115.77 283.131 3766
1132.54 285.086 3792
1141.61 285.086 3792
1150.68 285.086 3792
1159.75 285.086 3792
1166.04 284.409 3783
1167.01 282.454 3757
1175.99 282.454 3757
1179.62 281.176 3740
1191.42 281.853 3749
1202.95 282.454 3757
1211.93 282.454 3757
1220.91 282.454 3757
1227.28 281.853 3749
1236.24 281.853 3749
1245.21 281.853 3749
1254.17 281.853 3749
1265.83 282.454 3757
1274.82 282.454 3757
1283.8 282.454 3757
1292.79 282.454 3757
1299 281.853 3749
1307.96 281.853 3749
1316.93 281.853 3749
1325.89 281.853 3749
1334.86 281.853 3749
1343.82 281.853 3749
1358.92 283.131 3766
1374.1 284.409 3783
1383.15 284.409 3783
1398.45 285.687 3800
1410.87 286.364 3809
1419.98 286.364 3809
1429.09 286.364 3809
1434.8 285.687 3800
1443.89 285.687 3800
1456.42 286.364 3809
1465.52 286.364 3809
1478.12 287.04 3818
1487.25 287.04 3818
1496.38 287.04 3818
1505.51 287.04 3818
1514.64 287.04 3818
1523.77 287.04 3818
1532.9 287.04 3818
1542.03 287.04 3818
1540.59 285.086 3792
1549.66 285.086 3792
1569.42 287.04 3818
1578.55 287.04 3818
1587.68 287.04 3818
1596.81 287.04 3818
1595 285.086 3792
1615.07 287.04 3818
1624.2 287.04 3818
1648.3 289.672 3853
1669.13 291.702 3880
1678.41 291.702 3880
1687.69 291.702 3880
1696.96 291.702 3880
1690.41 288.995 3844
1699.6 288.995 3844
1644.34 278.094 3699
1722.01 289.672 3853
1731.22 289.672 3853
1760.76 293.055 3898
1770.09 293.055 3898
1783.52 293.731 3907
1796.99 294.408 3916
1806.35 294.408 3916
1824.53 295.836 3935
1833.94 295.836 3935
1843.35 295.836 3935
1848.05 295.085 3925
1857.43 295.085 3925
1845.42 291.702 3880
1846.09 290.348 3862
1855.33 290.348 3862
1864.56 290.348 3862
1856.33 287.642 3826
1857.19 286.364 3809
1824.65 279.973 3724
1833.56 279.973 3724
1842.46 279.973 3724
1851.37 279.973 3724
1856.27 279.372 3716
1865.16 279.372 3716
1833.2 273.282 3635
1818.07 269.749 3588
1818.51 268.546 3572
1804.03 265.163 3527
1812.47 265.163 3527
1805.41 262.907 3497
1810.14 262.381 3490
1826.31 263.509 3505
1857.72 266.817 3549
1866.21 266.817 3549
1874.69 266.817 3549
1883.18 266.817 3549
1895.93 267.418 3557
1908.72 268.02 3565
1917.24 268.02 3565
1925.77 268.02 3565
1934.29 268.02 3565
1946.63 268.546 3572
1955.18 268.546 3572
1993.95 272.681 3627
2010.91 273.808 3642
2028.49 275.011 3658
2037.24 275.011 3658
2055.49 276.289 3675
2096.3 280.575 3732
2143.58 285.687 3800
2152.67 285.687 3800
2161.76 285.687 3800
2181.13 287.04 3818
2190.26 287.04 3818
2199.39 287.04 3818
2208.52 287.04 3818
2248.43 291.025 3871
2257.69 291.025 3871
2266.95 291.025 3871
2276.2 291.025 3871
2285.46 291.025 3871
2305.39 292.378 3889
2314.69 292.378 3889
2323.99 292.378 3889
2317.09 290.348 3862
2304.64 287.642 3826
2313.79 287.642 3826
2322.93 287.642 3826
2343.05 288.995 3844
2352.25 288.995 3844
2378.03 291.025 3871
2387.28 291.025 3871
2396.54 291.025 3871
2405.8 291.025 3871
2426.28 292.378 3889
2435.58 292.378 3889
2473.8 295.836 3935
2483.21 295.836 3935
2492.62 295.836 3935
2467.06 291.702 3880
2470.59 291.025 3871
2474.08 290.348 3862
2483.32 290.348 3862
2475.13 288.318 3835
2484.3 288.318 3835
2505.17 289.672 3853
2520.26 290.348 3862
2529.5 290.348 3862
2538.73 290.348 3862
2536.09 288.995 3844
2539.32 288.318 3835
2548.49 288.318 3835
2557.66 288.318 3835
2560.81 287.642 3826
2523.61 282.454 3757
2544.06 283.732 3774
2565.26 285.086 3792
2574.33 285.086 3792
2583.39 285.086 3792
2592.46 285.086 3792
2601.53 285.086 3792
2610.6 285.086 3792
1901.29 200.658 2669
1907.68 200.658 2669
1914.06 200.658 2669
1917.56 200.357 2665
1923.94 200.357 2665
1930.31 200.357 2665
1939.59 200.658 2669
1974.4 203.59 2708
2000.63 205.619 2735
2007.17 205.619 2735
2026.96 206.973 2753
2053.49 209.003 2780
2067.55 209.754 2790
2074.22 209.754 2790
2087.61 210.431 2799
2098.04 210.807 2804
2108.5 211.183 2809
2115.22 211.183 2809
2124.95 211.484 2813
2131.68 211.484 2813
2142.21 211.859 2818
2148.95 211.859 2818
2155.69 211.859 2818
-2334.52 241.883 3118
-2327.07 241.883 3118
-2311.43 241.03 3107
-2299.55 240.564 3101
-2283.26 239.633 3089
-2289.14 241.03 3107
-2281.71 241.03 3107
-2282.33 241.883 3118
-2279.25 242.348 3124
-2271.78 242.348 3124
-2264.31 242.348 3124
-2269.84 243.745 3142
-2266.65 244.21 3148
-2267.73 245.141 3160
-2260.18 245.141 3160
-2252.62 245.141 3160
-2249.33 245.607 3166
-2250.25 246.538 3178
-2242.65 246.538 3178
-2239.27 247.003 3184
-2235.87 247.468 3190
-2254.08 250.339 3227
-2246.37 250.339 3227
-2238.65 250.339 3227
-2252.36 252.744 3258
-2275.58 256.235 3303
-2267.68 256.235 3303
-2259.78 256.235 3303
-2270.29 258.329 3330
-2280.67 260.424 3357
-2272.64 260.424 3357
-2315.88 266.319 3433
-2331.2 269.035 3468
-2337.64 270.741 3490
-2329.3 270.741 3490
-2325.61 271.284 3497
-2317.24 271.284 3497
-2308.88 271.284 3497
-2300.52 271.284 3497
-2273.15 269.035 3468
-2264.86 269.035 3468
-2294.95 273.612 3527
-2286.52 273.612 3527
-2278.08 273.612 3527
-2279.3 274.775 3542
-2270.83 274.775 3542
-2262.36 274.775 3542
-2253.89 274.775 3542
-2245.42 274.775 3542
-2251.48 276.56 3565
-2242.95 276.56 3565
-2234.43 276.56 3565
-2220.91 275.939 3557
-2212.4 275.939 3557
-2198.94 275.318 3549
-2172.55 273.069 3520
-2137.08 269.655 3476
-2128.77 269.655 3476
-2077.15 264.147 3405
-2086.02 266.319 3433
-2108.07 270.198 3483
-2130.49 274.155 3534
-2122.04 274.155 3534
-2113.59 274.155 3534
-2105.14 274.155 3534
-2096.69 274.155 3534
-2075.24 272.448 3512
-2058.01 271.284 3497
-2049.65 271.284 3497
-2041.29 271.284 3497
-2032.92 271.284 3497
-2033.24 272.448 3512
-2029.46 273.069 3520
-2021.04 273.069 3520
-2012.62 273.069 3520
-2004.21 273.069 3520
-1999.76 273.612 3527
-1991.32 273.612 3527
-1982.89 273.612 3527
-1974.46 273.612 3527
-1966.02 273.612 3527
-1957.59 273.612 3527
-1949.15 273.612 3527
-1940.72 273.612 3527
-1924.07 272.448 3512
-1915.67 272.448 3512
-1899.12 271.284 3497
-1903.2 273.069 3520
-1906.62 274.775 3542
-1906.19 275.939 3557
-1897.69 275.939 3557
-1901.4 277.723 3580
-1892.83 277.723 3580
-1884.27 277.723 3580
-1875.71 277.723 3580
-1867.15 277.723 3580
-1842.5 275.318 3549
-1834.01 275.318 3549
-1821.92 274.775 3542
-1805.77 273.612 3527
-1808.55 275.318 3549
-1808.18 276.56 3565
-1799.65 276.56 3565
-1791.13 276.56 3565
-1782.6 276.56 3565
-1774.08 276.56 3565
-1765.55 276.56 3565
-1757.03 276.56 3565
-1748.5 276.56 3565
-1732.17 275.318 3549
-1723.68 275.318 3549
-1707.95 274.155 3534
-1692.76 273.069 3520
-1680.52 272.448 3512
-1679.26 273.612 3527
-1670.83 273.612 3527
-1662.39 273.612 3527
-1653.96 273.612 3527
-1645.52 273.612 3527
-1637.09 273.612 3527
-1631.89 274.155 3534
-1623.44 274.155 3534
-1614.99 274.155 3534
-1603.35 273.612 3527
-1591.75 273.069 3520
-1579.74 272.448 3512
-1571.34 272.448 3512
-1562.94 272.448 3512
-1554.54 272.448 3512
-1546.15 272.448 3512
-1537.75 272.448 3512
-1526.3 271.905 3505
-1520.95 272.448 3512
-1516 273.069 3520
-1510.58 273.612 3527
-1502.14 273.612 3527
-1493.71 273.612 3527
-1482.33 273.069 3520
-1473.91 273.069 3520
-1462.16 272.448 3512
-1466.18 274.775 3542
-1457.71 274.775 3542
-1452.11 275.318 3549
-1443.62 275.318 3549
-1441.6 276.56 3565
-1439.11 277.723 3580
-1430.55 277.723 3580
-1421.99 277.723 3580
-1407.5 276.56 3565
-1398.98 276.56 3565
-1390.45 276.56 3565
-1364.48 273.069 3520
-1364.54 274.775 3542
-1356.07 274.775 3542
-1347.6 274.775 3542
-603.359 127.846 1648
-599.418 127.846 1648
-595.477 127.846 1648
-590.46 127.613 1645
-583.317 126.915 1636
-579.405 126.915 1636
-573.03 126.372 1629
-568.786 126.294 1628
-564.199 126.139 1626
-560.31 126.139 1626
-555.395 125.906 1623
-550.835 125.751 1621
-546.958 125.751 1621
-543.082 125.751 1621
-539.206 125.751 1621
-534.009 125.441 1617
-529.486 125.286 1615
-523.997 124.898 1610
-520.147 124.898 1610
-515.976 124.82 1609
-511.174 124.588 1606
-506.701 124.432 1604
-502.866 124.432 1604
-499.03 124.432 1604
-495.195 124.432 1604
-491.972 124.588 1606
-488.435 124.665 1607
-484.592 124.665 1607
-481.348 124.82 1609
-477.797 124.898 1610
-473.947 124.898 1610
-470.097 124.898 1610
-466.826 125.053 1612
-463.833 125.286 1615
-460.541 125.441 1617
-456.674 125.441 1617
-453.087 125.518 1618
-450.606 125.906 1623
-447 125.984 1624
-443.117 125.984 1624
-440.315 126.294 1628
-437.495 126.605 1632
-434.123 126.76 1634
-430.216 126.76 1634
-426.83 126.915 1636
-423.694 127.148 1639
-420.03 127.225 1640
-416.109 127.225 1640
-412.187 127.225 1640
-408.763 127.38 1642
-404.837 127.38 1642
-400.91 127.38 1642
-397.467 127.535 1644
-394.254 127.768 1647
-390.315 127.768 1647
-386.377 127.768 1647
-383.135 128.001 1650
-379.649 128.156 1652
-375.926 128.234 1653
-371.973 128.234 1653
-368.02 128.234 1653
-364.508 128.389 1655
-360.986 128.544 1657
-357.67 128.777 1660
-353.701 128.777 1660
-350.152 128.932 1662
-347.219 129.32 1667
-343.851 129.552 1670
-339.857 129.552 1670
-335.864 129.552 1670
-332.467 129.785 1673
-328.859 129.94 1675
-324.853 129.94 1675
-321.231 130.095 1677
-317.41 130.173 1678
-314.705 130.716 1685
-310.675 130.716 1685
-306.646 130.716 1685
-303.515 131.104 1690
-300.182 131.414 1694
-296.131 131.414 1694
-292.598 131.647 1697
-289.39 132.035 1702
-285.655 132.19 1704
-281.58 132.19 1704
-277.831 132.345 1706
-274.554 132.733 1711
-270.778 132.888 1713
-266.682 132.888 1713
-263.352 133.276 1718
-259.848 133.586 1722
-256.175 133.819 1725
-252.05 133.819 1725
-248.5 134.129 1729
-244.648 134.285 1731
-240.926 134.517 1734
-236.779 134.517 1734
-232.901 134.672 1736
-229.277 134.983 1740
-225.245 135.06 1741
-221.082 135.06 1741
-217.168 135.216 1743
-213.244 135.371 1745
-209.551 135.681 1749
-205.368 135.681 1749
-201.416 135.836 1751
-197.342 135.914 1752
-193.373 136.069 1754
-189.178 136.069 1754
-184.984 136.069 1754
-181.202 136.379 1758
-176.998 136.379 1758
-172.794 136.379 1758
-168.59 136.379 1758
-164.76 136.689 1762
-161.002 137.077 1767
-156.777 137.077 1767
-153.415 137.853 1777
-149.165 137.853 1777
-145.079 138.008 1779
-140.825 138.008 1779
-136.648 138.086 1780
-132.54 138.241 1782
-128.279 138.241 1782
-124.017 138.241 1782
-218.626 282.533 3642
-213.203 286.955 3699
-204.799 287.575 3707
-195.935 287.575 3707
-187.07 287.575 3707
-178.206 287.575 3707
-169.341 287.575 3707
-160.476 287.575 3707
-151.285 286.955 3699
-142.439 286.955 3699
-133.594 286.955 3699
-124.479 286.334 3691
-115.652 286.334 3691
-107.55 288.274 3716
-98.6635 288.274 3716
-89.7774 288.274 3716
-80.8913 288.274 3716
-71.8309 287.575 3707
-62.9663 287.575 3707
-54.1017 287.575 3707
-45.2372 287.575 3707
-36.3726 287.575 3707
-27.8197 290.834 3749
-18.8547 290.834 3749
-9.91083 291.454 3757
-0.930901 292.773 3774
8.09388 292.773 3774
17.3182 296.186 3818
26.4482 296.186 3818
35.6528 296.807 3826
44.8019 296.807 3826
53.951 296.807 3826
63.1002 296.807 3826
70.9463 291.454 3757
79.9304 291.454 3757
88.9146 291.454 3757
97.4557 290.135 3740
106.399 290.135 3740
116.669 293.471 3783
125.715 293.471 3783
134.761 293.471 3783
339.745 290.834 3749
348.71 290.834 3749
357.675 290.834 3749
366.64 290.834 3749
373.1 288.894 3724
382.006 288.894 3724
385.767 285.093 3675
391.871 283.154 3650
394.563 278.887 3595
403.16 278.887 3595
408.32 276.56 3565
413.221 274.155 3534
415.586 270.198 3483
419.534 267.406 3447
427.776 267.406 3447
428.936 263.061 3391
433.436 260.889 3363
438.065 258.872 3337
446.044 258.872 3337
454.024 258.872 3337
460.066 257.786 3323
468.012 257.786 3323
475.958 257.786 3323
483.031 257.321 3317
486.078 254.761 3284
495.887 255.769 3297
505.757 256.778 3310
520.966 260.424 3357
548.849 270.198 3483
576.374 279.507 3603
592.621 283.154 3650
601.349 283.154 3650
621.109 288.274 3716
629.995 288.274 3716
670.172 302.392 3898
679.493 302.392 3898
690.405 303.091 3907
699.748 303.091 3907
709.091 303.091 3907
716.779 302.392 3898
712.688 296.807 3826
718.63 295.488 3809
727.738 295.488 3809
735.106 294.79 3800
742.626 294.169 3792
748.126 292.773 3774
755.545 292.152 3766
764.551 292.152 3766
766.573 289.515 3732
772.173 288.274 3716
779.167 287.575 3707
788.031 287.575 3707
795.176 286.955 3699
802.283 286.334 3691
812.867 286.955 3699
821.713 286.955 3699
830.558 286.955 3699
839.403 286.955 3699
846.414 286.334 3691
857.094 286.955 3699
865.94 286.955 3699
880.698 288.894 3724
891.514 289.515 3732
900.438 289.515 3732
911.312 290.135 3740
920.255 290.135 3740
929.199 290.135 3740
938.142 290.135 3740
957.975 293.471 3783
967.021 293.471 3783
980.453 294.79 3800
989.54 294.79 3800
998.627 294.79 3800
1007.71 294.79 3800
1016.8 294.79 3800
1028.32 295.488 3809
1037.43 295.488 3809
1046.53 295.488 3809
1055.64 295.488 3809
1064.75 295.488 3809
1073.86 295.488 3809
1082.97 295.488 3809
1092.08 295.488 3809
1101.19 295.488 3809
1110.29 295.488 3809
1119.4 295.488 3809
1125.84 294.79 3800
1137.62 295.488 3809
1146.73 295.488 3809
1155.84 295.488 3809
1164.95 295.488 3809
1171.28 294.79 3800
1177.88 294.169 3792
1186.95 294.169 3792
1193.18 293.471 3783
1202.22 293.471 3783
1214.15 294.169 3792
1223.22 294.169 3792
1232.29 294.169 3792
1238.41 293.471 3783
1247.46 293.471 3783
1256.5 293.471 3783
1265.55 293.471 3783
1277.63 294.169 3792
1286.7 294.169 3792
1295.76 294.169 3792
1298.64 292.773 3774
1307.66 292.773 3774
1319.83 293.471 3783
1328.87 293.471 3783
1337.92 293.471 3783
1346.97 293.471 3783
1356.01 293.471 3783
1368.31 294.169 3792
1380.28 294.79 3800
1389.37 294.79 3800
1408.02 296.807 3826
1423.84 298.203 3844
1433.03 298.203 3844
1442.22 298.203 3844
1454.81 298.902 3853
1464.03 298.902 3853
1483.56 300.996 3880
1492.84 300.996 3880
1502.12 300.996 3880
1514.9 301.694 3889
1531.26 303.091 3907
1540.6 303.091 3907
1557.09 304.487 3925
1566.47 304.487 3925
1575.86 304.487 3925
1577.97 303.091 3907
1587.32 303.091 3907
1600.34 303.789 3916
1609.7 303.789 3916
1619.07 303.789 3916
1651.72 308.133 3972
1661.22 308.133 3972
1670.71 308.133 3972
1672.17 306.659 3953
1681.63 306.659 3953
1687.23 305.961 3944
1692.79 305.263 3935
1702.2 305.263 3935
1711.61 305.263 3935
1721.02 305.263 3935
1730.43 305.263 3935
1739.84 305.263 3935
1750.17 303.789 3916
1759.53 303.789 3916
1772.96 304.487 3925
1782.35 304.487 3925
1817.75 308.909 3982
1827.27 308.909 3982
1836.8 308.909 3982
1846.32 308.909 3982
1855.84 308.909 3982
1865.36 308.909 3982
1874.89 308.909 3982
1879.67 308.133 3972
1880.14 306.659 3953
1863.3 302.392 3898
1872.62 302.392 3898
1881.94 302.392 3898
1891.26 302.392 3898
1861.58 296.186 3818
1836.9 290.834 3749
1845.86 290.834 3749
1854.83 290.834 3749
1863.79 290.834 3749
1860.27 288.894 3724
1869.18 288.894 3724
1833.2 281.99 3635
1818.07 278.344 3588
1818.51 277.103 3572
1804.03 273.612 3527
1812.47 273.612 3527
1805.41 271.284 3497
1810.14 270.741 3490
1822.14 271.284 3497
1857.72 275.318 3549
1866.21 275.318 3549
1874.69 275.318 3549
1883.18 275.318 3549
1900.19 276.56 3565
1912.47 277.103 3572
1921.01 277.103 3572
1929.55 277.103 3572
1938.09 277.103 3572
1946.63 277.103 3572
1955.18 277.103 3572
2002.2 282.533 3642
2015.33 283.154 3650
2037.92 285.093 3675
2046.71 285.093 3675
2064.44 286.334 3691
2073.27 286.334 3691
2082.1 286.334 3691
2225.82 300.996 3880
2235.1 300.996 3880
2244.38 300.996 3880
2253.66 300.996 3880
2300.26 305.961 3944
2309.7 305.961 3944
2319.13 305.961 3944
2333.87 306.659 3953
2343.32 306.659 3953
2352.78 306.659 3953
2362.23 306.659 3953
2349.48 303.789 3916
2358.85 303.789 3916
2351.88 301.694 3889
2361.18 301.694 3889
2370.48 301.694 3889
2385.29 302.392 3898
2400.14 303.091 3907
2409.48 303.091 3907
2418.83 303.091 3907
2428.17 303.091 3907
2454.98 305.263 3935
2464.39 305.263 3935
2491.4 307.435 3963
2500.88 307.435 3963
2510.36 307.435 3963
2507.75 305.961 3944
2493.57 303.091 3907
2485.62 300.996 3880
2494.89 300.996 3880
2498.36 300.298 3871
2507.62 300.298 3871
2528.58 301.694 3889
2555.5 303.789 3916
2564.86 303.789 3916
2574.23 303.789 3916
2565.78 301.694 3889
2575.08 301.694 3889
2584.38 301.694 3889
2587.68 300.996 3880
2566.84 297.505 3835
2523.61 291.454 3757
2544.06 292.773 3774
2570.67 294.79 3800
2579.76 294.79 3800
2588.84 294.79 3800
2597.93 294.79 3800
2607.02 294.79 3800
2610.6 294.169 3792
1908.32 206.431 2661
1914.68 206.431 2661
1921.05 206.431 2661
1917.99 205.422 2648
1965.02 209.766 2704
1978.05 210.465 2713
2007.21 212.869 2744
2013.78 212.869 2744
2033.59 214.266 2762
2057.18 216.05 2785
2074.22 217.136 2799
2080.91 217.136 2799
2091.34 217.524 2804
2104.77 218.222 2813
2111.5 218.222 2813
2118.23 218.222 2813
2124.95 218.222 2813
2135.47 218.61 2818
2146.01 218.998 2823
2152.76 218.998 2823
2159.51 218.998 2823
-2334.52 249.352 3118
-2327.07 249.352 3118
-2311.43 248.472 3107
-2299.55 247.993 3101
-2287.7 247.513 3095
-2292.82 248.872 3112
-2285.38 248.872 3112
-2282.33 249.352 3118
-2279.25 249.832 3124
-2276.14 250.312 3130
-2268.66 250.312 3130
-2269.84 251.271 3142
-2275.29 252.711 3160
-2267.73 252.711 3160
-2260.18 252.711 3160
-2261.18 253.671 3172
-2262.12 254.63 3184
-2254.5 254.63 3184
-2246.89 254.63 3184
-2247.71 255.59 3196
-2261.8 258.069 3227
-2271.55 260.068 3252
-2263.77 260.068 3252
-2269.17 261.588 3271
-2283.47 264.147 3303
-2294.18 266.306 3330
-2286.21 266.306 3330
-2315.2 270.625 3384
-2316.65 271.744 3398
-2332.3 274.543 3433
-2324.09 274.543 3433
-2354.33 279.102 3490
-2375.56 282.62 3534
-2367.11 282.62 3534
-2374.01 284.46 3557
-2365.51 284.46 3557
-2357 284.46 3557
-2343.21 283.82 3549
-2330.12 283.26 3542
-2311.82 282.061 3527
-2307.96 282.62 3534
-2314.47 284.46 3557
-2305.97 284.46 3557
-2312.32 286.299 3580
-2303.76 286.299 3580
-2295.19 286.299 3580
-2286.63 286.299 3580
-2278.07 286.299 3580
-2269.51 286.299 3580
-2260.95 286.299 3580
-2247.36 285.659 3572
-2234.43 285.1 3565
-2220.91 284.46 3557
-2212.4 284.46 3557
-2198.94 283.82 3549
-2172.55 281.501 3520
-2137.08 277.982 3476
-2128.77 277.982 3476
-2077.15 272.304 3405
-2086.02 274.543 3433
-2108.07 278.542 3483
-2130.49 282.62 3534
-2122.04 282.62 3534
-2113.59 282.62 3534
-2105.14 282.62 3534
-2096.69 282.62 3534
-2075.24 280.861 3512
-2058.01 279.661 3497
-2049.65 279.661 3497
-2041.29 279.661 3497
-2032.92 279.661 3497
-2033.24 280.861 3512
-2029.46 281.501 3520
-2021.04 281.501 3520
-2012.62 281.501 3520
-2004.21 281.501 3520
-1999.76 282.061 3527
-1991.32 282.061 3527
-1982.89 282.061 3527
-1974.46 282.061 3527
-1966.02 282.061 3527
-1957.59 282.061 3527
-1949.15 282.061 3527
-1940.72 282.061 3527
-1924.07 280.861 3512
-1915.67 280.861 3512
-1899.12 279.661 3497
-1903.2 281.501 3520
-1906.62 283.26 3542
-1906.19 284.46 3557
-1897.69 284.46 3557
-1901.4 286.299 3580
-1892.83 286.299 3580
-1884.27 286.299 3580
-1875.71 286.299 3580
-1867.15 286.299 3580
-1842.5 283.82 3549
-1834.01 283.82 3549
-1821.92 283.26 3542
-1805.77 282.061 3527
-1808.55 283.82 3549
-1808.18 285.1 3565
-1799.65 285.1 3565
-1791.13 285.1 3565
-1782.6 285.1 3565
-1774.08 285.1 3565
-1765.55 285.1 3565
-1757.03 285.1 3565
-1748.5 285.1 3565
-1732.17 283.82 3549
-1723.68 283.82 3549
-1707.95 282.62 3534
-1692.76 281.501 3520
-1680.52 280.861 3512
-1679.26 282.061 3527
-1670.83 282.061 3527
-1662.39 282.061 3527
-1653.96 282.061 3527
-1645.52 282.061 3527
-1637.09 282.061 3527
-1631.89 282.62 3534
-1623.44 282.62 3534
-1614.99 282.62 3534
-1603.35 282.061 3527
-1591.75 281.501 3520
-1579.74 280.861 3512
-1571.34 280.861 3512
-1562.94 280.861 3512
-1554.54 280.861 3512
-1546.15 280.861 3512
-1537.75 280.861 3512
-1526.3 280.301 3505
-1520.95 280.861 3512
-1516 281.501 3520
-1510.58 282.061 3527
-1502.14 282.061 3527
-1493.71 282.061 3527
-1482.33 281.501 3520
-1473.91 281.501 3520
-1462.16 280.861 3512
-1466.18 283.26 3542
-1457.71 283.26 3542
-1452.11 283.82 3549
-1443.62 283.82 3549
-1441.6 285.1 3565
-1439.11 286.299 3580
-1430.55 286.299 3580
-1421.99 286.299 3580
-1407.5 285.1 3565
-1398.98 285.1 3565
-1390.45 285.1 3565
-1364.48 281.501 3520
-603.359 131.794 1648
-599.418 131.794 1648
-595.477 131.794 1648
-590.46 131.554 1645
-583.317 130.834 1636
-579.405 130.834 1636
-573.03 130.274 1629
-568.786 130.194 1628
-564.199 130.034 1626
-560.31 130.034 1626
-555.395 129.794 1623
-550.835 129.634 1621
-546.958 129.634 1621
-543.082 129.634 1621
-539.206 129.634 1621
-534.009 129.314 1617
-529.486 129.154 1615
-523.997 128.755 1610
-520.147 128.755 1610
-515.976 128.675 1609
-511.174 128.435 1606
-506.701 128.275 1604
-502.866 128.275 1604
-499.03 128.275 1604
-495.195 128.275 1604
-491.972 128.435 1606
-488.131 128.435 1606
-484.291 128.435 1606
-480.749 128.515 1607
-477.5 128.675 1609
-473.947 128.755 1610
-470.097 128.755 1610
-466.826 128.915 1612
-463.833 129.154 1615
-459.971 129.154 1615
-456.109 129.154 1615
-453.087 129.394 1618
-450.051 129.634 1621
-447 129.874 1624
-443.117 129.874 1624
-440.315 130.194 1628
-437.495 130.514 1632
-434.123 130.674 1634
-430.216 130.674 1634
-426.83 130.834 1636
-423.694 131.074 1639
-420.03 131.154 1640
-416.109 131.154 1640
-412.187 131.154 1640
-408.763 131.314 1642
-404.837 131.314 1642
-400.91 131.314 1642
-397.467 131.474 1644
-394.254 131.714 1647
-390.315 131.714 1647
-386.377 131.714 1647
-383.135 131.954 1650
-379.649 132.113 1652
-375.926 132.193 1653
-371.973 132.193 1653
-368.02 132.193 1653
-364.508 132.353 1655
-360.986 132.513 1657
-357.67 132.753 1660
-353.701 132.753 1660
-350.152 132.913 1662
-346.803 133.153 1665
-343.439 133.393 1668
-339.45 133.393 1668
-335.864 133.553 1670
-332.268 133.713 1672
-328.859 133.953 1675
-324.853 133.953 1675
-320.848 133.953 1675
-317.41 134.193 1678
-314.331 134.593 1683
-310.306 134.593 1683
-306.646 134.753 1685
-303.515 135.152 1690
-300.182 135.472 1694
-296.131 135.472 1694
-292.598 135.712 1697
-289.39 136.112 1702
-285.655 136.272 1704
-281.58 136.272 1704
-277.831 136.432 1706
-274.554 136.832 1711
-270.778 136.992 1713
-266.682 136.992 1713
-263.352 137.392 1718
-259.848 137.711 1722
-256.175 137.951 1725
-252.05 137.951 1725
-248.5 138.271 1729
-244.648 138.431 1731
-240.926 138.671 1734
-236.779 138.671 1734
-232.901 138.831 1736
-229.277 139.151 1740
-225.245 139.231 1741
-221.082 139.231 1741
-217.168 139.391 1743
-213.244 139.551 1745
-209.551 139.871 1749
-205.368 139.871 1749
-201.416 140.031 1751
-197.342 140.111 1752
-193.373 140.271 1754
-189.178 140.271 1754
-184.984 140.271 1754
-181.202 140.59 1758
-176.998 140.59 1758
-172.794 140.59 1758
-168.59 140.59 1758
-164.76 140.91 1762
-160.82 141.15 1765
-156.599 141.15 1765
-153.415 142.11 1777
-149.165 142.11 1777
-145.079 142.27 1779
-140.825 142.27 1779
-136.648 142.35 1780
-132.54 142.51 1782
-128.279 142.51 1782
-124.017 142.51 1782
-218.626 291.257 3642
-213.203 295.816 3699
-204.799 296.456 3707
-195.935 296.456 3707
-187.07 296.456 3707
-178.206 296.456 3707
-169.341 296.456 3707
-160.476 296.456 3707
-151.285 295.816 3699
-142.439 295.816 3699
-133.594 295.816 3699
-124.479 295.176 3691
-115.652 295.176 3691
-107.55 297.175 3716
-98.6635 297.175 3716
-89.7774 297.175 3716
-80.8913 297.175 3716
-71.8309 296.456 3707
-62.9663 296.456 3707
-54.1017 296.456 3707
-45.2372 296.456 3707
-36.3726 296.456 3707
-27.8197 299.814 3749
-18.8547 299.814 3749
-9.91083 300.454 3757
-0.930901 301.814 3774
8.09388 301.814 3774
17.3182 305.332 3818
26.4482 305.332 3818
35.6528 305.972 3826
44.8019 305.972 3826
53.951 305.972 3826
63.1002 305.972 3826
70.9463 300.454 3757
79.9304 300.454 3757
88.9146 300.454 3757
339.745 299.814 3749
348.71 299.814 3749
357.675 299.814 3749
366.64 299.814 3749
373.1 297.815 3724
382.006 297.815 3724
385.767 293.896 3675
391.871 291.897 3650
394.563 287.499 3595
403.16 287.499 3595
408.32 285.1 3565
413.221 282.62 3534
415.586 278.542 3483
419.534 275.663 3447
427.776 275.663 3447
428.936 271.184 3391
432.663 268.465 3357
436.227 265.746 3323
444.173 265.746 3323
452.119 265.746 3323
459.235 265.267 3317
467.167 265.267 3317
475.099 265.267 3317
480.118 263.667 3297
486.078 262.627 3284
495.887 263.667 3297
505.757 264.707 3310
513.672 264.707 3310
548.849 278.542 3483
576.374 288.138 3603
592.621 291.897 3650
601.349 291.897 3650
621.109 297.175 3716
629.995 297.175 3716
670.172 311.73 3898
679.493 311.73 3898
690.405 312.45 3907
699.748 312.45 3907
709.091 312.45 3907
716.779 311.73 3898
712.688 305.972 3826
718.63 304.613 3809
727.738 304.613 3809
735.106 303.893 3800
742.626 303.253 3792
748.126 301.814 3774
755.545 301.174 3766
764.551 301.174 3766
766.573 298.455 3732
772.173 297.175 3716
779.167 296.456 3707
788.031 296.456 3707
795.176 295.816 3699
802.283 295.176 3691
812.867 295.816 3699
821.713 295.816 3699
830.558 295.816 3699
839.403 295.816 3699
846.414 295.176 3691
857.094 295.816 3699
865.94 295.816 3699
880.698 297.815 3724
907.758 303.893 3800
919.016 304.613 3809
928.125 304.613 3809
939.448 305.332 3818
950.565 305.972 3826
959.714 305.972 3826
968.864 305.972 3826
994.117 311.01 3889
1003.42 311.01 3889
1012.72 311.01 3889
1022.02 311.01 3889
1028.93 310.291 3880
1038.21 310.291 3880
1049.92 311.01 3889
1059.22 311.01 3889
1068.52 311.01 3889
1072.83 309.571 3871
1082.08 309.571 3871
1091.34 309.571 3871
1092.92 307.412 3844
1102.11 307.412 3844
1113.91 308.131 3853
1123.12 308.131 3853
1132.33 308.131 3853
1133.55 305.972 3826
1145.39 306.692 3835
1154.56 306.692 3835
1163.73 306.692 3835
1172.9 306.692 3835
1179.29 305.972 3826
1188.44 305.972 3826
1192.27 304.613 3809
1198.54 303.893 3800
1207.63 303.893 3800
1219.6 304.613 3809
1228.7 304.613 3809
1237.81 304.613 3809
1243.98 303.893 3800
1253.06 303.893 3800
1265.14 304.613 3809
1274.25 304.613 3809
1283.36 304.613 3809
1292.46 304.613 3809
1301.57 304.613 3809
1310.68 304.613 3809
1313.9 303.253 3792
1322.97 303.253 3792
1332.03 303.253 3792
1341.1 303.253 3792
1350.17 303.253 3792
1359.24 303.253 3792
1371.19 303.893 3800
1380.28 303.893 3800
1389.37 303.893 3800
1414.65 307.412 3844
1430.51 308.851 3862
1439.74 308.851 3862
1448.98 308.851 3862
1458.21 308.851 3862
1474.29 310.291 3880
1487.01 311.01 3889
1496.3 311.01 3889
1509.09 311.73 3898
1521.92 312.45 3907
1545.76 315.409 3944
1555.19 315.409 3944
1583.27 319.168 3991
1592.81 319.168 3991
1602.36 319.168 3991
1611.9 319.168 3991
1621.44 319.168 3991
1627.31 318.448 3982
1640.53 319.168 3991
1650.07 319.168 3991
1679.58 323.006 4039
1689.24 323.006 4039
1698.9 323.006 4039
1708.55 323.006 4039
1714.38 322.286 4030
1719.74 321.487 4020
1729.36 321.487 4020
1738.97 321.487 4020
1748.58 321.487 4020
1753.82 320.687 4010
1746.7 317.648 3972
1756.2 317.648 3972
1753.25 315.409 3944
1783.69 319.168 3991
1793.23 319.168 3991
1820.39 322.286 4030
1830.03 322.286 4030
1857.47 325.405 4069
1867.2 325.405 4069
1876.93 325.405 4069
1886.66 325.405 4069
1887.07 323.806 4049
1892.06 323.006 4039
1901.72 323.006 4039
1911.38 323.006 4039
1893.93 318.448 3982
1898.67 317.648 3972
1908.17 317.648 3972
1917.67 317.648 3972
1922.8 316.928 3963
1865.48 305.972 3826
1874.63 305.972 3826
1883.78 305.972 3826
1892.93 305.972 3826
1902.07 305.972 3826
1898.24 303.893 3800
1907.32 303.893 3800
1836.73 291.257 3642
1825.67 288.138 3603
1826.65 286.939 3588
1807.61 282.62 3534
1816.06 282.62 3534
1805.41 279.661 3497
1810.14 279.102 3490
1834.12 281.501 3520
1857.72 283.82 3549
1866.21 283.82 3549
1874.69 283.82 3549
1883.18 283.82 3549
1900.19 285.1 3565
1912.47 285.659 3572
1921.01 285.659 3572
1929.55 285.659 3572
1938.09 285.659 3572
1946.63 285.659 3572
1955.18 285.659 3572
2002.2 291.257 3642
2015.33 291.897 3650
2037.92 293.896 3675
2046.71 293.896 3675
2064.44 295.176 3691
2073.27 295.176 3691
2082.1 295.176 3691
2225.82 310.291 3880
2235.1 310.291 3880
2244.38 310.291 3880
2296.06 316.129 3953
2316.59 317.648 3972
2326.09 317.648 3972
2335.59 317.648 3972
2345.09 317.648 3972
2388.97 322.286 4030
2398.61 322.286 4030
2408.24 322.286 4030
2377.68 316.928 3963
2387.16 316.928 3963
2379.7 314.689 3935
2389.11 314.689 3935
2398.52 314.689 3935
2413.44 315.409 3944
2422.87 315.409 3944
2432.3 315.409 3944
2441.73 315.409 3944
2451.17 315.409 3944
2472.45 316.928 3963
2481.93 316.928 3963
2497.06 317.648 3972
2506.56 317.648 3972
2516.06 317.648 3972
2525.56 317.648 3972
2499.31 313.17 3916
2508.68 313.17 3916
2518.04 313.17 3916
2515.79 311.73 3898
2513.45 310.291 3880
2551.99 313.889 3925
2567.9 314.689 3935
2577.31 314.689 3935
2586.72 314.689 3935
2583.59 313.17 3916
2587 312.45 3907
2596.34 312.45 3907
2593.68 311.01 3889
2602.98 311.01 3889
2523.61 300.454 3757
2544.06 301.814 3774
2570.67 303.893 3800
2579.76 303.893 3800
2588.84 303.893 3800
2597.93 303.893 3800
2607.02 303.893 3800
2610.6 303.253 3792
1908.32 212.805 2661
1914.68 212.805 2661
1929.71 213.765 2673
1936.1 213.765 2673
1965.02 216.244 2704
2000.65 219.443 2744
2013.8 220.162 2753
2020.38 220.162 2753
2037.27 221.282 2767
2060.88 223.121 2790
2077.92 224.241 2804
2084.63 224.241 2804
2095.06 224.641 2809
2108.52 225.361 2818
2119.01 225.76 2823
2125.76 225.76 2823
2132.51 225.76 2823
2139.26 225.76 2823
2146.01 225.76 2823
2152.76 225.76 2823
2159.51 225.76 2823
-2334.52 256.821 3118
-2327.07 256.821 3118
-2315.15 256.327 3112
-2299.55 255.421 3101
-2292.13 255.421 3101
-2297.24 256.821 3118
-2289.79 256.821 3118
-2286.72 257.316 3124
-2283.63 257.81 3130
-2280.51 258.304 3136
-2273.01 258.304 3136
-2269.84 258.798 3142
-2275.29 260.281 3160
-2272.04 260.775 3166
-2264.47 260.775 3166
-2261.18 261.269 3172
-2262.12 262.258 3184
-2254.5 262.258 3184
-2246.89 262.258 3184
-2247.71 263.246 3196
-2270.21 266.788 3239
-2284.82 269.424 3271
-2276.99 269.424 3271
-2278.19 270.494 3284
-2302.14 274.283 3330
-2331.38 278.731 3384
-2323.29 278.731 3384
-2319.98 279.308 3391
-2335.74 282.19 3426
-2346.57 284.497 3454
-2338.31 284.497 3454
-2379.29 290.51 3527
-2385.65 292.322 3549
-2377.16 292.322 3549
-2374.01 292.981 3557
-2365.51 292.981 3557
-2357 292.981 3557
-2343.21 292.322 3549
-2334.73 292.322 3549
-2321.65 291.745 3542
-2317.75 292.322 3549
-2329.44 294.875 3580
-2320.88 294.875 3580
-2312.32 294.875 3580
-2303.76 294.875 3580
-2300.32 295.534 3588
-2291.74 295.534 3588
-2283.16 295.534 3588
-2274.58 295.534 3588
-2266 295.534 3588
-2252.39 294.875 3580
-2238.82 294.216 3572
-2230.27 294.216 3572
-2221.73 294.216 3572
-2208.85 293.64 3565
-2195.39 292.981 3557
-2177.66 291.745 3542
-2169.19 291.745 3542
-2077.15 280.461 3405
-2108.07 286.885 3483
-2149.18 293.64 3565
-2140.65 293.64 3565
-2132.13 293.64 3565
-2123.6 293.64 3565
-2115.08 293.64 3565
-2092.96 291.745 3542
-2075.67 290.51 3527
-2067.23 290.51 3527
-2062.88 291.086 3534
-2054.43 291.086 3534
-2054.67 292.322 3549
-2055.4 293.64 3565
-2046.88 293.64 3565
-2038.35 293.64 3565
-2029.83 293.64 3565
-2016.77 292.981 3557
-2008.26 292.981 3557
-1999.76 292.981 3557
-1991.25 292.981 3557
-1978.28 292.322 3549
-1969.8 292.322 3549
-1961.31 292.322 3549
-1952.82 292.322 3549
-1944.34 292.322 3549
-1935.85 292.322 3549
-1927.36 292.322 3549
-1927.53 293.64 3565
-1922.77 294.216 3572
-1935.13 297.428 3611
-1926.49 297.428 3611
-1922.11 298.087 3619
-1913.45 298.087 3619
-1904.8 298.087 3619
-1896.15 298.087 3619
-1887.49 298.087 3619
-1870.53 296.769 3603
-1861.92 296.769 3603
-1849.18 296.111 3595
-1832.91 294.875 3580
-1828.42 295.534 3588
-1823.39 296.111 3595
-1814.8 296.111 3595
-1810.22 296.769 3603
-1801.6 296.769 3603
-1792.99 296.769 3603
-1780.41 296.111 3595
-1768.36 295.534 3588
-1759.78 295.534 3588
-1751.2 295.534 3588
-1738.74 294.875 3580
-1711.81 291.745 3542
-1699.5 291.086 3534
-1687.7 290.51 3527
-1679.26 290.51 3527
-1670.83 290.51 3527
-1669.46 291.745 3542
-1660.99 291.745 3542
-1652.52 291.745 3542
-1640.34 291.086 3534
-1638.82 292.322 3549
-1630.33 292.322 3549
-1621.84 292.322 3549
-1610.17 291.745 3542
-1598.09 291.086 3534
-1583.34 289.933 3520
-1574.92 289.933 3520
-1566.5 289.933 3520
-1558.08 289.933 3520
-1549.67 289.933 3520
-1541.25 289.933 3520
-1532.83 289.933 3520
-1527.45 290.51 3527
-1528.49 292.322 3549
-1520 292.322 3549
-1511.51 292.322 3549
-1503.03 292.322 3549
-1491.59 291.745 3542
-1483.12 291.745 3542
-1474.65 291.745 3542
-1469.08 292.322 3549
-1467.18 293.64 3565
-1458.65 293.64 3565
-1450.13 293.64 3565
-1453.73 296.111 3595
-1448.35 296.769 3603
-1439.74 296.769 3603
-1431.12 296.769 3603
-1422.51 296.769 3603
-1404.86 294.875 3580
-1396.3 294.875 3580
-609.583 137.142 1665
-605.602 137.142 1665
-601.62 137.142 1665
-591.537 135.741 1648
-586.526 135.494 1645
-582.592 135.494 1645
-575.493 134.753 1636
-570.882 134.588 1634
-564.893 134.094 1628
-561 134.094 1628
-556.422 133.929 1626
-551.854 133.765 1624
-547.971 133.765 1624
-543.082 133.517 1621
-539.206 133.517 1621
-535.33 133.517 1621
-529.486 133.023 1615
-524.973 132.859 1613
-521.116 132.859 1613
-516.297 132.611 1610
-511.174 132.282 1606
-507.333 132.282 1606
-503.493 132.282 1606
-499.03 132.117 1604
-495.195 132.117 1604
-491.972 132.282 1606
-488.131 132.282 1606
-484.291 132.282 1606
-480.749 132.364 1607
-477.5 132.529 1609
-473.947 132.611 1610
-470.097 132.611 1610
-466.826 132.776 1612
-463.833 133.023 1615
-459.971 133.023 1615
-456.109 133.023 1615
-453.087 133.27 1618
-450.051 133.517 1621
-447 133.765 1624
-443.117 133.765 1624
-440.315 134.094 1628
-437.495 134.423 1632
-434.123 134.588 1634
-430.216 134.588 1634
-426.83 134.753 1636
-423.694 135 1639
-420.543 135.247 1642
-416.616 135.247 1642
-412.69 135.247 1642
-408.763 135.247 1642
-405.33 135.412 1644
-401.398 135.412 1644
-397.467 135.412 1644
-394.254 135.659 1647
-390.315 135.659 1647
-386.377 135.659 1647
-383.135 135.906 1650
-379.649 136.071 1652
-375.926 136.153 1653
-371.973 136.153 1653
-368.02 136.153 1653
-364.508 136.318 1655
-360.986 136.483 1657
-357.239 136.565 1658
-353.274 136.565 1658
-349.731 136.73 1660
-346.803 137.142 1665
-343.439 137.389 1668
-339.45 137.389 1668
-335.462 137.389 1668
-332.268 137.718 1672
-328.859 137.965 1675
-324.853 137.965 1675
-320.848 137.965 1675
-317.788 138.377 1680
-314.331 138.624 1683
-310.306 138.624 1683
-306.646 138.789 1685
-303.335 139.118 1689
-299.828 139.366 1692
-295.782 139.366 1692
-292.253 139.613 1695
-289.22 140.107 1701
-285.655 140.354 1704
-281.58 140.354 1704
-277.831 140.519 1706
-274.554 140.93 1711
-270.778 141.095 1713
-266.682 141.095 1713
-263.352 141.507 1718
-259.848 141.837 1722
-256.175 142.084 1725
-252.05 142.084 1725
-248.5 142.413 1729
-244.648 142.578 1731
-241.204 142.99 1736
-237.052 142.99 1736
-233.438 143.319 1740
-229.409 143.402 1741
-225.504 143.566 1743
-221.336 143.566 1743
-217.417 143.731 1745
-213.733 144.06 1749
-209.79 144.225 1751
-205.603 144.225 1751
-201.531 144.308 1752
