-2190.68 87.3205 3202
-2183.02 87.3205 3202
-2175.36 87.3205 3202
-2167.71 87.3205 3202
-2160.05 87.3205 3202
-2173.23 88.1659 3233
-2178.23 88.6841 3252
-2170.45 88.6841 3252
-2166.66 88.8477 3258
-2158.87 88.8477 3258
-2151.08 88.8477 3258
-2143.29 88.8477 3258
-2135.5 88.8477 3258
-2136.2 89.2022 3271
-2128.38 89.2022 3271
-2120.56 89.2022 3271
-2121.13 89.5567 3284
-2113.28 89.5567 3284
-2105.42 89.5567 3284
-2097.57 89.5567 3284
-2073.17 88.8477 3258
-2061.58 88.6841 3252
-2053.8 88.6841 3252
-2046.03 88.6841 3252
-2038.25 88.6841 3252
-2022.36 88.3296 3239
-2014.61 88.3296 3239
-2006.87 88.3296 3239
-1995.42 88.1659 3233
-1972.32 87.4842 3208
-1964.64 87.4842 3208
-1949.65 87.1569 3196
-1949.3 87.4842 3208
-1941.63 87.4842 3208
-1933.96 87.4842 3208
-1926.29 87.4842 3208
-1918.62 87.4842 3208
-1903.8 87.1569 3196
-1918.11 88.1659 3233
-1910.37 88.1659 3233
-1902.64 88.1659 3233
-1932.42 89.9113 3297
-1924.54 89.9113 3297
-1916.66 89.9113 3297
-1886.19 88.8477 3258
-1877.69 89.5567 3284
-1869.83 89.5567 3284
-1865.38 89.7204 3290
-1864.85 90.0749 3303
-1856.96 90.0749 3303
-1849.06 90.0749 3303
-1833.91 89.7204 3290
-1819.39 89.3931 3278
-1811.55 89.3931 3278
-1796.55 89.0386 3265
-1792.03 89.2022 3271
-1784.21 89.2022 3271
-1776.39 89.2022 3271
-1768.57 89.2022 3271
-1757.52 89.0386 3265
-1742.74 88.6841 3252
-1734.97 88.6841 3252
-1724 88.5204 3246
-1709.37 88.1659 3233
-1701.64 88.1659 3233
-1693.9 88.1659 3233
-1686.17 88.1659 3233
-1675.33 88.0023 3227
-1667.61 88.0023 3227
-1659.89 88.0023 3227
-1649.11 87.8387 3221
-1641.4 87.8387 3221
-1633.7 87.8387 3221
-1626 87.8387 3221
-1614.78 87.6478 3214
-1607.09 87.6478 3214
-1605.88 88.0023 3227
-1598.16 88.0023 3227
-1590.44 88.0023 3227
-1576.35 87.6478 3214
-1568.67 87.6478 3214
-1567.29 88.0023 3227
-1559.58 88.0023 3227
-1554.75 88.1659 3233
-1547.01 88.1659 3233
-1539.28 88.1659 3233
-1531.55 88.1659 3233
-1526.65 88.3296 3239
-1525 88.6841 3252
-1517.22 88.6841 3252
-1509.45 88.6841 3252
-1507.67 89.0386 3265
-1511.35 89.7204 3290
-1503.48 89.7204 3290
-1495.62 89.7204 3290
-1487.75 89.7204 3290
-1485.73 90.0749 3303
-1486.78 90.6203 3323
-1478.83 90.6203 3323
-1470.89 90.6203 3323
-1462.94 90.6203 3323
-1454.99 90.6203 3323
-1447.05 90.6203 3323
-1439.1 90.6203 3323
-1428.57 90.4567 3317
-1420.64 90.4567 3317
-1409.72 90.2658 3310
-1388.26 89.3931 3278
-1380.42 89.3931 3278
-1372.58 89.3931 3278
-1364.74 89.3931 3278
-1351.52 89.0386 3265
-1343.71 89.0386 3265
-1333.04 88.8477 3258
-1325.25 88.8477 3258
-1317.46 88.8477 3258
-1304.85 88.5204 3246
-1294.29 88.3296 3239
-1286.54 88.3296 3239
-1274.06 88.0023 3227
-1261.24 87.6478 3214
-1248.87 87.3205 3202
-1241.22 87.3205 3202
-1226.62 86.8297 3184
-1219.01 86.8297 3184
-1209.11 86.666 3178
-1201.51 86.666 3178
-1191.66 86.5024 3172
-588.348 43.8239 1607
-584.506 43.8239 1607
-581.747 43.9057 1610
-577.897 43.9057 1610
-574.047 43.9057 1610
-570.197 43.9057 1610
-566.347 43.9057 1610
-562.497 43.9057 1610
-558.647 43.9057 1610
-554.797 43.9057 1610
-550.947 43.9057 1610
-546.757 43.8784 1609
-542.235 43.8239 1607
-538.057 43.7966 1606
-534.216 43.7966 1606
-530.376 43.7966 1606
-526.535 43.7966 1606
-521.719 43.7148 1603
-517.885 43.7148 1603
-512.769 43.6057 1599
-508.946 43.6057 1599
-504.174 43.5239 1596
-500.358 43.5239 1596
-496.23 43.4966 1595
-491.799 43.4421 1593
-487.683 43.4148 1592
-483.876 43.4148 1592
-479.164 43.333 1589
-475.365 43.333 1589
-471.565 43.333 1589
-467.765 43.333 1589
-463.965 43.333 1589
-460.455 43.3603 1590
-457.514 43.4421 1593
-453.705 43.4421 1593
-449.896 43.4421 1593
-446.926 43.5239 1596
-444.498 43.6603 1601
-441.495 43.7421 1604
-437.66 43.7421 1604
-435.176 43.8784 1609
-431.597 43.9057 1610
-429.075 44.0421 1615
-425.213 44.0421 1615
-421.873 44.0966 1617
-418.782 44.1784 1620
-415.676 44.2602 1623
-411.795 44.2602 1623
-408.668 44.342 1626
-405.278 44.3966 1628
-401.631 44.4238 1629
-398.957 44.5602 1634
-395.049 44.5602 1634
-391.621 44.6147 1636
-387.709 44.6147 1636
-383.796 44.6147 1636
-379.884 44.6147 1636
-376.202 44.642 1637
-372.287 44.642 1637
-368.823 44.6966 1639
-364.903 44.6966 1639
-361.204 44.7238 1640
-357.718 44.7784 1642
-354.438 44.8602 1645
-350.504 44.8602 1645
-346.992 44.9147 1647
-344.095 45.0511 1652
-340.762 45.1329 1655
-336.805 45.1329 1655
-333.249 45.1874 1657
-329.486 45.2147 1658
-325.914 45.2692 1660
-321.944 45.2692 1660
-318.358 45.3238 1662
-314.572 45.3511 1663
-312.277 45.5965 1672
-308.278 45.5965 1672
-304.462 45.6238 1673
-300.461 45.6238 1673
-297.701 45.8147 1680
-293.684 45.8147 1680
-290.011 45.8692 1682
-286.499 45.951 1685
-282.805 46.0055 1687
-278.771 46.0055 1687
-275.551 46.1419 1692
-271.986 46.2237 1695
-268.882 46.3873 1701
-264.814 46.3873 1701
-260.9 46.4146 1702
-257.735 46.5782 1708
-254.096 46.66 1711
-250.005 46.66 1711
-246.488 46.7691 1715
-242.811 46.8509 1718
-239.675 47.0418 1725
-235.55 47.0418 1725
-232.364 47.2327 1732
-229.013 47.3963 1738
-225.504 47.5327 1743
-221.336 47.5327 1743
-217.666 47.6418 1747
-213.978 47.7509 1751
-210.39 47.8872 1756
-206.19 47.8872 1756
-202.681 48.0508 1762
-199.256 48.2417 1769
-195.908 48.4599 1777
-191.659 48.4599 1777
-187.62 48.5144 1779
-183.469 48.5417 1780
-179.817 48.7053 1786
-175.546 48.7053 1786
-171.851 48.869 1792
-167.752 48.9235 1794
-164.009 49.0871 1800
-159.705 49.0871 1800
-155.746 49.1962 1804
-151.516 49.2235 1805
-147.526 49.3326 1809
-143.2 49.3326 1809
-139.027 49.3871 1811
-134.697 49.3871 1811
-130.366 49.3871 1811
-126.036 49.3871 1811
-203.803 89.0386 3265
-195.995 89.0386 3265
-188.188 89.0386 3265
-179.994 88.8477 3258
-172.203 88.8477 3258
-164.412 88.8477 3258
-156.957 89.0386 3265
-149.424 89.2022 3271
-142.728 89.9113 3297
-134.843 89.9113 3297
-127.19 90.0749 3303
-119.292 90.0749 3303
-111.393 90.0749 3303
-103.495 90.0749 3303
-95.5964 90.0749 3303
-88.4148 90.8112 3330
-80.7659 91.1657 3343
-72.7717 91.1657 3343
-64.9132 91.3566 3350
-57.0213 91.5475 3357
-49.1834 91.902 3370
-41.1247 91.902 3370
-33.066 91.902 3370
-25.319 93.0474 3412
-17.2655 93.6201 3433
-9.05613 93.6201 3433
-0.846789 93.6201 3433
7.39258 94.0018 3447
15.7669 94.7927 3476
24.0791 94.7927 3476
32.3913 94.7927 3476
40.8674 95.1745 3490
49.213 95.1745 3490
57.5587 95.1745 3490
65.64 94.7927 3476
73.9521 94.7927 3476
82.2643 94.7927 3476
90.368 94.5745 3468
98.4619 94.3836 3461
106.306 94.0018 3447
114.549 94.0018 3447
122.293 93.6201 3433
130.237 93.4292 3426
138.995 93.811 3440
147.221 93.811 3440
155.447 93.811 3440
163.673 93.811 3440
172.249 94.0018 3447
181.225 94.3836 3461
189.501 94.3836 3461
197.778 94.3836 3461
207.364 94.9836 3483
215.693 94.9836 3483
224.021 94.9836 3483
232.35 94.9836 3483
240.196 94.7927 3476
250.009 95.3654 3497
260.071 95.9926 3520
268.488 95.9926 3520
277.456 96.1835 3527
285.89 96.1835 3527
294.324 96.1835 3527
302.759 96.1835 3527
311.81 96.3744 3534
321.621 96.7834 3549
330.107 96.7834 3549
338.594 96.7834 3549
347.081 96.7834 3549
355.567 96.7834 3549
364.054 96.7834 3549
371.806 96.5926 3542
377.914 95.9926 3520
385.454 95.7744 3512
392.17 95.3654 3497
400.532 95.3654 3497
407.257 94.9836 3483
413.797 94.5745 3468
423.063 94.7927 3476
431.375 94.7927 3476
439.688 94.7927 3476
446.969 94.5745 3468
451.586 93.811 3440
459.812 93.811 3440
468.038 93.811 3440
477.233 94.0018 3447
485.476 94.0018 3447
493.719 94.0018 3447
500.943 93.811 3440
506.06 93.2383 3419
512.13 92.8565 3405
520.273 92.8565 3405
524.07 92.0929 3377
532.145 92.0929 3377
539.101 91.902 3370
546.023 91.7111 3363
557.525 92.2838 3384
565.617 92.2838 3384
573.709 92.2838 3384
581.802 92.2838 3384
589.894 92.2838 3384
595.512 91.902 3370
604.824 92.0929 3377
615.441 92.4747 3391
626.124 92.8565 3405
634.266 92.8565 3405
642.409 92.8565 3405
651.888 93.0474 3412
661.402 93.2383 3419
669.578 93.2383 3419
677.753 93.2383 3419
687.334 93.4292 3426
696.947 93.6201 3433
705.157 93.6201 3433
719.184 94.3836 3461
728.932 94.5745 3468
738.926 94.7927 3476
747.238 94.7927 3476
755.55 94.7927 3476
763.862 94.7927 3476
772.174 94.7927 3476
780.487 94.7927 3476
788.799 94.7927 3476
797.111 94.7927 3476
805.423 94.7927 3476
813.735 94.7927 3476
822.047 94.7927 3476
833.704 95.1745 3490
842.05 95.1745 3490
850.395 95.1745 3490
858.741 95.1745 3490
865.347 94.9836 3483
871.92 94.7927 3476
883.778 95.1745 3490
892.123 95.1745 3490
902.275 95.3654 3497
910.638 95.3654 3497
919 95.3654 3497
927.362 95.3654 3497
933.852 95.1745 3490
940.308 94.9836 3483
948.636 94.9836 3483
955.042 94.7927 3476
963.354 94.7927 3476
975.58 95.1745 3490
988.154 95.5835 3505
998.526 95.7744 3512
1006.92 95.7744 3512
1015.32 95.7744 3512
1017.31 95.1745 3490
1025.65 95.1745 3490
1027.48 94.5745 3468
1040.25 94.9836 3483
1059.72 95.9926 3520
1068.14 95.9926 3520
1076.56 95.9926 3520
1084.97 95.9926 3520
1088.73 95.5835 3505
1097.11 95.5835 3505
1098.56 94.9836 3483
1106.89 94.9836 3483
1115.21 94.9836 3483
1123.54 94.9836 3483
1131.87 94.9836 3483
1140.2 94.9836 3483
1153.15 95.3654 3497
1161.51 95.3654 3497
1169.87 95.3654 3497
1178.23 95.3654 3497
1199.15 96.3744 3534
1207.6 96.3744 3534
1223.97 97.0016 3557
1232.47 97.0016 3557
1243.77 97.2198 3565
1254.75 97.4107 3572
1263.3 97.4107 3572
1271.84 97.4107 3572
1280.38 97.4107 3572
1286.4 97.2198 3565
1294.92 97.2198 3565
1303.44 97.2198 3565
1314.55 97.4107 3572
1326.05 97.6288 3580
1334.61 97.6288 3580
1343.17 97.6288 3580
1351.73 97.6288 3580
1360.29 97.6288 3580
1368.86 97.6288 3580
1377.42 97.6288 3580
1382.88 97.4107 3572
1391.42 97.4107 3572
1399.96 97.4107 3572
1405.74 97.2198 3565
1407.92 96.7834 3549
1416.41 96.7834 3549
1424.9 96.7834 3549
1433.38 96.7834 3549
1435.78 96.3744 3534
1435.24 95.7744 3512
1440.76 95.5835 3505
1449.14 95.5835 3505
1451.28 95.1745 3490
1459.63 95.1745 3490
1467.97 95.1745 3490
1476.32 95.1745 3490
1481.69 94.9836 3483
1490.02 94.9836 3483
1498.34 94.9836 3483
1506.67 94.9836 3483
1521.09 95.3654 3497
1529.45 95.3654 3497
1537.82 95.3654 3497
1546.18 95.3654 3497
1554.54 95.3654 3497
1562.9 95.3654 3497
1578.01 95.7744 3512
1586.4 95.7744 3512
1594.8 95.7744 3512
1603.2 95.7744 3512
1611.6 95.7744 3512
1613.08 95.3654 3497
1621.44 95.3654 3497
1629.8 95.3654 3497
1641.91 95.5835 3505
1653.59 95.7744 3512
1661.99 95.7744 3512
1670.39 95.7744 3512
1675.44 95.5835 3505
1687.18 95.7744 3512
1710.07 96.5926 3542
1718.54 96.5926 3542
1727.01 96.5926 3542
1750.17 97.4107 3572
1766.59 97.847 3588
1778.64 98.0379 3595
1787.23 98.0379 3595
1795.83 98.0379 3595
1796.9 97.6288 3580
1805.46 97.6288 3580
1814.02 97.6288 3580
1822.58 97.6288 3580
1838.81 98.0379 3595
1851.52 98.2561 3603
1860.14 98.2561 3603
1872.9 98.4742 3611
1881.54 98.4742 3611
1890.17 98.4742 3611
1894.6 98.2561 3603
1898.99 98.0379 3595
1907.59 98.0379 3595
1916.19 98.0379 3595
1924.78 98.0379 3595
1933.38 98.0379 3595
1938.19 97.847 3588
1946.77 97.847 3588
1955.35 97.847 3588
1963.93 97.847 3588
1976.36 98.0379 3595
1998.21 98.6924 3619
2011.3 98.9106 3627
2019.97 98.9106 3627
2028.65 98.9106 3627
2050.24 99.5378 3650
2082.1 100.656 3691
2090.92 100.656 3691
2132.74 102.238 3749
2141.71 102.238 3749
2150.67 102.238 3749
2159.64 102.238 3749
2144.31 101.092 3707
2139.23 100.438 3683
2148.04 100.438 3683
2156.85 100.438 3683
2156.25 100.001 3667
2165.02 100.001 3667
2173.78 100.001 3667
2182.55 100.001 3667
2191.32 100.001 3667
2189.89 99.5378 3650
2193.8 99.3196 3642
2202.51 99.3196 3642
2202.11 98.9106 3627
2196.16 98.2561 3603
2204.77 98.2561 3603
2213.39 98.2561 3603
2222 98.2561 3603
2211.43 97.4107 3572
2215.62 97.2198 3565
2224.14 97.2198 3565
2237.05 97.4107 3572
2245.6 97.4107 3572
2259.19 97.6288 3580
2272.81 97.847 3588
2285.84 98.0379 3595
2294.44 98.0379 3595
2303.04 98.0379 3595
2311.63 98.0379 3595
2320.23 98.0379 3595
2324.29 97.847 3588
2327.67 97.6288 3580
2341.45 97.847 3588
2354.62 98.0379 3595
2363.22 98.0379 3595
2371.81 98.0379 3595
2380.41 98.0379 3595
2404.95 98.6924 3619
2413.61 98.6924 3619
2422.26 98.6924 3619
2430.92 98.6924 3619
2434.18 98.4742 3611
2442.81 98.4742 3611
2446.02 98.2561 3603
2392.64 95.7744 3512
2036.02 80.0938 2937
2043.04 80.0938 2937
2050.07 80.0938 2937
2038.88 79.3848 2911
2021.24 78.4303 2876
2021.07 78.1576 2866
2025.09 78.0485 2862
2031.94 78.0485 2862
2035.22 77.9122 2857
2034.9 77.6395 2847
2038.12 77.5031 2842
2044.92 77.5031 2842
2051.72 77.5031 2842
2054.89 77.3668 2837
2058.04 77.2304 2832
2064.81 77.2304 2832
2071.59 77.2304 2832
2078.36 77.2304 2832
2085.13 77.2304 2832
2095.6 77.3668 2837
2102.38 77.3668 2837
2109.16 77.3668 2837
2119.68 77.5031 2842
2130.21 77.6395 2847
2137.02 77.6395 2847
2143.83 77.6395 2847
2150.64 77.6395 2847
2161.24 77.7758 2852
2168.06 77.7758 2852
2174.88 77.7758 2852
2181.7 77.7758 2852
-2401.91 95.169 3208
-2394.24 95.169 3208
-2386.57 95.169 3208
-2378.89 95.169 3208
-2366.79 94.991 3202
-2363.55 95.169 3208
-2355.88 95.169 3208
-2348.21 95.169 3208
-2340.54 95.169 3208
-2332.87 95.169 3208
-2320.85 94.991 3202
-2313.19 94.991 3202
-2305.53 94.991 3202
-2297.88 94.991 3202
-2290.22 94.991 3202
-2286.84 95.169 3208
-2279.17 95.169 3208
-2271.5 95.169 3208
-2263.82 95.169 3208
-2256.15 95.169 3208
-2235.87 94.635 3190
-2228.24 94.635 3190
-2216.43 94.457 3184
-2204.66 94.279 3178
-2197.06 94.279 3178
-2189.46 94.279 3178
-2181.86 94.279 3178
-2174.26 94.279 3178
-2166.66 94.279 3178
-2159.06 94.279 3178
-2151.46 94.279 3178
-2143.86 94.279 3178
-2152.39 94.991 3202
-2148.76 95.169 3208
-2141.08 95.169 3208
-2137.4 95.347 3214
-2129.72 95.347 3214
-2122.03 95.347 3214
-2114.35 95.347 3214
-2106.66 95.347 3214
-2107.46 95.7326 3227
-2107.56 96.0886 3239
-2099.81 96.0886 3239
-2100.46 96.4743 3252
-2092.69 96.4743 3252
-2084.91 96.4743 3252
-2077.13 96.4743 3252
-2057.27 95.9106 3233
-2037.49 95.347 3214
-2029.8 95.347 3214
-2022.12 95.347 3214
-2014.43 95.347 3214
-2006.75 95.347 3214
-1999.06 95.347 3214
-1991.38 95.347 3214
-1979.99 95.169 3208
-1957.56 94.457 3184
-1953.62 94.635 3190
-1945.99 94.635 3190
-1942.01 94.813 3196
-1934.37 94.813 3196
-1926.72 94.813 3196
-1919.08 94.813 3196
-1911.44 94.813 3196
-1903.8 94.813 3196
-1903.27 95.169 3208
-1895.6 95.169 3208
-1902.64 95.9106 3233
-1932.42 97.8092 3297
-1924.54 97.8092 3297
-1916.66 97.8092 3297
-1886.19 96.6523 3258
-1870.25 97.0379 3271
-1862.43 97.0379 3271
-1861.98 97.4236 3284
-1857.51 97.6016 3290
-1849.65 97.6016 3290
-1841.78 97.6016 3290
-1830.57 97.4236 3284
-1812.17 96.8599 3265
-1804.36 96.8599 3265
-1796.55 96.8599 3265
-1792.03 97.0379 3271
-1784.21 97.0379 3271
-1776.39 97.0379 3271
-1765.32 96.8599 3265
-1753.75 96.6523 3258
-1739.53 96.2963 3246
-1731.76 96.2963 3246
-1717.1 95.9106 3233
-1706.19 95.7326 3227
-1698.48 95.7326 3227
-1690.76 95.7326 3227
-1683.04 95.7326 3227
-1672.21 95.5546 3221
-1664.51 95.5546 3221
-1656.81 95.5546 3221
-1649.11 95.5546 3221
-1641.4 95.5546 3221
-1630.15 95.347 3214
-1622.46 95.347 3214
-1614.78 95.347 3214
-1607.09 95.347 3214
-1599.41 95.347 3214
-1591.72 95.347 3214
-1584.04 95.347 3214
-1576.35 95.347 3214
-1565.74 95.169 3208
-1564.38 95.5546 3221
-1556.68 95.5546 3221
-1548.97 95.5546 3221
-1544.14 95.7326 3227
-1536.43 95.7326 3227
-1528.71 95.7326 3227
-1520.99 95.7326 3227
-1516.09 95.9106 3233
-1511.16 96.0886 3239
-1503.41 96.0886 3239
-1501.67 96.4743 3252
-1496.65 96.6523 3258
-1488.86 96.6523 3258
-1481.07 96.6523 3258
-1487.75 97.6016 3290
-1479.88 97.6016 3290
-1472.01 97.6016 3290
-1464.15 97.6016 3290
-1459.38 97.8092 3297
-1451.49 97.8092 3297
-1443.61 97.8092 3297
-1435.72 97.8092 3297
-1427.84 97.8092 3297
-1419.96 97.8092 3297
-1412.07 97.8092 3297
-1401.21 97.6016 3290
-1382.75 96.8599 3265
-1374.94 96.8599 3265
-1367.14 96.8599 3265
-1359.33 96.8599 3265
-1348.62 96.6523 3258
-1335.89 96.2963 3246
-1328.13 96.2963 3246
-1320.37 96.2963 3246
-1312.61 96.2963 3246
-1302.03 96.0886 3239
-1294.29 96.0886 3239
-1286.54 96.0886 3239
-1274.06 95.7326 3227
-1258.88 95.169 3208
-1241.85 94.457 3184
-1234.24 94.457 3184
-1224.31 94.279 3178
-1214.42 94.101 3172
-1206.83 94.101 3172
-1199.25 94.101 3172
-1189.41 93.923 3166
-588.348 47.6735 1607
-584.506 47.6735 1607
-581.747 47.7625 1610
-577.897 47.7625 1610
-574.047 47.7625 1610
-570.197 47.7625 1610
-566.347 47.7625 1610
-562.497 47.7625 1610
-558.647 47.7625 1610
-554.797 47.7625 1610
-550.947 47.7625 1610
-546.757 47.7328 1609
-542.235 47.6735 1607
-538.057 47.6438 1606
-534.216 47.6438 1606
-530.376 47.6438 1606
-526.535 47.6438 1606
-521.719 47.5548 1603
-517.885 47.5548 1603
-512.769 47.4361 1599
-508.946 47.4361 1599
-504.174 47.3471 1596
-500.358 47.3471 1596
-496.23 47.3175 1595
-491.799 47.2582 1593
-487.683 47.2285 1592
-483.876 47.2285 1592
-479.164 47.1395 1589
-475.365 47.1395 1589
-471.565 47.1395 1589
-467.765 47.1395 1589
-463.965 47.1395 1589
-460.455 47.1692 1590
-457.514 47.2582 1593
-453.705 47.2582 1593
-449.896 47.2582 1593
-446.646 47.3175 1595
-444.498 47.4955 1601
-441.495 47.5845 1604
-437.66 47.5845 1604
-435.176 47.7328 1609
-431.597 47.7625 1610
-429.075 47.9108 1615
-425.213 47.9108 1615
-421.873 47.9701 1617
-418.782 48.0591 1620
-415.676 48.1481 1623
-411.795 48.1481 1623
-408.668 48.2371 1626
-405.278 48.2965 1628
-401.631 48.3261 1629
-398.957 48.4745 1634
-395.049 48.4745 1634
-391.142 48.4745 1634
-387.709 48.5338 1636
-383.796 48.5338 1636
-379.884 48.5338 1636
-376.202 48.5635 1637
-372.287 48.5635 1637
-368.823 48.6228 1639
-364.903 48.6228 1639
-361.204 48.6525 1640
-357.718 48.7118 1642
-354.438 48.8008 1645
-350.504 48.8008 1645
-346.571 48.8008 1645
-344.095 49.0085 1652
-340.762 49.0975 1655
-336.805 49.0975 1655
-333.249 49.1568 1657
-329.486 49.1865 1658
-325.914 49.2458 1660
-321.944 49.2458 1660
-318.358 49.3051 1662
-314.572 49.3348 1663
-312.277 49.6018 1672
-308.278 49.6018 1672
-304.462 49.6314 1673
-300.461 49.6314 1673
-297.701 49.8391 1680
-293.684 49.8391 1680
-290.011 49.8984 1682
-286.499 49.9874 1685
-282.805 50.0468 1687
-278.771 50.0468 1687
-275.551 50.1951 1692
-271.986 50.2841 1695
-268.882 50.4621 1701
-264.814 50.4621 1701
-260.9 50.4918 1702
-257.735 50.6698 1708
-254.096 50.7588 1711
-250.005 50.7588 1711
-246.488 50.8774 1715
-242.811 50.9664 1718
-239.675 51.1741 1725
-235.55 51.1741 1725
-232.364 51.3817 1732
-229.013 51.5597 1738
-225.504 51.7081 1743
-221.336 51.7081 1743
-217.666 51.8267 1747
-213.978 51.9454 1751
-210.39 52.0937 1756
-206.19 52.0937 1756
-202.681 52.2717 1762
-199.256 52.4794 1769
-195.908 52.7167 1777
-191.659 52.7167 1777
-187.62 52.7761 1779
-183.469 52.8057 1780
-179.616 52.9244 1784
-175.35 52.9244 1784
-171.659 53.1024 1790
-167.752 53.221 1794
-163.827 53.3397 1798
-159.527 53.3397 1798
-155.4 53.399 1800
-151.432 53.5177 1804
-147.363 53.6067 1807
-143.042 53.6067 1807
-138.874 53.666 1809
-134.548 53.666 1809
-130.222 53.666 1809
-203.803 96.8599 3265
-195.995 96.8599 3265
-188.188 96.8599 3265
-179.994 96.6523 3258
-172.203 96.6523 3258
-164.412 96.6523 3258
-156.957 96.8599 3265
-149.424 97.0379 3271
-141.905 97.2456 3278
-134.066 97.2456 3278
-126.959 97.8092 3297
-119.545 98.1949 3310
-111.629 98.1949 3310
-103.714 98.1949 3310
-96.3779 98.7882 3330
-88.6007 98.9959 3337
-80.935 99.3815 3350
-72.9241 99.3815 3350
-65.0489 99.5892 3357
-57.1232 99.7672 3363
-49.0812 99.7672 3363
-41.0393 99.7672 3363
-33.2034 100.39 3384
-25.267 101.013 3405
-17.1599 101.221 3412
-9.00074 101.221 3412
-0.841609 101.221 3412
7.39258 102.259 3447
15.6989 102.674 3461
23.9752 102.674 3461
32.3167 102.882 3468
40.6098 102.882 3468
48.9028 102.882 3468
57.1959 102.882 3468
65.4889 102.882 3468
73.7819 102.882 3468
82.075 102.882 3468
89.8208 102.259 3447
98.0636 102.259 3447
106.091 102.051 3440
114.317 102.051 3440
121.545 101.221 3412
129.704 101.221 3412
138.146 101.429 3419
146.322 101.429 3419
155.131 101.844 3433
163.34 101.844 3433
172.249 102.259 3447
180.858 102.467 3454
189.501 102.674 3461
197.778 102.674 3461
206.947 103.119 3476
215.693 103.327 3483
224.021 103.327 3483
232.35 103.327 3483
240.196 103.119 3476
249.008 103.327 3483
258.371 103.742 3497
266.734 103.742 3497
275.726 103.98 3505
284.107 103.98 3505
292.489 103.98 3505
300.87 103.98 3505
310.575 104.425 3520
318.992 104.425 3520
327.41 104.425 3520
335.827 104.425 3520
344.245 104.425 3520
352.662 104.425 3520
361.079 104.425 3520
369.497 104.425 3520
375.445 103.742 3497
383.807 103.742 3497
388.132 102.674 3461
396.409 102.674 3461
403.048 102.259 3447
412.126 102.467 3454
421.238 102.674 3461
429.514 102.674 3461
437.79 102.674 3461
443.36 102.051 3440
449.748 101.636 3426
457.941 101.636 3426
465.181 101.429 3419
474.326 101.636 3426
482.519 101.636 3426
490.711 101.636 3426
497.884 101.429 3419
503.988 101.013 3405
510.025 100.598 3391
518.134 100.598 3391
524.07 100.183 3377
532.145 100.183 3377
539.101 99.9749 3370
546.023 99.7672 3363
557.525 100.39 3384
565.617 100.39 3384
573.709 100.39 3384
581.802 100.39 3384
589.894 100.39 3384
596.749 100.183 3377
606.078 100.39 3384
615.441 100.598 3391
626.124 101.013 3405
634.266 101.013 3405
642.409 101.013 3405
651.888 101.221 3412
661.402 101.429 3419
669.578 101.429 3419
677.753 101.429 3419
688.738 101.844 3433
698.369 102.051 3440
706.595 102.051 3440
719.184 102.674 3461
728.932 102.882 3468
738.926 103.119 3476
747.238 103.119 3476
755.55 103.119 3476
763.862 103.119 3476
772.174 103.119 3476
780.487 103.119 3476
788.799 103.119 3476
797.111 103.119 3476
805.423 103.119 3476
813.735 103.119 3476
822.047 103.119 3476
833.704 103.535 3490
842.05 103.535 3490
850.395 103.535 3490
858.741 103.535 3490
865.347 103.327 3483
871.92 103.119 3476
883.778 103.535 3490
892.123 103.535 3490
902.275 103.742 3497
910.638 103.742 3497
919 103.742 3497
927.362 103.742 3497
933.852 103.535 3490
942.197 103.535 3490
950.543 103.535 3490
958.889 103.535 3490
967.234 103.535 3490
979.773 103.98 3505
994.357 104.632 3527
1002.79 104.632 3527
1011.23 104.632 3527
1019.66 104.632 3527
1023.72 104.187 3512
1032.12 104.187 3512
1040.52 104.187 3512
1051.31 104.425 3520
1063.94 104.84 3534
1072.39 104.84 3534
1080.84 104.84 3534
1089.29 104.84 3534
1095.57 104.632 3527
1104 104.632 3527
1107.7 104.187 3512
1116.1 104.187 3512
1124.5 104.187 3512
1132.9 104.187 3512
1136.42 103.742 3497
1147.4 103.98 3505
1158.09 104.187 3512
1166.49 104.187 3512
1174.89 104.187 3512
1183.29 104.187 3512
1199.15 104.84 3534
1218.2 105.76 3565
1229.13 105.967 3572
1237.67 105.967 3572
1254.24 106.65 3595
1265.64 106.887 3603
1274.26 106.887 3603
1282.88 106.887 3603
1291.49 106.887 3603
1297.22 106.65 3595
1305.82 106.65 3595
1314.41 106.65 3595
1323.01 106.65 3595
1337.53 107.124 3611
1346.17 107.124 3611
1354.8 107.124 3611
1363.44 107.124 3611
1372.07 107.124 3611
1380.71 107.124 3611
1389.34 107.124 3611
1394.88 106.887 3603
1400.38 106.65 3595
1408.98 106.65 3595
1405.74 105.76 3565
1414.27 105.76 3565
1419.6 105.522 3557
1424.9 105.285 3549
1433.38 105.285 3549
1435.78 104.84 3534
1435.24 104.187 3512
1440.76 103.98 3505
1449.14 103.98 3505
1457.52 103.98 3505
1465.9 103.98 3505
1470.92 103.742 3497
1479.28 103.742 3497
1487.64 103.742 3497
1493.01 103.535 3490
1501.36 103.535 3490
1516.19 103.98 3505
1524.57 103.98 3505
1532.95 103.98 3505
1541.33 103.98 3505
1552.81 104.187 3512
1561.21 104.187 3512
1569.61 104.187 3512
1584.75 104.632 3527
1593.18 104.632 3527
1601.61 104.632 3527
1610.05 104.632 3527
1618.48 104.632 3527
1620 104.187 3512
1628.4 104.187 3512
1636.79 104.187 3512
1648.94 104.425 3520
1663.95 104.84 3534
1672.4 104.84 3534
1680.85 104.84 3534
1682.61 104.425 3520
1687.18 104.187 3512
1710.07 105.077 3542
1718.54 105.077 3542
1727.01 105.077 3542
1750.17 105.967 3572
1766.59 106.442 3588
1778.64 106.65 3595
1787.23 106.65 3595
1795.83 106.65 3595
1796.9 106.205 3580
1805.46 106.205 3580
1814.02 106.205 3580
1822.58 106.205 3580
1838.81 106.65 3595
1851.52 106.887 3603
1860.14 106.887 3603
1872.9 107.124 3611
1881.54 107.124 3611
1890.17 107.124 3611
1894.6 106.887 3603
1898.99 106.65 3595
1907.59 106.65 3595
1916.19 106.65 3595
1924.78 106.65 3595
1933.38 106.65 3595
1938.19 106.442 3588
1946.77 106.442 3588
1959.17 106.65 3595
1967.77 106.65 3595
1976.36 106.65 3595
2007.04 107.836 3635
2019.62 108.044 3642
2028.33 108.044 3642
2037.04 108.044 3642
2054.73 108.519 3658
2082.1 109.498 3691
2090.92 109.498 3691
2132.74 111.218 3749
2141.71 111.218 3749
2150.67 111.218 3749
2159.64 111.218 3749
2144.31 109.972 3707
2139.23 109.26 3683
2148.04 109.26 3683
2156.85 109.26 3683
2156.25 108.786 3667
2165.02 108.786 3667
2173.78 108.786 3667
2182.55 108.786 3667
2191.32 108.786 3667
2189.89 108.281 3650
2193.8 108.044 3642
2202.51 108.044 3642
2202.11 107.599 3627
2205.91 107.362 3619
2204.77 106.887 3603
2213.39 106.887 3603
2222 106.887 3603
2230.62 106.887 3603
2229.91 106.442 3588
2242.86 106.65 3595
2251.46 106.65 3595
2260.05 106.65 3595
2268.65 106.65 3595
2287.38 107.124 3611
2301.1 107.362 3619
2309.76 107.362 3619
2318.41 107.362 3619
2321.92 107.124 3611
2330.56 107.124 3611
2328.83 106.65 3595
2342.63 106.887 3603
2351.24 106.887 3603
2365.1 107.124 3611
2373.73 107.124 3611
2382.37 107.124 3611
2391 107.124 3611
2410.27 107.599 3627
2418.94 107.599 3627
2427.62 107.599 3627
2436.29 107.599 3627
2434.18 107.124 3611
2442.81 107.124 3611
2446.02 106.887 3603
2407.62 104.84 3534
2390.78 103.742 3497
2399.14 103.742 3497
2036.02 87.1294 2937
2043.04 87.1294 2937
2050.07 87.1294 2937
2057.09 87.1294 2937
2031.78 85.7648 2891
2028.12 85.3198 2876
2027.92 85.0231 2866
2034.78 85.0231 2866
2038.78 84.9045 2862
2034.9 84.4595 2847
2038.12 84.3111 2842
2044.92 84.3111 2842
2051.72 84.3111 2842
2054.89 84.1628 2837
2058.04 84.0145 2832
2064.81 84.0145 2832
2071.59 84.0145 2832
2078.36 84.0145 2832
2085.13 84.0145 2832
2095.6 84.1628 2837
2102.38 84.1628 2837
2109.16 84.1628 2837
2119.68 84.3111 2842
2130.21 84.4595 2847
2137.02 84.4595 2847
2143.83 84.4595 2847
2150.64 84.4595 2847
2161.24 84.6078 2852
2168.06 84.6078 2852
2174.88 84.6078 2852
2181.7 84.6078 2852
-2397.42 102.661 3202
-2389.76 102.661 3202
-2382.1 102.661 3202
-2370 102.469 3196
-2362.35 102.469 3196
-2354.71 102.469 3196
-2347.07 102.469 3196
-2339.43 102.469 3196
-2331.78 102.469 3196
-2328.5 102.661 3202
-2320.85 102.661 3202
-2313.19 102.661 3202
-2305.53 102.661 3202
-2297.88 102.661 3202
-2290.22 102.661 3202
-2286.84 102.854 3208
-2279.17 102.854 3208
-2271.5 102.854 3208
-2263.82 102.854 3208
-2251.93 102.661 3202
-2235.87 102.277 3190
-2228.24 102.277 3190
-2212.26 101.892 3178
-2204.66 101.892 3178
-2197.06 101.892 3178
-2189.46 101.892 3178
-2181.86 101.892 3178
-2174.26 101.892 3178
-2166.66 101.892 3178
-2159.06 101.892 3178
-2147.4 101.7 3172
-2139.81 101.7 3172
-2140.29 102.084 3184
-2140.72 102.469 3196
-2133.07 102.469 3196
-2133.41 102.854 3208
-2125.74 102.854 3208
-2118.07 102.854 3208
-2110.4 102.854 3208
-2102.73 102.854 3208
-2095.06 102.854 3208
-2099.75 103.463 3227
-2092.03 103.463 3227
-2088.19 103.655 3233
-2080.46 103.655 3233
-2072.73 103.655 3233
-2065 103.655 3233
-2045.18 103.046 3214
-2029.88 102.661 3202
-2022.23 102.661 3202
-2010.79 102.469 3196
-2003.15 102.469 3196
-1999.25 102.661 3202
-1991.6 102.661 3202
-1983.94 102.661 3202
-1972.58 102.469 3196
-1957.56 102.084 3184
-1949.95 102.084 3184
-1942.33 102.084 3184
-1942.01 102.469 3196
-1934.37 102.469 3196
-1926.72 102.469 3196
-1919.08 102.469 3196
-1911.44 102.469 3196
-1910.95 102.854 3208
-1910.99 103.271 3221
-1903.28 103.271 3221
-1902.64 103.655 3233
-1906.05 104.264 3252
-1901.77 104.457 3258
-1893.98 104.457 3258
-1886.19 104.457 3258
-1878.4 104.457 3258
-1870.61 104.457 3258
-1862.82 104.457 3258
-1855.03 104.457 3258
-1851.21 104.681 3265
-1843.4 104.681 3265
-1835.59 104.681 3265
-1827.78 104.681 3265
-1819.98 104.681 3265
-1804.95 104.264 3252
-1797.18 104.264 3252
-1789.4 104.264 3252
-1788.75 104.681 3265
-1780.94 104.681 3265
-1773.13 104.681 3265
-1761.54 104.457 3258
-1747.29 104.072 3246
-1729.34 103.463 3227
-1721.63 103.463 3227
-1710.72 103.271 3221
-1703.02 103.271 3221
-1695.32 103.271 3221
-1687.62 103.271 3221
-1679.91 103.271 3221
-1672.21 103.271 3221
-1660.89 103.046 3214
-1653.21 103.046 3214
-1645.52 103.046 3214
-1641.4 103.271 3221
-1633.7 103.271 3221
-1626 103.271 3221
-1618.3 103.271 3221
-1607.09 103.046 3214
-1596.42 102.854 3208
-1588.75 102.854 3208
-1581.08 102.854 3208
-1573.41 102.854 3208
-1565.74 102.854 3208
-1564.38 103.271 3221
-1556.68 103.271 3221
-1551.86 103.463 3227
-1544.14 103.463 3227
-1536.43 103.463 3227
-1528.71 103.463 3227
-1520.99 103.463 3227
-1516.09 103.655 3233
-1511.16 103.848 3239
-1503.41 103.848 3239
-1501.67 104.264 3252
-1496.65 104.457 3258
-1488.86 104.457 3258
-1481.07 104.457 3258
-1473.28 104.457 3258
-1479.88 105.483 3290
-1472.01 105.483 3290
-1464.15 105.483 3290
-1459.38 105.707 3297
-1451.49 105.707 3297
-1443.61 105.707 3297
-1435.72 105.707 3297
-1427.84 105.707 3297
-1419.96 105.707 3297
-1412.07 105.707 3297
-1401.21 105.483 3290
-1388.26 105.098 3278
-1374.94 104.681 3265
-1367.14 104.681 3265
-1359.33 104.681 3265
-1348.62 104.457 3258
-1340.83 104.457 3258
-1333.04 104.457 3258
-1325.25 104.457 3258
-1317.46 104.457 3258
-1307.26 104.264 3252
-1297.08 104.072 3246
-1289.32 104.072 3246
-1276.43 103.655 3233
-1258.88 102.854 3208
-1248.87 102.661 3202
-1241.22 102.661 3202
-1224.31 101.892 3178
-1216.71 101.892 3178
-1206.83 101.7 3172
-1199.25 101.7 3172
-1189.41 101.507 3166
-589.081 51.5872 1609
-585.233 51.5872 1609
-581.747 51.6192 1610
-577.897 51.6192 1610
-574.76 51.6834 1612
-570.905 51.6834 1612
-567.05 51.6834 1612
-563.196 51.6834 1612
-558.647 51.6192 1610
-554.797 51.6192 1610
-550.947 51.6192 1610
-546.757 51.5872 1609
-542.235 51.5231 1607
-538.057 51.491 1606
-534.216 51.491 1606
-530.376 51.491 1606
-526.535 51.491 1606
-521.719 51.3948 1603
-517.885 51.3948 1603
-513.411 51.3307 1601
-508.946 51.2666 1599
-504.174 51.1704 1596
-500.358 51.1704 1596
-496.23 51.1383 1595
-492.416 51.1383 1595
-487.683 51.0421 1592
-483.876 51.0421 1592
-479.466 50.978 1590
-475.365 50.9459 1589
-471.565 50.9459 1589
-467.765 50.9459 1589
-463.965 50.9459 1589
-460.455 50.978 1590
-457.227 51.0421 1592
-453.705 51.0742 1593
-449.896 51.0742 1593
-446.086 51.0742 1593
-444.498 51.3307 1601
-441.495 51.4269 1604
-437.66 51.4269 1604
-434.635 51.5231 1607
-431.597 51.6192 1610
-429.075 51.7796 1615
-425.213 51.7796 1615
-421.351 51.7796 1615
-418.782 51.9399 1620
-415.676 52.036 1623
-411.795 52.036 1623
-408.166 52.0681 1624
-405.278 52.1964 1628
-401.385 52.1964 1628
-398.957 52.3887 1634
-395.049 52.3887 1634
-391.142 52.3887 1634
-387.235 52.3887 1634
-383.796 52.4528 1636
-379.884 52.4528 1636
-376.202 52.4849 1637
-372.287 52.4849 1637
-368.823 52.549 1639
-364.903 52.549 1639
-361.204 52.5811 1640
-357.718 52.6452 1642
-354.438 52.7414 1645
-350.504 52.7414 1645
-346.571 52.7414 1645
-344.095 52.9658 1652
-340.762 53.062 1655
-336.805 53.062 1655
-333.249 53.1261 1657
-329.883 53.2223 1660
-326.306 53.2864 1662
-322.332 53.2864 1662
-318.358 53.2864 1662
-314.572 53.3185 1663
-312.277 53.6071 1672
-308.278 53.6071 1672
-304.462 53.6391 1673
-300.821 53.7033 1675
-297.701 53.8636 1680
-293.684 53.8636 1680
-290.011 53.9277 1682
-286.499 54.0239 1685
-282.805 54.088 1687
-278.771 54.088 1687
-275.877 54.3124 1694
-272.307 54.4086 1697
-269.04 54.5689 1702
-264.97 54.5689 1702
-261.513 54.6972 1706
-257.886 54.7933 1709
-254.69 54.9857 1715
-250.589 54.9857 1715
-246.919 55.0819 1718
-243.376 55.2101 1722
-240.231 55.4346 1729
-236.097 55.4346 1729
-232.633 55.5949 1734
-229.277 55.7873 1740
-225.763 55.9476 1745
-221.59 55.9476 1745
-217.666 56.0117 1747
-213.978 56.1399 1751
-210.629 56.3644 1758
-206.425 56.3644 1758
-202.796 56.5247 1763
-199.256 56.717 1769
-195.908 56.9735 1777
-191.659 56.9735 1777
-187.41 56.9735 1777
-183.366 57.0377 1779
-179.616 57.198 1784
-175.35 57.198 1784
-171.659 57.3903 1790
-167.565 57.4545 1792
-163.827 57.6468 1798
-159.527 57.6468 1798
-155.4 57.711 1800
-151.432 57.8392 1804
-147.363 57.9354 1807
-143.042 57.9354 1807
-138.874 57.9995 1809
-134.548 57.9995 1809
-130.222 57.9995 1809
-213.685 105.707 3297
-205.801 105.707 3297
-197.916 105.707 3297
-189.629 105.483 3290
-181.761 105.483 3290
-173.26 105.098 3278
-165.068 104.874 3271
-157.246 104.874 3271
-149.424 104.874 3271
-142.165 105.29 3284
-134.312 105.29 3284
-127.46 106.124 3310
-119.545 106.124 3310
-111.629 106.124 3310
-103.714 106.124 3310
-96.3779 106.765 3330
-88.6007 106.99 3337
-80.935 107.407 3350
-72.9241 107.407 3350
-65.0489 107.631 3357
-57.1232 107.823 3363
-49.0812 107.823 3363
-41.0393 107.823 3363
-33.2034 108.497 3384
-25.2151 108.945 3398
-17.1599 109.394 3412
-9.00074 109.394 3412
-0.841609 109.394 3412
7.39258 110.516 3447
15.6672 110.741 3454
23.9267 110.741 3454
32.2515 110.965 3461
40.6098 111.19 3468
48.9028 111.19 3468
57.1959 111.19 3468
65.2245 110.741 3454
73.4841 110.741 3454
81.7436 110.741 3454
89.8208 110.516 3447
98.0636 110.516 3447
105.875 110.068 3433
114.084 110.068 3433
121.545 109.394 3412
129.704 109.394 3412
137.864 109.394 3412
146.023 109.394 3412
154.498 109.619 3419
162.674 109.619 3419
171.2 109.843 3426
180.492 110.516 3447
188.735 110.516 3447
196.977 110.516 3447
205.637 110.741 3454
214.764 111.19 3468
223.057 111.19 3468
231.35 111.19 3468
239.159 110.965 3461
247.435 110.965 3461
257.337 111.671 3483
265.666 111.671 3483
273.995 111.671 3483
282.324 111.671 3483
290.653 111.671 3483
298.381 111.446 3476
305.987 111.19 3468
314.28 111.19 3468
323.317 111.446 3476
331.629 111.446 3476
339.942 111.446 3476
348.254 111.446 3476
356.566 111.446 3476
364.038 111.19 3468
370.077 110.516 3447
378.32 110.516 3447
386.562 110.516 3447
394.805 110.516 3447
401.411 110.068 3433
407.95 109.619 3419
416.978 109.843 3426
425.17 109.843 3426
433.363 109.843 3426
441.556 109.843 3426
446.072 108.945 3398
455.134 109.17 3405
463.276 109.17 3405
471.419 109.17 3405
479.561 109.17 3405
487.703 109.17 3405
495.846 109.17 3405
502.952 108.945 3398
508.972 108.497 3384
517.064 108.497 3384
524.07 108.272 3377
532.145 108.272 3377
539.101 108.048 3370
546.023 107.823 3363
557.525 108.497 3384
565.617 108.497 3384
573.709 108.497 3384
581.802 108.497 3384
589.894 108.497 3384
596.749 108.272 3377
606.078 108.497 3384
615.441 108.721 3391
626.124 109.17 3405
634.266 109.17 3405
642.409 109.17 3405
651.888 109.394 3412
661.402 109.619 3419
669.578 109.619 3419
677.753 109.619 3419
688.738 110.068 3433
698.369 110.292 3440
706.595 110.292 3440
714.821 110.292 3440
725.989 110.741 3454
737.225 111.19 3468
745.518 111.19 3468
753.811 111.19 3468
762.104 111.19 3468
770.397 111.19 3468
777.119 110.965 3461
783.806 110.741 3454
792.066 110.741 3454
800.325 110.741 3454
811.862 111.19 3468
820.155 111.19 3468
830.36 111.446 3476
838.672 111.446 3476
846.984 111.446 3476
855.296 111.446 3476
859.882 110.965 3461
868.158 110.965 3461
880.233 111.446 3476
888.545 111.446 3476
898.663 111.671 3483
906.992 111.671 3483
915.321 111.671 3483
923.65 111.671 3483
931.979 111.671 3483
942.197 111.895 3490
950.543 111.895 3490
958.889 111.895 3490
967.234 111.895 3490
979.773 112.376 3505
994.357 113.081 3527
1002.79 113.081 3527
1011.23 113.081 3527
1019.66 113.081 3527
1023.72 112.6 3512
1032.12 112.6 3512
1040.52 112.6 3512
1051.31 112.857 3520
1063.94 113.306 3534
1072.39 113.306 3534
1080.84 113.306 3534
1089.29 113.306 3534
1095.57 113.081 3527
1104 113.081 3527
1107.7 112.6 3512
1116.1 112.6 3512
1124.5 112.6 3512
1132.9 112.6 3512
1136.42 112.12 3497
1147.4 112.376 3505
1158.09 112.6 3512
1166.49 112.6 3512
1174.89 112.6 3512
1183.29 112.6 3512
1199.15 113.306 3534
1218.2 114.3 3565
1229.13 114.524 3572
1237.67 114.524 3572
1254.24 115.262 3595
1265.64 115.518 3603
1274.26 115.518 3603
1282.88 115.518 3603
1291.49 115.518 3603
1297.22 115.262 3595
1305.82 115.262 3595
1314.41 115.262 3595
1323.01 115.262 3595
1337.53 115.775 3611
1346.17 115.775 3611
1354.8 115.775 3611
1363.44 115.775 3611
1372.07 115.775 3611
1380.71 115.775 3611
1389.34 115.775 3611
1394.88 115.518 3603
1400.38 115.262 3595
1408.98 115.262 3595
1405.74 114.3 3565
1414.27 114.3 3565
1419.6 114.043 3557
1424.9 113.787 3549
1433.38 113.787 3549
1430.09 112.857 3520
1429.11 112.12 3497
1437.47 112.12 3497
1449.14 112.376 3505
1457.52 112.376 3505
1465.9 112.376 3505
1470.92 112.12 3497
1479.28 112.12 3497
1487.64 112.12 3497
1493.01 111.895 3490
1501.36 111.895 3490
1516.19 112.376 3505
1524.57 112.376 3505
1532.95 112.376 3505
1541.33 112.376 3505
1552.81 112.6 3512
1561.21 112.6 3512
1569.61 112.6 3512
1584.75 113.081 3527
1593.18 113.081 3527
1601.61 113.081 3527
1610.05 113.081 3527
1618.48 113.081 3527
1620 112.6 3512
1628.4 112.6 3512
1636.79 112.6 3512
1648.94 112.857 3520
1663.95 113.306 3534
1672.4 113.306 3534
1680.85 113.306 3534
1682.61 112.857 3520
1687.18 112.6 3512
1710.07 113.562 3542
1718.54 113.562 3542
1727.01 113.562 3542
1738.91 113.787 3549
1758.72 114.524 3572
1775.17 115.037 3588
1783.75 115.037 3588
1792.33 115.037 3588
1789.37 114.3 3565
1797.89 114.3 3565
1802.37 114.043 3557
1810.87 114.043 3557
1831.14 114.781 3580
1843.81 115.037 3588
1852.39 115.037 3588
1860.97 115.037 3588
1869.55 115.037 3588
1878.13 115.037 3588
1882.51 114.781 3580
1895.29 115.037 3588
1903.87 115.037 3588
1912.45 115.037 3588
1921.03 115.037 3588
1929.61 115.037 3588
1938.19 115.037 3588
1946.77 115.037 3588
1959.17 115.262 3595
1967.77 115.262 3595
1976.36 115.262 3595
2007.04 116.544 3635
2019.62 116.769 3642
2028.33 116.769 3642
2037.04 116.769 3642
2054.73 117.281 3658
2082.1 118.34 3691
2090.92 118.34 3691
2108.85 118.853 3707
2117.72 118.853 3707
2126.58 118.853 3707
2135.44 118.853 3707
2139.68 118.596 3699
2139.23 118.083 3683
2148.04 118.083 3683
2152.16 117.827 3675
2156.25 117.57 3667
2165.02 117.57 3667
2173.78 117.57 3667
2182.55 117.57 3667
2185.94 117.281 3658
2189.89 117.025 3650
2193.8 116.769 3642
2202.51 116.769 3642
2202.11 116.288 3627
2205.91 116.031 3619
2204.77 115.518 3603
2213.39 115.518 3603
2222 115.518 3603
2230.62 115.518 3603
2229.91 115.037 3588
2242.86 115.262 3595
2251.46 115.262 3595
2260.05 115.262 3595
2268.65 115.262 3595
2287.38 115.775 3611
2301.1 116.031 3619
2309.76 116.031 3619
2318.41 116.031 3619
2321.92 115.775 3611
2330.56 115.775 3611
2328.83 115.262 3595
2342.63 115.518 3603
2351.24 115.518 3603
2365.1 115.775 3611
2373.73 115.775 3611
2382.37 115.775 3611
2391 115.775 3611
2410.27 116.288 3627
2418.94 116.288 3627
2427.62 116.288 3627
2436.29 116.288 3627
2434.18 115.775 3611
2442.81 115.775 3611
2446.02 115.518 3603
2407.62 113.306 3534
2390.78 112.12 3497
2399.14 112.12 3497
2036.02 94.165 2937
2043.04 94.165 2937
2050.07 94.165 2937
2057.09 94.165 2937
2031.78 92.6902 2891
2028.12 92.2093 2876
2027.92 91.8887 2866
2034.78 91.8887 2866
2038.78 91.7604 2862
2031.33 91.1192 2842
2038.12 91.1192 2842
2044.92 91.1192 2842
2048.11 90.9589 2837
2051.27 90.7986 2832
2058.04 90.7986 2832
2064.81 90.7986 2832
2071.59 90.7986 2832
2075.42 90.6703 2828
2085.13 90.7986 2832
2091.9 90.7986 2832
2102.38 90.9589 2837
2109.16 90.9589 2837
2119.68 91.1192 2842
2126.47 91.1192 2842
2133.27 91.1192 2842
2140.07 91.1192 2842
2146.86 91.1192 2842
2153.66 91.1192 2842
2160.45 91.1192 2842
2167.25 91.1192 2842
2174.05 91.1192 2842
-2388.43 109.918 3190
-2380.8 109.918 3190
-2373.17 109.918 3190
-2365.55 109.918 3190
-2357.92 109.918 3190
-2354.71 110.125 3196
-2347.07 110.125 3196
-2339.43 110.125 3196
-2331.78 110.125 3196
-2328.5 110.332 3202
-2320.85 110.332 3202
-2313.19 110.332 3202
-2305.53 110.332 3202
-2297.88 110.332 3202
-2290.22 110.332 3202
-2286.84 110.539 3208
-2279.17 110.539 3208
-2271.5 110.539 3208
-2263.82 110.539 3208
-2251.93 110.332 3202
-2235.87 109.918 3190
-2228.24 109.918 3190
-2212.26 109.505 3178
-2204.66 109.505 3178
-2197.06 109.505 3178
-2189.46 109.505 3178
-2181.86 109.505 3178
-2174.26 109.505 3178
-2166.66 109.505 3178
-2159.06 109.505 3178
-2147.4 109.298 3172
-2139.81 109.298 3172
-2144.33 109.918 3190
-2144.74 110.332 3202
-2137.08 110.332 3202
-2133.41 110.539 3208
-2125.74 110.539 3208
-2118.07 110.539 3208
-2110.4 110.539 3208
-2102.73 110.539 3208
-2091.14 110.332 3202
-2091.29 110.745 3214
-2083.6 110.745 3214
-2080.44 110.986 3221
-2076.6 111.193 3227
-2068.88 111.193 3227
-2061.16 111.193 3227
-2045.18 110.745 3214
-2026.08 110.125 3196
-2018.44 110.125 3196
-2010.79 110.125 3196
-2006.91 110.332 3202
-1999.25 110.332 3202
-1991.6 110.332 3202
-1983.94 110.332 3202
-1976.28 110.332 3202
-1964.94 110.125 3196
-1957.3 110.125 3196
-1949.65 110.125 3196
-1949.3 110.539 3208
-1945.26 110.745 3214
-1937.58 110.745 3214
-1929.89 110.745 3214
-1922.2 110.745 3214
-1922.26 111.193 3227
-1918.11 111.4 3233
-1910.37 111.4 3233
-1902.64 111.4 3233
-1909.57 112.261 3258
-1901.77 112.261 3258
-1893.98 112.261 3258
-1890.25 112.503 3265
-1885.9 112.709 3271
-1878.08 112.709 3271
-1870.25 112.709 3271
-1855.03 112.261 3258
-1843.84 112.055 3252
-1836.06 112.055 3252
-1831.66 112.261 3258
-1823.87 112.261 3258
-1816.08 112.261 3258
-1797.74 111.607 3239
-1789.99 111.607 3239
-1782.25 111.607 3239
-1774.5 111.607 3239
-1766.76 111.607 3239
-1759.01 111.607 3239
-1751.27 111.607 3239
-1740.29 111.4 3233
-1726.13 110.986 3221
-1718.43 110.986 3221
-1710.72 110.986 3221
-1703.02 110.986 3221
-1695.32 110.986 3221
-1687.62 110.986 3221
-1679.91 110.986 3221
-1672.21 110.986 3221
-1660.89 110.745 3214
-1653.21 110.745 3214
-1645.52 110.745 3214
-1641.4 110.986 3221
-1633.7 110.986 3221
-1629.03 111.193 3227
-1621.31 111.193 3227
-1613.59 111.193 3227
-1605.88 111.193 3227
-1598.16 111.193 3227
-1590.44 111.193 3227
-1582.73 111.193 3227
-1575.01 111.193 3227
-1567.29 111.193 3227
-1559.58 111.193 3227
-1561 111.848 3246
-1553.23 111.848 3246
-1545.47 111.848 3246
-1537.71 111.848 3246
-1529.95 111.848 3246
-1525 112.055 3252
-1520.02 112.261 3258
-1512.23 112.261 3258
-1507.67 112.503 3265
-1499.87 112.503 3265
-1492.06 112.503 3265
-1484.25 112.503 3265
-1482.32 112.951 3278
-1479.88 113.364 3290
-1472.01 113.364 3290
-1464.15 113.364 3290
-1459.38 113.605 3297
-1451.49 113.605 3297
-1443.61 113.605 3297
-1435.72 113.605 3297
-1427.84 113.605 3297
-1416.94 113.364 3290
-1409.07 113.364 3290
-1401.21 113.364 3290
-1388.26 112.951 3278
-1380.42 112.951 3278
-1372.58 112.951 3278
-1364.74 112.951 3278
-1351.52 112.503 3265
-1343.71 112.503 3265
-1335.91 112.503 3265
-1328.1 112.503 3265
-1320.29 112.503 3265
-1309.67 112.261 3258
-1301.88 112.261 3258
-1294.09 112.261 3258
-1281.56 111.848 3246
-1266.34 111.193 3227
-1251.21 110.539 3208
-1243.54 110.539 3208
-1233.56 110.332 3202
-1225.9 110.332 3202
-1215.96 110.125 3196
-1208.32 110.125 3196
-589.081 55.4416 1609
-585.597 55.476 1610
-581.747 55.476 1610
-577.897 55.476 1610
-574.76 55.5449 1612
-570.905 55.5449 1612
-567.05 55.5449 1612
-563.196 55.5449 1612
-558.647 55.476 1610
-554.797 55.476 1610
-550.947 55.476 1610
-546.757 55.4416 1609
-542.235 55.3726 1607
-538.057 55.3382 1606
-534.216 55.3382 1606
-530.376 55.3382 1606
-526.535 55.3382 1606
-521.719 55.2348 1603
-517.885 55.2348 1603
-513.411 55.1659 1601
-508.946 55.097 1599
-504.174 54.9936 1596
-500.358 54.9936 1596
-496.23 54.9592 1595
-492.416 54.9592 1595
-487.683 54.8558 1592
-483.876 54.8558 1592
-479.466 54.7869 1590
-475.365 54.7524 1589
-471.565 54.7524 1589
-467.765 54.7524 1589
-463.965 54.7524 1589
-460.165 54.7524 1589
-456.653 54.7869 1590
-453.42 54.8558 1592
-449.613 54.8558 1592
-446.086 54.8902 1593
-443.943 55.097 1599
-441.22 55.2348 1603
-437.387 55.2348 1603
-434.635 55.3726 1607
-431.329 55.4416 1609
-428.278 55.5449 1612
-424.423 55.5449 1612
-421.351 55.6483 1615
-418.265 55.7517 1618
-415.164 55.855 1621
-411.288 55.855 1621
-407.914 55.924 1623
-404.78 56.0273 1626
-401.385 56.0962 1628
-398.468 56.2341 1632
-394.566 56.2341 1632
-391.142 56.303 1634
-387.235 56.303 1634
-383.796 56.3719 1636
-379.884 56.3719 1636
-376.202 56.4064 1637
-372.287 56.4064 1637
-368.823 56.4753 1639
-364.903 56.4753 1639
-361.204 56.5097 1640
-357.718 56.5786 1642
-354.438 56.682 1645
-350.504 56.682 1645
-346.571 56.682 1645
-344.095 56.9232 1652
-340.762 57.0266 1655
-336.805 57.0266 1655
-333.451 57.13 1658
-329.883 57.1989 1660
-326.306 57.2678 1662
-322.332 57.2678 1662
-318.358 57.2678 1662
-315.329 57.4401 1667
-312.277 57.6124 1672
-308.278 57.6124 1672
-304.826 57.7157 1675
-300.821 57.7157 1675
-298.056 57.9569 1682
-294.033 57.9569 1682
-290.011 57.9569 1682
-286.499 58.0603 1685
-282.805 58.1292 1687
-278.771 58.1292 1687
-275.877 58.3704 1694
-272.307 58.4738 1697
-269.04 58.6461 1702
-264.97 58.6461 1702
-261.513 58.7839 1706
-257.886 58.8873 1709
-254.69 59.094 1715
-250.589 59.094 1715
-246.919 59.1974 1718
-243.376 59.3352 1722
-240.231 59.5764 1729
-236.097 59.5764 1729
-232.633 59.7487 1734
-229.277 59.9554 1740
-225.763 60.1277 1745
-221.59 60.1277 1745
-217.916 60.2656 1749
-214.1 60.3689 1752
-210.629 60.5757 1758
-206.425 60.5757 1758
-203.027 60.8169 1765
-199.256 60.9547 1769
-195.908 61.2304 1777
-191.659 61.2304 1777
-187.62 61.2993 1779
-183.469 61.3337 1780
-179.616 61.4716 1784
-175.35 61.4716 1784
-171.659 61.6783 1790
-167.752 61.8161 1794
-163.645 61.885 1796
-159.35 61.885 1796
-155.4 62.0229 1800
-151.516 62.1952 1805
-147.526 62.333 1809
-143.2 62.333 1809
-139.181 62.4708 1813
-134.846 62.4708 1813
-130.51 62.4708 1813
-221.972 113.812 3303
-214.074 113.812 3303
-206.175 113.812 3303
-197.916 113.605 3297
-190.032 113.605 3297
-182.148 113.605 3297
-173.894 113.364 3290
-166.027 113.364 3290
-158.159 113.364 3290
-150.612 113.605 3297
-143.29 114.053 3310
-135.375 114.053 3310
-128.5 114.984 3337
-120.52 114.984 3337
-112.54 114.984 3337
-104.56 114.984 3337
-96.5805 114.984 3337
-89.291 115.879 3363
-81.4182 116.121 3370
-73.3595 116.121 3370
-65.3008 116.121 3370
-57.2421 116.121 3370
-49.1834 116.121 3370
-41.1247 116.121 3370
-33.2721 116.844 3391
-25.2151 117.085 3398
-17.2303 118.05 3426
-9.03767 118.05 3426
-0.846789 118.291 3433
7.39258 118.774 3447
15.6672 119.015 3454
23.9267 119.015 3454
32.2515 119.256 3461
40.5278 119.256 3461
48.8041 119.256 3461
57.0804 119.256 3461
65.2245 119.015 3454
73.4841 119.015 3454
81.7436 119.015 3454
89.8208 118.774 3447
98.0636 118.774 3447
105.875 118.291 3433
114.084 118.291 3433
121.545 117.568 3412
129.704 117.568 3412
137.864 117.568 3412
146.023 117.568 3412
154.498 117.809 3419
162.674 117.809 3419
171.2 118.05 3426
179.759 118.291 3433
188.351 118.533 3440
196.577 118.533 3440
205.22 118.774 3447
213.463 118.774 3447
221.706 118.774 3447
229.949 118.774 3447
237.708 118.533 3440
246.434 118.774 3447
255.712 119.256 3461
263.988 119.256 3461
272.264 119.256 3461
279.973 119.015 3454
288.233 119.015 3454
295.891 118.774 3447
303.517 118.533 3440
312.377 118.774 3447
320.62 118.774 3447
328.863 118.774 3447
337.105 118.774 3447
345.348 118.774 3447
353.591 118.774 3447
361.834 118.774 3447
369.325 118.533 3440
376.783 118.291 3433
384.992 118.291 3433
393.202 118.291 3433
397.319 117.085 3398
405.444 117.085 3398
415.274 117.568 3412
423.433 117.568 3412
431.592 117.568 3412
437.947 117.085 3398
442.397 116.121 3370
452.327 116.603 3384
460.419 116.603 3384
470.449 117.085 3398
478.575 117.085 3398
486.701 117.085 3398
494.826 117.085 3398
500.88 116.603 3384
506.866 116.121 3370
514.925 116.121 3370
521.897 115.879 3363
529.939 115.879 3363
537.981 115.879 3363
547.16 116.121 3370
556.372 116.362 3377
564.447 116.362 3377
576.083 117.085 3398
584.208 117.085 3398
592.334 117.085 3398
600.46 117.085 3398
607.332 116.844 3391
616.711 117.085 3398
627.411 117.568 3412
635.57 117.568 3412
645.05 117.809 3419
654.563 118.05 3426
665.464 118.533 3440
673.69 118.533 3440
683.304 118.774 3447
692.951 119.015 3454
701.211 119.015 3454
709.47 119.015 3454
719.184 119.256 3461
728.932 119.497 3468
738.926 119.773 3476
747.238 119.773 3476
755.55 119.773 3476
762.104 119.497 3468
770.397 119.497 3468
777.119 119.256 3461
783.806 119.015 3454
792.066 119.015 3454
800.325 119.015 3454
811.862 119.497 3468
820.155 119.497 3468
832.032 120.014 3483
840.361 120.014 3483
