-116.362 -210.742 1672
-112.364 -210.742 1672
-108.365 -210.742 1672
-104.367 -210.742 1672
-100.369 -210.742 1672
-96.1401 -210.238 1668
-92.1514 -210.238 1668
-88.1627 -210.238 1668
-84.174 -210.238 1668
-80.1853 -210.238 1668
-76.1966 -210.238 1668
-72.2945 -210.49 1670
-68.301 -210.49 1670
-64.3075 -210.49 1670
-60.3141 -210.49 1670
-56.152 -209.86 1665
-81.9798 -474.674 3766
-73.1291 -475.682 3774
-64.546 -478.959 3800
-55.459 -478.959 3800
-46.3721 -478.959 3800
-37.2851 -478.959 3800
-28.1982 -478.959 3800
-18.9402 -474.674 3766
-9.93458 -474.674 3766
-0.928927 -474.674 3766
8.05742 -473.54 3757
17.0415 -473.54 3757
25.7971 -469.38 3724
34.6277 -468.372 3716
43.4084 -467.237 3707
52.273 -467.237 3707
61.1376 -467.237 3707
70.1721 -468.372 3716
79.0581 -468.372 3716
87.9442 -468.372 3716
96.5958 -467.237 3707
105.233 -466.229 3699
114.078 -466.229 3699
122.924 -466.229 3699
131.484 -465.221 3691
139.702 -463.204 3675
147.803 -461.061 3658
156.551 -461.061 3658
164.937 -460.053 3650
173.284 -459.045 3642
181.993 -459.045 3642
191.121 -460.053 3650
199.85 -460.053 3650
208.578 -460.053 3650
217.306 -460.053 3650
226.034 -460.053 3650
234.763 -460.053 3650
243.491 -460.053 3650
251.666 -459.045 3642
259.303 -457.154 3627
267.976 -457.154 3627
276.65 -457.154 3627
285.952 -458.162 3635
295.212 -459.045 3642
305.256 -461.061 3658
314.004 -461.061 3658
324.251 -463.204 3675
333.764 -464.212 3683
342.571 -464.212 3683
351.378 -464.212 3683
360.185 -464.212 3683
368.993 -464.212 3683
377.8 -464.212 3683
385.767 -463.204 3675
394.555 -463.204 3675
403.343 -463.204 3675
413.029 -464.212 3683
421.836 -464.212 3683
431.578 -465.221 3691
442.314 -467.237 3707
455.195 -471.397 3740
464.138 -471.397 3740
473.082 -471.397 3740
484.216 -473.54 3757
493.2 -473.54 3757
504.457 -475.682 3774
513.481 -475.682 3774
522.506 -475.682 3774
534.066 -477.951 3792
543.134 -477.951 3792
552.202 -477.951 3792
572.963 -487.908 3871
582.219 -487.908 3871
591.476 -487.908 3871
1051.78 -509.083 4039
1061.44 -509.083 4039
1071.09 -509.083 4039
1067.91 -503.033 3991
1075.02 -501.899 3982
1084.55 -501.899 3982
1063.57 -487.908 3871
1067.84 -485.64 3853
1084.6 -489.043 3880
1104.03 -493.58 3916
1113.39 -493.58 3916
1122.76 -493.58 3916
1140.21 -497.109 3944
1152.27 -498.244 3953
1161.72 -498.244 3953
1176.8 -500.639 3972
1186.3 -500.639 3972
1195.8 -500.639 3972
1205.3 -500.639 3972
1217.86 -501.899 3982
1227.38 -501.899 3982
1236.9 -501.899 3982
1246.42 -501.899 3982
1243.96 -497.109 3944
1253.39 -497.109 3944
1265.7 -498.244 3953
1275.16 -498.244 3953
1284.61 -498.244 3953
1297.34 -499.504 3963
1309.78 -500.639 3972
1319.28 -500.639 3972
1328.78 -500.639 3972
1335.24 -499.504 3963
1331.82 -494.715 3925
1344.63 -495.975 3935
1354.04 -495.975 3935
1363.45 -495.975 3935
1372.86 -495.975 3935
1382.27 -495.975 3935
1328.72 -473.54 3757
1299.61 -460.053 3650
1300.09 -457.154 3627
1308.77 -457.154 3627
1317.44 -457.154 3627
1323.19 -456.146 3619
1744.98 -514.125 4079
1759.04 -515.385 4089
1768.82 -515.385 4089
1778.59 -515.385 4089
1770.88 -510.344 4049
1767.81 -506.689 4020
1777.42 -506.689 4020
1774.14 -503.033 3991
1783.69 -503.033 3991
1789.19 -501.899 3982
1798.71 -501.899 3982
1795.06 -498.244 3953
1791.73 -494.715 3925
1813.97 -498.244 3953
1828.03 -499.504 3963
1837.51 -499.504 3963
1860.04 -503.033 3991
1869.58 -503.033 3991
1879.12 -503.033 3991
1848.91 -492.446 3907
2351.97 -466.229 3699
2360.82 -466.229 3699
2369.66 -466.229 3699
2357.93 -462.196 3667
2382.19 -465.221 3691
2391.02 -465.221 3691
2426.5 -470.389 3732
2435.43 -470.389 3732
2444.35 -470.389 3732
2442.76 -468.372 3716
2398.2 -458.162 3635
2396.3 -456.146 3619
2404.95 -456.146 3619
2397.6 -453.121 3595
2406.2 -453.121 3595
2414.8 -453.121 3595
2439.57 -456.146 3619
2453.64 -457.154 3627
2462.31 -457.154 3627
2470.98 -457.154 3627
2479.66 -457.154 3627
2488.33 -457.154 3627
2491.5 -456.146 3619
2511.2 -458.162 3635
2581.59 -469.38 3724
2590.5 -469.38 3724
2599.4 -469.38 3724
2613.91 -470.389 3732
2622.84 -470.389 3732
2667.73 -476.817 3783
2676.77 -476.817 3783
2710.67 -481.228 3818
2719.8 -481.228 3818
2728.93 -481.228 3818
2738.06 -481.228 3818
2740.71 -480.094 3809
2743.32 -478.959 3800
2752.41 -478.959 3800
2761.5 -478.959 3800
2770.58 -478.959 3800
2779.67 -478.959 3800
2880.49 -494.715 3925
2917.86 -499.504 3963
2927.33 -499.504 3963
2936.81 -499.504 3963
2952.98 -500.639 3972
2969.93 -501.899 3982
2979.46 -501.899 3982
3017.5 -506.689 4020
3027.12 -506.689 4020
3036.73 -506.689 4020
3046.34 -506.689 4020
3033.91 -503.033 3991
3036.59 -501.899 3982
3046.11 -501.899 3982
-2450.01 -447.476 3619
-2446.75 -448.466 3627
-2438.08 -448.466 3627
-2429.41 -448.466 3627
-2426.07 -449.455 3635
-2417.38 -449.455 3635
-2418.63 -451.309 3650
-2409.9 -451.309 3650
-2433.41 -457.368 3699
-2424.56 -457.368 3699
-2415.71 -457.368 3699
-2406.87 -457.368 3699
-2392.84 -456.379 3691
-2400.16 -459.47 3716
-2412.51 -463.55 3749
-2403.54 -463.55 3749
-2394.58 -463.55 3749
-722.167 -218.236 1765
-717.946 -218.236 1765
-713.725 -218.236 1765
-708.299 -217.865 1762
-700.888 -216.876 1754
-695.502 -216.505 1751
-691.315 -216.505 1751
-687.128 -216.505 1751
-682.941 -216.505 1751
-677.978 -216.258 1749
-673.796 -216.258 1749
-668.082 -215.763 1745
-661.246 -214.897 1738
-654.822 -214.156 1732
-650.304 -214.032 1731
-646.165 -214.032 1731
-641.284 -213.785 1729
-636.412 -213.537 1727
-631.55 -213.29 1725
-627.425 -213.29 1725
-621.493 -212.672 1720
-615.945 -212.177 1716
-610.772 -211.806 1713
-606.675 -211.806 1713
-601.172 -211.312 1709
-596.037 -210.941 1706
-590.57 -210.446 1702
-586.5 -210.446 1702
-582.087 -210.323 1701
-577.34 -210.075 1699
-572.602 -209.828 1697
-568.544 -209.828 1697
-564.486 -209.828 1697
-559.438 -209.457 1694
-554.075 -208.962 1690
-550.034 -208.962 1690
-545.023 -208.592 1687
-539.386 -207.973 1682
-533.772 -207.355 1677
-529.762 -207.355 1677
-525.125 -207.108 1675
-519.564 -206.49 1670
-514.644 -206.119 1667
-509.433 -205.624 1663
-505.456 -205.624 1663
-499.67 -204.882 1657
-494.511 -204.388 1653
-490.558 -204.388 1653
-486.605 -204.388 1653
-480.9 -203.646 1647
-476.093 -203.275 1644
-471.587 -203.027 1642
-467.661 -203.027 1642
-463.169 -202.78 1640
-459.248 -202.78 1640
-455.326 -202.78 1640
-451.404 -202.78 1640
-447.483 -202.78 1640
-443.29 -202.656 1639
-439.371 -202.656 1639
-435.452 -202.656 1639
-431.532 -202.656 1639
-427.091 -202.409 1637
-423.177 -202.409 1637
-419.262 -202.409 1637
-415.347 -202.409 1637
-411.433 -202.409 1637
-407.518 -202.409 1637
-403.604 -202.409 1637
-399.689 -202.409 1637
-395.775 -202.409 1637
-392.339 -202.656 1639
-388.656 -202.78 1640
-384.735 -202.78 1640
-380.813 -202.78 1640
-376.891 -202.78 1640
-372.97 -202.78 1640
-369.048 -202.78 1640
-364.903 -202.656 1639
-360.984 -202.656 1639
-356.629 -202.409 1637
-352.714 -202.409 1637
-348.587 -202.286 1636
-344.253 -202.038 1634
-340.346 -202.038 1634
-336.439 -202.038 1634
-332.531 -202.038 1634
-328.221 -201.791 1632
-324.319 -201.791 1632
-320.416 -201.791 1632
-316.514 -201.791 1632
-312.994 -202.038 1634
-309.087 -202.038 1634
-305.179 -202.038 1634
-300.903 -201.791 1632
-296.819 -201.667 1631
-292.918 -201.667 1631
-289.018 -201.667 1631
-285.118 -201.667 1631
-281.218 -201.667 1631
-277.318 -201.667 1631
-273.417 -201.667 1631
-269.517 -201.667 1631
-265.617 -201.667 1631
-261.717 -201.667 1631
-257.975 -201.791 1632
-254.072 -201.791 1632
-250.169 -201.791 1632
-246.569 -202.038 1634
-242.958 -202.286 1636
-239.192 -202.409 1637
-235.278 -202.409 1637
-231.363 -202.409 1637
-227.865 -202.78 1640
-224.49 -203.275 1644
-220.558 -203.275 1644
-217.022 -203.646 1647
-213.213 -203.769 1648
-209.907 -204.388 1653
-205.955 -204.388 1653
-202.246 -204.635 1655
-198.648 -205.006 1658
-194.918 -205.253 1660
-190.948 -205.253 1660
-187.317 -205.624 1663
-183.561 -205.871 1665
-179.795 -206.119 1667
-175.808 -206.119 1667
-171.822 -206.119 1667
-167.937 -206.242 1668
-164.341 -206.737 1672
-160.343 -206.737 1672
-156.345 -206.737 1672
-152.346 -206.737 1672
-148.348 -206.737 1672
-144.35 -206.737 1672
-140.351 -206.737 1672
-136.353 -206.737 1672
-132.355 -206.737 1672
-128.357 -206.737 1672
-124.358 -206.737 1672
-120.36 -206.737 1672
-116.362 -206.737 1672
-112.364 -206.737 1672
-108.365 -206.737 1672
-104.367 -206.737 1672
-100.369 -206.737 1672
-96.1401 -206.242 1668
-92.1514 -206.242 1668
-88.1627 -206.242 1668
-84.174 -206.242 1668
-80.2814 -206.49 1670
-76.288 -206.49 1670
-72.2945 -206.49 1670
-68.3828 -206.737 1672
-64.3846 -206.737 1672
-60.3863 -206.737 1672
-81.7838 -464.54 3757
-72.9741 -465.652 3766
-63.9685 -465.652 3766
-54.9628 -465.652 3766
-45.9572 -465.652 3766
-36.9515 -465.652 3766
-27.9459 -465.652 3766
-18.9402 -465.652 3766
-9.93458 -465.652 3766
-0.928927 -465.652 3766
8.05742 -464.54 3757
17.0415 -464.54 3757
25.7971 -460.459 3724
34.6277 -459.47 3716
43.4084 -458.357 3707
52.3999 -459.47 3716
61.286 -459.47 3716
70.1721 -459.47 3716
79.0581 -459.47 3716
87.9442 -459.47 3716
96.8303 -459.47 3716
105.46 -458.357 3707
114.325 -458.357 3707
123.189 -458.357 3707
131.769 -457.368 3699
140.31 -456.379 3691
148.167 -453.411 3667
156.936 -453.411 3667
165.298 -452.299 3658
174.045 -452.299 3658
182.793 -452.299 3658
191.54 -452.299 3658
200.288 -452.299 3658
209.035 -452.299 3658
217.782 -452.299 3658
226.53 -452.299 3658
235.277 -452.299 3658
244.025 -452.299 3658
252.219 -451.309 3650
259.875 -449.455 3635
268.567 -449.455 3635
277.26 -449.455 3635
285.952 -449.455 3635
295.212 -450.32 3642
304.589 -451.309 3650
313.317 -451.309 3650
323.545 -453.411 3667
333.039 -454.401 3675
341.827 -454.401 3675
350.615 -454.401 3675
359.403 -454.401 3675
368.191 -454.401 3675
376.979 -454.401 3675
385.767 -454.401 3675
394.555 -454.401 3675
402.465 -453.411 3667
411.234 -453.411 3667
420.003 -453.411 3667
430.643 -455.39 3683
441.359 -457.368 3699
453.247 -460.459 3724
464.138 -462.438 3740
473.082 -462.438 3740
482.025 -462.438 3740
493.2 -464.54 3757
502.184 -464.54 3757
511.168 -464.54 3757
522.506 -466.642 3774
534.066 -468.867 3792
543.134 -468.867 3792
552.202 -468.867 3792
572.963 -478.635 3871
582.219 -478.635 3871
591.476 -478.635 3871
1051.78 -499.408 4039
1061.44 -499.408 4039
1071.09 -499.408 4039
1065.5 -492.36 3982
1067.19 -488.774 3953
1076.65 -488.774 3953
1063.57 -478.635 3871
1067.84 -476.41 3853
1099.97 -486.549 3935
1114.46 -488.774 3953
1123.91 -488.774 3953
1133.36 -488.774 3953
1145.71 -490.011 3963
1157.81 -491.124 3972
1167.31 -491.124 3972
1179.77 -492.36 3982
1189.29 -492.36 3982
1198.81 -492.36 3982
1208.33 -492.36 3982
1217.86 -492.36 3982
1227.38 -492.36 3982
1236.9 -492.36 3982
1246.42 -492.36 3982
1255.94 -492.36 3982
1265.47 -492.36 3982
1277.87 -493.473 3991
1287.41 -493.473 3991
1296.96 -493.473 3991
1315.99 -497.059 4020
1325.61 -497.059 4020
1335.22 -497.059 4020
1332.12 -492.36 3982
1319.41 -484.199 3916
1328.77 -484.199 3916
1338.14 -484.199 3916
1347.5 -484.199 3916
1356.86 -484.199 3916
1310.76 -464.54 3757
1319.74 -464.54 3757
1319.88 -461.448 3732
1299.61 -451.309 3650
1305.47 -450.32 3642
1314.18 -450.32 3642
1322.89 -450.32 3642
1326.11 -448.466 3627
1331.84 -447.476 3619
1759.04 -505.59 4089
1768.82 -505.59 4089
1778.59 -505.59 4089
1779.63 -503.117 4069
1776.16 -499.408 4039
1785.82 -499.408 4039
1778.59 -494.709 4001
1788.16 -494.709 4001
1793.23 -493.473 3991
1802.77 -493.473 3991
1808.23 -492.36 3982
1791.73 -485.312 3925
1813.97 -488.774 3953
1828.03 -490.011 3963
1837.51 -490.011 3963
1860.04 -493.473 3991
1869.58 -493.473 3991
1879.12 -493.473 3991
2372.95 -461.448 3732
2381.88 -461.448 3732
2390.8 -461.448 3732
2368.22 -455.39 3683
2403.49 -460.459 3724
2412.39 -460.459 3724
2426.5 -461.448 3732
2435.43 -461.448 3732
2444.35 -461.448 3732
2442.76 -459.47 3716
2398.2 -449.455 3635
2396.3 -447.476 3619
2404.95 -447.476 3619
2397.6 -444.509 3595
2406.2 -444.509 3595
2425.54 -446.487 3611
2439.57 -447.476 3619
2453.64 -448.466 3627
2462.31 -448.466 3627
2470.98 -448.466 3627
2479.66 -448.466 3627
2488.33 -448.466 3627
2491.5 -447.476 3619
2511.2 -449.455 3635
2547.62 -454.401 3675
2578.67 -458.357 3707
2587.54 -458.357 3707
2602.71 -459.47 3716
2611.59 -459.47 3716
2637.4 -462.438 3740
2646.35 -462.438 3740
2679.43 -466.642 3774
2719.8 -472.082 3818
2728.93 -472.082 3818
2738.06 -472.082 3818
2747.19 -472.082 3818
2743.32 -469.856 3800
2752.41 -469.856 3800
2761.5 -469.856 3800
2770.58 -469.856 3800
2779.67 -469.856 3800
2880.49 -485.312 3925
2903.87 -487.662 3944
2913.3 -487.662 3944
2936.81 -490.011 3963
2946.29 -490.011 3963
2969.93 -492.36 3982
2979.46 -492.36 3982
2995.73 -493.473 3991
3005.28 -493.473 3991
3014.82 -493.473 3991
3024.37 -493.473 3991
3033.91 -493.473 3991
3036.59 -492.36 3982
3046.11 -492.36 3982
-2450.96 -435.897 3595
-2442.36 -435.897 3595
-2450.01 -438.807 3619
-2446.75 -439.777 3627
-2438.08 -439.777 3627
-2429.41 -439.777 3627
-2420.73 -439.777 3627
-2417.38 -440.747 3635
-2435.19 -445.597 3675
-2426.41 -445.597 3675
-2433.41 -448.507 3699
-2424.56 -448.507 3699
-2415.71 -448.507 3699
-2401.66 -447.537 3691
-2403.21 -449.477 3707
-2400.16 -450.568 3716
-2423.45 -456.631 3766
-2414.44 -456.631 3766
-2405.44 -456.631 3766
-2379.89 -453.478 3740
-2370.94 -453.478 3740
-722.167 -214.008 1765
-717.946 -214.008 1765
-713.725 -214.008 1765
-708.299 -213.644 1762
-700.888 -212.674 1754
-695.9 -212.432 1752
-691.71 -212.432 1752
-687.128 -212.31 1751
-682.941 -212.31 1751
-677.978 -212.068 1749
-673.796 -212.068 1749
-668.082 -211.583 1745
-661.246 -210.734 1738
-654.822 -210.007 1732
-650.304 -209.885 1731
-646.165 -209.885 1731
-641.284 -209.643 1729
-636.412 -209.4 1727
-631.55 -209.158 1725
-627.425 -209.158 1725
-621.493 -208.552 1720
-615.945 -208.067 1716
-610.772 -207.703 1713
-606.675 -207.703 1713
-601.172 -207.218 1709
-596.037 -206.854 1706
-590.57 -206.369 1702
-586.5 -206.369 1702
-582.087 -206.248 1701
-577.34 -206.005 1699
-572.602 -205.763 1697
-568.544 -205.763 1697
-564.486 -205.763 1697
-559.438 -205.399 1694
-554.075 -204.914 1690
-550.034 -204.914 1690
-545.023 -204.55 1687
-539.386 -203.944 1682
-533.772 -203.338 1677
-529.762 -203.338 1677
-525.125 -203.095 1675
-519.564 -202.489 1670
-514.644 -202.125 1667
-510.045 -201.883 1665
-506.064 -201.883 1665
-499.67 -200.913 1657
-494.511 -200.428 1653
-490.558 -200.428 1653
-486.605 -200.428 1653
-480.9 -199.7 1647
-476.093 -199.337 1644
-471.587 -199.094 1642
-467.661 -199.094 1642
-463.169 -198.852 1640
-459.248 -198.852 1640
-455.326 -198.852 1640
-451.404 -198.852 1640
-447.483 -198.852 1640
-443.29 -198.73 1639
-439.371 -198.73 1639
-435.452 -198.73 1639
-431.532 -198.73 1639
-427.613 -198.73 1639
-423.694 -198.73 1639
-419.774 -198.73 1639
-415.347 -198.488 1637
-411.433 -198.488 1637
-408.016 -198.73 1639
-404.097 -198.73 1639
-400.178 -198.73 1639
-395.775 -198.488 1637
-392.339 -198.73 1639
-388.656 -198.852 1640
-384.735 -198.852 1640
-380.813 -198.852 1640
-376.891 -198.852 1640
-372.97 -198.852 1640
-369.048 -198.852 1640
-364.903 -198.73 1639
-360.984 -198.73 1639
-356.629 -198.488 1637
-352.714 -198.488 1637
-348.587 -198.367 1636
-344.253 -198.124 1634
-340.346 -198.124 1634
-336.439 -198.124 1634
-332.531 -198.124 1634
-328.221 -197.882 1632
-324.319 -197.882 1632
-320.416 -197.882 1632
-316.514 -197.882 1632
-312.994 -198.124 1634
-309.087 -198.124 1634
-305.179 -198.124 1634
-300.903 -197.882 1632
-296.819 -197.76 1631
-292.918 -197.76 1631
-289.018 -197.76 1631
-285.118 -197.76 1631
-281.218 -197.76 1631
-277.318 -197.76 1631
-273.417 -197.76 1631
-269.517 -197.76 1631
-265.617 -197.76 1631
-261.717 -197.76 1631
-257.975 -197.882 1632
-254.072 -197.882 1632
-250.169 -197.882 1632
-246.569 -198.124 1634
-242.958 -198.367 1636
-239.192 -198.488 1637
-235.278 -198.488 1637
-231.363 -198.488 1637
-227.865 -198.852 1640
-224.49 -199.337 1644
-220.558 -199.337 1644
-217.022 -199.7 1647
-213.213 -199.822 1648
-209.907 -200.428 1653
-205.955 -200.428 1653
-202.246 -200.67 1655
-198.648 -201.034 1658
-194.918 -201.277 1660
-190.948 -201.277 1660
-187.317 -201.64 1663
-183.561 -201.883 1665
-179.795 -202.125 1667
-175.808 -202.125 1667
-171.822 -202.125 1667
-167.937 -202.247 1668
-164.341 -202.732 1672
-160.343 -202.732 1672
-156.345 -202.732 1672
-152.346 -202.732 1672
-148.348 -202.732 1672
-144.35 -202.732 1672
-140.351 -202.732 1672
-136.353 -202.732 1672
-132.355 -202.732 1672
-128.357 -202.732 1672
-124.358 -202.732 1672
-120.432 -202.853 1673
-116.432 -202.853 1673
-112.431 -202.853 1673
-108.43 -202.853 1673
-104.367 -202.732 1672
-100.369 -202.732 1672
-96.3706 -202.732 1672
-92.2619 -202.489 1670
-88.2684 -202.489 1670
-84.2749 -202.489 1670
-80.2814 -202.489 1670
-76.288 -202.489 1670
-72.3811 -202.732 1672
-68.3828 -202.732 1672
-64.3846 -202.732 1672
-60.3863 -202.732 1672
-81.7838 -455.54 3757
-72.9741 -456.631 3766
-63.9685 -456.631 3766
-54.9628 -456.631 3766
-45.9572 -456.631 3766
-36.9515 -456.631 3766
-27.9459 -456.631 3766
-18.9402 -456.631 3766
-9.93458 -456.631 3766
-0.928927 -456.631 3766
8.05742 -455.54 3757
17.0415 -455.54 3757
25.7971 -451.538 3724
34.6277 -450.568 3716
43.4084 -449.477 3707
52.3999 -450.568 3716
61.286 -450.568 3716
70.1721 -450.568 3716
79.0581 -450.568 3716
87.9442 -450.568 3716
96.8303 -450.568 3716
105.46 -449.477 3707
114.325 -449.477 3707
123.189 -449.477 3707
131.769 -448.507 3699
140.31 -447.537 3691
148.167 -444.627 3667
156.936 -444.627 3667
165.705 -444.627 3667
174.045 -443.536 3658
182.793 -443.536 3658
192.011 -444.627 3667
200.78 -444.627 3667
209.549 -444.627 3667
218.318 -444.627 3667
227.087 -444.627 3667
235.856 -444.627 3667
244.025 -443.536 3658
252.772 -443.536 3658
260.947 -442.566 3650
269.676 -442.566 3650
277.794 -441.596 3642
286.503 -441.596 3642
295.212 -441.596 3642
304.589 -442.566 3650
313.317 -442.566 3650
323.545 -444.627 3667
333.039 -445.597 3675
341.827 -445.597 3675
350.615 -445.597 3675
359.403 -445.597 3675
368.191 -445.597 3675
376.979 -445.597 3675
385.767 -445.597 3675
394.555 -445.597 3675
402.465 -444.627 3667
411.234 -444.627 3667
420.003 -444.627 3667
430.643 -446.567 3683
441.359 -448.507 3699
453.247 -451.538 3724
464.138 -453.478 3740
473.082 -453.478 3740
482.025 -453.478 3740
493.2 -455.54 3757
502.184 -455.54 3757
511.168 -455.54 3757
522.506 -457.601 3774
534.066 -459.784 3792
543.134 -459.784 3792
552.202 -459.784 3792
572.963 -469.362 3871
582.219 -469.362 3871
591.476 -469.362 3871
1051.78 -489.732 4039
1061.44 -489.732 4039
1071.09 -489.732 4039
1065.5 -482.821 3982
1067.19 -479.305 3953
1076.65 -479.305 3953
1068.52 -471.545 3889
1077.81 -471.545 3889
1105.01 -479.305 3953
1117.28 -480.517 3963
1126.75 -480.517 3963
1136.23 -480.517 3963
1153.8 -483.912 3991
1163.35 -483.912 3991
1172.89 -483.912 3991
1182.43 -483.912 3991
1191.98 -483.912 3991
1201.52 -483.912 3991
1211.06 -483.912 3991
1220.61 -483.912 3991
1236.01 -486.216 4010
1245.6 -486.216 4010
1255.19 -486.216 4010
1264.78 -486.216 4010
1274.36 -486.216 4010
1287.16 -487.429 4020
1299.99 -488.641 4030
1309.63 -488.641 4030
1322.21 -489.732 4039
1331.87 -489.732 4039
1341.53 -489.732 4039
1348.18 -488.641 4030
1335.24 -480.517 3963
1331.82 -475.91 3925
1341.21 -475.91 3925
1347.5 -474.819 3916
1356.86 -474.819 3916
1322.97 -459.784 3792
1332.03 -459.784 3792
1319.88 -452.508 3732
1311.36 -446.567 3683
1314.43 -444.627 3667
1323.2 -444.627 3667
1331.97 -444.627 3667
1326.11 -439.777 3627
1331.84 -438.807 3619
1326.05 -434.078 3580
1334.61 -434.078 3580
1759.04 -495.795 4089
1768.82 -495.795 4089
1778.59 -495.795 4089
1784 -494.583 4079
1776.16 -489.732 4039
1785.82 -489.732 4039
1787.03 -487.429 4020
1796.65 -487.429 4020
1801.77 -486.216 4010
1811.36 -486.216 4010
1816.86 -485.125 4001
1791.73 -475.91 3925
1813.97 -479.305 3953
1828.03 -480.517 3963
1837.51 -480.517 3963
1860.04 -483.912 3991
1869.58 -483.912 3991
1879.12 -483.912 3991
2436.69 -482.821 3982
2446.22 -482.821 3982
2455.74 -482.821 3982
2372.95 -452.508 3732
2381.88 -452.508 3732
2390.8 -452.508 3732
2399.73 -452.508 3732
2408.65 -452.508 3732
2417.58 -452.508 3732
2437.55 -454.57 3749
2446.52 -454.57 3749
2455.48 -454.57 3749
2453.27 -452.508 3732
2424.59 -445.597 3675
2396.3 -438.807 3619
2404.95 -438.807 3619
2408.27 -437.837 3611
2411.55 -436.867 3603
2430.92 -438.807 3619
2444.96 -439.777 3627
2453.64 -439.777 3627
2462.31 -439.777 3627
2470.98 -439.777 3627
2479.66 -439.777 3627
2488.33 -439.777 3627
2491.5 -438.807 3619
2511.2 -440.747 3635
2547.62 -445.597 3675
2578.67 -449.477 3707
2587.54 -449.477 3707
2602.71 -450.568 3716
2611.59 -450.568 3716
2637.4 -453.478 3740
2646.35 -453.478 3740
2679.43 -457.601 3774
2725.5 -463.906 3826
2734.64 -463.906 3826
2743.79 -463.906 3826
2752.94 -463.906 3826
2749.82 -461.845 3809
2758.93 -461.845 3809
2768.04 -461.845 3809
2770.58 -460.754 3800
2779.67 -460.754 3800
2887.83 -477.122 3935
2903.87 -478.214 3944
2913.3 -478.214 3944
2936.81 -480.517 3963
2946.29 -480.517 3963
2969.93 -482.821 3982
2979.46 -482.821 3982
2995.73 -483.912 3991
3005.28 -483.912 3991
3014.82 -483.912 3991
3024.37 -483.912 3991
3033.91 -483.912 3991
3036.59 -482.821 3982
3046.11 -482.821 3982
-2439.03 -423.72 3565
-2450.96 -427.285 3595
-2442.36 -427.285 3595
-2450.01 -430.138 3619
-2446.75 -431.089 3627
-2438.08 -431.089 3627
-2429.41 -431.089 3627
-2420.73 -431.089 3627
-2417.38 -432.039 3635
-2435.19 -436.794 3675
-2426.41 -436.794 3675
-2433.41 -439.646 3699
-2424.56 -439.646 3699
-2415.71 -439.646 3699
-2401.66 -438.695 3691
-2403.21 -440.597 3707
-2432.45 -447.609 3766
-2423.45 -447.609 3766
-2414.44 -447.609 3766
-2405.44 -447.609 3766
-2379.89 -444.519 3740
-2370.94 -444.519 3740
-718.484 -208.71 1756
-714.285 -208.71 1756
-710.086 -208.71 1756
-705.887 -208.71 1756
-700.888 -208.472 1754
-695.9 -208.235 1752
-691.71 -208.235 1752
-687.128 -208.116 1751
-682.941 -208.116 1751
-677.203 -207.64 1747
-673.026 -207.64 1747
-668.082 -207.403 1745
-661.246 -206.571 1738
-654.822 -205.858 1732
-650.304 -205.739 1731
-646.165 -205.739 1731
-641.284 -205.501 1729
-636.412 -205.263 1727
-630.818 -204.788 1723
-626.698 -204.788 1723
-621.493 -204.431 1720
-615.945 -203.956 1716
-610.772 -203.599 1713
-606.675 -203.599 1713
-601.172 -203.124 1709
-596.037 -202.767 1706
-590.57 -202.292 1702
-586.5 -202.292 1702
-582.087 -202.173 1701
-577.34 -201.935 1699
-572.602 -201.698 1697
-568.544 -201.698 1697
-564.486 -201.698 1697
-559.438 -201.341 1694
-554.075 -200.866 1690
-550.034 -200.866 1690
-545.023 -200.509 1687
-539.386 -199.915 1682
-533.772 -199.321 1677
-529.762 -199.321 1677
-525.125 -199.083 1675
-519.564 -198.489 1670
-514.644 -198.132 1667
-510.045 -197.894 1665
-506.064 -197.894 1665
-499.67 -196.943 1657
-494.511 -196.468 1653
-490.558 -196.468 1653
-486.605 -196.468 1653
-480.9 -195.755 1647
-476.093 -195.398 1644
-471.587 -195.161 1642
-467.661 -195.161 1642
-462.887 -194.804 1639
-459.248 -194.923 1640
-455.326 -194.923 1640
-451.404 -194.923 1640
-447.483 -194.923 1640
-443.561 -194.923 1640
-439.639 -194.923 1640
-435.717 -194.923 1640
-431.796 -194.923 1640
-427.613 -194.804 1639
-423.694 -194.804 1639
-419.774 -194.804 1639
-415.855 -194.804 1639
-411.936 -194.804 1639
-408.016 -194.804 1639
-404.097 -194.804 1639
-400.178 -194.804 1639
-396.258 -194.804 1639
-392.339 -194.804 1639
-388.656 -194.923 1640
-385.204 -195.161 1642
-381.277 -195.161 1642
-377.351 -195.161 1642
-372.97 -194.923 1640
-369.048 -194.923 1640
-364.903 -194.804 1639
-360.544 -194.566 1637
-356.629 -194.566 1637
-352.714 -194.566 1637
-348.587 -194.447 1636
-344.253 -194.21 1634
-340.346 -194.21 1634
-336.439 -194.21 1634
-332.531 -194.21 1634
-328.221 -193.972 1632
-324.319 -193.972 1632
-320.416 -193.972 1632
-316.514 -193.972 1632
-312.611 -193.972 1632
-308.708 -193.972 1632
-304.806 -193.972 1632
-300.903 -193.972 1632
-296.819 -193.853 1631
-292.918 -193.853 1631
-289.018 -193.853 1631
-285.118 -193.853 1631
-281.218 -193.853 1631
-276.978 -193.615 1629
-273.417 -193.853 1631
-269.517 -193.853 1631
-265.617 -193.853 1631
-261.717 -193.853 1631
-257.975 -193.972 1632
-254.072 -193.972 1632
-250.169 -193.972 1632
-246.267 -193.972 1632
-242.958 -194.447 1636
-239.192 -194.566 1637
-235.278 -194.566 1637
-231.363 -194.566 1637
-227.865 -194.923 1640
-224.49 -195.398 1644
-220.558 -195.398 1644
-217.022 -195.755 1647
-213.213 -195.874 1648
-209.907 -196.468 1653
-205.955 -196.468 1653
-202.246 -196.706 1655
-198.648 -197.062 1658
-194.918 -197.3 1660
-190.948 -197.3 1660
-187.317 -197.657 1663
-183.561 -197.894 1665
-179.795 -198.132 1667
-175.808 -198.132 1667
-171.822 -198.132 1667
-167.937 -198.251 1668
-164.341 -198.726 1672
-160.343 -198.726 1672
-156.345 -198.726 1672
-152.346 -198.726 1672
-148.348 -198.726 1672
-144.35 -198.726 1672
-140.351 -198.726 1672
-136.353 -198.726 1672
-132.355 -198.726 1672
-128.357 -198.726 1672
-124.358 -198.726 1672
-120.432 -198.845 1673
-116.432 -198.845 1673
-112.431 -198.845 1673
-108.43 -198.845 1673
-104.367 -198.726 1672
-100.369 -198.726 1672
-96.3706 -198.726 1672
-92.2619 -198.489 1670
-88.2684 -198.489 1670
-84.2749 -198.489 1670
-80.2814 -198.489 1670
-76.288 -198.489 1670
-72.3811 -198.726 1672
-68.3828 -198.726 1672
-64.3846 -198.726 1672
-60.3863 -198.726 1672
-81.4138 -444.519 3740
-72.7997 -446.54 3757
-63.8156 -446.54 3757
-54.8315 -446.54 3757
-45.9572 -447.609 3766
-36.9515 -447.609 3766
-27.9459 -447.609 3766
-18.895 -446.54 3757
-9.91083 -446.54 3757
-0.926707 -446.54 3757
8.02096 -444.519 3740
16.9644 -444.519 3740
25.7971 -442.618 3724
34.6277 -441.667 3716
43.4084 -440.597 3707
52.3999 -441.667 3716
61.286 -441.667 3716
70.1721 -441.667 3716
79.0581 -441.667 3716
87.9442 -441.667 3716
96.8303 -441.667 3716
105.46 -440.597 3707
114.325 -440.597 3707
123.189 -440.597 3707
131.769 -439.646 3699
140.31 -438.695 3691
148.167 -435.843 3667
156.936 -435.843 3667
165.705 -435.843 3667
174.045 -434.773 3658
182.793 -434.773 3658
192.011 -435.843 3667
200.78 -435.843 3667
209.549 -435.843 3667
218.318 -435.843 3667
227.087 -435.843 3667
235.856 -435.843 3667
244.025 -434.773 3658
252.772 -434.773 3658
260.947 -433.822 3650
269.676 -433.822 3650
277.794 -432.871 3642
286.503 -432.871 3642
295.212 -432.871 3642
304.589 -433.822 3650
313.317 -433.822 3650
323.545 -435.843 3667
333.039 -436.794 3675
341.827 -436.794 3675
350.615 -436.794 3675
359.403 -436.794 3675
368.191 -436.794 3675
376.979 -436.794 3675
385.767 -436.794 3675
392.73 -434.773 3658
400.599 -433.822 3650
411.234 -435.843 3667
420.003 -435.843 3667
430.643 -437.744 3683
439.45 -437.744 3683
451.178 -440.597 3707
462.152 -442.618 3724
471.058 -442.618 3724
482.025 -444.519 3740
490.969 -444.519 3740
502.184 -446.54 3757
511.168 -446.54 3757
522.506 -448.56 3774
534.066 -450.7 3792
543.134 -450.7 3792
552.202 -450.7 3792
570.298 -457.95 3853
579.512 -457.95 3853
588.726 -457.95 3853
1051.78 -480.057 4039
1061.44 -480.057 4039
1071.09 -480.057 4039
1065.5 -473.282 3982
1059.63 -466.508 3925
1069.02 -466.508 3925
1068.52 -462.229 3889
1077.81 -462.229 3889
1105.01 -469.835 3953
1117.28 -471.024 3963
1126.75 -471.024 3963
1136.23 -471.024 3963
1153.8 -474.352 3991
1163.35 -474.352 3991
1172.89 -474.352 3991
1182.43 -474.352 3991
1191.98 -474.352 3991
1201.52 -474.352 3991
1211.06 -474.352 3991
1220.61 -474.352 3991
1236.01 -476.61 4010
1245.6 -476.61 4010
1255.19 -476.61 4010
1264.78 -476.61 4010
1274.36 -476.61 4010
1287.16 -477.799 4020
1299.99 -478.987 4030
1309.63 -478.987 4030
1322.21 -480.057 4039
1331.87 -480.057 4039
1341.53 -480.057 4039
1348.18 -478.987 4030
1335.24 -471.024 3963
1331.82 -466.508 3925
1341.21 -466.508 3925
1335.11 -461.159 3880
1328.8 -455.811 3835
1322.97 -450.7 3792
1332.03 -450.7 3792
1319.88 -443.568 3732
1311.36 -437.744 3683
1314.43 -435.843 3667
1323.2 -435.843 3667
1331.97 -435.843 3667
1326.11 -431.089 3627
1331.84 -430.138 3619
1326.05 -425.502 3580
1334.61 -425.502 3580
1764.49 -484.811 4079
1774.24 -484.811 4079
1784 -484.811 4079
1776.16 -480.057 4039
1785.82 -480.057 4039
1787.03 -477.799 4020
1796.65 -477.799 4020
1801.77 -476.61 4010
1811.36 -476.61 4010
1816.86 -475.54 4001
1791.73 -466.508 3925
1813.97 -469.835 3953
1823.42 -469.835 3953
1837.51 -471.024 3963
1846.99 -471.024 3963
1856.46 -471.024 3963
2436.69 -473.282 3982
2446.22 -473.282 3982
2455.74 -473.282 3982
2372.95 -443.568 3732
2381.88 -443.568 3732
2390.8 -443.568 3732
2399.73 -443.568 3732
2408.65 -443.568 3732
2417.58 -443.568 3732
2437.55 -445.589 3749
2446.52 -445.589 3749
2455.48 -445.589 3749
2453.27 -443.568 3732
2424.59 -436.794 3675
2396.3 -430.138 3619
2404.95 -430.138 3619
2408.27 -429.187 3611
2411.55 -428.236 3603
2430.92 -430.138 3619
2444.96 -431.089 3627
2453.64 -431.089 3627
2462.31 -431.089 3627
2470.98 -431.089 3627
2474.19 -430.138 3619
2482.84 -430.138 3619
2480.48 -428.236 3603
2511.2 -432.039 3635
2530.29 -433.822 3650
2573.11 -439.646 3699
2581.95 -439.646 3699
2590.8 -439.646 3699
2599.64 -439.646 3699
2626.12 -442.618 3724
2635.02 -442.618 3724
2679.43 -448.56 3774
2725.5 -454.741 3826
2734.64 -454.741 3826
2743.79 -454.741 3826
2752.94 -454.741 3826
2749.82 -452.72 3809
2758.93 -452.72 3809
2768.04 -452.72 3809
2751.63 -448.56 3774
2754.8 -447.609 3766
2887.83 -467.696 3935
2903.87 -468.766 3944
2913.3 -468.766 3944
2929.4 -469.835 3953
2946.29 -471.024 3963
2962.48 -472.094 3972
2971.97 -472.094 3972
2988.98 -473.282 3982
2998.5 -473.282 3982
3008.02 -473.282 3982
3017.55 -473.282 3982
3027.07 -473.282 3982
3028.96 -472.094 3972
3038.46 -472.094 3972
-2439.03 -415.18 3565
-2450.96 -418.673 3595
-2442.36 -418.673 3595
-2450.01 -421.468 3619
-2441.36 -421.468 3619
-2432.7 -421.468 3619
-2424.05 -421.468 3619
-2420.73 -422.4 3627
-2417.38 -423.332 3635
-2435.19 -427.99 3675
-2426.41 -427.99 3675
-2428.14 -429.854 3691
-2419.32 -429.854 3691
-2410.49 -429.854 3691
-2401.66 -429.854 3691
-2403.21 -431.717 3707
-2432.45 -438.588 3766
-2423.45 -438.588 3766
-2414.44 -438.588 3766
-2405.44 -438.588 3766
-2379.89 -435.56 3740
-2370.94 -435.56 3740
-717.666 -204.271 1754
-714.285 -204.504 1756
-710.086 -204.504 1756
-705.887 -204.504 1756
-700.888 -204.271 1754
-695.9 -204.038 1752
-691.71 -204.038 1752
-687.128 -203.921 1751
-682.941 -203.921 1751
-677.203 -203.455 1747
-673.026 -203.455 1747
-667.317 -202.99 1743
-660.485 -202.174 1736
-654.822 -201.709 1732
-650.304 -201.592 1731
-646.165 -201.592 1731
-641.284 -201.359 1729
-636.412 -201.126 1727
-630.818 -200.66 1723
-626.698 -200.66 1723
-621.493 -200.311 1720
-615.945 -199.845 1716
-610.772 -199.496 1713
-606.675 -199.496 1713
-601.172 -199.03 1709
-596.037 -198.681 1706
-590.223 -198.098 1701
-586.155 -198.098 1701
-581.403 -197.865 1699
-576.66 -197.632 1697
-572.602 -197.632 1697
-568.544 -197.632 1697
-563.821 -197.4 1695
-559.438 -197.283 1694
-554.075 -196.817 1690
-550.034 -196.817 1690
-545.023 -196.468 1687
-539.386 -195.886 1682
-533.772 -195.303 1677
-529.762 -195.303 1677
-525.125 -195.07 1675
-519.564 -194.488 1670
-514.644 -194.139 1667
-510.045 -193.906 1665
-506.064 -193.906 1665
-499.67 -192.974 1657
-494.511 -192.508 1653
-490.261 -192.392 1652
-486.311 -192.392 1652
-480.9 -191.809 1647
-476.093 -191.46 1644
-471.587 -191.227 1642
-467.661 -191.227 1642
-462.887 -190.878 1639
-459.248 -190.994 1640
-455.326 -190.994 1640
-451.404 -190.994 1640
-447.483 -190.994 1640
-443.561 -190.994 1640
-439.639 -190.994 1640
-435.717 -190.994 1640
-431.796 -190.994 1640
-427.613 -190.878 1639
-423.694 -190.878 1639
-419.774 -190.878 1639
-415.855 -190.878 1639
-411.936 -190.878 1639
-408.016 -190.878 1639
-404.097 -190.878 1639
-400.178 -190.878 1639
-396.258 -190.878 1639
-392.339 -190.878 1639
-388.656 -190.994 1640
-385.204 -191.227 1642
-381.277 -191.227 1642
-377.351 -191.227 1642
-372.97 -190.994 1640
-369.048 -190.994 1640
-364.903 -190.878 1639
-360.544 -190.645 1637
-356.629 -190.645 1637
-352.714 -190.645 1637
-348.587 -190.528 1636
-344.253 -190.295 1634
-340.346 -190.295 1634
-336.439 -190.295 1634
-332.531 -190.295 1634
-328.221 -190.063 1632
-324.319 -190.063 1632
-320.416 -190.063 1632
-316.514 -190.063 1632
-312.611 -190.063 1632
-308.708 -190.063 1632
-304.806 -190.063 1632
-300.719 -189.946 1631
-296.819 -189.946 1631
-292.918 -189.946 1631
-289.018 -189.946 1631
-285.118 -189.946 1631
-280.873 -189.713 1629
-276.978 -189.713 1629
-273.417 -189.946 1631
-269.517 -189.946 1631
-265.78 -190.063 1632
-261.877 -190.063 1632
-257.975 -190.063 1632
-254.072 -190.063 1632
-250.169 -190.063 1632
-246.569 -190.295 1634
-242.958 -190.528 1636
-239.192 -190.645 1637
-235.278 -190.645 1637
-231.646 -190.878 1639
-228.143 -191.227 1642
-224.49 -191.46 1644
-220.558 -191.46 1644
-217.022 -191.809 1647
-213.213 -191.926 1648
-209.907 -192.508 1653
-205.955 -192.508 1653
-202.246 -192.741 1655
-198.648 -193.091 1658
-194.918 -193.323 1660
-190.948 -193.323 1660
-187.204 -193.556 1662
-183.34 -193.673 1663
-179.579 -193.906 1665
-175.598 -193.906 1665
-171.822 -194.139 1667
-167.836 -194.139 1667
-164.144 -194.488 1670
-160.151 -194.488 1670
-156.345 -194.721 1672
-152.346 -194.721 1672
-148.437 -194.837 1673
-144.436 -194.837 1673
-140.435 -194.837 1673
-136.435 -194.837 1673
-132.434 -194.837 1673
-128.433 -194.837 1673
-124.433 -194.837 1673
-120.432 -194.837 1673
-116.571 -195.07 1675
-112.565 -195.07 1675
-108.56 -195.07 1675
-104.43 -194.837 1673
-100.429 -194.837 1673
-96.4283 -194.837 1673
-92.4276 -194.837 1673
-88.427 -194.837 1673
-84.5272 -195.07 1675
-80.5218 -195.07 1675
-76.5164 -195.07 1675
-72.4244 -194.837 1673
-68.5055 -195.07 1675
-64.5001 -195.07 1675
-60.4946 -195.07 1675
-56.4892 -195.07 1675
-80.5213 -430.785 3699
-72.4703 -435.56 3740
-63.6797 -436.608 3749
-54.7147 -436.608 3749
-45.8473 -437.54 3757
-36.8632 -437.54 3757
-27.8791 -437.54 3757
-18.895 -437.54 3757
-9.88973 -436.608 3749
-0.924734 -436.608 3749
8.02096 -435.56 3740
16.9644 -435.56 3740
25.7417 -432.765 3716
34.5439 -431.717 3707
43.3148 -430.785 3699
52.273 -431.717 3707
61.1376 -431.717 3707
70.0021 -431.717 3707
79.0581 -432.765 3716
87.9442 -432.765 3716
96.8303 -432.765 3716
105.46 -431.717 3707
114.325 -431.717 3707
123.189 -431.717 3707
131.769 -430.785 3699
140.614 -430.785 3699
148.49 -427.99 3675
157.278 -427.99 3675
165.705 -427.058 3667
174.474 -427.058 3667
183.243 -427.058 3667
192.011 -427.058 3667
200.78 -427.058 3667
209.549 -427.058 3667
218.318 -427.058 3667
227.087 -427.058 3667
235.856 -427.058 3667
244.625 -427.058 3667
252.772 -426.01 3658
260.947 -425.079 3650
269.676 -425.079 3650
277.794 -424.147 3642
286.503 -424.147 3642
295.212 -424.147 3642
304.589 -425.079 3650
313.317 -425.079 3650
323.545 -427.058 3667
333.039 -427.99 3675
341.827 -427.99 3675
350.615 -427.99 3675
359.403 -427.99 3675
368.191 -427.99 3675
376.979 -427.99 3675
385.767 -427.99 3675
392.73 -426.01 3658
400.599 -425.079 3650
411.234 -427.058 3667
420.003 -427.058 3667
429.707 -427.99 3675
439.45 -428.922 3683
451.178 -431.717 3707
461.16 -432.765 3716
470.046 -432.765 3716
480.994 -434.628 3732
492.15 -436.608 3749
503.387 -438.588 3766
512.393 -438.588 3766
523.752 -440.568 3783
534.066 -441.616 3792
544.28 -442.548 3800
553.367 -442.548 3800
571.631 -449.768 3862
580.866 -449.768 3862
590.101 -449.768 3862
1029.38 -460.366 3953
1038.84 -460.366 3953
1048.29 -460.366 3953
1057.74 -460.366 3953
1059.63 -457.105 3925
1069.02 -457.105 3925
1068.52 -452.913 3889
1077.81 -452.913 3889
1105.01 -460.366 3953
1117.28 -461.531 3963
1126.75 -461.531 3963
1136.23 -461.531 3963
1153.8 -464.791 3991
1163.35 -464.791 3991
1172.89 -464.791 3991
1182.43 -464.791 3991
1194.96 -465.956 4001
1204.53 -465.956 4001
1214.1 -465.956 4001
1226.42 -467.004 4010
1239.09 -468.169 4020
1248.7 -468.169 4020
1258.32 -468.169 4020
1267.93 -468.169 4020
1280.72 -469.333 4030
1293.24 -470.382 4039
1302.9 -470.382 4039
1312.56 -470.382 4039
1322.21 -470.382 4039
1331.87 -470.382 4039
1341.53 -470.382 4039
1348.18 -469.333 4030
1338.27 -462.579 3972
1338.27 -459.318 3944
1347.7 -459.318 3944
1341.31 -453.961 3898
1344.39 -451.864 3880
1337.97 -446.624 3835
1347.14 -446.624 3835
1331.91 -438.588 3766
1323.11 -432.765 3716
1325.9 -430.785 3699
1334.75 -430.785 3699
1343.59 -430.785 3699
1340.74 -427.058 3667
1340.31 -424.147 3642
1364.2 -428.922 3683
1373.01 -428.922 3683
1381.82 -428.922 3683
1764.49 -475.04 4079
1774.24 -475.04 4079
1784 -475.04 4079
1784.96 -472.711 4059
1794.66 -472.711 4059
1791.48 -469.333 4030
1796.65 -468.169 4020
1801.77 -467.004 4010
1811.36 -467.004 4010
1816.86 -465.956 4001
1800.41 -459.318 3944
1809.84 -459.318 3944
1823.42 -460.366 3953
1837.51 -461.531 3963
1846.99 -461.531 3963
1856.46 -461.531 3963
2474.11 -472.711 4059
2483.81 -472.711 4059
2493.52 -472.711 4059
2485.34 -469.333 4030
2465.26 -463.743 3982
2468.57 -462.579 3972
2478.06 -462.579 3972
2458.13 -457.105 3925
2456.2 -455.009 3907
2465.54 -455.009 3907
2474.88 -455.009 3907
2484.23 -455.009 3907
2420.17 -441.616 3792
2429.24 -441.616 3792
2399.73 -434.628 3732
2447.38 -441.616 3792
2456.44 -441.616 3792
2465.51 -441.616 3792
2474.58 -441.616 3792
2483.65 -441.616 3792
2464.45 -436.608 3749
2451.64 -432.765 3716
2433.38 -427.99 3675
2442.17 -427.99 3675
2418.94 -422.4 3627
2427.62 -422.4 3627
2441.66 -423.332 3635
2460.47 -425.079 3650
2469.2 -425.079 3650
2477.92 -425.079 3650
2486.65 -425.079 3650
2474.19 -421.468 3619
2482.84 -421.468 3619
2491.5 -421.468 3619
2516.04 -424.147 3642
2553.17 -428.922 3683
2584.93 -432.765 3716
2593.82 -432.765 3716
2602.71 -432.765 3716
2611.59 -432.765 3716
2655.74 -438.588 3766
2664.74 -438.588 3766
2692.21 -441.616 3792
2731.91 -446.624 3835
2741.08 -446.624 3835
2750.25 -446.624 3835
2759.42 -446.624 3835
2756.32 -444.644 3818
2765.45 -444.644 3818
2780.39 -445.576 3826
2789.54 -445.576 3826
2798.69 -445.576 3826
2887.83 -458.27 3935
2910.49 -460.366 3953
2919.95 -460.366 3953
2929.4 -460.366 3953
2952.98 -462.579 3972
2962.48 -462.579 3972
2971.97 -462.579 3972
2995.73 -464.791 3991
3005.28 -464.791 3991
3014.82 -464.791 3991
3017.55 -463.743 3982
3027.07 -463.743 3982
3014.47 -460.366 3953
3023.93 -460.366 3953
-2439.03 -406.64 3565
-2446.18 -409.263 3588
-2437.6 -409.263 3588
-2450.01 -412.799 3619
-2441.36 -412.799 3619
-2432.7 -412.799 3619
-2424.05 -412.799 3619
-2420.73 -413.712 3627
-2417.38 -414.624 3635
-2435.19 -419.187 3675
-2426.41 -419.187 3675
-2428.14 -421.012 3691
-2419.32 -421.012 3691
-2410.49 -421.012 3691
-2401.66 -421.012 3691
-2409.04 -423.863 3716
-2432.45 -429.567 3766
-2423.45 -429.567 3766
-2414.44 -429.567 3766
-2405.44 -429.567 3766
-2379.89 -426.601 3740
-2370.94 -426.601 3740
-714.285 -200.297 1756
-710.086 -200.297 1756
-705.887 -200.297 1756
-700.888 -200.069 1754
-696.694 -200.069 1754
-692.5 -200.069 1754
-687.521 -199.841 1752
-683.331 -199.841 1752
-677.978 -199.499 1749
-673.796 -199.499 1749
-667.317 -198.814 1743
-661.246 -198.244 1738
-655.578 -197.788 1734
-650.68 -197.56 1732
-646.538 -197.56 1732
-641.284 -197.217 1729
-637.149 -197.217 1729
-631.55 -196.761 1725
-627.425 -196.761 1725
-621.493 -196.191 1720
-616.663 -195.963 1718
-610.772 -195.392 1713
-606.675 -195.392 1713
-601.172 -194.936 1709
-596.037 -194.594 1706
-590.57 -194.138 1702
-586.5 -194.138 1702
-582.087 -194.024 1701
-577.34 -193.795 1699
-572.602 -193.567 1697
-568.544 -193.567 1697
-564.486 -193.567 1697
-559.438 -193.225 1694
-554.075 -192.769 1690
-550.034 -192.769 1690
-545.023 -192.427 1687
-539.386 -191.856 1682
-534.091 -191.4 1678
-530.078 -191.4 1678
-525.125 -191.058 1675
-519.564 -190.488 1670
-514.953 -190.259 1668
-509.433 -189.689 1663
-505.456 -189.689 1663
-499.067 -188.777 1655
-494.511 -188.548 1653
-489.668 -188.206 1650
-485.722 -188.206 1650
-480.9 -187.864 1647
-475.514 -187.294 1642
-471.587 -187.294 1642
-467.661 -187.294 1642
-462.887 -186.952 1639
-459.248 -187.066 1640
-455.326 -187.066 1640
-451.404 -187.066 1640
-447.483 -187.066 1640
-443.561 -187.066 1640
-439.639 -187.066 1640
-435.717 -187.066 1640
-431.796 -187.066 1640
-427.613 -186.952 1639
-423.694 -186.952 1639
-419.774 -186.952 1639
-415.855 -186.952 1639
-411.936 -186.952 1639
-408.016 -186.952 1639
-404.097 -186.952 1639
-400.178 -186.952 1639
-396.258 -186.952 1639
-392.339 -186.952 1639
-389.13 -187.294 1642
-385.204 -187.294 1642
-381.277 -187.294 1642
-377.351 -187.294 1642
-373.424 -187.294 1642
-369.498 -187.294 1642
-365.126 -187.066 1640
-360.984 -186.952 1639
-356.629 -186.723 1637
-352.714 -186.723 1637
-348.587 -186.609 1636
-344.675 -186.609 1636
-340.346 -186.381 1634
-336.439 -186.381 1634
-332.531 -186.381 1634
-328.624 -186.381 1634
-324.716 -186.381 1634
-320.809 -186.381 1634
-316.902 -186.381 1634
-312.994 -186.381 1634
-309.087 -186.381 1634
-305.179 -186.381 1634
-300.903 -186.153 1632
-296.819 -186.039 1631
-292.918 -186.039 1631
-289.018 -186.039 1631
-285.118 -186.039 1631
-280.873 -185.811 1629
-276.978 -185.811 1629
-273.585 -186.153 1632
-269.682 -186.153 1632
-265.78 -186.153 1632
-261.877 -186.153 1632
-257.975 -186.153 1632
-254.072 -186.153 1632
-250.169 -186.153 1632
-246.569 -186.381 1634
-242.958 -186.609 1636
-239.192 -186.723 1637
-235.278 -186.723 1637
-231.646 -186.952 1639
-228.143 -187.294 1642
-224.49 -187.522 1644
-220.558 -187.522 1644
-217.022 -187.864 1647
-213.213 -187.978 1648
-209.907 -188.548 1653
-205.955 -188.548 1653
-202.246 -188.777 1655
-198.648 -189.119 1658
-194.918 -189.347 1660
-190.948 -189.347 1660
-187.317 -189.689 1663
-183.34 -189.689 1663
-179.579 -189.917 1665
-175.598 -189.917 1665
-171.822 -190.145 1667
-167.937 -190.259 1668
-164.144 -190.488 1670
-160.151 -190.488 1670
-156.345 -190.716 1672
-152.346 -190.716 1672
-148.437 -190.83 1673
-144.436 -190.83 1673
-140.435 -190.83 1673
-136.435 -190.83 1673
-132.434 -190.83 1673
-128.433 -190.83 1673
-124.582 -191.058 1675
-120.576 -191.058 1675
-116.71 -191.286 1677
-112.7 -191.286 1677
-108.689 -191.286 1677
-104.679 -191.286 1677
-100.669 -191.286 1677
-96.4283 -190.83 1673
-92.4276 -190.83 1673
-88.5327 -191.058 1675
-84.5272 -191.058 1675
-80.5218 -191.058 1675
-76.5164 -191.058 1675
-72.5975 -191.286 1677
-68.5873 -191.286 1677
-64.5771 -191.286 1677
-60.5669 -191.286 1677
-56.5567 -191.286 1677
-80.5213 -421.924 3699
-72.0052 -423.863 3716
-63.3909 -425.688 3732
-54.4666 -425.688 3732
-45.7497 -427.627 3749
-36.7847 -427.627 3749
-27.8197 -427.627 3749
-18.8547 -427.627 3749
-9.86599 -426.601 3740
-0.922514 -426.601 3740
7.98665 -424.776 3724
16.8919 -424.776 3724
25.7417 -423.863 3716
34.4693 -421.924 3699
43.3148 -421.924 3699
52.273 -422.837 3707
61.1376 -422.837 3707
70.0021 -422.837 3707
78.8667 -422.837 3707
87.7312 -422.837 3707
96.5958 -422.837 3707
105.46 -422.837 3707
114.078 -421.924 3699
122.924 -421.924 3699
131.769 -421.924 3699
140.614 -421.924 3699
148.49 -419.187 3675
157.278 -419.187 3675
165.705 -418.274 3667
174.474 -418.274 3667
183.243 -418.274 3667
192.011 -418.274 3667
200.78 -418.274 3667
209.549 -418.274 3667
218.318 -418.274 3667
227.087 -418.274 3667
235.856 -418.274 3667
244.625 -418.274 3667
252.772 -417.248 3658
260.947 -416.335 3650
269.676 -416.335 3650
278.404 -416.335 3650
286.503 -415.423 3642
295.212 -415.423 3642
304.589 -416.335 3650
313.317 -416.335 3650
322.751 -417.248 3658
332.314 -418.274 3667
341.827 -419.187 3675
350.615 -419.187 3675
359.403 -419.187 3675
368.191 -419.187 3675
376.979 -419.187 3675
383.983 -417.248 3658
391.871 -416.335 3650
400.599 -416.335 3650
410.225 -417.248 3658
418.972 -417.248 3658
428.772 -418.274 3667
438.495 -419.187 3675
451.178 -422.837 3707
460.043 -422.837 3707
468.907 -422.837 3707
480.994 -425.688 3732
492.15 -427.627 3749
503.387 -429.567 3766
512.393 -429.567 3766
523.752 -431.506 3783
534.066 -432.532 3792
544.28 -433.445 3800
553.367 -433.445 3800
571.631 -440.517 3862
580.866 -440.517 3862
590.101 -440.517 3862
1026.75 -445.65 3907
1036.09 -445.65 3907
1045.43 -445.65 3907
1054.78 -445.65 3907
1064.12 -445.65 3907
1068.52 -443.596 3889
1087.79 -447.703 3925
1105.01 -450.897 3953
1122.63 -454.204 3982
1132.16 -454.204 3982
1144.26 -455.231 3991
1153.8 -455.231 3991
1166.26 -456.372 4001
1175.83 -456.372 4001
1188.06 -457.398 4010
1197.65 -457.398 4010
1207.24 -457.398 4010
1216.83 -457.398 4010
1226.42 -457.398 4010
1239.09 -458.539 4020
1248.7 -458.539 4020
1258.32 -458.539 4020
1273.92 -460.706 4039
1283.58 -460.706 4039
1293.24 -460.706 4039
1306.12 -461.847 4049
1315.81 -461.847 4049
1325.49 -461.847 4049
1335.17 -461.847 4049
1344.85 -461.847 4049
1351.19 -460.706 4039
1338.27 -453.064 3972
1341.33 -450.897 3953
1350.78 -450.897 3953
1354.04 -448.843 3935
1359.98 -447.703 3925
1353.67 -442.57 3880
1362.95 -442.57 3880
1347.11 -434.471 3809
1343.76 -430.479 3774
1349.92 -429.567 3766
1358.92 -429.567 3766
1367.93 -429.567 3766
1352.44 -421.924 3699
1355.4 -420.099 3683
1364.2 -420.099 3683
1373.01 -420.099 3683
1381.82 -420.099 3683
1764.49 -465.269 4079
1774.24 -465.269 4079
1784 -465.269 4079
1793.75 -465.269 4079
1803.51 -465.269 4079
1795.48 -460.706 4039
1801.12 -459.68 4030
1810.75 -459.68 4030
1820.39 -459.68 4030
1816.86 -456.372 4001
1813.19 -453.064 3972
1818.56 -452.037 3963
1828.03 -452.037 3963
1837.51 -452.037 3963
1846.99 -452.037 3963
1856.46 -452.037 3963
2474.11 -462.987 4059
2483.81 -462.987 4059
2493.52 -462.987 4059
2490.89 -460.706 4039
2482.59 -457.398 4010
2486.59 -456.372 4001
2496.16 -456.372 4001
2505.73 -456.372 4001
2479.46 -449.87 3944
2488.89 -449.87 3944
2498.32 -449.87 3944
2507.75 -449.87 3944
2505.06 -447.703 3925
2456.79 -437.437 3835
2438.31 -432.532 3792
2452.54 -433.445 3800
2461.63 -433.445 3800
2482.42 -435.498 3818
2491.55 -435.498 3818
2500.68 -435.498 3818
2497.97 -433.445 3800
2456.92 -424.776 3724
2443.97 -421.012 3691
2452.8 -421.012 3691
2456.29 -420.099 3683
2470.45 -421.012 3691
2479.28 -421.012 3691
2488.11 -421.012 3691
2496.93 -421.012 3691
2500.33 -420.099 3683
2498.23 -418.274 3667
2495.38 -416.335 3650
2504.11 -416.335 3650
2507.33 -415.423 3642
2521.57 -416.335 3650
2576.05 -423.863 3716
2596.06 -425.688 3732
2604.99 -425.688 3732
2655.94 -432.532 3792
2665 -432.532 3792
2674.07 -432.532 3792
2683.14 -432.532 3792
2735.52 -439.49 3853
2744.73 -439.49 3853
2753.94 -439.49 3853
2763.16 -439.49 3853
2772.37 -439.49 3853
2775.09 -438.464 3844
2784.28 -438.464 3844
2800.01 -439.49 3853
2809.23 -439.49 3853
2838.19 -442.57 3880
2887.83 -448.843 3935
2924.48 -453.064 3972
2933.98 -453.064 3972
2957.56 -455.231 3991
2974.54 -456.372 4001
2998.28 -458.539 4020
3007.89 -458.539 4020
3017.5 -458.539 4020
3027.12 -458.539 4020
3036.73 -458.539 4020
3038.76 -457.398 4010
3048.35 -457.398 4010
3036.59 -454.204 3982
3046.11 -454.204 3982
-2429.9 -393.856 3527
-2421.46 -393.856 3527
-2428.08 -396.313 3549
-2430.5 -398.1 3565
-2421.98 -398.1 3565
-2429.02 -400.668 3588
-2441.36 -404.13 3619
-2432.7 -404.13 3619
-2424.05 -404.13 3619
-2420.73 -405.023 3627
-2417.38 -405.916 3635
-2435.19 -410.383 3675
-2426.41 -410.383 3675
-2428.14 -412.17 3691
-2419.32 -412.17 3691
-2410.49 -412.17 3691
-2401.66 -412.17 3691
-2409.04 -414.962 3716
-2432.45 -420.545 3766
-2423.45 -420.545 3766
-2414.44 -420.545 3766
-2405.44 -420.545 3766
-2374.8 -416.748 3732
-2365.87 -416.748 3732
-720.939 -196.761 1762
-716.726 -196.761 1762
-712.512 -196.761 1762
-708.299 -196.761 1762
-702.487 -196.314 1758
-698.283 -196.314 1758
-694.079 -196.314 1758
-688.305 -195.867 1754
-684.111 -195.867 1754
-678.754 -195.532 1751
-674.567 -195.532 1751
-668.848 -195.086 1747
-662.388 -194.416 1741
-657.09 -194.081 1738
-652.934 -194.081 1738
-647.285 -193.634 1734
-642.396 -193.411 1732
-637.149 -193.076 1729
-631.55 -192.629 1725
-627.425 -192.629 1725
-621.493 -192.07 1720
-616.663 -191.847 1718
-610.772 -191.289 1713
-606.675 -191.289 1713
-601.172 -190.842 1709
-596.037 -190.507 1706
-590.57 -190.06 1702
-586.5 -190.06 1702
-582.087 -189.949 1701
-577.34 -189.725 1699
-572.602 -189.502 1697
-568.544 -189.502 1697
-564.486 -189.502 1697
-559.438 -189.167 1694
-554.075 -188.72 1690
-550.034 -188.72 1690
-545.023 -188.385 1687
-539.386 -187.827 1682
