-492.259 247.951 1743
-484.17 245.959 1729
-480.036 245.959 1729
-473.424 244.679 1720
-467.401 243.683 1713
-462.223 243.114 1709
-456.26 242.118 1702
-452.19 242.118 1702
-447.856 241.976 1701
-442.223 241.122 1695
-436.619 240.269 1689
-432.58 240.269 1689
-427.019 239.415 1683
-421.486 238.562 1677
-416.48 237.993 1673
-412.48 237.993 1673
-408.235 237.85 1672
-403.028 237.139 1667
-397.366 236.143 1660
-393.396 236.143 1660
-387.784 235.148 1653
-383.599 235.005 1652
-379.189 234.721 1650
-375.244 234.721 1650
-370.848 234.436 1648
-366.017 233.867 1644
-361.645 233.583 1642
-356.411 232.729 1636
-352.499 232.729 1636
-348.161 232.445 1634
-342.568 231.307 1626
-338.055 230.88 1623
-334.174 230.88 1623
-329.886 230.595 1621
-325.808 230.453 1620
-321.537 230.169 1618
-317.668 230.169 1618
-313.605 230.026 1617
-308.972 229.457 1613
-304.547 229.031 1610
-300.697 229.031 1610
-296.663 228.888 1609
-292.451 228.604 1607
-288.608 228.604 1607
-284.765 228.604 1607
-280.748 228.462 1606
-276.907 228.462 1606
-273.067 228.462 1606
-269.394 228.604 1607
-266.047 229.031 1610
-262.197 229.031 1610
-258.668 229.315 1612
-255.762 230.169 1618
-252.359 230.595 1621
-248.483 230.595 1621
-245.06 231.022 1624
-241.77 231.591 1628
-238.023 231.733 1629
-234.128 231.733 1629
-230.656 232.16 1632
-227.726 233.156 1639
-224.49 233.867 1644
-220.558 233.867 1644
-217.154 234.436 1648
-214.119 235.432 1655
-210.796 236.143 1660
-206.827 236.143 1660
-204.324 237.85 1672
-200.924 238.562 1677
-197.266 238.988 1680
-193.249 238.988 1680
-189.795 239.7 1685
-186.317 240.411 1690
-183.03 241.407 1697
-178.972 241.407 1697
-174.914 241.407 1697
-171.058 241.691 1699
-167.29 242.118 1702
-163.22 242.118 1702
-159.337 242.403 1704
-155.444 242.687 1706
-151.631 243.114 1709
-147.544 243.114 1709
-143.457 243.114 1709
-139.371 243.114 1709
-135.442 243.398 1711
-131.351 243.398 1711
-127.408 243.683 1713
-123.312 243.683 1713
-119.215 243.683 1713
-115.119 243.683 1713
-221.56 546.828 3844
-212.368 546.828 3844
-203.176 546.828 3844
-194.892 549.389 3862
-186.09 550.669 3871
-176.833 550.669 3871
-167.576 550.669 3871
-158.319 550.669 3871
-148.369 548.109 3853
-140.456 553.23 3889
-131.156 553.23 3889
-122.702 557.071 3916
-114.409 562.334 3953
-104.956 562.334 3953
-95.5033 562.334 3953
-88.3579 577.413 4059
-79.2329 581.681 4089
-69.4549 581.681 4089
-59.6768 581.681 4089
241.656 577.413 4059
251.982 578.836 4069
261.712 578.836 4069
271.442 578.836 4069
279.79 575.991 4049
289.473 575.991 4049
297.013 571.865 4020
302.964 565.037 3972
312.463 565.037 3972
321.961 565.037 3972
331.459 565.037 3972
338.554 561.054 3944
345.515 557.071 3916
354.879 557.071 3916
364.243 557.071 3916
373.608 557.071 3916
382.972 557.071 3916
389.631 553.23 3889
398.931 553.23 3889
404.452 548.109 3853
408.942 541.849 3809
409.599 530.896 3732
418.524 530.896 3732
421.836 523.925 3683
427.72 520.369 3658
432.768 515.959 3627
441.441 515.959 3627
445.275 510.411 3588
448.036 503.867 3542
453.671 500.738 3520
459.069 497.466 3497
467.431 497.466 3497
470.895 492.345 3461
479.172 492.345 3461
489.561 494.479 3476
499.878 496.47 3490
508.224 496.47 3490
516.569 496.47 3490
527.171 498.604 3505
537.844 500.738 3520
546.262 500.738 3520
558.146 503.867 3542
577.654 513.683 3611
596.68 522.787 3675
605.468 522.787 3675
622.446 529.758 3724
638.472 535.733 3766
662.435 548.109 3853
671.649 548.109 3853
687.224 553.23 3889
698.136 554.51 3898
707.457 554.51 3898
716.779 554.51 3898
729.453 557.071 3916
738.817 557.071 3916
748.182 557.071 3916
755.805 555.79 3907
758.097 550.669 3871
765.57 549.389 3862
774.805 549.389 3862
784.04 549.389 3862
793.276 549.389 3862
802.511 549.389 3862
811.746 549.389 3862
820.981 549.389 3862
830.217 549.389 3862
839.452 549.389 3862
866.707 561.054 3944
882.358 565.037 3972
891.856 565.037 3972
903.624 566.46 3982
913.146 566.46 3982
922.668 566.46 3982
932.19 566.46 3982
941.713 566.46 3982
948.846 565.037 3972
958.344 565.037 3972
961.02 561.054 3944
970.451 561.054 3944
977.646 559.774 3935
987.056 559.774 3935
993.934 558.351 3925
1001.02 557.071 3916
1008.06 555.79 3907
1017.4 555.79 3907
1026.75 555.79 3907
1028.93 551.95 3880
1038.21 551.95 3880
1040.2 548.109 3853
1049.41 548.109 3853
1056.15 546.828 3844
1055.64 541.849 3809
1062.24 540.569 3800
1071.32 540.569 3800
1078.14 539.431 3792
1087.2 539.431 3792
1096.27 539.431 3792
1105.34 539.431 3792
1111.76 538.151 3783
1118.14 536.871 3774
1127.17 536.871 3774
1136.19 536.871 3774
1147.95 538.151 3783
1156.99 538.151 3783
1166.04 538.151 3783
1180.37 540.569 3800
1200.41 545.548 3835
1209.58 545.548 3835
1221.61 546.828 3844
1242.33 551.95 3880
1260.32 555.79 3907
1269.66 555.79 3907
1291.12 561.054 3944
1316.04 567.74 3991
1331.9 570.443 4010
1341.49 570.443 4010
1351.08 570.443 4010
1354.22 567.74 3991
1363.76 567.74 3991
1373.31 567.74 3991
1389.43 570.443 4010
1402.51 571.865 4020
1412.13 571.865 4020
1421.74 571.865 4020
1431.35 571.865 4020
1444.55 573.288 4030
1454.19 573.288 4030
1463.82 573.288 4030
1476.75 574.568 4039
1486.41 574.568 4039
1496.07 574.568 4039
1505.73 574.568 4039
1522.89 577.413 4059
1532.59 577.413 4059
1542.3 577.413 4059
1552.01 577.413 4059
1557.87 575.991 4049
1560.19 573.288 4030
1577.23 575.991 4049
1590.83 577.413 4059
1600.54 577.413 4059
1618.18 580.258 4079
1627.93 580.258 4079
1637.69 580.258 4079
1647.44 580.258 4079
1653.13 578.836 4069
1671.04 581.681 4089
1680.81 581.681 4089
1690.59 581.681 4089
1700.37 581.681 4089
1701.78 578.836 4069
1711.51 578.836 4069
1712.78 575.991 4049
1722.47 575.991 4049
1732.15 575.991 4049
1741.83 575.991 4049
1751.51 575.991 4049
1752.93 573.288 4030
1766.5 574.568 4039
1776.16 574.568 4039
1785.82 574.568 4039
1795.48 574.568 4039
1801.12 573.288 4030
1810.75 573.288 4030
1824.46 574.568 4039
1834.11 574.568 4039
1843.77 574.568 4039
1840.12 570.443 4010
1849.71 570.443 4010
1855.13 569.162 4001
1855.84 566.46 3982
1847.56 561.054 3944
1856.99 561.054 3944
1866.42 561.054 3944
1866.82 558.351 3925
1859 553.23 3889
1859.65 550.669 3871
1868.91 550.669 3871
1860.7 545.548 3835
1852.8 540.569 3800
1840.82 534.452 3757
1849.8 534.452 3757
1846.42 530.896 3732
1827.01 522.787 3675
1815.81 517.097 3635
1812.46 513.683 3611
1821.09 513.683 3611
1825.67 512.545 3603
1826.65 510.411 3588
1823.47 507.139 3565
1831.99 507.139 3565
1836.39 506.001 3557
1844.9 506.001 3557
1861.22 508.135 3572
1873.95 509.273 3580
1882.51 509.273 3580
1891.07 509.273 3580
1903.87 510.411 3588
1916.19 511.407 3595
1924.78 511.407 3595
1933.38 511.407 3595
1959.26 515.959 3627
1972.28 517.097 3635
1984.78 518.093 3642
1993.49 518.093 3642
2002.2 518.093 3642
2142.32 551.95 3880
2166.57 555.79 3907
2175.91 555.79 3907
2190.29 557.071 3916
2236.73 566.46 3982
2251.33 567.74 3991
2260.87 567.74 3991
2270.41 567.74 3991
2279.96 567.74 3991
2289.5 567.74 3991
2299.04 567.74 3991
2303.38 566.46 3982
2307.1 565.037 3972
2316.59 565.037 3972
2326.09 565.037 3972
2335.59 565.037 3972
2350.99 566.46 3982
2360.52 566.46 3982
2370.04 566.46 3982
2379.56 566.46 3982
2389.08 566.46 3982
2398.6 566.46 3982
2402.08 565.037 3972
2406.11 563.757 3963
2421.08 565.037 3972
2436.69 566.46 3982
2451.74 567.74 3991
2461.29 567.74 3991
2470.83 567.74 3991
2480.38 567.74 3991
2489.92 567.74 3991
2499.46 567.74 3991
2497.06 565.037 3972
2488.89 561.054 3944
2498.32 561.054 3944
2478.5 554.51 3898
2487.83 554.51 3898
2497.15 554.51 3898
2506.47 554.51 3898
2504.17 551.95 3880
2513.45 551.95 3880
2522.73 551.95 3880
2514.39 548.109 3853
2523.6 548.109 3853
522.544 105.411 741
524.316 105.411 741
526.088 105.411 741
527.86 105.411 741
528.917 105.269 740
530.687 105.269 740
532.456 105.269 740
534.226 105.269 740
535.271 105.126 739
537.038 105.126 739
538.805 105.126 739
540.573 105.126 739
542.34 105.126 739
544.107 105.126 739
545.874 105.126 739
547.641 105.126 739
548.665 104.984 738
550.43 104.984 738
552.195 104.984 738
553.959 104.984 738
555.724 104.984 738
557.489 104.984 738
559.254 104.984 738
561.779 105.126 739
563.546 105.126 739
565.313 105.126 739
-2321.79 448.561 3101
-2314.38 448.561 3101
-2298.04 446.826 3089
-2290.65 446.826 3089
-2279.57 446.102 3084
-2272.19 446.102 3084
-2260.41 445.234 3078
-2248.66 444.367 3072
-2250.07 446.102 3084
-2246.33 446.826 3089
-2238.94 446.826 3089
-2240.23 448.561 3101
-2245.05 451.02 3118
-2280.65 459.699 3178
-2273.05 459.699 3178
-2296.11 465.919 3221
-2356.61 479.806 3317
-2362.84 482.699 3337
-2354.86 482.699 3337
-2512.15 516.692 3572
-2552.67 526.817 3642
-2543.96 526.817 3642
-2569.36 533.905 3691
-2588.98 539.836 3732
-2591.81 542.295 3749
-2582.84 542.295 3749
-2573.88 542.295 3749
-2542.34 537.521 3716
-2533.45 537.521 3716
-2524.56 537.521 3716
-2498.75 533.905 3691
-2473.74 530.434 3667
-2464.97 530.434 3667
-2434.76 525.805 3635
-2420.73 524.648 3627
-2406.74 523.49 3619
-2398.09 523.49 3619
-2378.87 521.176 3603
-2360.38 519.006 3588
-2346.56 517.849 3580
-2338 517.849 3580
-2324.23 516.692 3572
-2315.69 516.692 3572
-2307.15 516.692 3572
-2313.41 520.019 3595
-2304.81 520.019 3595
-2296.21 520.019 3595
-2292.71 521.176 3603
-2294.24 523.49 3619
-2285.58 523.49 3619
-2307.13 530.434 3667
-2329.07 537.521 3716
-2335.17 540.993 3740
-2326.23 540.993 3740
-2349.5 548.515 3792
-2356.48 552.276 3818
-2363.34 556.037 3844
-2354.14 556.037 3844
-2344.95 556.037 3844
-2335.76 556.037 3844
-2326.57 556.037 3844
-1959.31 545.911 3774
-1963.72 549.672 3800
-1954.63 549.672 3800
-1945.55 549.672 3800
-1954.29 554.735 3835
-1945.12 554.735 3835
-1935.95 554.735 3835
-1926.78 554.735 3835
-1917.61 554.735 3835
-1908.44 554.735 3835
-1886.39 550.974 3809
-1864.47 547.213 3783
-1838.75 542.295 3749
-1829.78 542.295 3749
-1816.45 540.993 3740
-1832.64 548.515 3792
-1823.57 548.515 3792
-1822.63 550.974 3809
-1813.53 550.974 3809
-1812.47 553.433 3826
-1803.32 553.433 3826
-1794.17 553.433 3826
-1777.09 550.974 3809
-1755.92 547.213 3783
-1742.71 545.911 3774
-1741.96 548.515 3792
-1732.89 548.515 3792
-1723.82 548.515 3792
-1706.61 545.911 3774
-1697.59 545.911 3774
-1684.98 544.754 3766
-1664.41 540.993 3740
-1651.92 539.836 3732
-1650.48 542.295 3749
-1660.35 548.515 3792
-1651.28 548.515 3792
-1642.21 548.515 3792
-1633.14 548.515 3792
-1624.08 548.515 3792
-1607.34 545.911 3774
-1598.32 545.911 3774
-1589.29 545.911 3774
-1584.04 547.213 3783
-1574.99 547.213 3783
-1569.67 548.515 3792
-1560.6 548.515 3792
-1551.53 548.515 3792
-1542.46 548.515 3792
-1519.24 543.452 3757
-1510.26 543.452 3757
-1504.87 544.754 3766
-1495.87 544.754 3766
-1497.13 548.515 3792
-1488.06 548.515 3792
-1478.99 548.515 3792
-1469.92 548.515 3792
-1450.84 544.754 3766
-1441.83 544.754 3766
-1432.83 544.754 3766
-1417.39 542.295 3749
-1411.43 543.452 3757
-1402.45 543.452 3757
-1396.8 544.754 3766
-1387.8 544.754 3766
-1378.79 544.754 3766
-1369.79 544.754 3766
-1363.67 545.911 3774
-1354.65 545.911 3774
-1348.83 547.213 3783
-1342.97 548.515 3792
-1336.72 549.672 3800
-1327.63 549.672 3800
-1321.67 550.974 3809
-1312.56 550.974 3809
-1303.45 550.974 3809
-1291.28 549.672 3800
-1282.2 549.672 3800
-1270.43 548.515 3792
-1261.36 548.515 3792
-1252.29 548.515 3792
-600.959 265.144 1833
-596.575 265.144 1833
-592.192 265.144 1833
-587.167 264.855 1831
-582.789 264.855 1831
-575.883 263.698 1823
-570.897 263.409 1821
-565.298 262.83 1817
-560.953 262.83 1817
-555.383 262.251 1813
-550.439 261.962 1811
-544.902 261.384 1807
-539.983 261.094 1805
-535.667 261.094 1805
-529.29 260.082 1798
-520.318 257.767 1782
-511.134 255.308 1765
-506.913 255.308 1765
-500.699 254.296 1758
-493.388 252.705 1747
-485.57 250.824 1734
-481.424 250.824 1734
-473.975 249.088 1722
-468.22 248.22 1716
-462.223 247.208 1709
-456.26 246.195 1702
-452.19 246.195 1702
-447.856 246.051 1701
-442.223 245.183 1695
-436.619 244.315 1689
-432.58 244.315 1689
-427.019 243.447 1683
-420.984 242.29 1675
-416.48 242 1673
-412.48 242 1673
-407.746 241.566 1670
-401.819 240.409 1662
-396.887 239.831 1658
-392.922 239.831 1658
-387.784 239.107 1653
-383.135 238.673 1650
-379.189 238.673 1650
-375.244 238.673 1650
-370.623 238.239 1647
-366.017 237.806 1644
-361.645 237.516 1642
-356.411 236.648 1636
-352.499 236.648 1636
-348.161 236.359 1634
-342.568 235.202 1626
-338.263 234.913 1624
-334.38 234.913 1624
-330.293 234.768 1623
-325.808 234.334 1620
-321.537 234.045 1618
-317.668 234.045 1618
-313.605 233.9 1617
-309.355 233.611 1615
-304.547 232.887 1610
-300.697 232.887 1610
-296.847 232.887 1610
-292.815 232.743 1609
-288.967 232.743 1609
-285.12 232.743 1609
-280.923 232.453 1607
-276.907 232.309 1606
-273.237 232.453 1607
-269.897 232.887 1610
-266.377 233.177 1612
-262.523 233.177 1612
-259.149 233.611 1615
-256.236 234.479 1621
-252.827 234.913 1624
-248.943 234.913 1624
-245.663 235.491 1628
-241.919 235.636 1629
-238.462 236.07 1632
-234.559 236.07 1632
-231.222 236.648 1636
-227.865 237.227 1640
-224.626 237.95 1645
-220.693 237.95 1645
-217.681 238.963 1652
-214.378 239.686 1657
-211.177 240.554 1663
-207.201 240.554 1663
-204.446 242 1673
-200.924 242.579 1677
-197.266 243.013 1680
-193.249 243.013 1680
-189.795 243.736 1685
-186.317 244.459 1690
-182.815 245.183 1695
-178.761 245.183 1695
-174.914 245.472 1697
-171.058 245.761 1699
-167.191 246.051 1701
-163.124 246.051 1701
-159.15 246.195 1702
-155.444 246.774 1706
-151.631 247.208 1709
-147.544 247.208 1709
-143.457 247.208 1709
-139.371 247.208 1709
-135.442 247.497 1711
-131.351 247.497 1711
-127.408 247.786 1713
-123.456 248.076 1715
-119.354 248.076 1715
-115.253 248.076 1715
-221.041 554.735 3835
-211.871 554.735 3835
-202.7 554.735 3835
-193.984 556.037 3844
-186.09 559.942 3871
-176.833 559.942 3871
-167.576 559.942 3871
-158.319 559.942 3871
-148.369 557.339 3853
-140.456 562.546 3889
-131.156 562.546 3889
-122.702 566.452 3916
-114.409 571.804 3953
-105.461 574.552 3972
-95.9623 574.552 3972
-88.3579 587.137 4059
-79.2329 591.476 4089
-69.4549 591.476 4089
-59.6768 591.476 4089
231.95 587.137 4059
241.656 587.137 4059
251.363 587.137 4059
261.069 587.137 4059
270.108 585.69 4049
277.787 581.495 4020
287.4 581.495 4020
294.205 575.999 3982
302.278 573.25 3963
310.26 570.502 3944
319.691 570.502 3944
329.123 570.502 3944
337.781 569.2 3935
345.515 566.452 3916
354.879 566.452 3916
364.243 566.452 3916
373.608 566.452 3916
382.972 566.452 3916
389.631 562.546 3889
398.931 562.546 3889
404.452 557.339 3853
408.942 550.974 3809
409.599 539.836 3732
418.524 539.836 3732
421.836 532.748 3683
427.72 529.132 3658
432.768 524.648 3627
441.441 524.648 3627
445.275 519.006 3588
448.036 512.352 3542
453.671 509.17 3520
459.069 505.843 3497
467.431 505.843 3497
470.895 500.636 3461
478.203 499.623 3454
488.434 501.648 3468
499.878 504.83 3490
508.224 504.83 3490
516.569 504.83 3490
525.968 505.843 3497
537.844 509.17 3520
546.262 509.17 3520
558.146 512.352 3542
577.654 522.333 3611
593.92 529.132 3658
602.667 529.132 3658
616.931 533.905 3691
634.064 540.993 3740
656.418 552.276 3818
665.548 552.276 3818
677.682 554.735 3835
688.465 556.037 3844
702.557 559.942 3871
711.814 559.942 3871
721.07 559.942 3871
730.327 559.942 3871
739.584 559.942 3871
748.841 559.942 3871
752.81 556.037 3844
755.064 550.974 3809
764.172 550.974 3809
778.559 554.735 3835
787.73 554.735 3835
798.771 556.037 3844
807.963 556.037 3844
817.155 556.037 3844
826.347 556.037 3844
835.539 556.037 3844
856.598 563.848 3898
876.138 570.502 3944
885.569 570.502 3944
899.312 573.25 3963
910.853 574.552 3972
920.351 574.552 3972
929.849 574.552 3972
939.348 574.552 3972
944.307 571.804 3953
953.76 571.804 3953
961.02 570.502 3944
963.561 566.452 3916
970.69 565.15 3907
980.033 565.15 3907
989.375 565.15 3907
991.816 561.244 3880
1001.09 561.244 3880
1010.37 561.244 3880
1019.65 561.244 3880
1024.16 558.64 3862
1030.98 557.339 3853
1037.77 556.037 3844
1046.96 556.037 3844
1049.01 552.276 3818
1050.93 548.515 3792
1060 548.515 3792
1069.07 548.515 3792
1075.58 547.213 3783
1084.62 547.213 3783
1093.67 547.213 3783
1102.72 547.213 3783
1111.76 547.213 3783
1115.77 544.754 3766
1124.78 544.754 3766
1136.19 545.911 3774
1145.22 545.911 3774
1154.24 545.911 3774
1166.04 547.213 3783
1180.37 549.672 3800
1192.27 550.974 3809
1201.38 550.974 3809
1213.35 552.276 3818
1230.8 556.037 3844
1251.61 561.244 3880
1260.89 561.244 3880
1281.95 566.452 3916
1300.55 570.502 3944
1316.29 573.25 3963
1325.77 573.25 3963
1335.24 573.25 3963
1338.27 570.502 3944
1347.7 570.502 3944
1357.13 570.502 3944
1373.15 573.25 3963
1392.39 577.3 3991
1401.94 577.3 3991
1411.48 577.3 3991
1411.06 573.25 3963
1420.53 573.25 3963
1446.97 580.049 4010
1456.56 580.049 4010
1466.15 580.049 4010
1475.74 580.049 4010
1485.33 580.049 4010
1494.91 580.049 4010
1504.5 580.049 4010
1514.09 580.049 4010
1523.68 580.049 4010
1533.27 580.049 4010
1528.24 574.552 3972
1545.09 577.3 3991
1565.93 581.495 4020
1575.55 581.495 4020
1585.16 581.495 4020
1602.31 584.244 4039
1611.97 584.244 4039
1621.63 584.244 4039
1631.29 584.244 4039
1640.94 584.244 4039
1654.69 585.69 4049
1664.37 585.69 4049
1674.05 585.69 4049
1683.74 585.69 4049
1689.24 584.244 4039
1698.9 584.244 4039
1700.52 581.495 4020
1710.13 581.495 4020
1715.46 580.049 4010
1725.05 580.049 4010
1734.64 580.049 4010
1735.97 577.3 3991
1762.57 582.942 4030
1772.21 582.942 4030
1781.84 582.942 4030
1787.03 581.495 4020
1796.65 581.495 4020
1806.26 581.495 4020
1815.87 581.495 4020
1820.94 580.049 4010
1830.53 580.049 4010
1835.99 578.747 4001
1845.56 578.747 4001
1850.49 577.3 3991
1842.33 571.804 3953
1843.35 569.2 3935
1848.05 567.753 3925
1857.43 567.753 3925
1849.7 562.546 3889
1850.39 559.942 3871
1846.68 556.037 3844
1855.87 556.037 3844
1865.06 556.037 3844
1861.58 552.276 3818
1849.15 545.911 3774
1858.17 545.911 3774
1846.42 539.836 3732
1830.98 532.748 3683
1819.31 526.817 3642
1816.47 523.49 3619
1825.13 523.49 3619
1829.73 522.333 3611
1834.29 521.176 3603
1827.05 516.692 3572
1835.59 516.692 3572
1840.52 515.679 3565
1852.68 516.692 3572
1865.39 517.849 3580
1881.8 520.019 3595
1890.39 520.019 3595
1898.99 520.019 3595
1907.59 520.019 3595
1916.19 520.019 3595
1933.35 522.333 3611
1941.98 522.333 3611
1963.58 525.805 3635
1976.07 526.817 3642
2007.13 532.748 3683
2015.93 532.748 3683
2024.74 532.748 3683
2142.32 561.244 3880
2166.57 565.15 3907
2175.91 565.15 3907
2190.29 566.452 3916
2236.73 575.999 3982
2251.33 577.3 3991
2260.87 577.3 3991
2270.41 577.3 3991
2279.96 577.3 3991
2289.5 577.3 3991
2299.04 577.3 3991
2303.38 575.999 3982
2307.1 574.552 3972
2316.59 574.552 3972
2326.09 574.552 3972
2335.59 574.552 3972
2350.99 575.999 3982
2360.52 575.999 3982
2370.04 575.999 3982
2379.56 575.999 3982
2389.08 575.999 3982
2398.6 575.999 3982
2396.64 573.25 3963
2406.11 573.25 3963
2421.08 574.552 3972
2436.69 575.999 3982
2446.22 575.999 3982
2455.74 575.999 3982
2465.26 575.999 3982
2474.78 575.999 3982
2484.3 575.999 3982
2487.56 574.552 3972
2491.4 573.25 3963
2483.21 569.2 3935
2492.62 569.2 3935
2472.78 562.546 3889
2476.34 561.244 3880
2485.62 561.244 3880
2494.89 561.244 3880
2498.36 559.942 3871
2501.79 558.64 3862
2505.17 557.339 3853
2514.39 557.339 3853
2523.6 557.339 3853
522.544 107.186 741
524.316 107.186 741
526.088 107.186 741
526.435 106.897 739
528.202 106.897 739
529.97 106.897 739
531.737 106.897 739
533.504 106.897 739
535.271 106.897 739
537.038 106.897 739
538.076 106.752 738
539.841 106.752 738
541.606 106.752 738
543.371 106.752 738
545.135 106.752 738
546.9 106.752 738
548.665 106.752 738
550.43 106.752 738
552.195 106.752 738
553.959 106.752 738
555.724 106.752 738
557.489 106.752 738
559.254 106.752 738
561.019 106.752 738
562.783 106.752 738
564.548 106.752 738
-2321.79 455.99 3101
-2314.38 455.99 3101
-2298.04 454.225 3089
-2290.65 454.225 3089
-2279.57 453.49 3084
-2272.19 453.49 3084
-2260.41 452.608 3078
-2248.66 451.726 3072
-2250.07 453.49 3084
-2246.33 454.225 3089
-2238.94 454.225 3089
-2240.23 455.99 3101
-2245.05 458.49 3118
-2280.65 467.312 3178
-2273.05 467.312 3178
-2296.11 473.635 3221
-2356.61 487.752 3317
-2362.84 490.693 3337
-2354.86 490.693 3337
-2512.15 525.249 3572
-2552.67 535.542 3642
-2543.96 535.542 3642
-2569.36 542.747 3691
-2588.98 548.776 3732
-2591.81 551.276 3749
-2582.84 551.276 3749
-2573.88 551.276 3749
-2542.34 546.423 3716
-2533.45 546.423 3716
-2524.56 546.423 3716
-2498.75 542.747 3691
-2473.74 539.218 3667
-2464.97 539.218 3667
-2434.76 534.512 3635
-2420.73 533.336 3627
-2406.74 532.16 3619
-2398.09 532.16 3619
-2378.87 529.807 3603
-2360.38 527.601 3588
-2346.56 526.425 3580
-2338 526.425 3580
-2324.23 525.249 3572
-2315.69 525.249 3572
-2307.15 525.249 3572
-2313.41 528.631 3595
-2304.81 528.631 3595
-2296.21 528.631 3595
-2292.71 529.807 3603
-2294.24 532.16 3619
-2285.58 532.16 3619
-2307.13 539.218 3667
-2308.39 541.571 3683
-2325.18 547.6 3724
-2316.27 547.6 3724
-2327.82 552.452 3757
-2356.48 561.422 3818
-2363.34 565.245 3844
-2354.14 565.245 3844
-2344.95 565.245 3844
-2335.76 565.245 3844
-2326.57 565.245 3844
-1959.31 554.952 3774
-1959.58 557.599 3792
-1950.52 557.599 3792
-1941.45 557.599 3792
-1932.38 557.599 3792
-1923.31 557.599 3792
-1914.25 557.599 3792
-1913.72 560.098 3809
-1904.61 560.098 3809
-1895.5 560.098 3809
-1886.39 560.098 3809
-1864.47 556.275 3783
-1838.75 551.276 3749
-1829.78 551.276 3749
-1816.45 549.952 3740
-1832.64 557.599 3792
-1823.57 557.599 3792
-1822.63 560.098 3809
-1813.53 560.098 3809
-1812.47 562.598 3826
-1803.32 562.598 3826
-1794.17 562.598 3826
-1764.96 556.275 3783
-1755.92 556.275 3783
-1742.71 554.952 3774
-1741.96 557.599 3792
-1732.89 557.599 3792
-1723.82 557.599 3792
-1706.61 554.952 3774
-1697.59 554.952 3774
-1680.96 552.452 3757
-1657.29 547.6 3724
-1640.86 545.1 3707
-1646.52 549.952 3740
-1648.96 553.776 3766
-1639.96 553.776 3766
-1634.42 554.952 3774
-1625.39 554.952 3774
-1616.37 554.952 3774
-1603.93 553.776 3766
-1594.93 553.776 3766
-1585.92 553.776 3766
-1576.92 553.776 3766
-1567.91 553.776 3766
-1562.22 554.952 3774
-1553.19 554.952 3774
-1544.17 554.952 3774
-1531.89 553.776 3766
-1512.37 549.952 3740
-1503.43 549.952 3740
-1504.87 553.776 3766
-1495.87 553.776 3766
-1497.13 557.599 3792
-1488.06 557.599 3792
-1478.99 557.599 3792
-1469.92 557.599 3792
-1450.84 553.776 3766
-1441.83 553.776 3766
-1432.83 553.776 3766
-1413.99 549.952 3740
-1411.43 552.452 3757
-1402.45 552.452 3757
-1396.8 553.776 3766
-1387.8 553.776 3766
-1378.79 553.776 3766
-1372.7 554.952 3774
-1363.67 554.952 3774
-1354.65 554.952 3774
-1348.83 556.275 3783
-1345.81 558.775 3800
-1339.89 560.098 3809
-1330.78 560.098 3809
-1321.67 560.098 3809
-1312.56 560.098 3809
-1303.45 560.098 3809
-1291.28 558.775 3800
-1282.2 558.775 3800
-1273.11 558.775 3800
-1264.02 558.775 3800
-1254.94 558.775 3800
-600.303 269.241 1831
-595.924 269.241 1831
-591.546 269.241 1831
-585.885 268.653 1827
-581.516 268.653 1827
-575.883 268.065 1823
-570.897 267.771 1821
-565.298 267.183 1817
-560.953 267.183 1817
-555.383 266.595 1813
-550.439 266.3 1811
-544.902 265.712 1807
-539.983 265.418 1805
-535.667 265.418 1805
-529.29 264.389 1798
-520.318 262.036 1782
-511.134 259.536 1765
-506.913 259.536 1765
-500.699 258.507 1758
-493.388 256.889 1747
-485.57 254.978 1734
-481.424 254.978 1734
-473.975 253.213 1722
-468.22 252.331 1716
-462.223 251.302 1709
-456.796 250.566 1704
-452.721 250.566 1704
-447.856 250.125 1701
-442.223 249.243 1695
-436.619 248.361 1689
-432.58 248.361 1689
-427.019 247.479 1683
-421.486 246.596 1677
-416.48 246.008 1673
-412.48 246.008 1673
-407.746 245.567 1670
-402.544 244.832 1665
-397.366 244.096 1660
-393.396 244.096 1660
-387.784 243.067 1653
-383.135 242.626 1650
-379.189 242.626 1650
-375.244 242.626 1650
-370.848 242.332 1648
-366.017 241.744 1644
-361.645 241.45 1642
-356.629 240.714 1637
-352.714 240.714 1637
-348.161 240.273 1634
-342.989 239.391 1628
-338.263 238.803 1624
-334.38 238.803 1624
-330.293 238.656 1623
-326.009 238.362 1621
-321.934 238.215 1620
-318.06 238.215 1620
-313.798 237.921 1618
-309.738 237.773 1617
-305.493 237.479 1615
-301.631 237.479 1615
-296.847 236.744 1610
-292.997 236.744 1610
-289.147 236.744 1610
-285.297 236.744 1610
-281.272 236.597 1609
-277.425 236.597 1609
-273.577 236.597 1609
-270.232 237.038 1612
-266.873 237.479 1615
-263.011 237.479 1615
-259.631 237.921 1618
-256.71 238.803 1624
-253.449 239.391 1628
-249.556 239.391 1628
-245.814 239.538 1629
-242.364 239.979 1632
-239.046 240.567 1636
-235.134 240.567 1636
-231.363 240.714 1637
-228.143 241.45 1642
-224.899 242.185 1647
-220.961 242.185 1647
-217.681 242.92 1652
-214.378 243.655 1657
-211.177 244.538 1663
-207.201 244.538 1663
-204.446 246.008 1673
-200.924 246.596 1677
-197.266 247.037 1680
-193.249 247.037 1680
-189.795 247.773 1685
-186.317 248.508 1690
-183.03 249.537 1697
-178.972 249.537 1697
-175.121 249.831 1699
-171.058 249.831 1699
-167.486 250.566 1704
-163.412 250.566 1704
-159.337 250.566 1704
-155.444 250.861 1706
-151.631 251.302 1709
-147.544 251.302 1709
-143.625 251.596 1711
-139.534 251.596 1711
-135.601 251.89 1713
-131.504 251.89 1713
-127.408 251.89 1713
-123.528 252.331 1716
-119.424 252.331 1716
-115.321 252.331 1716
-221.041 563.922 3835
-211.871 563.922 3835
-202.7 563.922 3835
-194.892 567.892 3862
-186.09 569.215 3871
-176.833 569.215 3871
-167.576 569.215 3871
-158.319 569.215 3871
-149.063 569.215 3871
-141.106 574.509 3907
-131.763 574.509 3907
-123.298 578.626 3935
-114.409 581.273 3953
-107.001 592.596 4030
-97.3636 592.596 4030
-88.7933 599.801 4079
-79.2329 601.271 4089
-69.4549 601.271 4089
-59.6768 601.271 4089
214.108 601.271 4089
223.886 601.271 4089
233.664 601.271 4089
241.656 596.86 4059
251.363 596.86 4059
261.069 596.86 4059
270.108 595.39 4049
277.787 591.125 4020
287.4 591.125 4020
294.205 585.537 3982
302.278 582.744 3963
310.26 579.95 3944
319.691 579.95 3944
329.123 579.95 3944
337.781 578.626 3935
345.515 575.832 3916
354.879 575.832 3916
364.243 575.832 3916
373.608 575.832 3916
382.972 575.832 3916
389.631 571.862 3889
398.931 571.862 3889
404.452 566.568 3853
408.942 560.098 3809
409.599 548.776 3732
418.524 548.776 3732
421.836 541.571 3683
427.72 537.895 3658
432.768 533.336 3627
441.441 533.336 3627
445.275 527.601 3588
448.036 520.837 3542
453.671 517.602 3520
459.069 514.22 3497
467.431 514.22 3497
470.895 508.926 3461
478.203 507.897 3454
488.434 509.956 3468
499.878 513.191 3490
508.224 513.191 3490
516.569 513.191 3490
525.968 514.22 3497
537.844 517.602 3520
546.262 517.602 3520
558.146 520.837 3542
577.654 530.983 3611
593.92 537.895 3658
602.667 537.895 3658
616.931 542.747 3691
634.064 549.952 3740
656.418 561.422 3818
665.548 561.422 3818
677.682 563.922 3835
688.465 565.245 3844
702.557 569.215 3871
711.814 569.215 3871
721.07 569.215 3871
730.327 569.215 3871
739.584 569.215 3871
748.841 569.215 3871
752.81 565.245 3844
755.064 560.098 3809
764.172 560.098 3809
778.559 563.922 3835
787.73 563.922 3835
798.771 565.245 3844
807.963 565.245 3844
817.155 565.245 3844
826.347 565.245 3844
835.539 565.245 3844
856.598 573.186 3898
876.138 579.95 3944
885.569 579.95 3944
899.312 582.744 3963
910.853 584.067 3972
920.351 584.067 3972
929.849 584.067 3972
939.348 584.067 3972
944.307 581.273 3953
953.76 581.273 3953
961.02 579.95 3944
963.561 575.832 3916
970.69 574.509 3907
980.033 574.509 3907
989.375 574.509 3907
991.816 570.539 3880
1001.09 570.539 3880
1010.37 570.539 3880
1019.65 570.539 3880
1024.16 567.892 3862
1030.98 566.568 3853
1037.77 565.245 3844
1046.96 565.245 3844
1049.01 561.422 3818
1050.93 557.599 3792
1060 557.599 3792
1069.07 557.599 3792
1075.58 556.275 3783
1084.62 556.275 3783
1093.67 556.275 3783
1102.72 556.275 3783
1109.12 554.952 3774
1115.77 553.776 3766
1124.78 553.776 3766
1133.78 553.776 3766
1145.22 554.952 3774
1154.24 554.952 3774
1163.27 554.952 3774
1177.88 557.599 3792
1189.45 558.775 3800
1198.54 558.775 3800
1207.63 558.775 3800
1225.04 562.598 3826
1242.9 566.568 3853
1252.11 566.568 3853
1270.16 570.539 3880
1288.35 574.509 3907
1300.68 575.832 3916
1310.04 575.832 3916
1319.41 575.832 3916
1325.72 574.509 3907
1335.06 574.509 3907
1325.82 566.568 3853
1338.15 567.892 3862
1356.81 571.862 3889
1366.11 571.862 3889
1375.41 571.862 3889
1384.71 571.862 3889
1384.33 567.892 3862
1406.55 573.186 3898
1415.88 573.186 3898
1431.78 575.832 3916
1441.14 575.832 3916
1450.51 575.832 3916
1473.67 581.273 3953
1483.12 581.273 3953
1499.74 584.067 3972
1509.24 584.067 3972
1518.74 584.067 3972
1520.93 581.273 3953
1530.38 581.273 3953
1554.64 586.861 3991
1568.1 588.331 4001
1577.67 588.331 4001
1587.24 588.331 4001
1596.8 588.331 4001
1609.98 589.655 4010
1619.57 589.655 4010
1629.16 589.655 4010
1646.92 592.596 4030
1656.56 592.596 4030
1666.2 592.596 4030
1675.84 592.596 4030
1681.29 591.125 4020
1690.9 591.125 4020
1696.29 589.655 4010
1702.05 588.331 4001
1707.34 586.861 3991
1713.01 585.537 3982
1722.53 585.537 3982
1723.79 582.744 3963
1741.57 585.537 3982
1755.05 586.861 3991
1764.6 586.861 3991
1774.14 586.861 3991
1775.19 584.067 3972
1784.69 584.067 3972
1807.29 588.331 4001
1816.86 588.331 4001
1826.43 588.331 4001
1818.56 582.744 3963
1828.03 582.744 3963
1837.51 582.744 3963
1833.94 578.626 3935
1830.23 574.509 3907
1835.33 573.186 3898
1844.66 573.186 3898
1841.14 569.215 3871
1850.39 569.215 3871
1846.68 565.245 3844
1855.87 565.245 3844
1865.06 565.245 3844
1861.58 561.422 3818
1849.15 554.952 3774
1858.17 554.952 3774
1850.38 549.952 3740
1834.96 542.747 3691
1827.3 537.895 3658
1816.47 532.16 3619
1825.13 532.16 3619
1833.78 532.16 3619
1838.36 530.983 3611
1831.14 526.425 3580
1839.7 526.425 3580
1844.13 525.249 3572
1856.82 526.425 3580
1873.2 528.631 3595
1885.99 529.807 3603
1894.6 529.807 3603
1903.22 529.807 3603
1911.83 529.807 3603
1920.45 529.807 3603
1933.35 530.983 3611
1941.98 530.983 3611
1967.36 535.542 3642
1984.75 537.895 3658
2007.13 541.571 3683
2015.93 541.571 3683
2024.74 541.571 3683
2147.29 571.862 3889
2166.57 574.509 3907
2175.91 574.509 3907
2190.29 575.832 3916
2231.11 584.067 3972
2251.33 586.861 3991
2260.87 586.861 3991
2270.41 586.861 3991
2279.96 586.861 3991
2289.5 586.861 3991
2299.04 586.861 3991
2308.59 586.861 3991
2307.1 584.067 3972
2316.59 584.067 3972
2326.09 584.067 3972
2341.47 585.537 3982
2350.99 585.537 3982
2360.52 585.537 3982
2370.04 585.537 3982
2379.56 585.537 3982
2389.08 585.537 3982
2398.6 585.537 3982
2396.64 582.744 3963
2406.11 582.744 3963
2421.08 584.067 3972
2430.57 584.067 3972
2446.22 585.537 3982
2455.74 585.537 3982
2465.26 585.537 3982
2468.57 584.067 3972
2478.06 584.067 3972
2487.56 584.067 3972
2485.12 581.273 3953
2471.22 575.832 3916
2480.58 575.832 3916
2472.78 571.862 3889
2476.34 570.539 3880
2485.62 570.539 3880
2494.89 570.539 3880
2498.36 569.215 3871
2495.96 566.568 3853
2505.17 566.568 3853
2514.39 566.568 3853
2523.6 566.568 3853
521.134 108.667 739
522.901 108.667 739
524.668 108.667 739
526.435 108.667 739
528.202 108.667 739
529.97 108.667 739
531.737 108.667 739
533.504 108.667 739
535.271 108.667 739
536.312 108.52 738
538.076 108.52 738
539.841 108.52 738
541.606 108.52 738
543.371 108.52 738
545.135 108.52 738
546.9 108.52 738
548.665 108.52 738
549.684 108.373 737
551.446 108.373 737
553.209 108.373 737
554.971 108.373 737
556.734 108.373 737
558.496 108.373 737
560.258 108.373 737
562.021 108.373 737
563.783 108.373 737
-2326.29 464.315 3107
-2318.86 464.315 3107
-2302.5 462.522 3095
-2290.65 461.625 3089
-2279.57 460.878 3084
-2272.19 460.878 3084
-2264.82 460.878 3084
-2248.66 459.085 3072
-2250.07 460.878 3084
-2250.69 462.522 3095
-2243.29 462.522 3095
-2240.23 463.418 3101
-2245.05 465.959 3118
-2280.65 474.925 3178
-2273.05 474.925 3178
-2308.94 484.041 3239
-2356.61 495.698 3317
-2348.68 495.698 3317
-2520.69 533.805 3572
-2545.21 540.829 3619
-2575.8 549.198 3675
-2567.01 549.198 3675
-2597.9 557.716 3732
-2600.77 560.256 3749
-2591.81 560.256 3749
-2582.84 560.256 3749
-2573.88 560.256 3749
-2564.91 560.256 3749
-2555.95 560.256 3749
-2546.98 560.256 3749
-2515.68 555.325 3716
-2479.13 549.198 3675
-2470.35 549.198 3675
-2444.81 545.462 3650
-2426.07 543.22 3635
-2412.06 542.025 3627
-2403.39 542.025 3627
-2389.43 540.829 3619
-2370.25 538.438 3603
-2356.39 537.242 3595
-2347.8 537.242 3595
-2329.44 535.001 3580
-2315.69 533.805 3572
-2312.32 535.001 3580
-2313.41 537.242 3595
-2304.81 537.242 3595
-2296.21 537.242 3595
-2292.71 538.438 3603
-2294.24 540.829 3619
-2290.63 542.025 3627
-2296.43 545.462 3650
-2298.36 548.002 3667
-2299.58 550.393 3683
-2290.77 550.393 3683
-2307.37 556.52 3724
-2356.48 570.568 3818
-2352.27 571.763 3826
-2343.12 571.763 3826
-2344.95 574.453 3844
-2335.76 574.453 3844
-2326.57 574.453 3844
-2311.95 573.108 3835
-1955.15 562.797 3766
-1946.15 562.797 3766
-1937.14 562.797 3766
-1928.14 562.797 3766
-1932.38 566.682 3792
-1923.31 566.682 3792
-1914.25 566.682 3792
-1900.66 565.337 3783
-1891.61 565.337 3783
-1882.56 565.337 3783
-1873.52 565.337 3783
-1851.66 561.452 3757
-1834.33 558.911 3740
-1829.78 560.256 3749
-1820.82 560.256 3749
-1832.64 566.682 3792
-1823.57 566.682 3792
-1822.63 569.223 3809
-1813.53 569.223 3809
-1812.47 571.763 3826
-1803.32 571.763 3826
-1794.17 571.763 3826
-1777.09 569.223 3809
-1755.92 565.337 3783
-1742.71 563.992 3774
-1741.96 566.682 3792
-1732.89 566.682 3792
-1723.82 566.682 3792
-1706.61 563.992 3774
-1697.59 563.992 3774
-1684.98 562.797 3766
-1664.41 558.911 3740
-1644.84 555.325 3716
-1646.52 558.911 3740
-1637.58 558.911 3740
-1628.63 558.911 3740
-1630.95 562.797 3766
-1621.95 562.797 3766
-1612.94 562.797 3766
-1600.1 561.452 3757
-1591.12 561.452 3757
-1582.13 561.452 3757
-1573.15 561.452 3757
-1564.16 561.452 3757
-1555.18 561.452 3757
-1542.9 560.256 3749
-1533.94 560.256 3749
-1521.31 558.911 3740
-1505.9 556.52 3724
-1496.99 556.52 3724
-1501.28 561.452 3757
-1492.29 561.452 3757
-1490.02 563.992 3774
-1480.99 563.992 3774
-1471.97 563.992 3774
-1462.94 563.992 3774
-1450.84 562.797 3766
-1441.83 562.797 3766
-1432.83 562.797 3766
-1413.99 558.911 3740
-1411.43 561.452 3757
-1402.45 561.452 3757
-1396.8 562.797 3766
-1387.8 562.797 3766
-1378.79 562.797 3766
-1372.7 563.992 3774
-1363.67 563.992 3774
-1354.65 563.992 3774
-1348.83 565.337 3783
-1345.81 567.878 3800
-1339.89 569.223 3809
-1330.78 569.223 3809
-1321.67 569.223 3809
-1312.56 569.223 3809
-1303.45 569.223 3809
-1291.28 567.878 3800
-1282.2 567.878 3800
-1273.11 567.878 3800
-1264.02 567.878 3800
-1254.94 567.878 3800
-598.991 273.03 1827
-594.622 273.03 1827
-590.254 273.03 1827
-585.885 273.03 1827
-581.516 273.03 1827
-575.883 272.432 1823
-570.897 272.133 1821
-565.298 271.535 1817
-560.953 271.535 1817
-555.383 270.938 1813
-550.439 270.639 1811
-544.902 270.041 1807
-539.983 269.742 1805
-535.667 269.742 1805
-529.29 268.696 1798
-520.318 266.305 1782
-511.134 263.764 1765
-506.913 263.764 1765
-500.699 262.718 1758
-493.388 261.074 1747
-485.57 259.132 1734
-481.424 259.132 1734
-473.975 257.338 1722
-468.22 256.442 1716
-462.223 255.396 1709
-456.796 254.648 1704
-452.721 254.648 1704
-447.856 254.2 1701
-442.223 253.303 1695
-436.102 252.108 1687
-432.068 252.108 1687
-427.019 251.51 1683
-421.486 250.614 1677
-416.48 250.016 1673
-412.48 250.016 1673
-407.258 249.269 1668
-402.544 248.82 1665
-397.366 248.073 1660
-393.396 248.073 1660
-387.55 246.877 1652
-383.135 246.579 1650
-379.189 246.579 1650
-375.244 246.579 1650
-370.848 246.28 1648
-366.017 245.682 1644
-361.645 245.383 1642
-356.629 244.636 1637
-352.714 244.636 1637
-347.735 243.889 1632
-342.989 243.291 1628
-338.263 242.693 1624
-334.38 242.693 1624
-330.293 242.544 1623
-326.009 242.245 1621
-321.934 242.095 1620
-318.06 242.095 1620
-313.798 241.796 1618
-309.738 241.647 1617
-305.493 241.348 1615
-301.631 241.348 1615
-296.847 240.601 1610
-292.997 240.601 1610
-289.147 240.601 1610
-285.297 240.601 1610
-281.272 240.451 1609
-277.425 240.451 1609
-273.577 240.451 1609
-270.232 240.9 1612
-266.873 241.348 1615
-263.011 241.348 1615
-259.631 241.796 1618
-256.71 242.693 1624
-253.449 243.291 1628
-249.556 243.291 1628
-245.814 243.44 1629
-242.364 243.889 1632
-239.046 244.486 1636
-235.134 244.486 1636
-231.363 244.636 1637
-228.143 245.383 1642
-224.899 246.13 1647
-220.961 246.13 1647
-217.681 246.877 1652
-214.378 247.625 1657
-211.177 248.521 1663
-207.201 248.521 1663
-204.446 250.016 1673
-200.924 250.614 1677
-197.266 251.062 1680
-193.249 251.062 1680
-189.57 251.51 1683
-186.317 252.556 1690
-183.03 253.602 1697
-178.972 253.602 1697
-175.121 253.901 1699
-171.058 253.901 1699
-167.486 254.648 1704
-163.412 254.648 1704
-159.337 254.648 1704
-155.444 254.947 1706
-151.631 255.396 1709
-147.544 255.396 1709
-143.625 255.695 1711
-139.534 255.695 1711
-135.601 255.993 1713
-131.504 255.993 1713
-127.408 255.993 1713
-123.528 256.442 1716
-119.424 256.442 1716
-115.321 256.442 1716
-221.041 573.108 3835
-211.871 573.108 3835
-202.7 573.108 3835
-194.892 577.143 3862
-186.09 578.488 3871
-176.833 578.488 3871
-167.576 578.488 3871
-158.319 578.488 3871
-149.063 578.488 3871
-141.106 583.868 3907
-131.763 583.868 3907
-123.298 588.053 3935
-114.409 590.743 3953
-107.001 602.25 4030
-97.3636 602.25 4030
-88.7933 609.572 4079
-79.2329 611.067 4089
-69.4549 611.067 4089
-59.6768 611.067 4089
214.108 611.067 4089
223.886 611.067 4089
233.664 611.067 4089
241.656 606.583 4059
251.363 606.583 4059
260.426 605.089 4049
268.173 600.755 4020
277.096 599.261 4010
286.685 599.261 4010
292.801 592.237 3963
300.829 589.398 3944
309.552 588.053 3935
318.962 588.053 3935
328.372 588.053 3935
336.923 586.558 3925
344.721 583.868 3907
354.879 585.213 3916
364.243 585.213 3916
373.608 585.213 3916
382.092 583.868 3907
388.73 579.833 3880
398.008 579.833 3880
404.452 575.798 3853
407.976 567.878 3800
406.855 553.98 3707
415.72 553.98 3707
418.972 546.657 3658
425.03 543.22 3635
430.859 539.634 3611
439.494 539.634 3611
442.42 532.759 3565
446.139 527.08 3527
451.737 523.793 3505
457.231 520.505 3483
465.56 520.505 3483
469.943 516.171 3454
476.264 514.079 3440
485.476 515.125 3447
494.722 516.171 3454
502.981 516.171 3454
511.241 516.171 3454
522.809 519.459 3476
532.191 520.505 3483
540.52 520.505 3483
554.679 526.034 3520
572.695 535.001 3580
587.588 540.829 3619
596.242 540.829 3619
611.415 546.657 3658
627.113 552.784 3699
650.4 565.337 3783
659.447 565.337 3783
673.088 569.223 3809
685.241 571.763 3826
694.39 571.763 3826
703.539 571.763 3826
716.041 574.453 3844
725.233 574.453 3844
734.425 574.453 3844
740.135 571.763 3826
744.193 567.878 3800
753.28 567.878 3800
762.367 567.878 3800
771.454 567.878 3800
778.897 566.682 3792
787.965 566.682 3792
802.498 570.568 3818
811.628 570.568 3818
820.758 570.568 3818
825.975 567.878 3800
842.754 573.108 3835
865.919 582.523 3898
875.241 582.523 3898
892.958 588.053 3935
902.368 588.053 3935
915.949 590.743 3953
925.401 590.743 3953
934.854 590.743 3953
935.468 585.213 3916
944.833 585.213 3916
947.618 581.178 3889
954.703 579.833 3880
961.746 578.488 3871
971.002 578.488 3871
980.259 578.488 3871
984.915 575.798 3853
994.128 575.798 3853
1003.34 575.798 3853
1012.56 575.798 3853
1019.38 574.453 3844
1028.57 574.453 3844
1030.75 570.568 3818
1039.88 570.568 3818
1049.01 570.568 3818
1050.93 566.682 3792
1057.48 565.337 3783
1066.53 565.337 3783
1075.58 565.337 3783
1084.62 565.337 3783
1093.67 565.337 3783
1102.72 565.337 3783
1109.12 563.992 3774
1115.77 562.797 3766
1124.78 562.797 3766
1133.78 562.797 3766
1145.22 563.992 3774
1154.24 563.992 3774
1163.27 563.992 3774
1177.88 566.682 3792
1189.45 567.878 3800
1198.54 567.878 3800
1207.63 567.878 3800
1225.04 571.763 3826
1242.9 575.798 3853
1252.11 575.798 3853
1270.16 579.833 3880
1288.35 583.868 3907
1300.68 585.213 3916
1310.04 585.213 3916
1319.41 585.213 3916
1325.72 583.868 3907
1335.06 583.868 3907
1325.82 575.798 3853
1338.15 577.143 3862
1356.81 581.178 3889
1366.11 581.178 3889
1375.41 581.178 3889
1384.71 581.178 3889
1384.33 577.143 3862
1406.55 582.523 3898
1415.88 582.523 3898
1431.78 585.213 3916
1441.14 585.213 3916
1450.51 585.213 3916
1473.67 590.743 3953
1483.12 590.743 3953
1499.74 593.582 3972
1509.24 593.582 3972
1518.74 593.582 3972
1520.93 590.743 3953
1530.38 590.743 3953
1554.64 596.421 3991
1568.1 597.916 4001
1577.67 597.916 4001
1587.24 597.916 4001
1596.8 597.916 4001
1609.98 599.261 4010
1619.57 599.261 4010
1629.16 599.261 4010
1646.92 602.25 4030
1656.56 602.25 4030
1666.2 602.25 4030
1675.84 602.25 4030
1681.29 600.755 4020
1690.9 600.755 4020
1696.29 599.261 4010
1702.05 597.916 4001
1707.34 596.421 3991
1713.01 595.076 3982
1722.53 595.076 3982
1723.79 592.237 3963
1741.57 595.076 3982
1755.05 596.421 3991
1764.6 596.421 3991
1774.14 596.421 3991
1775.19 593.582 3972
1784.69 593.582 3972
1807.29 597.916 4001
1816.86 597.916 4001
1826.43 597.916 4001
1818.56 592.237 3963
1828.03 592.237 3963
1837.51 592.237 3963
1833.94 588.053 3935
1830.23 583.868 3907
1835.33 582.523 3898
1844.66 582.523 3898
1841.14 578.488 3871
1850.39 578.488 3871
1846.68 574.453 3844
1855.87 574.453 3844
1865.06 574.453 3844
1861.58 570.568 3818
1853.56 565.337 3783
1862.6 565.337 3783
1850.38 558.911 3740
1834.96 551.589 3691
1827.3 546.657 3658
1820.49 542.025 3627
1829.16 542.025 3627
1833.78 540.829 3619
1842.44 540.829 3619
1838.81 537.242 3595
1847.41 537.242 3595
1848.26 535.001 3580
1864.6 537.242 3595
1877.37 538.438 3603
1890.17 539.634 3611
1898.81 539.634 3611
1907.44 539.634 3611
1916.08 539.634 3611
1924.71 539.634 3611
1933.35 539.634 3611
1958.66 544.266 3642
1976.01 546.657 3658
1998.32 550.393 3683
2029.47 556.52 3724
2038.38 556.52 3724
2047.28 556.52 3724
2147.29 581.178 3889
2166.57 583.868 3907
2175.91 583.868 3907
2221.61 593.582 3972
2231.11 593.582 3972
2251.33 596.421 3991
2260.87 596.421 3991
2276.1 597.916 4001
2285.67 597.916 4001
2295.24 597.916 4001
2304.81 597.916 4001
2314.37 597.916 4001
2318.13 596.421 3991
2327.68 596.421 3991
2331.95 595.076 3982
2341.47 595.076 3982
2356.31 596.421 3991
2365.85 596.421 3991
2375.39 596.421 3991
2384.94 596.421 3991
2394.48 596.421 3991
2404.03 596.421 3991
2402.08 593.582 3972
2411.58 593.582 3972
2421.08 593.582 3972
2430.57 593.582 3972
2446.22 595.076 3982
2455.74 595.076 3982
2465.26 595.076 3982
2474.78 595.076 3982
2484.3 595.076 3982
2493.83 595.076 3982
2485.12 590.743 3953
2471.22 585.213 3916
2480.58 585.213 3916
2478.5 582.523 3898
2476.34 579.833 3880
2485.62 579.833 3880
2494.89 579.833 3880
2498.36 578.488 3871
2495.96 575.798 3853
2505.17 575.798 3853
2514.39 575.798 3853
2523.6 575.798 3853
521.134 110.437 739
522.901 110.437 739
524.668 110.437 739
526.435 110.437 739
528.202 110.437 739
529.97 110.437 739
531.737 110.437 739
533.504 110.437 739
535.271 110.437 739
536.312 110.288 738
538.076 110.288 738
539.841 110.288 738
541.606 110.288 738
543.371 110.288 738
545.135 110.288 738
546.9 110.288 738
548.665 110.288 738
549.684 110.138 737
551.446 110.138 737
553.209 110.138 737
554.971 110.138 737
556.734 110.138 737
558.496 110.138 737
560.258 110.138 737
562.021 110.138 737
563.783 110.138 737
-2326.29 471.758 3107
-2318.86 471.758 3107
-2302.5 469.936 3095
-2295.1 469.936 3095
-2283.26 469.025 3089
-2275.88 469.025 3089
-2264.82 468.266 3084
-2248.66 466.444 3072
-2250.07 468.266 3084
-2250.69 469.936 3095
-2243.29 469.936 3095
-2248.17 472.517 3112
-2253.69 475.25 3130
-2297.88 486.182 3202
-2290.22 486.182 3202
-2336.74 497.722 3278
-2328.9 497.722 3278
-2321.06 497.722 3278
-2553.86 549.498 3619
-2567.01 554.205 3650
-2581.41 559.216 3683
-2572.6 559.216 3683
-2597.9 566.656 3732
-2600.77 569.237 3749
-2591.81 569.237 3749
-2582.84 569.237 3749
-2573.88 569.237 3749
-2564.91 569.237 3749
-2555.95 569.237 3749
-2546.98 569.237 3749
-2515.68 564.227 3716
-2479.13 558.001 3675
-2470.35 558.001 3675
-2456.2 556.787 3667
-2430.74 552.991 3642
-2417.38 551.928 3635
-2408.69 551.928 3635
-2389.43 549.498 3619
-2370.25 547.069 3603
-2361.64 547.069 3603
-2353.02 547.069 3603
-2339.2 545.854 3595
-2315.69 542.362 3572
-2322.01 545.854 3595
-2318.56 547.069 3603
-2309.94 547.069 3603
-2301.32 547.069 3603
-2297.8 548.284 3611
-2294.24 549.498 3619
-2300.11 552.991 3642
-2291.4 552.991 3642
-2298.36 556.787 3667
-2289.59 556.787 3667
-2280.82 556.787 3667
-2291.88 561.645 3699
-2298.46 565.441 3724
-2336.28 576.981 3800
-2327.2 576.981 3800
-2339.46 582.295 3835
-2341.23 585.028 3853
-2332.01 585.028 3853
-2322.8 585.028 3853
-1955.15 571.818 3766
-1946.15 571.818 3766
-1937.14 571.818 3766
-1923.53 570.452 3757
-1910.47 569.237 3749
-1901.5 569.237 3749
-1892.54 569.237 3749
-1887.59 570.452 3757
-1878.61 570.452 3757
-1869.62 570.452 3757
-1860.64 570.452 3757
-1843.28 567.871 3740
-1834.33 567.871 3740
-1829.78 569.237 3749
-1820.82 569.237 3749
-1832.64 575.766 3792
-1823.57 575.766 3792
-1822.63 578.347 3809
-1813.53 578.347 3809
-1812.47 580.929 3826
-1803.32 580.929 3826
-1794.17 580.929 3826
-1777.09 578.347 3809
-1751.74 573.033 3774
-1742.71 573.033 3774
-1741.96 575.766 3792
-1732.89 575.766 3792
-1723.82 575.766 3792
-1706.61 573.033 3774
-1697.59 573.033 3774
-1684.98 571.818 3766
-1668.41 569.237 3749
-1648.38 565.441 3724
-1646.52 567.871 3740
-1637.58 567.871 3740
-1628.63 567.871 3740
-1627.05 570.452 3757
-1618.07 570.452 3757
-1609.09 570.452 3757
-1596.69 569.237 3749
-1587.73 569.237 3749
-1578.76 569.237 3749
-1569.8 569.237 3749
-1560.83 569.237 3749
-1551.87 569.237 3749
-1542.9 569.237 3749
-1533.94 569.237 3749
-1521.31 567.871 3740
-1502.66 564.227 3716
-1493.78 564.227 3716
-1494.48 567.871 3740
-1485.54 567.871 3740
-1490.02 573.033 3774
-1480.99 573.033 3774
-1471.97 573.033 3774
-1462.94 573.033 3774
-1457.39 574.4 3783
-1448.34 574.4 3783
-1439.29 574.4 3783
-1426.85 573.033 3774
-1417.82 573.033 3774
-1408.8 573.033 3774
-1399.77 573.033 3774
-1390.75 573.033 3774
-1381.72 573.033 3774
-1372.7 573.033 3774
-1366.92 574.4 3783
-1357.88 574.4 3783
-1354.89 576.981 3800
-1352.18 579.714 3818
-1345.87 580.929 3826
-1336.72 580.929 3826
-1327.57 580.929 3826
-1318.42 580.929 3826
-1309.27 580.929 3826
-1297.4 579.714 3818
-1288.27 579.714 3818
-1279.14 579.714 3818
-1270.01 579.714 3818
-1254.94 576.981 3800
-598.991 277.406 1827
-594.622 277.406 1827
-590.254 277.406 1827
-584.602 276.799 1823
-580.243 276.799 1823
-575.883 276.799 1823
-569.643 275.888 1817
-565.298 275.888 1817
-560.953 275.888 1817
-554.77 274.977 1811
-549.831 274.673 1809
-544.902 274.37 1807
-539.086 273.61 1802
-534.776 273.61 1802
-529.29 273.003 1798
-520.318 270.574 1782
-511.134 267.992 1765
-506.913 267.992 1765
-499.56 266.322 1754
-493.388 265.259 1747
-485.57 263.285 1734
-481.424 263.285 1734
-473.975 261.463 1722
-468.22 260.552 1716
-462.223 259.49 1709
-456.796 258.73 1704
-452.721 258.73 1704
-447.856 258.275 1701
-442.223 257.364 1695
-436.102 256.149 1687
-432.068 256.149 1687
-427.526 255.845 1685
-421.486 254.631 1677
-416.978 254.327 1675
-412.973 254.327 1675
-407.258 253.264 1668
-402.544 252.809 1665
-397.845 252.353 1662
-393.87 252.353 1662
-387.784 250.987 1653
-383.599 250.835 1652
-379.649 250.835 1652
-375.699 250.835 1652
-371.298 250.531 1650
-366.239 249.772 1645
-362.085 249.62 1644
-357.065 248.861 1639
-353.145 248.861 1639
-348.587 248.405 1636
-343.2 247.343 1629
-339.096 247.191 1628
-335.203 247.191 1628
-330.903 246.887 1626
-326.613 246.583 1624
-322.53 246.432 1623
-318.649 246.432 1623
-314.38 246.128 1621
-309.929 245.672 1618
-305.871 245.521 1617
-302.004 245.521 1617
-297.769 245.217 1615
-293.907 245.217 1615
-289.686 244.913 1613
-285.829 244.913 1613
-281.447 244.458 1610
-277.597 244.458 1610
-274.087 244.761 1612
-270.4 244.913 1613
-266.873 245.217 1615
-263.337 245.521 1617
-259.952 245.976 1620
-257.342 247.191 1628
-253.605 247.343 1629
-249.71 247.343 1629
-246.116 247.646 1631
-242.661 248.102 1634
-239.192 248.557 1637
-235.278 248.557 1637
-231.787 249.013 1640
-228.56 249.772 1645
-225.309 250.531 1650
-221.363 250.531 1650
-218.34 251.594 1657
-215.025 252.353 1662
-211.685 253.112 1667
