1491.56 1270.19 2428
1517.72 1287.45 2461
1527.94 1291.11 2468
1550 1304.71 2494
1555.97 1304.71 2494
1561.93 1304.71 2494
1567.89 1304.71 2494
1573.86 1304.71 2494
1577.29 1302.62 2490
1583.24 1302.62 2490
1593.66 1306.28 2497
1599.63 1306.28 2497
1605.61 1306.28 2497
1611.58 1306.28 2497
1613.01 1302.62 2490
1618.97 1302.62 2490
1617.74 1296.87 2479
1616.47 1291.11 2468
1598.7 1272.28 2432
1578.79 1251.88 2393
1584.51 1251.88 2393
1588.24 1250.31 2390
1582.62 1241.41 2373
1566.2 1224.15 2340
1571.8 1224.15 2340
1559.87 1210.55 2314
1563.37 1208.98 2311
1562.11 1203.75 2301
1567.61 1203.75 2301
1573.12 1203.75 2301
1574.5 1200.61 2295
1573.11 1195.38 2285
1587.55 1202.18 2298
1595.13 1203.75 2301
1600.63 1203.75 2301
1610.32 1206.89 2307
1618.64 1208.98 2311
1626.27 1210.55 2314
1631.8 1210.55 2314
1637.34 1210.55 2314
1645 1212.12 2317
1650.54 1212.12 2317
1656.08 1212.12 2317
1659.47 1210.55 2314
1644.14 1195.38 2285
1636.61 1185.96 2267
1642.03 1185.96 2267
1616.2 1163.47 2224
1641.21 1177.59 2251
1658.29 1185.96 2267
1663.71 1185.96 2267
1669.13 1185.96 2267
1647.23 1166.6 2230
1652.56 1166.6 2230
1643.02 1156.14 2210
1648.31 1156.14 2210
1640.12 1146.72 2192
1637.11 1140.97 2181
1642.32 1140.97 2181
1647.54 1140.97 2181
1637.6 1130.51 2161
1640.49 1128.94 2158
1643.36 1127.37 2155
1648.51 1127.37 2155
-1649.92 1232.91 2346
-1644.31 1232.91 2346
-1638.7 1232.91 2346
-1628.91 1229.76 2340
-1623.32 1229.76 2340
-1605.97 1220.82 2323
-1603.17 1222.92 2327
-1599.66 1224.5 2330
-1598.88 1228.18 2337
-1593.29 1228.18 2337
-1589.74 1229.76 2340
-1584.15 1229.76 2340
-1578.55 1229.76 2340
-1572.95 1229.76 2340
-1567.36 1229.76 2340
-1561.76 1229.76 2340
-1558.16 1231.33 2343
-1552.56 1231.33 2343
-1548.94 1232.91 2346
-1554.51 1241.84 2363
-1548.86 1241.84 2363
-1543.21 1241.84 2363
-1537.56 1241.84 2363
-1529.96 1240.27 2360
-1524.32 1240.27 2360
-1518.68 1240.27 2360
-1514.96 1241.84 2363
-1509.31 1241.84 2363
-1505.56 1243.42 2366
-1499.91 1243.42 2366
-1500.56 1248.67 2376
-1501.8 1254.46 2387
-1497.98 1256.03 2390
-1492.26 1256.03 2390
-1490.9 1259.71 2397
-1493.84 1267.07 2411
-1488.08 1267.07 2411
-1482.31 1267.07 2411
-1472.26 1263.39 2404
-1466.51 1263.39 2404
-1460.76 1263.39 2404
-1452.59 1261.29 2400
-1434.8 1250.78 2380
-1418.9 1241.84 2363
-1413.25 1241.84 2363
-1403.42 1238.16 2356
-1396.01 1236.59 2353
-1386.25 1232.91 2346
-1378.87 1231.33 2343
-1373.27 1231.33 2343
-1361.83 1226.08 2333
-1348.69 1219.24 2320
-1341.41 1217.67 2317
-1335.87 1217.67 2317
-1328.6 1216.09 2314
-1317.35 1210.84 2304
-1311.84 1210.84 2304
-1306.33 1210.84 2304
-1300.83 1210.84 2304
-1297 1212.41 2307
-1293.72 1214.51 2311
-1289.87 1216.09 2314
-1284.34 1216.09 2314
-1278.8 1216.09 2314
-1271.62 1214.51 2311
-1266.09 1214.51 2311
-1260.57 1214.51 2311
-1258.3 1217.67 2317
-1261.41 1226.08 2333
-1261.21 1231.33 2343
-1255.61 1231.33 2343
-1250.01 1231.33 2343
-1267.77 1254.46 2387
-1267.35 1259.71 2397
-1261.62 1259.71 2397
-1257.46 1261.29 2400
-1251.72 1261.29 2400
-1245.98 1261.29 2400
-1240.24 1261.29 2400
-1230.9 1257.61 2393
-1225.18 1257.61 2393
-1219.46 1257.61 2393
-1212.21 1256.03 2390
-1201.45 1250.78 2380
-1195.76 1250.78 2380
-1193.57 1254.46 2387
-1187.86 1254.46 2387
-1182.15 1254.46 2387
-1176.45 1254.46 2387
-1175.64 1259.71 2397
-1169.91 1259.71 2397
-1167.58 1263.39 2404
-1163.28 1264.97 2407
-1169.55 1278.1 2432
-1163.73 1278.1 2432
-1157.91 1278.1 2432
-1138.83 1263.39 2404
-1133.09 1263.39 2404
-1111.39 1245.52 2370
-1093.13 1231.33 2343
-1086.13 1229.76 2340
-1080.54 1229.76 2340
-1073.56 1228.18 2337
-1066.15 1226.08 2333
-1057.84 1222.92 2327
-1052.28 1222.92 2327
-1046.71 1222.92 2327
-1039.36 1220.82 2323
-1028.46 1214.51 2311
-1019.84 1210.84 2304
-1014.33 1210.84 2304
-1006.19 1207.68 2298
-1000.7 1207.68 2298
-995.201 1207.68 2298
-992.29 1210.84 2304
-986.78 1210.84 2304
-981.27 1210.84 2304
-979.996 1216.09 2314
-976.989 1219.24 2320
-971.441 1219.24 2320
-968.808 1222.92 2327
-964.485 1224.5 2330
-963.029 1229.76 2340
-957.433 1229.76 2340
-961.193 1241.84 2363
-956.756 1243.42 2366
-951.098 1243.42 2366
-945.44 1243.42 2366
-938.591 1241.84 2363
-934.124 1243.42 2366
-928.467 1243.42 2366
-922.809 1243.42 2366
-917.151 1243.42 2366
-916.887 1250.78 2380
-912.344 1252.35 2383
-906.645 1252.35 2383
-900.947 1252.35 2383
-895.248 1252.35 2383
-889.55 1252.35 2383
-881.255 1248.67 2376
-875.573 1248.67 2376
-869.892 1248.67 2376
-864.21 1248.67 2376
-858.528 1248.67 2376
-850.693 1245.52 2370
-842.53 1241.84 2363
-836.879 1241.84 2363
-828.766 1238.16 2356
-823.132 1238.16 2356
-823.397 1247.1 2373
-817.722 1247.1 2373
-812.048 1247.1 2373
-806.373 1247.1 2373
-797.324 1241.84 2363
-791.674 1241.84 2363
-779.37 1231.33 2343
-770.465 1226.08 2333
-763.903 1224.5 2330
-569.236 919.163 1749
-565.054 919.163 1749
-561.513 920.214 1751
-557.326 920.214 1751
-553.139 920.214 1751
-548.951 920.214 1751
-543.52 918.112 1747
-538.725 917.061 1745
-534.552 917.061 1745
-529.163 914.959 1741
-525 914.959 1741
-520.538 914.433 1740
-516.377 914.433 1740
-512.216 914.433 1740
-508.055 914.433 1740
-503.315 913.382 1738
-499.159 913.382 1738
-495.003 913.382 1738
-490.847 913.382 1738
-486.691 913.382 1738
-483.09 914.433 1740
-478.929 914.433 1740
-474.768 914.433 1740
-470.878 914.959 1741
-466.714 914.959 1741
-462.551 914.959 1741
-458.125 914.433 1740
-453.964 914.433 1740
-449.803 914.433 1740
-445.642 914.433 1740
-440.974 913.382 1738
-436.315 912.331 1736
-432.164 912.331 1736
-427.519 911.28 1734
-423.373 911.28 1734
-418.743 910.229 1732
-413.883 908.653 1729
-409.748 908.653 1729
-404.675 906.55 1725
-400.086 905.499 1723
-395.276 903.923 1720
-391.163 903.923 1720
-385.925 901.295 1715
-381.379 900.244 1713
-376.401 898.142 1709
-372.315 898.142 1709
-367.581 896.565 1706
-363.076 895.514 1704
-357.948 892.886 1699
-353.885 892.886 1699
-348.998 890.784 1695
-344.742 890.259 1694
-340.691 890.259 1694
-336.64 890.259 1694
-332.196 889.208 1692
-327.762 888.157 1690
-323.721 888.157 1690
-319.68 888.157 1690
-315.638 888.157 1690
-311.597 888.157 1690
-307.556 888.157 1690
-303.515 888.157 1690
-300.182 890.259 1694
-296.131 890.259 1694
-292.253 890.784 1695
-288.54 891.835 1697
-285.152 893.938 1701
-281.084 893.938 1701
-277.505 895.514 1704
-274.233 898.142 1709
-270.778 900.244 1713
-266.682 900.244 1713
-263.046 901.821 1716
-259.999 905.499 1723
-256.472 907.601 1727
-252.343 907.601 1727
-248.5 908.653 1729
-244.648 909.704 1731
-240.648 910.229 1732
-236.506 910.229 1732
-233.169 913.382 1738
-229.409 914.959 1741
-225.245 914.959 1741
-221.082 914.959 1741
-217.168 916.01 1743
-213.244 917.061 1745
-209.072 917.061 1745
-204.899 917.061 1745
-200.726 917.061 1745
-196.553 917.061 1745
-192.38 917.061 1745
-188.208 917.061 1745
-184.035 917.061 1745
-179.45 914.959 1741
-175.286 914.959 1741
-171.123 914.959 1741
-189.198 1219.24 2320
-184.679 1226.08 2333
-179.101 1226.08 2333
-173.522 1226.08 2333
-168.231 1228.18 2337
-163.756 1236.59 2353
-158.331 1238.16 2356
-152.697 1238.16 2356
-147.063 1238.16 2356
-141.429 1238.16 2356
-136.026 1240.27 2360
-130.382 1240.27 2360
-124.739 1240.27 2360
-119.398 1243.42 2366
-113.74 1243.42 2366
-108.082 1243.42 2366
-102.727 1247.1 2373
-97.0529 1247.1 2373
-91.3783 1247.1 2373
-85.7038 1247.1 2373
-80.1304 1248.67 2376
-74.4486 1248.67 2376
-68.7669 1248.67 2376
-63.0852 1248.67 2376
-57.4034 1248.67 2376
-51.7217 1248.67 2376
-46.04 1248.67 2376
-40.3073 1247.1 2373
-34.5305 1243.42 2366
-28.8361 1241.84 2363
-23.1855 1241.84 2363
-17.5125 1240.27 2360
-11.8691 1240.27 2360
-6.2256 1240.27 2360
-0.582121 1240.27 2360
5.06135 1240.27 2360
10.7048 1240.27 2360
16.3206 1238.16 2356
21.9265 1236.59 2353
27.5533 1236.59 2353
33.1377 1235.01 2350
38.6913 1232.91 2346
44.2447 1231.33 2343
49.8475 1231.33 2343
55.4503 1231.33 2343
60.8968 1228.18 2337
66.4853 1228.18 2337
72.0737 1228.18 2337
77.6622 1228.18 2337
83.2507 1228.18 2337
88.8392 1228.18 2337
94.4276 1228.18 2337
100.016 1228.18 2337
105.605 1228.18 2337
111.193 1228.18 2337
116.931 1229.76 2340
122.527 1229.76 2340
128.287 1231.33 2343
134.061 1232.91 2346
139.671 1232.91 2346
145.281 1232.91 2346
150.698 1231.33 2343
156.501 1232.91 2346
162.802 1238.16 2356
168.436 1238.16 2356
174.07 1238.16 2356
179.704 1238.16 2356
185.102 1236.59 2353
190.729 1236.59 2353
196.355 1236.59 2353
201.982 1236.59 2353
208.226 1240.27 2360
214.776 1245.52 2370
220.444 1245.52 2370
226.397 1247.1 2373
232.072 1247.1 2373
237.746 1247.1 2373
243.421 1247.1 2373
249.095 1247.1 2373
253.696 1241.84 2363
259.347 1241.84 2363
264.661 1240.27 2360
270.305 1240.27 2360
275.948 1240.27 2360
281.592 1240.27 2360
287.235 1240.27 2360
292.879 1240.27 2360
298.016 1238.16 2356
303.65 1238.16 2356
309.284 1238.16 2356
314.918 1238.16 2356
320.552 1238.16 2356
325.77 1236.59 2353
331.397 1236.59 2353
337.024 1236.59 2353
342.651 1236.59 2353
348.277 1236.59 2353
355.408 1241.84 2363
361.059 1241.84 2363
366.709 1241.84 2363
373.936 1247.1 2373
379.61 1247.1 2373
385.285 1247.1 2373
391.454 1248.67 2376
397.135 1248.67 2376
402.817 1248.67 2376
408.499 1248.67 2376
413.135 1245.52 2370
418.095 1243.42 2366
423.753 1243.42 2366
429.411 1243.42 2366
435.069 1243.42 2366
440.727 1243.42 2366
446.384 1243.42 2366
452.042 1243.42 2366
457.12 1241.84 2363
460.812 1236.59 2353
465.844 1235.01 2350
471.464 1235.01 2350
477.083 1235.01 2350
483.319 1236.59 2353
489.569 1238.16 2356
495.203 1238.16 2356
500.837 1238.16 2356
506.471 1238.16 2356
512.105 1238.16 2356
517.739 1238.16 2356
522.706 1236.59 2353
528.333 1236.59 2353
535.548 1240.27 2360
544.173 1247.1 2373
549.847 1247.1 2373
556.224 1248.67 2376
561.906 1248.67 2376
567.588 1248.67 2376
573.269 1248.67 2376
578.951 1248.67 2376
585.617 1250.78 2380
591.308 1250.78 2380
597 1250.78 2380
601.678 1248.67 2376
607.36 1248.67 2376
613.041 1248.67 2376
618.723 1248.67 2376
619.149 1238.16 2356
622.131 1232.91 2346
627.741 1232.91 2346
634.431 1235.01 2350
640.05 1235.01 2350
646.494 1236.59 2353
652.121 1236.59 2353
658.586 1238.16 2356
664.22 1238.16 2356
671.844 1241.84 2363
677.495 1241.84 2363
683.146 1241.84 2363
688.796 1241.84 2363
695.329 1243.42 2366
700.986 1243.42 2366
708.735 1247.1 2373
715.313 1248.67 2376
720.994 1248.67 2376
728.817 1252.35 2383
734.516 1252.35 2383
740.214 1252.35 2383
744.973 1250.78 2380
750.665 1250.78 2380
754.131 1247.1 2373
759.806 1247.1 2373
765.481 1247.1 2373
771.155 1247.1 2373
776.83 1247.1 2373
782.504 1247.1 2373
785.854 1243.42 2366
788.166 1238.16 2356
793.8 1238.16 2356
799.434 1238.16 2356
804.043 1236.59 2353
807.261 1232.91 2346
810.792 1229.76 2340
816.388 1229.76 2340
819.524 1226.08 2333
822.981 1222.92 2327
824.985 1217.67 2317
829.451 1216.09 2314
834.984 1216.09 2314
840.517 1216.09 2314
844.954 1214.51 2311
847.904 1210.84 2304
853.414 1210.84 2304
856.687 1207.68 2298
862.182 1207.68 2298
867.677 1207.68 2298
873.172 1207.68 2298
876.373 1204.53 2292
881.854 1204.53 2292
887.335 1204.53 2292
892.816 1204.53 2292
898.297 1204.53 2292
897.469 1196.12 2276
910.449 1206.11 2295
915.937 1206.11 2295
926.243 1212.41 2307
931.759 1212.41 2307
937.276 1212.41 2307
942.793 1212.41 2307
948.31 1212.41 2307
951.346 1209.26 2301
956.848 1209.26 2301
964.86 1212.41 2307
975.845 1219.24 2320
981.392 1219.24 2320
986.94 1219.24 2320
992.488 1219.24 2320
998.036 1219.24 2320
1003.58 1219.24 2320
1006.52 1216.09 2314
1010.74 1214.51 2311
1016.27 1214.51 2311
1016.05 1207.68 2298
1018.88 1204.53 2292
1024.36 1204.53 2292
1028.04 1202.43 2288
1033.51 1202.43 2288
1038.98 1202.43 2288
1044.45 1202.43 2288
1054.51 1207.68 2298
1060.01 1207.68 2298
1065.5 1207.68 2298
1071 1207.68 2298
1075.09 1206.11 2295
1080.58 1206.11 2295
1084.65 1204.53 2292
1083.94 1197.7 2279
1083.66 1191.39 2267
1089.08 1191.39 2267
1093.05 1189.81 2264
1095.07 1186.14 2257
1099 1184.56 2254
1107.82 1188.24 2261
1114.71 1189.81 2264
1120.12 1189.81 2264
1127.03 1191.39 2267
1138.44 1197.7 2279
1145.4 1199.27 2282
1150.85 1199.27 2282
1156.31 1199.27 2282
1161.77 1199.27 2282
1167.23 1199.27 2282
1168.06 1194.54 2273
1175.04 1196.12 2276
1188.78 1204.53 2292
1195.83 1206.11 2295
1201.31 1206.11 2295
1208.38 1207.68 2298
1213.88 1207.68 2298
1224.15 1212.41 2307
1229.66 1212.41 2307
1240.53 1217.67 2317
1246.07 1217.67 2317
1251.62 1217.67 2317
1257.16 1217.67 2317
1262.7 1217.67 2317
1273.71 1222.92 2327
1279.28 1222.92 2327
1284.84 1222.92 2327
1290.4 1222.92 2327
1292.07 1219.24 2320
1307.13 1228.18 2337
1312.72 1228.18 2337
1318.3 1228.18 2337
1331.26 1235.01 2350
1336.88 1235.01 2350
1342.5 1235.01 2350
1345.82 1232.91 2346
1351.43 1232.91 2346
1368.61 1243.42 2366
1380.08 1248.67 2376
1385.76 1248.67 2376
1393.78 1250.78 2380
1403.59 1254.46 2387
1412.84 1257.61 2393
1418.56 1257.61 2393
1436.78 1268.65 2414
1442.56 1268.65 2414
1448.33 1268.65 2414
1454.1 1268.65 2414
1459.87 1268.65 2414
1461.4 1264.97 2407
1467.15 1264.97 2407
1472.91 1264.97 2407
1476.82 1263.39 2404
1506.62 1283.89 2443
1514.32 1285.46 2446
1533.84 1297.02 2468
1539.74 1297.02 2468
1547.52 1298.6 2471
1553.43 1298.6 2471
1559.34 1298.6 2471
1565.25 1298.6 2471
1562.26 1291.24 2457
1579.62 1300.7 2475
1588.1 1302.8 2479
1594.03 1302.8 2479
1599.96 1302.8 2479
1605.89 1302.8 2479
1611.82 1302.8 2479
1610.57 1297.02 2468
1592.89 1278.1 2432
1564.52 1250.78 2380
1565.59 1247.1 2373
1571.27 1247.1 2373
1576.94 1247.1 2373
1580.62 1245.52 2370
1564.2 1228.18 2337
1569.79 1228.18 2337
1553.13 1210.84 2304
1554.58 1207.68 2298
1553.29 1202.43 2288
1550.58 1196.12 2276
1556.02 1196.12 2276
1557.35 1192.97 2270
1564.84 1194.54 2273
1578.57 1200.85 2285
1586.11 1202.43 2288
1591.58 1202.43 2288
1601.94 1206.11 2295
1607.43 1206.11 2295
1615.03 1207.68 2298
1620.52 1207.68 2298
1626.02 1207.68 2298
1631.51 1207.68 2298
1637.01 1207.68 2298
1642.5 1207.68 2298
1643.69 1204.53 2292
1626.87 1188.24 2261
1605.57 1168.79 2224
1610.88 1168.79 2224
1603.85 1159.86 2207
1609.13 1159.86 2207
1626.84 1168.79 2224
1632.16 1168.79 2224
1641.89 1171.95 2230
1647.23 1171.95 2230
1652.56 1171.95 2230
1643.02 1161.44 2210
1648.31 1161.44 2210
1640.12 1151.98 2192
1637.11 1146.2 2181
1642.32 1146.2 2181
1647.54 1146.2 2181
1637.6 1135.68 2161
1640.49 1134.11 2158
1643.36 1132.53 2155
1648.51 1132.53 2155
-1640.78 1231.67 2333
-1635.2 1231.67 2333
-1629.62 1231.67 2333
-1612.9 1223.22 2317
-1607.36 1223.22 2317
-1601.82 1223.22 2317
-1598.35 1224.8 2320
-1594.86 1226.39 2323
-1592.04 1228.5 2327
-1586.47 1228.5 2327
-1587.7 1233.78 2337
-1582.11 1233.78 2337
-1578.55 1235.36 2340
-1572.95 1235.36 2340
-1567.36 1235.36 2340
-1561.76 1235.36 2340
-1558.16 1236.94 2343
-1552.56 1236.94 2343
-1553.56 1242.22 2353
-1556.48 1249.09 2366
-1550.83 1249.09 2366
-1545.17 1249.09 2366
-1539.51 1249.09 2366
-1529.96 1245.92 2360
-1524.32 1245.92 2360
-1518.68 1245.92 2360
-1514.96 1247.5 2363
-1509.31 1247.5 2363
-1505.56 1249.09 2366
-1499.91 1249.09 2366
-1500.56 1254.37 2376
-1501.8 1260.17 2387
-1497.98 1261.76 2390
-1492.26 1261.76 2390
-1490.9 1265.45 2397
-1493.84 1272.84 2411
-1488.08 1272.84 2411
-1482.31 1272.84 2411
-1472.26 1269.15 2404
-1466.51 1269.15 2404
-1460.76 1269.15 2404
-1452.59 1267.04 2400
-1434.8 1256.48 2380
-1418.9 1247.5 2363
-1413.25 1247.5 2363
-1403.42 1243.81 2356
-1396.01 1242.22 2353
-1386.25 1238.53 2346
-1378.87 1236.94 2343
-1373.27 1236.94 2343
-1361.83 1231.67 2333
-1348.69 1224.8 2320
-1341.41 1223.22 2317
-1335.87 1223.22 2317
-1328.6 1221.63 2314
-1317.35 1216.36 2304
-1311.84 1216.36 2304
-1306.33 1216.36 2304
-1300.83 1216.36 2304
-1297 1217.94 2307
-1293.72 1220.05 2311
-1289.87 1221.63 2314
-1284.34 1221.63 2314
-1278.8 1221.63 2314
-1271.62 1220.05 2311
-1266.09 1220.05 2311
-1260.57 1220.05 2311
-1265.36 1230.08 2330
-1263.57 1233.78 2337
-1264.98 1240.64 2350
-1259.36 1240.64 2350
-1253.74 1240.64 2350
-1267.77 1260.17 2387
-1267.35 1265.45 2397
-1261.62 1265.45 2397
-1257.46 1267.04 2400
-1251.72 1267.04 2400
-1245.98 1267.04 2400
-1240.24 1267.04 2400
-1230.9 1263.34 2393
-1225.18 1263.34 2393
-1219.46 1263.34 2393
-1212.21 1261.76 2390
-1201.45 1256.48 2380
-1195.76 1256.48 2380
-1193.57 1260.17 2387
-1187.86 1260.17 2387
-1182.15 1260.17 2387
-1176.45 1260.17 2387
-1175.64 1265.45 2397
-1169.91 1265.45 2397
-1167.58 1269.15 2404
-1163.28 1270.73 2407
-1169.55 1283.93 2432
-1163.73 1283.93 2432
-1157.91 1283.93 2432
-1138.83 1269.15 2404
-1133.09 1269.15 2404
-1111.39 1251.2 2370
-1093.13 1236.94 2343
-1086.13 1235.36 2340
-1080.54 1235.36 2340
-1073.56 1233.78 2337
-1066.15 1231.67 2333
-1057.84 1228.5 2327
-1052.28 1228.5 2327
-1046.71 1228.5 2327
-1039.36 1226.39 2323
-1028.46 1220.05 2311
-1019.84 1216.36 2304
-1014.33 1216.36 2304
-1006.19 1213.19 2298
-1000.7 1213.19 2298
-995.201 1213.19 2298
-989.705 1213.19 2298
-984.21 1213.19 2298
-978.715 1213.19 2298
-975.761 1216.36 2304
-976.989 1224.8 2320
-971.441 1224.8 2320
-965.893 1224.8 2320
-963.243 1228.5 2327
-960.148 1231.67 2333
-954.569 1231.67 2333
-958.346 1243.81 2356
-954.329 1245.92 2360
-948.686 1245.92 2360
-943.042 1245.92 2360
-934.619 1242.22 2353
-928.992 1242.22 2353
-923.365 1242.22 2353
-917.738 1242.22 2353
-912.112 1242.22 2353
-909.182 1245.92 2360
-903.538 1245.92 2360
-897.895 1245.92 2360
-892.251 1245.92 2360
-885.105 1243.81 2356
-879.471 1243.81 2356
-872.724 1242.22 2353
-867.098 1242.22 2353
-861.471 1242.22 2353
-855.844 1242.22 2353
-850.218 1242.22 2353
-842.078 1238.53 2346
-834.329 1235.36 2340
-828.733 1235.36 2340
-823.138 1235.36 2340
-815.096 1231.67 2333
-812.987 1236.94 2343
-807.384 1236.94 2343
-801.782 1236.94 2343
-796.179 1236.94 2343
-790.576 1236.94 2343
-781.623 1231.67 2333
-776.044 1231.67 2333
-770.465 1231.67 2333
-763.903 1230.08 2330
-568.585 922.297 1747
-564.408 922.297 1747
-560.872 923.353 1749
-556.689 923.353 1749
-552.507 923.353 1749
-547.697 922.297 1747
-543.52 922.297 1747
-537.49 919.13 1741
-533.327 919.13 1741
-528.859 918.602 1740
-524.698 918.602 1740
-520.538 918.602 1740
-516.377 918.602 1740
-512.216 918.602 1740
-507.471 917.546 1738
-503.315 917.546 1738
-499.159 917.546 1738
-495.003 917.546 1738
-491.412 918.602 1740
-487.251 918.602 1740
-483.09 918.602 1740
-478.929 918.602 1740
-474.768 918.602 1740
-470.878 919.13 1741
-466.714 919.13 1741
-462.551 919.13 1741
-458.125 918.602 1740
-453.964 918.602 1740
-449.803 918.602 1740
-445.642 918.602 1740
-440.974 917.546 1738
-436.315 916.49 1736
-432.164 916.49 1736
-427.519 915.434 1734
-423.373 915.434 1734
-418.743 914.378 1732
-413.883 912.794 1729
-409.748 912.794 1729
-404.675 910.683 1725
-400.086 909.627 1723
-395.276 908.043 1720
-391.163 908.043 1720
-385.925 905.403 1715
-381.379 904.347 1713
-376.401 902.236 1709
-372.315 902.236 1709
-367.581 900.652 1706
-363.076 899.596 1704
-357.948 896.956 1699
-353.885 896.956 1699
-348.998 894.845 1695
-344.742 894.317 1694
-340.691 894.317 1694
-336.64 894.317 1694
-331.804 892.205 1690
-327.762 892.205 1690
-323.721 892.205 1690
-319.68 892.205 1690
-315.638 892.205 1690
-311.597 892.205 1690
-307.556 892.205 1690
-303.515 892.205 1690
-300.182 894.317 1694
-296.131 894.317 1694
-292.598 895.901 1697
-288.88 896.956 1699
-285.32 898.54 1702
-281.25 898.54 1702
-277.505 899.596 1704
-274.875 904.347 1713
-271.253 905.931 1716
-267.149 905.931 1716
-263.659 908.043 1720
-260.602 911.739 1727
-256.769 912.794 1729
-252.635 912.794 1729
-248.788 913.85 1731
-244.79 914.378 1732
-240.648 914.378 1732
-236.506 914.378 1732
-233.169 917.546 1738
-229.409 919.13 1741
-225.245 919.13 1741
-221.082 919.13 1741
-217.168 920.185 1743
-213.244 921.241 1745
-209.072 921.241 1745
-204.899 921.241 1745
-200.726 921.241 1745
-196.778 922.297 1747
-192.601 922.297 1747
-188.423 922.297 1747
-184.035 921.241 1745
-179.862 921.241 1745
-175.689 921.241 1745
-171.123 919.13 1741
-199.172 1217.94 2307
-193.655 1217.94 2307
-189.198 1224.8 2320
-183.65 1224.8 2320
-178.64 1228.5 2327
-173.075 1228.5 2327
-167.943 1231.67 2333
-162.364 1231.67 2333
-157.054 1233.78 2337
-151.465 1233.78 2337
-145.877 1233.78 2337
-140.288 1233.78 2337
-134.873 1235.36 2340
-129.277 1235.36 2340
-123.84 1236.94 2343
-118.389 1238.53 2346
-112.971 1240.64 2350
-107.351 1240.64 2350
-101.862 1242.22 2353
-96.3576 1243.81 2356
-90.8777 1245.92 2360
-85.2343 1245.92 2360
-79.5908 1245.92 2360
-73.9473 1245.92 2360
-68.3038 1245.92 2360
-62.6604 1245.92 2360
-57.0169 1245.92 2360
-51.3734 1245.92 2360
-45.7299 1245.92 2360
-40.0864 1245.92 2360
-34.443 1245.92 2360
-28.6775 1240.64 2350
-23.0579 1240.64 2350
-17.4383 1240.64 2350
-11.8188 1240.64 2350
-6.19922 1240.64 2350
-0.579655 1240.64 2350
5.03991 1240.64 2350
10.6413 1238.53 2346
16.2513 1238.53 2346
21.8054 1235.36 2340
27.4011 1235.36 2340
32.9544 1233.78 2337
38.5429 1233.78 2337
44.1314 1233.78 2337
49.7198 1233.78 2337
55.2136 1231.67 2333
60.7925 1231.67 2333
66.2861 1230.08 2330
71.8578 1230.08 2330
77.3299 1228.5 2327
82.752 1226.39 2323
88.307 1226.39 2323
93.862 1226.39 2323
99.417 1226.39 2323
104.972 1226.39 2323
110.527 1226.39 2323
116.282 1228.5 2327
121.846 1228.5 2327
127.575 1230.08 2330
133.318 1231.67 2333
138.897 1231.67 2333
144.476 1231.67 2333
150.055 1231.67 2333
156.101 1235.36 2340
162.111 1238.53 2346
167.721 1238.53 2346
173.331 1238.53 2346
178.941 1238.53 2346
184.551 1238.53 2346
190.161 1238.53 2346
195.271 1235.36 2340
200.866 1235.36 2340
206.991 1238.53 2346
213.87 1245.92 2360
219.513 1245.92 2360
225.443 1247.5 2363
231.094 1247.5 2363
236.744 1247.5 2363
242.395 1247.5 2363
248.046 1247.5 2363
252.623 1242.22 2353
258.249 1242.22 2353
263.54 1240.64 2350
269.159 1240.64 2350
274.779 1240.64 2350
280.398 1240.64 2350
286.018 1240.64 2350
291.638 1240.64 2350
297.257 1240.64 2350
302.877 1240.64 2350
308.496 1240.64 2350
313.581 1238.53 2346
319.191 1238.53 2346
324.386 1236.94 2343
329.989 1236.94 2343
335.591 1236.94 2343
342.214 1240.64 2350
347.833 1240.64 2350
353.904 1242.22 2353
359.531 1242.22 2353
365.157 1242.22 2353
372.36 1247.5 2363
378.491 1249.09 2366
384.148 1249.09 2366
390.465 1251.2 2370
396.133 1251.2 2370
401.8 1251.2 2370
406.78 1249.09 2366
411.915 1247.5 2363
417.035 1245.92 2360
422.679 1245.92 2360
428.322 1245.92 2360
435.069 1249.09 2366
440.727 1249.09 2366
446.384 1249.09 2366
450.896 1245.92 2360
455.185 1242.22 2353
458.854 1236.94 2343
464.456 1236.94 2343
470.059 1236.94 2343
475.662 1236.94 2343
482.703 1240.64 2350
488.322 1240.64 2350
493.942 1240.64 2350
499.561 1240.64 2350
503.676 1236.94 2343
509.279 1236.94 2343
514.882 1236.94 2343
520.485 1236.94 2343
526.087 1236.94 2343
533.279 1240.64 2350
540.274 1243.81 2356
545.908 1243.81 2356
552.478 1245.92 2360
558.831 1247.5 2363
564.482 1247.5 2363
570.133 1247.5 2363
576.514 1249.09 2366
582.172 1249.09 2366
587.83 1249.09 2366
592.735 1247.5 2363
598.386 1247.5 2363
603.27 1245.92 2360
607.881 1243.81 2356
613.515 1243.81 2356
616.521 1238.53 2346
620.54 1235.36 2340
625.333 1233.78 2337
630.921 1233.78 2337
636.51 1233.78 2337
642.922 1235.36 2340
651.29 1240.64 2350
658.586 1243.81 2356
664.22 1243.81 2356
671.844 1247.5 2363
677.495 1247.5 2363
683.146 1247.5 2363
688.796 1247.5 2363
695.329 1249.09 2366
700.986 1249.09 2366
708.735 1252.78 2373
715.313 1254.37 2376
720.994 1254.37 2376
728.817 1258.06 2383
734.516 1258.06 2383
740.214 1258.06 2383
744.973 1256.48 2380
750.665 1256.48 2380
754.131 1252.78 2373
759.806 1252.78 2373
765.481 1252.78 2373
771.155 1252.78 2373
776.83 1252.78 2373
782.504 1252.78 2373
785.854 1249.09 2366
788.166 1243.81 2356
793.8 1243.81 2356
799.434 1243.81 2356
804.043 1242.22 2353
807.261 1238.53 2346
810.792 1235.36 2340
816.388 1235.36 2340
819.524 1231.67 2333
822.981 1228.5 2327
824.985 1223.22 2317
829.451 1221.63 2314
834.984 1221.63 2314
840.517 1221.63 2314
844.954 1220.05 2311
847.904 1216.36 2304
853.414 1216.36 2304
856.687 1213.19 2298
862.182 1213.19 2298
867.677 1213.19 2298
873.172 1213.19 2298
876.373 1210.02 2292
881.854 1210.02 2292
887.335 1210.02 2292
892.816 1210.02 2292
898.297 1210.02 2292
897.469 1201.57 2276
910.449 1211.6 2295
915.937 1211.6 2295
926.243 1217.94 2307
931.759 1217.94 2307
937.276 1217.94 2307
942.793 1217.94 2307
948.31 1217.94 2307
951.346 1214.77 2301
956.848 1214.77 2301
964.86 1217.94 2307
975.845 1224.8 2320
981.392 1224.8 2320
986.94 1224.8 2320
992.488 1224.8 2320
998.036 1224.8 2320
1003.58 1224.8 2320
1006.52 1221.63 2314
1010.74 1220.05 2311
1016.27 1220.05 2311
1016.05 1213.19 2298
1018.88 1210.02 2292
1024.36 1210.02 2292
1028.04 1207.91 2288
1033.51 1207.91 2288
1038.98 1207.91 2288
1044.45 1207.91 2288
1054.51 1213.19 2298
1060.01 1213.19 2298
1065.5 1213.19 2298
1071 1213.19 2298
1075.09 1211.6 2295
1080.58 1211.6 2295
1084.65 1210.02 2292
1083.94 1203.16 2279
1083.66 1196.82 2267
1089.08 1196.82 2267
1093.05 1195.24 2264
1095.07 1191.54 2257
1099 1189.96 2254
1107.82 1193.65 2261
1114.71 1195.24 2264
1120.12 1195.24 2264
1127.03 1196.82 2267
1132.45 1196.82 2267
1142.39 1201.57 2276
1147.83 1201.57 2276
1153.27 1201.57 2276
1157.19 1199.99 2273
1162.62 1199.99 2273
1166.52 1198.41 2270
1171.94 1198.41 2270
1180.48 1201.57 2276
1192.18 1207.91 2288
1197.65 1207.91 2288
1206.8 1211.6 2295
1212.29 1211.6 2295
1219.37 1213.19 2298
1229.66 1217.94 2307
1235.18 1217.94 2307
1244.46 1221.63 2314
1249.99 1221.63 2314
1255.53 1221.63 2314
1261.06 1221.63 2314
1268.24 1223.22 2317
1273.78 1223.22 2317
1279.32 1223.22 2317
1284.86 1223.22 2317
1288.73 1221.63 2314
1297.62 1224.8 2320
1308.78 1230.08 2330
1314.35 1230.08 2330
1323.89 1233.78 2337
1329.48 1233.78 2337
1335.07 1233.78 2337
1340.66 1233.78 2337
1347.97 1235.36 2340
1361.09 1242.22 2353
1376.59 1251.2 2370
1382.26 1251.2 2370
1393.78 1256.48 2380
1401.24 1258.06 2383
1409.3 1260.17 2387
1418.56 1263.34 2393
1424.28 1263.34 2393
1432.4 1265.45 2397
1444.13 1270.73 2407
1449.88 1270.73 2407
1455.64 1270.73 2407
1455.32 1265.45 2397
1454.96 1260.17 2387
1460.67 1260.17 2387
1466.38 1260.17 2387
1482.57 1269.15 2404
1496.99 1276.54 2418
1524.52 1295.02 2453
1530.39 1295.02 2453
1536.25 1295.02 2453
1542.12 1295.02 2453
1547.98 1295.02 2453
1549.42 1291.32 2446
1543.82 1281.82 2428
1565.58 1295.02 2453
1571.45 1295.02 2453
1577.31 1295.02 2453
1583.18 1295.02 2453
1589.04 1295.02 2453
1567.6 1272.84 2411
1573.37 1272.84 2411
1567.34 1263.34 2393
1553.35 1247.5 2363
1560.98 1249.09 2366
1566.63 1249.09 2366
1572.29 1249.09 2366
1575.95 1247.5 2363
1542.11 1216.36 2304
1541.57 1211.6 2295
1547.06 1211.6 2295
1545.78 1206.32 2285
1541.07 1198.41 2270
1542.41 1195.24 2264
1547.82 1195.24 2264
1551.18 1193.65 2261
1556.58 1193.65 2261
1568.21 1198.41 2270
1575.71 1199.99 2273
1581.15 1199.99 2273
1586.59 1199.99 2273
1592.02 1199.99 2273
1601.67 1203.16 2279
1607.12 1203.16 2279
1612.57 1203.16 2279
1618.02 1203.16 2279
1623.47 1203.16 2279
1628.92 1203.16 2279
1625.77 1196.82 2267
1602.41 1175.7 2227
1597.62 1168.31 2213
1602.92 1168.31 2213
1603.85 1165.15 2207
1596 1155.64 2189
1603.43 1157.23 2192
1621.88 1166.73 2210
1627.17 1166.73 2210
1632.45 1166.73 2210
1637.74 1166.73 2210
1638.56 1163.56 2204
1643.83 1163.56 2204
1640.12 1157.23 2192
1637.11 1151.42 2181
1642.32 1151.42 2181
1647.54 1151.42 2181
1637.6 1140.86 2161
1640.49 1139.28 2158
1643.36 1137.69 2155
1648.51 1137.69 2155
-1629.52 1228.77 2317
-1623.98 1228.77 2317
-1618.44 1228.77 2317
-1610.81 1227.18 2314
-1605.28 1227.18 2314
-1590.76 1220.28 2301
-1594.21 1227.18 2314
-1590.74 1228.77 2317
-1589.3 1231.95 2323
-1583.75 1231.95 2323
-1580.91 1234.07 2327
-1577.38 1235.66 2330
-1576.53 1239.38 2337
-1570.94 1239.38 2337
-1567.36 1240.97 2340
-1561.76 1240.97 2340
-1558.16 1242.56 2343
-1552.56 1242.56 2343
-1553.56 1247.86 2353
-1556.48 1254.75 2366
-1550.83 1254.75 2366
-1545.17 1254.75 2366
-1539.51 1254.75 2366
-1529.96 1251.57 2360
-1524.32 1251.57 2360
-1518.68 1251.57 2360
-1514.96 1253.16 2363
-1509.31 1253.16 2363
-1503.66 1253.16 2363
-1498 1253.16 2363
-1492.35 1253.16 2363
-1499.29 1263.77 2383
-1493.59 1263.77 2383
-1487.89 1263.77 2383
-1484.68 1265.89 2387
-1478.97 1265.89 2387
-1473.26 1265.89 2387
-1467.56 1265.89 2387
-1457.56 1262.18 2380
-1443.33 1254.75 2366
-1437.67 1254.75 2366
-1432.01 1254.75 2366
-1414.3 1244.15 2346
-1405.09 1240.97 2340
-1393.51 1235.66 2330
-1387.94 1235.66 2330
-1380.59 1234.07 2327
-1372.66 1231.95 2323
-1361.81 1227.18 2314
-1356.27 1227.18 2314
-1350.74 1227.18 2314
-1345.21 1227.18 2314
-1339.67 1227.18 2314
-1334.14 1227.18 2314
-1328.6 1227.18 2314
-1317.35 1221.87 2304
-1308.43 1218.69 2298
-1306.33 1221.87 2304
-1300.83 1221.87 2304
-1295.32 1221.87 2304
-1293.72 1225.59 2311
-1288.2 1225.59 2311
-1282.67 1225.59 2311
-1277.15 1225.59 2311
-1271.62 1225.59 2311
-1266.09 1225.59 2311
-1260.57 1225.59 2311
-1265.36 1235.66 2330
-1263.57 1239.38 2337
-1264.98 1246.27 2350
-1259.36 1246.27 2350
-1253.74 1246.27 2350
-1265.65 1263.77 2383
-1262.07 1265.89 2387
-1256.36 1265.89 2387
-1250.65 1265.89 2387
-1248.07 1269.07 2393
-1242.35 1269.07 2393
-1236.63 1269.07 2393
-1230.9 1269.07 2393
-1218.53 1262.18 2380
-1212.83 1262.18 2380
-1207.14 1262.18 2380
-1194.38 1254.75 2366
-1183.7 1249.45 2356
-1183.07 1254.75 2366
-1177.41 1254.75 2366
-1175.22 1258.47 2373
-1171.02 1260.06 2376
-1168.78 1263.77 2383
-1163.08 1263.77 2383
-1157.38 1263.77 2383
-1153.61 1265.89 2387
-1156.08 1274.91 2404
-1150.33 1274.91 2404
-1144.58 1274.91 2404
-1113.25 1246.27 2350
-1107.63 1246.27 2350
-1095.92 1239.38 2337
-1087.06 1235.66 2330
-1081.49 1235.66 2330
-1075.92 1235.66 2330
-1070.35 1235.66 2330
-1063.41 1234.07 2327
-1054.66 1230.36 2320
-1049.11 1230.36 2320
-1043.56 1230.36 2320
-1038.02 1230.36 2320
-1028.46 1225.59 2311
-1019.84 1221.87 2304
-1014.33 1221.87 2304
-1003.56 1215.51 2292
-998.083 1215.51 2292
-993.901 1217.1 2295
-989.705 1218.69 2298
-984.21 1218.69 2298
-978.715 1218.69 2298
-975.761 1221.87 2304
-976.989 1230.36 2320
-971.441 1230.36 2320
-965.893 1230.36 2320
-963.243 1234.07 2327
-960.148 1237.25 2333
-954.569 1237.25 2333
-958.346 1249.45 2356
-954.329 1251.57 2360
-948.686 1251.57 2360
-943.042 1251.57 2360
-934.619 1247.86 2353
-928.992 1247.86 2353
-923.365 1247.86 2353
-917.738 1247.86 2353
-912.112 1247.86 2353
-909.182 1251.57 2360
-903.538 1251.57 2360
-897.895 1251.57 2360
-892.251 1251.57 2360
-885.105 1249.45 2356
-879.471 1249.45 2356
-872.724 1247.86 2353
-867.098 1247.86 2353
-861.471 1247.86 2353
-855.844 1247.86 2353
-850.218 1247.86 2353
-842.078 1244.15 2346
-834.329 1240.97 2340
-828.733 1240.97 2340
-823.138 1240.97 2340
-815.096 1237.25 2333
-812.987 1242.56 2343
-807.384 1242.56 2343
-801.782 1242.56 2343
-796.179 1242.56 2343
-790.576 1242.56 2343
-781.623 1237.25 2333
-776.044 1237.25 2333
-770.465 1237.25 2333
-763.903 1235.66 2330
-568.585 926.482 1747
-564.408 926.482 1747
-560.872 927.543 1749
-556.689 927.543 1749
-552.507 927.543 1749
-547.697 926.482 1747
-543.52 926.482 1747
-537.49 923.3 1741
-533.327 923.3 1741
-528.859 922.77 1740
-524.698 922.77 1740
-520.538 922.77 1740
-516.377 922.77 1740
-512.216 922.77 1740
-507.471 921.709 1738
-503.315 921.709 1738
-499.733 922.77 1740
-495.572 922.77 1740
-491.412 922.77 1740
-487.251 922.77 1740
-483.09 922.77 1740
-478.929 922.77 1740
-474.768 922.77 1740
-470.878 923.3 1741
-466.714 923.3 1741
-462.551 923.3 1741
-458.125 922.77 1740
-453.964 922.77 1740
-449.803 922.77 1740
-445.642 922.77 1740
-440.974 921.709 1738
-436.315 920.648 1736
-432.164 920.648 1736
-427.519 919.588 1734
-423.373 919.588 1734
-418.743 918.527 1732
-413.883 916.936 1729
-409.748 916.936 1729
-404.675 914.815 1725
-400.086 913.754 1723
-395.276 912.163 1720
-391.163 912.163 1720
-385.925 909.512 1715
-381.379 908.451 1713
-376.401 906.33 1709
-372.315 906.33 1709
-367.581 904.739 1706
-363.076 903.678 1704
-357.948 901.026 1699
-353.885 901.026 1699
-348.998 898.905 1695
-344.742 898.375 1694
-340.691 898.375 1694
-336.64 898.375 1694
-331.804 896.253 1690
-327.762 896.253 1690
-323.721 896.253 1690
-319.68 896.253 1690
-315.452 895.723 1689
-311.413 895.723 1689
-307.374 895.723 1689
-303.515 896.253 1690
-300.182 898.375 1694
-296.131 898.375 1694
-292.598 899.966 1697
-289.22 902.087 1701
-285.655 903.678 1704
-281.58 903.678 1704
-277.831 904.739 1706
-274.875 908.451 1713
-271.569 911.103 1718
-267.461 911.103 1718
-263.965 913.224 1722
-260.602 915.876 1727
-256.769 916.936 1729
-252.635 916.936 1729
-248.788 917.997 1731
-244.79 918.527 1732
-240.648 918.527 1732
-236.506 918.527 1732
-233.169 921.709 1738
-229.409 923.3 1741
-225.245 923.3 1741
-221.082 923.3 1741
-217.168 924.361 1743
-213.244 925.421 1745
-209.072 925.421 1745
-204.899 925.421 1745
-200.956 926.482 1747
-196.778 926.482 1747
-192.601 926.482 1747
-188.423 926.482 1747
-184.035 925.421 1745
-179.862 925.421 1745
-175.689 925.421 1745
-202.736 1211.8 2285
-199.172 1223.47 2307
-193.655 1223.47 2307
-188.464 1225.59 2311
-182.938 1225.59 2311
-178.103 1230.36 2320
-172.555 1230.36 2320
-167.007 1230.36 2320
-161.946 1234.07 2327
-156.583 1235.66 2330
-151.012 1235.66 2330
-145.44 1235.66 2330
-139.868 1235.66 2330
-134.296 1235.66 2330
-128.725 1235.66 2330
-123.153 1235.66 2330
-117.581 1235.66 2330
-112.346 1239.38 2337
-106.757 1239.38 2337
-101.299 1240.97 2340
-95.8259 1242.56 2343
-90.2231 1242.56 2343
-84.6203 1242.56 2343
-79.1186 1244.15 2346
-73.5086 1244.15 2346
-67.8986 1244.15 2346
-62.2886 1244.15 2346
-56.6786 1244.15 2346
-51.0686 1244.15 2346
-45.4586 1244.15 2346
-39.8486 1244.15 2346
-34.2387 1244.15 2346
-28.5554 1240.97 2340
-22.9598 1240.97 2340
-17.3641 1240.97 2340
-11.7685 1240.97 2340
-6.17284 1240.97 2340
-0.577188 1240.97 2340
5.01846 1240.97 2340
10.6141 1240.97 2340
16.189 1239.38 2337
21.7402 1237.25 2333
27.3191 1237.25 2333
32.898 1237.25 2333
38.4769 1237.25 2333
44.0558 1237.25 2333
49.6347 1237.25 2333
55.1426 1235.66 2330
60.7144 1235.66 2330
66.2008 1234.07 2327
71.7653 1234.07 2327
77.197 1231.95 2323
82.6451 1230.36 2320
88.0789 1228.77 2317
93.6195 1228.77 2317
99.1602 1228.77 2317
104.701 1228.77 2317
110.099 1227.18 2314
115.632 1227.18 2314
121.166 1227.18 2314
126.699 1227.18 2314
132.233 1227.18 2314
137.766 1227.18 2314
143.485 1228.77 2317
149.026 1228.77 2317
155.234 1234.07 2327
160.798 1234.07 2327
166.363 1234.07 2327
171.927 1234.07 2327
177.187 1231.95 2323
182.742 1231.95 2323
188.297 1231.95 2323
193.852 1231.95 2323
199.75 1234.07 2327
206.197 1239.38 2337
212.329 1242.56 2343
217.932 1242.56 2343
223.535 1242.56 2343
229.138 1242.56 2343
234.741 1242.56 2343
240.343 1242.56 2343
245.946 1242.56 2343
251.227 1240.97 2340
256.823 1240.97 2340
262.082 1239.38 2337
267.67 1239.38 2337
273.259 1239.38 2337
278.847 1239.38 2337
284.436 1239.38 2337
290.024 1239.38 2337
295.107 1237.25 2333
300.299 1235.66 2330
305.871 1235.66 2330
311.443 1235.66 2330
317.422 1237.25 2333
323.001 1237.25 2333
328.58 1237.25 2333
334.159 1237.25 2333
339.738 1237.25 2333
347.241 1244.15 2346
353.453 1246.27 2350
359.072 1246.27 2350
365.157 1247.86 2353
370.784 1247.86 2353
378.011 1253.16 2363
383.661 1253.16 2363
390.465 1256.88 2370
396.133 1256.88 2370
401.8 1256.88 2370
406.264 1253.16 2363
411.392 1251.57 2360
416.328 1249.45 2356
422.679 1251.57 2360
428.322 1251.57 2360
433.965 1251.57 2360
439.609 1251.57 2360
445.252 1251.57 2360
450.896 1251.57 2360
453.251 1242.56 2343
457.679 1239.38 2337
463.267 1239.38 2337
468.855 1239.38 2337
473.632 1237.25 2333
480.032 1239.38 2337
485.621 1239.38 2337
491.209 1239.38 2337
496.798 1239.38 2337
501.526 1237.25 2333
507.105 1237.25 2333
512.684 1237.25 2333
518.263 1237.25 2333
523.842 1237.25 2333
531.009 1240.97 2340
537.293 1242.56 2343
542.896 1242.56 2343
548.499 1242.56 2343
554.811 1244.15 2346
560.421 1244.15 2346
566.031 1244.15 2346
571.641 1244.15 2346
577.251 1244.15 2346
582.861 1244.15 2346
588.471 1244.15 2346
594.081 1244.15 2346
598.924 1242.56 2343
603.753 1240.97 2340
609.349 1240.97 2340
614.944 1240.97 2340
619.744 1239.38 2337
623.46 1235.66 2330
629.031 1235.66 2330
634.603 1235.66 2330
642.098 1239.38 2337
648.518 1240.97 2340
655.791 1244.15 2346
661.401 1244.15 2346
667.011 1244.15 2346
673.768 1246.27 2350
681.122 1249.45 2356
686.756 1249.45 2356
692.39 1249.45 2356
700.098 1253.16 2363
705.748 1253.16 2363
714.409 1258.47 2373
720.084 1258.47 2373
726.676 1260.06 2376
732.358 1260.06 2376
738.04 1260.06 2376
742.782 1258.47 2373
745.303 1253.16 2363
750 1251.57 2360
755.644 1251.57 2360
761.287 1251.57 2360
766.931 1251.57 2360
772.574 1251.57 2360
778.217 1251.57 2360
782.532 1249.45 2356
787.163 1247.86 2353
790.431 1244.15 2346
796.041 1244.15 2346
800.626 1242.56 2343
805.196 1240.97 2340
808.367 1237.25 2333
813.945 1237.25 2333
817.417 1234.07 2327
819.445 1228.77 2317
822.849 1225.59 2311
825.866 1221.87 2304
831.376 1221.87 2304
834.706 1218.69 2298
840.201 1218.69 2298
845.696 1218.69 2298
851.191 1218.69 2298
855.568 1217.1 2295
859.931 1215.51 2292
862.769 1211.8 2285
868.233 1211.8 2285
872.55 1210.21 2282
878.007 1210.21 2282
881.141 1207.03 2276
886.583 1207.03 2276
890.85 1205.43 2273
887.611 1193.77 2251
898.151 1200.66 2264
904.762 1202.25 2267
912.592 1205.43 2273
918.027 1205.43 2273
923.463 1205.43 2273
928.898 1205.43 2273
934.334 1205.43 2273
934.808 1199.07 2261
940.214 1199.07 2261
949.385 1203.84 2270
962.385 1213.39 2288
967.856 1213.39 2288
976.305 1217.1 2295
981.793 1217.1 2295
987.281 1217.1 2295
992.769 1217.1 2295
998.257 1217.1 2295
1002.43 1215.51 2292
1007.91 1215.51 2292
1008.97 1210.21 2282
1013.1 1208.62 2279
1018.55 1208.62 2279
1025.34 1210.21 2282
1032.16 1211.8 2285
1037.62 1211.8 2285
1044.45 1213.39 2288
1049.93 1213.39 2288
1057.24 1215.51 2292
1062.72 1215.51 2292
1068.2 1215.51 2292
1071.81 1213.39 2288
1077.28 1213.39 2288
1078.49 1208.62 2279
1079.66 1203.84 2270
1082.22 1200.66 2264
1087.64 1200.66 2264
1088.22 1195.36 2254
1087.79 1188.99 2242
1093.15 1188.99 2242
1104.39 1195.36 2254
1111.26 1196.95 2257
1116.66 1196.95 2257
1125.53 1200.66 2264
1132.45 1202.25 2267
1142.39 1207.03 2276
1147.83 1207.03 2276
1153.27 1207.03 2276
1157.19 1205.43 2273
1162.62 1205.43 2273
1166.52 1203.84 2270
1171.94 1203.84 2270
1180.48 1207.03 2276
1192.18 1213.39 2288
1197.65 1213.39 2288
1206.8 1217.1 2295
1212.29 1217.1 2295
1219.37 1218.69 2298
1229.66 1223.47 2307
1235.18 1223.47 2307
1244.46 1227.18 2314
1249.99 1227.18 2314
1255.53 1227.18 2314
1261.06 1227.18 2314
1268.24 1228.77 2317
1273.78 1228.77 2317
1279.32 1228.77 2317
1284.86 1228.77 2317
1288.73 1227.18 2314
1297.62 1230.36 2320
1308.78 1235.66 2330
1314.35 1235.66 2330
1323.89 1239.38 2337
1329.48 1239.38 2337
1335.07 1239.38 2337
1340.66 1239.38 2337
1347.97 1240.97 2340
1361.09 1247.86 2353
1376.59 1256.88 2370
1382.26 1256.88 2370
1393.78 1262.18 2380
1401.24 1263.77 2383
1409.3 1265.89 2387
1418.56 1269.07 2393
1424.28 1269.07 2393
1432.4 1271.19 2397
1444.13 1276.5 2407
1449.88 1276.5 2407
1455.64 1276.5 2407
1455.32 1271.19 2397
1454.96 1265.89 2387
1460.67 1265.89 2387
1466.38 1265.89 2387
1482.57 1274.91 2404
1496.99 1282.33 2418
1524.52 1300.89 2453
1530.39 1300.89 2453
1536.25 1300.89 2453
1542.12 1300.89 2453
1547.98 1300.89 2453
1549.42 1297.18 2446
1543.82 1287.64 2428
1565.58 1300.89 2453
1571.45 1300.89 2453
1577.31 1300.89 2453
1583.18 1300.89 2453
1589.04 1300.89 2453
1567.6 1278.62 2411
1573.37 1278.62 2411
1567.34 1269.07 2393
1553.35 1253.16 2363
1560.98 1254.75 2366
1566.63 1254.75 2366
1572.29 1254.75 2366
1575.95 1253.16 2363
1542.11 1221.87 2304
1541.57 1217.1 2295
1547.06 1217.1 2295
1545.78 1211.8 2285
1541.07 1203.84 2270
1542.41 1200.66 2264
1547.82 1200.66 2264
1551.18 1199.07 2261
1556.58 1199.07 2261
1568.21 1203.84 2270
1575.71 1205.43 2273
1581.15 1205.43 2273
1586.59 1205.43 2273
1592.02 1205.43 2273
1601.67 1208.62 2279
1607.12 1208.62 2279
1612.57 1208.62 2279
1618.02 1208.62 2279
1623.47 1208.62 2279
1628.92 1208.62 2279
1625.77 1202.25 2267
1602.41 1181.04 2227
1597.62 1173.61 2213
1602.92 1173.61 2213
1576.23 1150.28 2169
1575.59 1146.04 2161
1588.8 1151.87 2172
1606.47 1160.89 2189
1611.71 1160.89 2189
1616.94 1160.89 2189
1622.17 1160.89 2189
1611.05 1149.22 2167
1616.24 1149.22 2167
1621.42 1149.22 2167
1626.6 1149.22 2167
1627.26 1146.04 2161
1632.43 1146.04 2161
1637.6 1146.04 2161
1640.49 1144.45 2158
1643.36 1142.86 2155
1648.51 1142.86 2155
-1629.52 1234.32 2317
-1623.98 1234.32 2317
-1618.44 1234.32 2317
-1610.81 1232.72 2314
-1605.28 1232.72 2314
-1590.76 1225.8 2301
-1589.39 1228.99 2307
-1590.74 1234.32 2317
-1589.3 1237.52 2323
-1583.75 1237.52 2323
-1578.19 1237.52 2323
-1575.35 1239.65 2327
-1576.53 1244.97 2337
-1570.94 1244.97 2337
-1567.36 1246.57 2340
-1563.77 1248.17 2343
-1562.82 1251.9 2350
-1557.2 1251.9 2350
-1558.18 1257.23 2360
-1556.48 1260.42 2366
-1550.83 1260.42 2366
-1545.17 1260.42 2366
-1539.51 1260.42 2366
-1529.96 1257.23 2360
-1524.32 1257.23 2360
-1518.68 1257.23 2360
-1513.03 1257.23 2360
-1504.84 1255.1 2356
-1499.2 1255.1 2356
-1485.33 1248.17 2343
-1481.62 1249.77 2346
-1478.52 1251.9 2350
-1476.67 1255.1 2356
-1471.03 1255.1 2356
-1465.4 1255.1 2356
-1464.1 1258.82 2363
-1458.45 1258.82 2363
-1452.8 1258.82 2363
-1441.02 1253.5 2353
-1435.4 1253.5 2353
-1429.77 1253.5 2353
-1418.09 1248.17 2343
-1404.65 1241.24 2330
-1393.08 1235.92 2320
-1385.73 1234.32 2317
-1380.19 1234.32 2317
-1371.09 1231.12 2311
-1365.57 1231.12 2311
-1360.04 1231.12 2311
-1354.51 1231.12 2311
-1348.99 1231.12 2311
-1343.46 1231.12 2311
-1337.93 1231.12 2311
-1332.41 1231.12 2311
-1324.59 1228.99 2307
-1313.92 1224.2 2298
-1308.43 1224.2 2298
-1302.93 1224.2 2298
-1297.44 1224.2 2298
-1295.32 1227.39 2304
-1295.4 1232.72 2314
-1289.87 1232.72 2314
-1284.34 1232.72 2314
-1278.8 1232.72 2314
-1273.27 1232.72 2314
-1276.5 1241.24 2330
-1270.93 1241.24 2330
-1269.16 1244.97 2337
-1270.6 1251.9 2350
-1277.36 1264.15 2373
-1271.69 1264.15 2373
-1266.01 1264.15 2373
-1269.37 1273.21 2390
-1263.65 1273.21 2390
-1257.94 1273.21 2390
-1248.55 1269.48 2383
-1242.86 1269.48 2383
-1237.16 1269.48 2383
-1226.29 1264.15 2373
-1211.87 1255.1 2356
-1208.29 1257.23 2360
-1202.64 1257.23 2360
-1197 1257.23 2360
-1181.26 1246.57 2340
-1175.66 1246.57 2340
-1170.07 1246.57 2340
-1158 1239.65 2327
-1155.41 1242.84 2333
-1149.83 1242.84 2333
-1144.25 1242.84 2333
-1138.67 1242.84 2333
-1130.18 1239.65 2327
-1122.68 1237.52 2323
-1121.94 1242.84 2333
-1116.36 1242.84 2333
-1110.78 1242.84 2333
-1105.2 1242.84 2333
-1099.62 1242.84 2333
-1089.35 1237.52 2323
-1076.33 1228.99 2307
-1070.82 1228.99 2307
-1065.3 1228.99 2307
-1059.78 1228.99 2307
-1054.27 1228.99 2307
-1047.39 1227.39 2304
-1043.23 1228.99 2307
-1037.72 1228.99 2307
-1032.2 1228.99 2307
-1022.68 1224.2 2298
-1012.76 1218.87 2288
-1007.28 1218.87 2288
-1000.5 1217.27 2285
-995.035 1217.27 2285
-992.602 1221 2292
-988.413 1222.6 2295
-982.925 1222.6 2295
-977.437 1222.6 2295
-973.22 1224.2 2298
-968.988 1225.8 2301
-963.486 1225.8 2301
-964.644 1234.32 2317
-959.104 1234.32 2317
-957.679 1239.65 2327
-952.114 1239.65 2327
-948.99 1242.84 2333
-950.286 1251.9 2350
-944.666 1251.9 2350
-939.047 1251.9 2350
-931.838 1249.77 2346
-926.228 1249.77 2346
-920.618 1249.77 2346
-915.008 1249.77 2346
-909.398 1249.77 2346
-905.329 1251.9 2350
-899.71 1251.9 2350
-894.09 1251.9 2350
-886.958 1249.77 2346
-880.221 1248.17 2343
-874.618 1248.17 2343
-869.016 1248.17 2343
-864.518 1249.77 2346
-858.908 1249.77 2346
-853.298 1249.77 2346
-847.688 1249.77 2346
-839.925 1246.57 2340
-833.259 1244.97 2337
-827.671 1244.97 2337
-819.62 1241.24 2330
-814.048 1241.24 2330
-808.477 1241.24 2330
-802.905 1241.24 2330
-798.36 1242.84 2333
-792.781 1242.84 2333
-787.202 1242.84 2333
-781.623 1242.84 2333
-776.044 1242.84 2333
-770.465 1242.84 2333
-763.903 1241.24 2330
-549.98 927.471 1741
-545.816 927.471 1741
-541.653 927.471 1741
-537.181 926.938 1740
-533.02 926.938 1740
-528.251 925.873 1738
-524.095 925.873 1738
-520.538 926.938 1740
-516.377 926.938 1740
-512.216 926.938 1740
-507.471 925.873 1738
-503.315 925.873 1738
-499.733 926.938 1740
-495.572 926.938 1740
-491.412 926.938 1740
-487.251 926.938 1740
-483.09 926.938 1740
-478.929 926.938 1740
-474.768 926.938 1740
-470.878 927.471 1741
-466.714 927.471 1741
-462.551 927.471 1741
-458.125 926.938 1740
-453.964 926.938 1740
-449.803 926.938 1740
-445.642 926.938 1740
-440.974 925.873 1738
-436.315 924.807 1736
-432.164 924.807 1736
-427.519 923.742 1734
-423.373 923.742 1734
-418.743 922.676 1732
-413.883 921.078 1729
-409.748 921.078 1729
-404.675 918.947 1725
-400.086 917.882 1723
-395.276 916.284 1720
-391.163 916.284 1720
-385.925 913.62 1715
-381.379 912.555 1713
-376.401 910.424 1709
-372.315 910.424 1709
-367.581 908.825 1706
-363.076 907.76 1704
-357.948 905.096 1699
-353.885 905.096 1699
-348.998 902.965 1695
-344.742 902.433 1694
-340.691 902.433 1694
-336.64 902.433 1694
-331.804 900.302 1690
-327.762 900.302 1690
-323.721 900.302 1690
-319.68 900.302 1690
-315.452 899.769 1689
-311.413 899.769 1689
-307.556 900.302 1690
-303.515 900.302 1690
-300.182 902.433 1694
-296.131 902.433 1694
-292.598 904.031 1697
-289.22 906.162 1701
-285.99 908.825 1706
-281.911 908.825 1706
-278.157 909.891 1708
-275.196 913.62 1715
-271.569 915.218 1718
-267.461 915.218 1718
-263.965 917.349 1722
-260.904 921.078 1729
-257.066 922.143 1731
-252.927 922.143 1731
-248.931 922.676 1732
-244.79 922.676 1732
-240.926 923.742 1734
-236.779 923.742 1734
-233.169 925.873 1738
-229.409 927.471 1741
-225.245 927.471 1741
-221.082 927.471 1741
-217.168 928.536 1743
-213.244 929.602 1745
-209.072 929.602 1745
-204.899 929.602 1745
-200.956 930.667 1747
-196.778 930.667 1747
-192.601 930.667 1747
-188.423 930.667 1747
-184.035 929.602 1745
-179.862 929.602 1745
-175.689 929.602 1745
-206.834 1209.28 2270
-202.736 1217.27 2285
-199.172 1228.99 2307
-193.655 1228.99 2307
-188.464 1231.12 2311
-182.938 1231.12 2311
-178.103 1235.92 2320
-172.555 1235.92 2320
-167.007 1235.92 2320
-161.946 1239.65 2327
-156.583 1241.24 2330
-151.012 1241.24 2330
-145.44 1241.24 2330
-139.868 1241.24 2330
-134.296 1241.24 2330
-128.725 1241.24 2330
-123.153 1241.24 2330
-117.581 1241.24 2330
-112.346 1244.97 2337
-106.757 1244.97 2337
-101.299 1246.57 2340
-95.8259 1248.17 2343
-90.2231 1248.17 2343
-84.6203 1248.17 2343
-79.1186 1249.77 2346
-73.5086 1249.77 2346
-67.8986 1249.77 2346
-62.2886 1249.77 2346
-56.6786 1249.77 2346
-51.0686 1249.77 2346
-45.4586 1249.77 2346
-39.8486 1249.77 2346
-34.2387 1249.77 2346
-28.5554 1246.57 2340
-22.9598 1246.57 2340
-17.3641 1246.57 2340
-11.7685 1246.57 2340
-6.17284 1246.57 2340
-0.577188 1246.57 2340
5.01846 1246.57 2340
10.6141 1246.57 2340
16.189 1244.97 2337
21.7402 1242.84 2333
27.3191 1242.84 2333
32.898 1242.84 2333
38.4769 1242.84 2333
44.0558 1242.84 2333
49.6347 1242.84 2333
55.0716 1239.65 2327
60.6362 1239.65 2327
66.087 1237.52 2323
71.642 1237.52 2323
77.0973 1235.92 2320
82.5382 1234.32 2317
88.0789 1234.32 2317
93.6195 1234.32 2317
99.1602 1234.32 2317
104.565 1232.72 2314
110.099 1232.72 2314
115.632 1232.72 2314
121.009 1231.12 2311
126.535 1231.12 2311
131.833 1228.99 2307
137.349 1228.99 2307
143.3 1232.72 2314
148.833 1232.72 2314
154.767 1235.92 2320
160.315 1235.92 2320
165.862 1235.92 2320
171.41 1235.92 2320
176.958 1235.92 2320
182.506 1235.92 2320
188.054 1235.92 2320
193.602 1235.92 2320
199.149 1235.92 2320
205.315 1239.65 2327
211.151 1241.24 2330
216.723 1241.24 2330
222.295 1241.24 2330
227.866 1241.24 2330
233.438 1241.24 2330
238.702 1239.65 2327
244.267 1239.65 2327
249.831 1239.65 2327
255.725 1241.24 2330
261.297 1241.24 2330
266.869 1241.24 2330
272.44 1241.24 2330
278.012 1241.24 2330
283.584 1241.24 2330
288.287 1237.52 2323
293.462 1235.92 2320
299.01 1235.92 2320
304.558 1235.92 2320
310.106 1235.92 2320
316.062 1237.52 2323
321.617 1237.52 2323
327.172 1237.52 2323
332.727 1237.52 2323
339.301 1241.24 2330
345.317 1242.84 2333
352.4 1248.17 2343
358.003 1248.17 2343
364.692 1251.9 2350
370.784 1253.5 2353
376.891 1255.1 2356
382.525 1255.1 2356
389.312 1258.82 2363
