-2358.41 616.062 3160
-2328.54 610.213 3130
-2321.05 610.213 3130
-2322.44 612.552 3142
-2314.93 612.552 3142
-2307.41 612.552 3142
-2299.9 612.552 3142
-2292.38 612.552 3142
-2284.87 612.552 3142
-2268.66 610.213 3130
-2274.18 613.722 3148
-2292.57 620.741 3184
-2306.49 626.589 3214
-2298.8 626.589 3214
-2304.66 630.294 3233
-2360.87 647.84 3323
-2352.92 647.84 3323
-2462.83 680.397 3490
-2475.58 686.246 3520
-2509.22 697.943 3580
-2500.66 697.943 3580
-2519.24 705.547 3619
-2532.09 711.59 3650
-2535.12 714.905 3667
-2526.35 714.905 3667
-2545.04 722.703 3707
-2553.28 727.577 3732
-2549.81 729.136 3740
-2540.87 729.136 3740
-2531.93 729.136 3740
-2522.98 729.136 3740
-2514.04 729.136 3740
-2499.74 727.577 3732
-2480.13 724.457 3716
-2476.57 726.017 3724
-2467.66 726.017 3724
-2458.76 726.017 3724
-2444.59 724.457 3716
-2435.7 724.457 3716
-2426.82 724.457 3716
-2406.87 721.143 3699
-2398.02 721.143 3699
-2394.35 722.703 3707
-2385.48 722.703 3707
-2376.62 722.703 3707
-2367.75 722.703 3707
-2353.8 721.143 3699
-2344.95 721.143 3699
-2320.95 716.464 3675
-2312.16 716.464 3675
-2303.37 716.464 3675
-2294.58 716.464 3675
-2280.82 714.905 3667
-2286.92 719.583 3691
-2278.1 719.583 3691
-2269.27 719.583 3691
-2260.44 719.583 3691
-2251.62 719.583 3691
-2228.21 714.905 3667
-2219.44 714.905 3667
-2215.49 716.464 3675
-2206.7 716.464 3675
-2207.49 719.583 3691
-2208.19 722.703 3707
-2209.41 726.017 3724
-2200.51 726.017 3724
-2216.32 734.205 3766
-2207.31 734.205 3766
-2202.98 735.765 3774
-2266.04 759.939 3898
-2267.14 763.449 3916
-2268.73 767.153 3935
-2259.32 767.153 3935
-2281.93 778.07 3991
-2283.2 781.775 4010
-2273.61 781.775 4010
-2264.02 781.775 4010
-2260.06 783.724 4020
-2289.07 797.176 4089
-2279.29 797.176 4089
-2269.51 797.176 4089
-2237.63 789.378 4049
-2222.45 787.428 4039
-2212.79 787.428 4039
-2203.13 787.428 4039
-2193.47 787.428 4039
-2194.62 791.327 4059
-2195.68 795.227 4079
-2185.93 795.227 4079
-2176.18 795.227 4079
-2161.11 793.277 4069
-2151.38 793.277 4069
-2141.65 793.277 4069
-2126.68 791.327 4059
-2101.85 785.674 4030
-2062.1 774.366 3972
-2052.6 774.366 3972
-1977.26 749.412 3844
-1958.86 745.903 3826
-1941.04 742.588 3809
-1936.5 744.343 3818
-1927.37 744.343 3818
-1918.24 744.343 3818
-1883.11 734.205 3766
-1874.1 734.205 3766
-1772.16 744.343 3818
-1766.72 745.903 3826
-1757.58 745.903 3826
-1748.43 745.903 3826
-1739.28 745.903 3826
-1730.13 745.903 3826
-1720.98 745.903 3826
-1700.2 740.834 3800
-1695.12 742.588 3809
-1693.53 745.903 3826
-1696.27 751.166 3853
-1687.06 751.166 3853
-1677.84 751.166 3853
-1668.63 751.166 3853
-1659.41 751.166 3853
-1646.35 749.412 3844
-1629.49 745.903 3826
-1613.14 742.588 3809
-1585.92 734.205 3766
-1576.92 734.205 3766
-1564.16 732.451 3757
-1555.18 732.451 3757
-1553.19 735.765 3774
-1544.17 735.765 3774
-1535.14 735.765 3774
-1533.4 739.274 3792
-1531.16 742.588 3809
-1536.04 749.412 3844
-1526.85 749.412 3844
-1517.66 749.412 3844
-1508.46 749.412 3844
-1499.27 749.412 3844
-1466.43 737.519 3783
-1440.82 729.136 3740
-1438.39 732.451 3757
-1429.4 732.451 3757
-1420.42 732.451 3757
-1411.43 732.451 3757
-1399.46 730.891 3749
-1390.5 730.891 3749
-1378.22 729.136 3740
-644.66 350.141 1796
-641.792 350.921 1800
-637.487 350.921 1800
-633.183 350.921 1800
-628.18 350.531 1798
-623.88 350.531 1798
-619.581 350.531 1798
-614.597 350.141 1796
-610.302 350.141 1796
-606.007 350.141 1796
-599.702 348.972 1790
-593.426 347.802 1784
-587.508 346.827 1779
-582.599 346.437 1777
-578.349 346.437 1777
-572.162 345.268 1771
-566.002 344.098 1765
-561.145 343.708 1763
-556.929 343.708 1763
-551.773 343.123 1760
-546.32 342.343 1756
-541.503 341.953 1754
-537.309 341.953 1754
-531.595 340.978 1749
-526.809 340.589 1747
-521.435 339.809 1743
-517.267 339.809 1743
-511.627 338.834 1738
-506.303 338.054 1734
-501.577 337.664 1732
-497.436 337.664 1732
-492.439 337.079 1729
-487.175 336.3 1725
-483.05 336.3 1725
-478.925 336.3 1725
-474.25 335.91 1723
-469.311 335.325 1720
-465.198 335.325 1720
-461.085 335.325 1720
-456.972 335.325 1720
-452.332 334.935 1718
-448.224 334.935 1718
-444.116 334.935 1718
-440.52 335.325 1720
-436.407 335.325 1720
-432.294 335.325 1720
-428.181 335.325 1720
-424.068 335.325 1720
-419.954 335.325 1720
-415.841 335.325 1720
-411.25 334.935 1718
-407.141 334.935 1718
-402.564 334.545 1716
-398.228 334.35 1715
-394.127 334.35 1715
-390.026 334.35 1715
-385.025 333.57 1711
-380.488 333.18 1709
-376.181 332.985 1708
-372.097 332.985 1708
-368.012 332.985 1708
-363.076 332.205 1704
-358.369 331.621 1701
-354.301 331.621 1701
-349.41 330.841 1697
-344.335 329.866 1692
-339.886 329.476 1690
-335.845 329.476 1690
-331.215 328.891 1687
-326.405 328.111 1683
-322.189 327.916 1682
-317.788 327.526 1680
-313.771 327.526 1680
-309.385 327.137 1678
-305.19 326.942 1677
-300.821 326.552 1675
-296.815 326.552 1675
-292.285 325.967 1672
-287.942 325.577 1670
-283.949 325.577 1670
-279.955 325.577 1670
-275.962 325.577 1670
-271.968 325.577 1670
-267.975 325.577 1670
-264.297 325.967 1672
-260.299 325.967 1672
-256.301 325.967 1672
-252.303 325.967 1672
-248.304 325.967 1672
-244.306 325.967 1672
-240.452 326.162 1673
-236.734 326.552 1675
-233.006 326.942 1677
-228.996 326.942 1677
-225.12 327.137 1678
-221.371 327.526 1680
-217.612 327.916 1682
-213.59 327.916 1682
-209.692 328.111 1683
-205.912 328.501 1685
-202.123 328.891 1687
-198.088 328.891 1687
-194.054 328.891 1687
-190.358 329.476 1690
-186.758 330.256 1694
-183.03 330.841 1697
-178.972 330.841 1697
-175.121 331.231 1699
-171.36 331.816 1702
-167.486 332.205 1704
-163.412 332.205 1704
-159.524 332.595 1706
-155.444 332.595 1706
-151.631 333.18 1709
-147.544 333.18 1709
-143.457 333.18 1709
-139.371 333.18 1709
-135.284 333.18 1709
-130.66 331.816 1702
-126.59 331.816 1702
-268.208 778.07 3991
-258.664 778.07 3991
-249.745 780.02 4001
-240.177 780.02 4001
-230.609 780.02 4001
-219.992 776.316 3982
-210.47 776.316 3982
-200.948 776.316 3982
-191.426 776.316 3982
-182.315 778.07 3991
-172.771 778.07 3991
-163.636 780.02 4001
-154.069 780.02 4001
-144.501 780.02 4001
-134.933 780.02 4001
-125.366 780.02 4001
-114.959 774.366 3972
-105.461 774.366 3972
-95.0684 767.153 3935
-85.4409 765.203 3925
-75.7063 761.694 3907
-66.3635 761.694 3907
-56.6266 756.43 3880
-46.909 749.412 3844
-37.2851 740.834 3800
-28.1982 740.834 3800
-18.9402 734.205 3766
-9.86599 729.136 3740
-0.910428 719.583 3691
7.8451 713.15 3658
16.5925 713.15 3658
25.1251 707.106 3627
33.7984 707.106 3627
42.378 705.547 3619
51.0321 705.547 3619
59.4223 702.427 3603
67.8871 700.868 3595
76.4839 700.868 3595
85.2699 702.427 3603
93.8858 702.427 3603
102.502 702.427 3603
110.871 700.868 3595
119.468 700.868 3595
127.815 699.503 3588
136.395 699.503 3588
144.975 699.503 3588
153.555 699.503 3588
162.135 699.503 3588
170.715 699.503 3588
179.295 699.503 3588
187.875 699.503 3588
196.838 700.868 3595
205.435 700.868 3595
214.032 700.868 3595
223.124 702.427 3603
232.254 703.987 3611
240.889 703.987 3611
249.524 703.987 3611
258.159 703.987 3611
267.976 707.106 3627
276.65 707.106 3627
285.323 707.106 3627
294.645 708.666 3635
303.921 710.031 3642
312.63 710.031 3642
322.045 711.59 3650
331.498 713.15 3658
340.246 713.15 3658
348.993 713.15 3658
357.741 713.15 3658
365.686 711.59 3650
374.415 711.59 3650
382.303 710.031 3642
388.543 705.547 3619
393.795 699.503 3588
402.375 699.503 3588
410.038 697.943 3580
416.845 695.019 3565
422.626 690.535 3542
428.418 686.246 3520
436.836 686.246 3520
443.356 683.322 3505
446.969 676.108 3468
449.748 667.92 3426
457.941 667.92 3426
465.181 666.555 3419
467.542 658.367 3377
471.815 653.103 3350
479.826 653.103 3350
482.012 645.305 3310
489.927 645.305 3310
497.842 645.305 3310
506.827 646.67 3317
516.776 649.204 3330
524.739 649.204 3330
534.782 651.739 3343
542.776 651.739 3343
553.077 654.468 3357
561.104 654.468 3357
570.149 655.638 3363
579.395 657.003 3370
588.673 658.367 3377
596.749 658.367 3377
607.332 661.097 3391
615.441 661.097 3391
623.55 661.097 3391
631.658 661.097 3391
639.767 661.097 3391
649.214 662.461 3398
658.693 663.826 3405
666.836 663.826 3405
674.978 663.826 3405
683.121 663.826 3405
691.263 663.826 3405
699.405 663.826 3405
707.548 663.826 3405
715.69 663.826 3405
723.833 663.826 3405
731.975 663.826 3405
740.117 663.826 3405
749.798 665.191 3412
757.957 665.191 3412
766.116 665.191 3412
772.687 663.826 3405
780.829 663.826 3405
790.594 665.191 3412
798.753 665.191 3412
806.912 665.191 3412
816.743 666.555 3419
828.297 669.285 3433
836.506 669.285 3433
844.716 669.285 3433
852.925 669.285 3433
864.646 672.014 3447
878.207 676.108 3468
886.5 676.108 3468
900.469 680.397 3490
914.544 684.686 3512
928.723 688.975 3534
937.174 688.975 3534
949.639 691.9 3549
962.445 695.019 3565
975.056 697.943 3580
983.616 697.943 3580
998.552 702.427 3603
1011.64 705.547 3619
1022.55 707.106 3627
1031.22 707.106 3627
1042.19 708.666 3635
1052.91 710.031 3642
1066.28 713.15 3658
1075.03 713.15 3658
1083.77 713.15 3658
1095.21 714.905 3667
1106.39 716.464 3675
1117.6 718.024 3683
1126.41 718.024 3683
1137.68 719.583 3691
1146.51 719.583 3691
1155.33 719.583 3691
1164.16 719.583 3691
1172.99 719.583 3691
1176.69 716.464 3675
1185.48 716.464 3675
1194.27 716.464 3675
1200.44 714.905 3667
1206.24 713.15 3658
1214.98 713.15 3658
1221.06 711.59 3650
1229.78 711.59 3650
1235.8 710.031 3642
1244.51 710.031 3642
1250.81 708.666 3635
1259.5 708.666 3635
1268.19 708.666 3635
1274.07 707.106 3627
1282.75 707.106 3627
1291.42 707.106 3627
1300.09 707.106 3627
1305.88 705.547 3619
1314.53 705.547 3619
1320.26 703.987 3611
1328.9 703.987 3611
1337.53 703.987 3611
1349.15 705.547 3619
1357.81 705.547 3619
1366.46 705.547 3619
1375.11 705.547 3619
1383.77 705.547 3619
1392.42 705.547 3619
1401.08 705.547 3619
1412.85 707.106 3627
1421.52 707.106 3627
1430.19 707.106 3627
1438.87 707.106 3627
1444.35 705.547 3619
1453 705.547 3619
1461.65 705.547 3619
1467.06 703.987 3611
1475.69 703.987 3611
1481.04 702.427 3603
1489.66 702.427 3603
1498.27 702.427 3603
1506.89 702.427 3603
1515.5 702.427 3603
1524.12 702.427 3603
1532.74 702.427 3603
1541.35 702.427 3603
1546.53 700.868 3595
1555.12 700.868 3595
1563.72 700.868 3595
1575.81 702.427 3603
1584.43 702.427 3603
1593.05 702.427 3603
1608.77 705.547 3619
1617.43 705.547 3619
1629.68 707.106 3627
1648.74 711.59 3650
1668.82 716.464 3675
1677.61 716.464 3675
1705.21 724.457 3716
1721.48 727.577 3732
1738.28 730.891 3749
1747.25 730.891 3749
1756.21 730.891 3749
1768.95 732.451 3757
1785.98 735.765 3774
1795 735.765 3774
1804.02 735.765 3774
1813.05 735.765 3774
1822.07 735.765 3774
1822.85 732.451 3757
1827.93 730.891 3749
1832.49 729.136 3740
1841.43 729.136 3740
1830.09 721.143 3699
1830.98 718.024 3683
1827.3 713.15 3658
1820.49 707.106 3627
1829.16 707.106 3627
1821.62 700.868 3595
1822.58 697.943 3580
1827.05 696.384 3572
1835.59 696.384 3572
1844.13 696.384 3572
1864.6 700.868 3595
1877.37 702.427 3603
1885.99 702.427 3603
1894.6 702.427 3603
1907.44 703.987 3611
1920.32 705.547 3619
1937.51 708.666 3635
1946.2 708.666 3635
1967.26 713.15 3658
1985.19 716.464 3675
2016.22 724.457 3716
2038.19 729.136 3740
2047.13 729.136 3740
2074.77 735.765 3774
2103.12 742.588 3809
2136.63 751.166 3853
2145.84 751.166 3853
2170.15 756.43 3880
2210.33 767.153 3935
2219.74 767.153 3935
2229.15 767.153 3935
2248.8 770.662 3953
2258.25 770.662 3953
2267.7 770.662 3953
2277.15 770.662 3953
2286.61 770.662 3953
2296.06 770.662 3953
2305.51 770.662 3953
2314.97 770.662 3953
2324.42 770.662 3953
2333.87 770.662 3953
2349.25 772.612 3963
2358.73 772.612 3963
2368.21 772.612 3963
2377.68 772.612 3963
2392.58 774.366 3972
2408.13 776.316 3982
2417.65 776.316 3982
2438.75 780.02 4001
2453.83 781.775 4010
2463.42 781.775 4010
2473.01 781.775 4010
2477.02 780.02 4001
2468.57 774.366 3972
2478.06 774.366 3972
2481.93 772.612 3963
2491.4 772.612 3963
2506.56 774.366 3972
2516.06 774.366 3972
2525.56 774.366 3972
2541.44 776.316 3982
2550.96 776.316 3982
2566.27 778.07 3991
2575.81 778.07 3991
2585.36 778.07 3991
2594.9 778.07 3991
2604.44 778.07 3991
2613.99 778.07 3991
2598.55 770.662 3953
2589.53 765.203 3925
2598.92 765.203 3925
2608.3 765.203 3925
2599.68 759.939 3898
2549.43 742.588 3809
2643.18 767.153 3935
2658.65 768.907 3944
2668.08 768.907 3944
2677.52 768.907 3944
2686.95 768.907 3944
2696.38 768.907 3944
535.16 143.098 734
536.915 143.098 734
538.67 143.098 734
539.689 142.903 733
539.965 142.513 731
541.713 142.513 731
541.974 142.123 729
542.226 141.733 727
543.216 141.538 726
544.952 141.538 726
546.688 141.538 726
548.424 141.538 726
550.16 141.538 726
551.896 141.538 726
553.632 141.538 726
554.604 141.343 725
-2361.48 622.447 3154
-2353.94 622.447 3154
-2333 618.895 3136
-2325.5 618.895 3136
-2326.87 621.263 3148
-2319.35 621.263 3148
-2311.82 621.263 3148
-2304.29 621.263 3148
-2292.38 620.079 3142
-2284.87 620.079 3142
-2273.01 618.895 3136
-2282.85 623.632 3160
-2301.21 630.736 3196
-2311.51 635.67 3221
-2303.81 635.67 3221
-2313.93 640.604 3246
-2360.87 655.8 3323
-2352.92 655.8 3323
-2457.89 687.376 3483
-2475.58 694.678 3520
-2509.22 706.519 3580
-2500.66 706.519 3580
-2508.11 711.058 3603
-2510.59 714.216 3619
-2535.12 723.689 3667
-2526.35 723.689 3667
-2534.06 728.425 3691
-2525.23 728.425 3691
-2521.86 730.004 3699
-2513.01 730.004 3699
-2504.17 730.004 3699
-2495.32 730.004 3699
-2486.48 730.004 3699
-2477.63 730.004 3699
-2458.11 726.846 3683
-2454.62 728.425 3691
-2445.8 728.425 3691
-2436.97 728.425 3691
-2433.41 730.004 3699
-2424.56 730.004 3699
-2415.71 730.004 3699
-2401.66 728.425 3691
-2392.84 728.425 3691
-2384.01 728.425 3691
-2380.33 730.004 3699
-2371.49 730.004 3699
-2362.64 730.004 3699
-2348.71 728.425 3691
-2339.88 728.425 3691
-2320.95 725.268 3675
-2312.16 725.268 3675
-2303.37 725.268 3675
-2294.58 725.268 3675
-2280.82 723.689 3667
-2286.92 728.425 3691
-2278.1 728.425 3691
-2269.27 728.425 3691
-2260.44 728.425 3691
-2251.62 728.425 3691
-2228.21 723.689 3667
-2219.44 723.689 3667
-2215.49 725.268 3675
-2206.7 725.268 3675
-2207.49 728.425 3691
-2208.19 731.583 3707
-2209.41 734.938 3724
-2200.51 734.938 3724
-2211.02 741.451 3757
-2207.31 743.227 3766
-2202.98 744.806 3774
-2266.04 769.277 3898
-2267.14 772.829 3916
-2268.73 776.579 3935
-2259.32 776.579 3935
-2281.93 787.631 3991
-2283.2 791.381 4010
-2273.61 791.381 4010
-2264.02 791.381 4010
-2260.06 793.354 4020
-2250.44 793.354 4020
-2240.83 793.354 4020
-2225.67 791.381 4010
-2216.08 791.381 4010
-2196.03 787.631 3991
-2186.49 787.631 3991
-2172.04 785.855 3982
-2162.51 785.855 3982
-2183.81 797.104 4039
-2184.92 801.051 4059
-2175.21 801.051 4059
-2165.51 801.051 4059
-2155.8 801.051 4059
-2146.09 801.051 4059
-2136.39 801.051 4059
-2111.49 795.328 4030
-2071.6 783.881 3972
-2000.32 760.396 3853
-1991.11 760.396 3853
-1977.26 758.62 3844
-1950.15 751.713 3809
-1941.04 751.713 3809
-1931.94 751.713 3809
-1918.28 749.937 3800
-1909.2 749.937 3800
-1883.11 743.227 3766
-1874.1 743.227 3766
-1760.09 748.358 3792
-1751.02 748.358 3792
-1741.96 748.358 3792
-1732.89 748.358 3792
-1723.82 748.358 3792
-1710.68 746.582 3783
-1701.64 746.582 3783
-1692.59 746.582 3783
-1683.54 746.582 3783
-1689.99 753.489 3818
-1696.27 760.396 3853
-1687.06 760.396 3853
-1677.84 760.396 3853
-1668.63 760.396 3853
-1659.41 760.396 3853
-1638.64 755.068 3826
-1626.08 753.489 3818
-1613.14 751.713 3809
-1582.13 741.451 3757
-1573.15 741.451 3757
-1560.83 739.872 3749
-1551.87 739.872 3749
-1553.19 744.806 3774
-1544.17 744.806 3774
-1535.14 744.806 3774
-1533.4 748.358 3792
-1531.16 751.713 3809
-1536.04 758.62 3844
-1526.85 758.62 3844
-1517.66 758.62 3844
-1508.46 758.62 3844
-1499.27 758.62 3844
-1459.84 743.227 3766
-1440.82 738.096 3740
-1438.39 741.451 3757
-1429.4 741.451 3757
-1420.42 741.451 3757
-1411.43 741.451 3757
-1396.1 738.096 3740
-1387.16 738.096 3740
-1378.22 738.096 3740
-644.66 354.444 1796
-641.792 355.233 1800
-637.487 355.233 1800
-633.183 355.233 1800
-628.18 354.838 1798
-623.88 354.838 1798
-619.581 354.838 1798
-614.597 354.444 1796
-610.302 354.444 1796
-606.007 354.444 1796
-599.702 353.26 1790
-593.426 352.076 1784
-587.508 351.089 1779
-582.599 350.694 1777
-578.349 350.694 1777
-572.162 349.51 1771
-566.002 348.326 1765
-561.145 347.931 1763
-556.929 347.931 1763
-551.773 347.339 1760
-546.32 346.55 1756
-541.503 346.155 1754
-537.309 346.155 1754
-531.595 345.168 1749
-526.809 344.773 1747
-521.435 343.984 1743
-517.267 343.984 1743
-511.627 342.997 1738
-506.303 342.208 1734
-501.577 341.813 1732
-497.436 341.813 1732
-492.439 341.221 1729
-487.175 340.432 1725
-483.05 340.432 1725
-478.925 340.432 1725
-474.25 340.037 1723
-469.311 339.445 1720
-465.198 339.445 1720
-461.085 339.445 1720
-456.972 339.445 1720
-452.332 339.05 1718
-448.224 339.05 1718
-444.116 339.05 1718
-440.52 339.445 1720
-436.407 339.445 1720
-432.294 339.445 1720
-428.181 339.445 1720
-424.068 339.445 1720
-419.954 339.445 1720
-415.841 339.445 1720
-411.25 339.05 1718
-407.141 339.05 1718
-402.564 338.656 1716
-398.228 338.458 1715
-394.127 338.458 1715
-390.026 338.458 1715
-385.025 337.669 1711
-380.488 337.274 1709
-376.181 337.077 1708
-372.097 337.077 1708
-368.012 337.077 1708
-363.076 336.287 1704
-358.369 335.695 1701
-354.301 335.695 1701
-349.41 334.906 1697
-344.335 333.919 1692
-339.886 333.524 1690
-335.845 333.524 1690
-331.215 332.932 1687
-326.405 332.143 1683
-322.189 331.946 1682
-317.788 331.551 1680
-313.771 331.551 1680
-309.385 331.156 1678
-305.19 330.959 1677
-300.821 330.564 1675
-296.815 330.564 1675
-292.285 329.972 1672
-287.942 329.577 1670
-283.949 329.577 1670
-279.955 329.577 1670
-275.962 329.577 1670
-271.968 329.577 1670
-267.975 329.577 1670
-264.297 329.972 1672
-260.299 329.972 1672
-256.301 329.972 1672
-252.303 329.972 1672
-248.453 330.169 1673
-244.452 330.169 1673
-240.739 330.564 1675
-237.016 330.959 1677
-233.145 331.156 1678
-229.132 331.156 1678
-225.388 331.551 1680
-221.634 331.946 1682
-217.742 332.143 1683
-213.717 332.143 1683
-209.692 332.143 1683
-206.157 332.932 1687
-202.123 332.932 1687
-198.441 333.524 1690
-194.399 333.524 1690
-190.583 333.919 1692
-186.758 334.314 1694
-183.246 335.301 1699
-179.183 335.301 1699
-175.43 335.893 1702
-171.561 336.287 1704
-167.683 336.682 1706
-163.603 336.682 1706
-159.524 336.682 1706
-155.718 337.274 1709
-151.808 337.669 1711
-147.717 337.669 1711
-143.625 337.669 1711
-139.534 337.669 1711
-135.442 337.669 1711
-131.197 337.274 1709
-126.59 335.893 1702
-268.208 787.631 3991
-258.664 787.631 3991
-250.306 791.381 4010
-240.717 791.381 4010
-231.128 791.381 4010
-220.489 787.631 3991
-210.946 787.631 3991
-201.402 787.631 3991
-191.858 787.631 3991
-182.771 789.604 4001
-173.204 789.604 4001
-164.004 791.381 4010
-154.415 791.381 4010
-144.826 791.381 4010
-135.237 791.381 4010
-125.648 791.381 4010
-115.509 787.631 3991
-105.965 787.631 3991
-95.0684 776.579 3935
-85.6586 776.579 3935
-75.7063 771.053 3907
-66.3635 771.053 3907
-56.6266 765.725 3880
-46.909 758.62 3844
-37.2851 749.937 3800
-28.1982 749.937 3800
-18.9402 743.227 3766
-9.86599 738.096 3740
-0.910428 728.425 3691
7.8451 721.913 3658
16.5925 721.913 3658
25.1251 715.795 3627
33.7984 715.795 3627
42.378 714.216 3619
51.0321 714.216 3619
59.4223 711.058 3603
67.8871 709.48 3595
76.4839 709.48 3595
85.2699 711.058 3603
93.8858 711.058 3603
102.502 711.058 3603
110.871 709.48 3595
119.468 709.48 3595
127.815 708.098 3588
136.395 708.098 3588
144.975 708.098 3588
153.555 708.098 3588
162.135 708.098 3588
170.715 708.098 3588
179.295 708.098 3588
187.875 708.098 3588
196.838 709.48 3595
205.435 709.48 3595
214.032 709.48 3595
223.124 711.058 3603
232.254 712.637 3611
240.889 712.637 3611
249.524 712.637 3611
258.159 712.637 3611
267.976 715.795 3627
276.65 715.795 3627
285.323 715.795 3627
294.645 717.374 3635
303.921 718.755 3642
312.63 718.755 3642
322.045 720.334 3650
331.498 721.913 3658
340.246 721.913 3658
348.993 721.913 3658
357.741 721.913 3658
365.686 720.334 3650
374.415 720.334 3650
382.303 718.755 3642
388.543 714.216 3619
393.795 708.098 3588
402.375 708.098 3588
410.038 706.519 3580
416.845 703.559 3565
422.626 699.02 3542
428.418 694.678 3520
436.836 694.678 3520
443.356 691.718 3505
446.969 684.416 3468
450.667 677.509 3433
458.876 677.509 3433
465.181 674.746 3419
467.542 666.457 3377
471.815 661.128 3350
479.826 661.128 3350
482.012 653.234 3310
489.927 653.234 3310
497.842 653.234 3310
506.827 654.616 3317
516.776 657.181 3330
524.739 657.181 3330
534.782 659.747 3343
542.776 659.747 3343
553.077 662.51 3357
561.104 662.51 3357
570.149 663.694 3363
579.395 665.075 3370
588.673 666.457 3377
596.749 666.457 3377
607.332 669.22 3391
615.441 669.22 3391
623.55 669.22 3391
631.658 669.22 3391
639.767 669.22 3391
649.214 670.601 3398
658.693 671.983 3405
666.836 671.983 3405
674.978 671.983 3405
683.121 671.983 3405
691.263 671.983 3405
699.405 671.983 3405
707.548 671.983 3405
715.69 671.983 3405
723.833 671.983 3405
731.975 671.983 3405
740.117 671.983 3405
749.798 673.364 3412
757.957 673.364 3412
766.116 673.364 3412
772.687 671.983 3405
780.829 671.983 3405
790.594 673.364 3412
798.753 673.364 3412
806.912 673.364 3412
816.743 674.746 3419
828.297 677.509 3433
836.506 677.509 3433
844.716 677.509 3433
852.925 677.509 3433
864.646 680.271 3447
878.207 684.416 3468
886.5 684.416 3468
900.469 688.758 3490
914.544 693.099 3512
928.723 697.441 3534
937.174 697.441 3534
949.639 700.401 3549
962.445 703.559 3565
975.056 706.519 3580
983.616 706.519 3580
998.552 711.058 3603
1011.64 714.216 3619
1022.55 715.795 3627
1031.22 715.795 3627
1042.19 717.374 3635
1052.91 718.755 3642
1066.28 721.913 3658
1075.03 721.913 3658
1083.77 721.913 3658
1095.21 723.689 3667
1106.39 725.268 3675
1117.6 726.846 3683
1126.41 726.846 3683
1137.68 728.425 3691
1146.51 728.425 3691
1155.33 728.425 3691
1164.16 728.425 3691
1172.99 728.425 3691
1176.69 725.268 3675
1185.48 725.268 3675
1194.27 725.268 3675
1200.44 723.689 3667
1206.24 721.913 3658
1214.98 721.913 3658
1221.06 720.334 3650
1229.78 720.334 3650
1235.8 718.755 3642
1244.51 718.755 3642
1250.81 717.374 3635
1259.5 717.374 3635
1268.19 717.374 3635
1274.07 715.795 3627
1282.75 715.795 3627
1291.42 715.795 3627
1300.09 715.795 3627
1305.88 714.216 3619
1314.53 714.216 3619
1320.26 712.637 3611
1328.9 712.637 3611
1337.53 712.637 3611
1349.15 714.216 3619
1357.81 714.216 3619
1366.46 714.216 3619
1375.11 714.216 3619
1383.77 714.216 3619
1392.42 714.216 3619
1401.08 714.216 3619
1406.61 712.637 3611
1415.25 712.637 3611
1423.88 712.637 3611
1432.52 712.637 3611
1437.96 711.058 3603
1443.36 709.48 3595
1451.96 709.48 3595
1460.56 709.48 3595
1469.15 709.48 3595
1474.87 708.098 3588
1483.45 708.098 3588
1488.71 706.519 3580
1500.61 708.098 3588
1509.19 708.098 3588
1517.77 708.098 3588
1526.35 708.098 3588
1534.93 708.098 3588
1540.07 706.519 3580
1548.63 706.519 3580
1557.19 706.519 3580
1565.76 706.519 3580
1574.32 706.519 3580
1586.41 708.098 3588
1601.66 711.058 3603
1610.28 711.058 3603
1626.08 714.216 3619
1645.13 718.755 3642
1661.1 721.913 3658
1669.85 721.913 3658
1705.21 733.359 3716
1721.48 736.517 3732
1734.11 738.096 3740
1743.05 738.096 3740
1759.96 741.451 3757
1776.95 744.806 3774
1794.49 748.358 3792
1803.56 748.358 3792
1812.63 748.358 3792
1821.7 748.358 3792
1830.76 748.358 3792
1827.22 743.227 3766
1827.93 739.872 3749
1832.49 738.096 3740
1841.43 738.096 3740
1838.5 733.359 3716
1838.94 730.004 3699
1835.79 725.268 3675
1828.02 718.755 3642
1836.73 718.755 3642
1829.73 712.637 3611
1826.65 708.098 3588
1831.14 706.519 3580
1843.81 708.098 3588
1852.39 708.098 3588
1864.6 709.48 3595
1881.54 712.637 3611
1890.17 712.637 3611
1898.81 712.637 3611
1903.22 711.058 3603
1920.32 714.216 3619
1937.51 717.374 3635
1946.2 717.374 3635
1962.96 720.334 3650
1985.19 725.268 3675
2011.34 731.583 3707
2038.19 738.096 3740
2047.13 738.096 3740
2074.77 744.806 3774
2103.12 751.713 3809
2136.63 760.396 3853
2145.84 760.396 3853
2170.15 765.725 3880
2210.33 776.579 3935
2219.74 776.579 3935
2229.15 776.579 3935
2248.8 780.131 3953
2258.25 780.131 3953
2267.7 780.131 3953
2277.15 780.131 3953
2286.61 780.131 3953
2296.06 780.131 3953
2305.51 780.131 3953
2314.97 780.131 3953
2324.42 780.131 3953
2339.78 782.105 3963
2349.25 782.105 3963
2358.73 782.105 3963
2368.21 782.105 3963
2383.08 783.881 3972
2392.58 783.881 3972
2419.62 789.604 4001
2429.18 789.604 4001
2444.24 791.381 4010
2453.83 791.381 4010
2463.42 791.381 4010
2473.01 791.381 4010
2482.59 791.381 4010
2480.38 787.631 3991
2489.92 787.631 3991
2487.56 783.881 3972
2497.06 783.881 3972
2512.87 785.855 3982
2522.39 785.855 3982
2531.91 785.855 3982
2547.18 787.631 3991
2556.72 787.631 3991
2566.27 787.631 3991
2575.81 787.631 3991
2585.36 787.631 3991
2594.9 787.631 3991
2604.44 787.631 3991
2613.99 787.631 3991
2598.55 780.131 3953
2596.13 776.579 3935
2598.92 774.606 3925
2608.3 774.606 3925
2605.68 771.053 3907
2549.43 751.713 3809
2643.18 776.579 3935
2658.65 778.355 3944
2668.08 778.355 3944
2677.52 778.355 3944
2686.95 778.355 3944
2696.38 778.355 3944
536.184 144.659 733
537.937 144.659 733
539.689 144.659 733
539.965 144.264 731
541.713 144.264 731
541.231 143.672 728
542.226 143.475 727
543.216 143.277 726
544.201 143.08 725
545.935 143.08 725
547.669 143.08 725
549.402 143.08 725
551.136 143.08 725
552.87 143.08 725
554.604 143.08 725
-2361.48 630.003 3154
-2353.94 630.003 3154
-2333 626.407 3136
-2329.95 627.606 3142
-2326.87 628.804 3148
-2319.35 628.804 3148
-2311.82 628.804 3148
-2304.29 628.804 3148
-2292.38 627.606 3142
-2284.87 627.606 3142
-2277.36 627.606 3142
-2282.85 631.201 3160
-2305.53 639.591 3202
-2315.82 644.584 3227
-2308.1 644.584 3227
-2322.48 650.777 3258
-2351.63 661.163 3310
-2343.72 661.163 3310
-2442.36 691.325 3461
-2454.48 697.118 3490
-2493.1 710.501 3557
-2484.59 710.501 3557
-2497.66 716.693 3588
-2499.49 719.689 3603
-2501.94 722.885 3619
-2493.28 722.885 3619
-2517.58 732.473 3667
-2508.81 732.473 3667
-2516.41 737.267 3691
-2507.58 737.267 3691
-2498.75 737.267 3691
-2484.53 735.669 3683
-2475.72 735.669 3683
-2461.56 734.071 3675
-2452.77 734.071 3675
-2449.3 735.669 3683
-2440.49 735.669 3683
-2431.69 735.669 3683
-2422.88 735.669 3683
-2414.07 735.669 3683
-2405.27 735.669 3683
-2391.25 734.071 3675
-2382.47 734.071 3675
-2384.01 737.267 3691
-2375.19 737.267 3691
-2366.36 737.267 3691
-2357.53 737.267 3691
-2348.71 737.267 3691
-2339.88 737.267 3691
-2331.05 737.267 3691
-2327.26 738.865 3699
-2318.42 738.865 3699
-2314.56 740.463 3707
-2305.7 740.463 3707
-2302.41 742.261 3716
-2293.53 742.261 3716
-2284.64 742.261 3716
-2275.75 742.261 3716
-2251.62 737.267 3691
-2247.65 738.865 3699
-2243.65 740.463 3707
-2234.78 740.463 3707
-2225.92 740.463 3707
-2227.22 743.859 3724
-2223.08 745.457 3732
-2214.16 745.457 3732
-2205.23 745.457 3732
-2216.32 752.248 3766
-2207.31 752.248 3766
-2198.31 752.248 3766
-2266.04 778.615 3898
-2267.14 782.21 3916
-2268.73 786.005 3935
-2259.32 786.005 3935
-2276.78 795.394 3982
-2278.08 799.189 4001
-2268.51 799.189 4001
-2258.94 799.189 4001
-2238.69 795.394 3982
-2218.53 791.598 3963
-2209.06 791.598 3963
-2199.58 791.598 3963
-2190.1 791.598 3963
-2180.63 791.598 3963
-2171.15 791.598 3963
-2151.31 787.803 3944
-2141.88 787.803 3944
-2147.59 793.396 3972
-2169.31 804.981 4030
-2159.67 804.981 4030
-2150.03 804.981 4030
-2140.4 804.981 4030
-2120.19 800.987 4010
-2110.6 800.987 4010
-2081.1 793.396 3972
-2047.09 784.008 3925
-2000.32 769.626 3853
-1991.11 769.626 3853
-1959.26 760.837 3809
-1932.23 753.846 3774
-1923.21 753.846 3774
-1914.18 753.846 3774
-1901.12 752.248 3766
-1892.11 752.248 3766
-1883.11 752.248 3766
-1874.1 752.248 3766
-1840.34 742.261 3716
-1732.24 745.457 3732
-1723.32 745.457 3732
-1718.07 747.055 3740
-1709.13 747.055 3740
-1700.18 747.055 3740
-1691.24 747.055 3740
-1682.3 747.055 3740
-1680.96 750.45 3757
-1671.97 750.45 3757
-1674.5 755.644 3783
-1684.38 764.233 3826
-1675.23 764.233 3826
-1666.08 764.233 3826
-1656.94 764.233 3826
-1644.34 762.635 3818
-1635.21 762.635 3818
-1626.08 762.635 3818
-1591.12 750.45 3757
-1574.97 747.055 3740
-1566.03 747.055 3740
-1557.09 747.055 3740
-1548.14 747.055 3740
-1542.9 748.852 3749
-1537.21 750.45 3757
-1528.23 750.45 3757
-1526.12 753.846 3774
-1524.33 757.442 3792
-1522.05 760.837 3809
-1512.95 760.837 3809
-1503.84 760.837 3809
-1484.53 755.644 3783
-1475.48 755.644 3783
-1453.25 748.852 3749
-1431.58 742.261 3716
-1428.82 745.457 3732
-1422.93 747.055 3740
-1413.99 747.055 3740
-1405.05 747.055 3740
-1396.1 747.055 3740
-1396.8 752.248 3766
-1387.8 752.248 3766
-1410.65 769.626 3853
-1401.43 769.626 3853
-1392.22 769.626 3853
-644.66 358.746 1796
-641.792 359.545 1800
-637.487 359.545 1800
-633.183 359.545 1800
-628.878 359.545 1800
-624.574 359.545 1800
-620.27 359.545 1800
-615.281 359.146 1798
-610.981 359.146 1798
-606.682 359.146 1798
-601.712 358.746 1796
-594.091 356.749 1786
-589.16 356.349 1784
-584.894 356.349 1784
-579.977 355.95 1782
-574.746 355.35 1779
-567.927 353.752 1771
-563.055 353.353 1769
-558.825 353.353 1769
-552.714 352.154 1763
-547.564 351.555 1760
-542.121 350.756 1756
-537.922 350.756 1756
-533.115 350.357 1754
-528.016 349.757 1751
-522.033 348.559 1745
-517.861 348.559 1745
-513.099 348.159 1743
-507.471 347.161 1738
-502.736 346.761 1736
-498.584 346.761 1736
-493.294 345.962 1732
-488.87 345.763 1731
-483.61 344.964 1727
-479.481 344.964 1727
-475.351 344.964 1727
-470.675 344.564 1725
-466.009 344.165 1723
-461.889 344.165 1723
-457.769 344.165 1723
-453.649 344.165 1723
-449.528 344.165 1723
-445.408 344.165 1723
-441.288 344.165 1723
-437.168 344.165 1723
-433.048 344.165 1723
-428.927 344.165 1723
-424.807 344.165 1723
-420.687 344.165 1723
-416.567 344.165 1723
-412.447 344.165 1723
-408.326 344.165 1723
-403.971 343.965 1722
-399.389 343.565 1720
-394.817 343.166 1718
-390.708 343.166 1718
-385.925 342.567 1715
-381.824 342.567 1715
-376.842 341.768 1711
-372.75 341.768 1711
-368.659 341.768 1711
-363.928 341.168 1708
-359.001 340.369 1704
-354.926 340.369 1704
-350.234 339.77 1701
-345.352 338.971 1697
-340.288 337.972 1692
-336.242 337.972 1692
-331.804 337.573 1690
-327.181 336.974 1687
-322.38 336.175 1683
-318.166 335.975 1682
-314.144 335.975 1682
-309.753 335.575 1680
-305.372 335.176 1678
-301.18 334.976 1677
-297.17 334.976 1677
-292.46 334.177 1673
-288.287 333.977 1672
-283.949 333.578 1670
-280.291 333.977 1672
-276.292 333.977 1672
-272.294 333.977 1672
-268.296 333.977 1672
-264.297 333.977 1672
-260.299 333.977 1672
-256.301 333.977 1672
-252.303 333.977 1672
-248.453 334.177 1673
-244.452 334.177 1673
-240.739 334.577 1675
-237.016 334.976 1677
-233.145 335.176 1678
-229.132 335.176 1678
-225.388 335.575 1680
-221.634 335.975 1682
-217.742 336.175 1683
-213.717 336.175 1683
-209.692 336.175 1683
-206.157 336.974 1687
-202.123 336.974 1687
-198.441 337.573 1690
-194.399 337.573 1690
-190.583 337.972 1692
-186.758 338.372 1694
-183.246 339.371 1699
-179.183 339.371 1699
-175.43 339.97 1702
-171.561 340.369 1704
-167.683 340.769 1706
-163.603 340.769 1706
-159.524 340.769 1706
-155.718 341.368 1709
-151.808 341.768 1711
-147.717 341.768 1711
-143.625 341.768 1711
-139.534 341.768 1711
-135.442 341.768 1711
-131.197 341.368 1709
-268.208 797.191 3991
-258.664 797.191 3991
-250.306 800.987 4010
-240.717 800.987 4010
-231.128 800.987 4010
-220.489 797.191 3991
-210.946 797.191 3991
-201.402 797.191 3991
-191.858 797.191 3991
-182.771 799.189 4001
-173.204 799.189 4001
-164.004 800.987 4010
-154.415 800.987 4010
-144.826 800.987 4010
-135.237 800.987 4010
-125.648 800.987 4010
-115.509 797.191 3991
-105.965 797.191 3991
-95.0684 786.005 3935
-85.6586 786.005 3935
-75.7063 780.413 3907
-66.3635 780.413 3907
-56.6266 775.019 3880
-46.909 767.828 3844
-37.2066 757.442 3792
-28.1388 757.442 3792
-18.895 750.45 3757
-9.73673 737.267 3691
-0.906481 734.071 3675
7.77861 724.483 3627
16.4519 724.483 3627
25.0697 722.885 3619
33.6493 721.287 3611
42.1906 719.689 3603
50.8065 719.689 3603
59.1749 716.693 3588
67.7549 716.693 3588
76.3349 716.693 3588
84.9149 716.693 3588
93.4949 716.693 3588
102.075 716.693 3588
110.408 715.095 3580
118.969 715.095 3580
127.245 713.497 3572
135.787 713.497 3572
144.328 713.497 3572
152.87 713.497 3572
161.412 713.497 3572
169.954 713.497 3572
178.495 713.497 3572
187.037 713.497 3572
196.455 716.693 3588
205.035 716.693 3588
213.615 716.693 3588
222.628 718.091 3595
231.225 718.091 3595
239.822 718.091 3595
248.971 719.689 3603
257.587 719.689 3603
266.794 721.287 3611
275.429 721.287 3611
284.064 721.287 3611
293.348 722.885 3619
303.337 726.081 3635
312.029 726.081 3635
320.722 726.081 3635
330.048 727.48 3642
339.502 729.078 3650
348.23 729.078 3650
356.958 729.078 3650
364.885 727.48 3642
373.594 727.48 3642
381.568 726.081 3635
387.684 721.287 3611
392.917 715.095 3580
401.478 715.095 3580
410.038 715.095 3580
416.845 712.099 3565
420.836 704.509 3527
426.593 700.114 3505
434.974 700.114 3505
441.458 697.118 3490
445.164 689.927 3454
450.667 685.732 3433
458.876 685.732 3433
465.181 682.936 3419
467.542 674.547 3377
471.815 669.153 3350
479.826 669.153 3350
482.012 661.163 3310
488.891 659.765 3303
496.789 659.765 3303
505.757 661.163 3310
514.759 662.562 3317
522.691 662.562 3317
531.582 663.76 3323
539.529 663.76 3323
549.782 666.557 3337
557.761 666.557 3337
566.758 667.755 3343
574.753 667.755 3343
582.747 667.755 3343
590.741 667.755 3343
601.242 670.552 3357
609.27 670.552 3357
617.297 670.552 3357
625.325 670.552 3357
633.353 670.552 3357
642.527 671.75 3363
651.923 673.148 3370
659.981 673.148 3370
669.428 674.547 3377
677.503 674.547 3377
685.579 674.547 3377
693.654 674.547 3377
701.729 674.547 3377
711.276 675.945 3384
720.856 677.343 3391
728.965 677.343 3391
737.074 677.343 3391
745.183 677.343 3391
754.847 678.741 3398
762.973 678.741 3398
771.098 678.741 3398
779.224 678.741 3398
788.972 680.139 3405
797.114 680.139 3405
805.256 680.139 3405
815.071 681.538 3412
824.919 682.936 3419
834.801 684.334 3426
842.993 684.334 3426
851.186 684.334 3426
861.134 685.732 3433
871.116 687.131 3440
879.342 687.131 3440
894.793 692.724 3468
910.638 698.516 3497
922.942 701.512 3512
931.34 701.512 3512
943.752 704.509 3527
958.126 708.903 3549
970.97 712.099 3565
979.495 712.099 3565
994.394 716.693 3588
1007.17 719.689 3603
1018.04 721.287 3611
1026.67 721.287 3611
1039.9 724.483 3627
1050.88 726.081 3635
1063.95 729.078 3650
1075.03 730.675 3658
1083.77 730.675 3658
1092.52 730.675 3658
1103.98 732.473 3667
1117.6 735.669 3683
1126.41 735.669 3683
1137.68 737.267 3691
1146.51 737.267 3691
1155.33 737.267 3691
1164.16 737.267 3691
1172.99 737.267 3691
1176.69 734.071 3675
1185.48 734.071 3675
1194.27 734.071 3675
1200.44 732.473 3667
1206.24 730.675 3658
1214.98 730.675 3658
1221.06 729.078 3650
1227.09 727.48 3642
1235.8 727.48 3642
1244.51 727.48 3642
1253.22 727.48 3642
1259.5 726.081 3635
1268.19 726.081 3635
1276.88 726.081 3635
1282.75 724.483 3627
1291.42 724.483 3627
1297.23 722.885 3619
1302.99 721.287 3611
1311.63 721.287 3611
1320.26 721.287 3611
1325.95 719.689 3603
1334.57 719.689 3603
1346.17 721.287 3611
1354.8 721.287 3611
1363.44 721.287 3611
1372.07 721.287 3611
1380.71 721.287 3611
1389.34 721.287 3611
1397.98 721.287 3611
1406.61 721.287 3611
1415.25 721.287 3611
1423.88 721.287 3611
1432.52 721.287 3611
1437.96 719.689 3603
1443.36 718.091 3595
1451.96 718.091 3595
1460.56 718.091 3595
1469.15 718.091 3595
1474.87 716.693 3588
1483.45 716.693 3588
1488.71 715.095 3580
1500.61 716.693 3588
1509.19 716.693 3588
1517.77 716.693 3588
1526.35 716.693 3588
1534.93 716.693 3588
1540.07 715.095 3580
1548.63 715.095 3580
1557.19 715.095 3580
1565.76 715.095 3580
1574.32 715.095 3580
1586.41 716.693 3588
1601.66 719.689 3603
1610.28 719.689 3603
1626.08 722.885 3619
1648.74 729.078 3650
1672.45 735.669 3683
1681.26 735.669 3683
1708.88 743.859 3724
1725.17 747.055 3740
1741.99 750.45 3757
1750.98 750.45 3757
1764.18 752.248 3766
1785.43 757.442 3792
1802.54 760.837 3809
1811.65 760.837 3809
1820.76 760.837 3809
1821.7 757.442 3792
1830.76 757.442 3792
1831.1 753.846 3774
1831.83 750.45 3757
1836.9 748.852 3749
1845.86 748.852 3749
1838.5 742.261 3716
1842.91 740.463 3707
1847.78 738.865 3699
1856.63 738.865 3699
1849.34 732.473 3667
1837.84 724.483 3627
1838.36 721.287 3611
1835.23 716.693 3588
1843.81 716.693 3588
1852.39 716.693 3588
1868.75 719.689 3603
1881.54 721.287 3611
1890.17 721.287 3611
1898.81 721.287 3611
1907.44 721.287 3611
1924.57 724.483 3627
1941.24 727.48 3642
1949.95 727.48 3642
1967.26 730.675 3658
1989.51 735.669 3683
2016.22 742.261 3716
2043.09 748.852 3749
2052.06 748.852 3749
2074.77 753.846 3774
2103.12 760.837 3809
2146.61 773.222 3871
2155.86 773.222 3871
2180.22 778.615 3898
2210.33 786.005 3935
2224.81 787.803 3944
2234.25 787.803 3944
2248.8 789.601 3953
2258.25 789.601 3953
2273.44 791.598 3963
2282.92 791.598 3963
2292.39 791.598 3963
2301.87 791.598 3963
2311.35 791.598 3963
2320.82 791.598 3963
2324.42 789.601 3953
2339.78 791.598 3963
2349.25 791.598 3963
2358.73 791.598 3963
2368.21 791.598 3963
2383.08 793.396 3972
2398.6 795.394 3982
2419.62 799.189 4001
2429.18 799.189 4001
2444.24 800.987 4010
2459.95 802.984 4020
2469.56 802.984 4020
2479.17 802.984 4020
2488.79 802.984 4020
2480.38 797.191 3991
2489.92 797.191 3991
2487.56 793.396 3972
2497.06 793.396 3972
2518.55 797.191 3991
2528.09 797.191 3991
2537.64 797.191 3991
2547.18 797.191 3991
2563.13 799.189 4001
2572.7 799.189 4001
2582.27 799.189 4001
2585.36 797.191 3991
2594.9 797.191 3991
2604.44 797.191 3991
2613.99 797.191 3991
2598.55 789.601 3953
2596.13 786.005 3935
2598.92 784.008 3925
2608.3 784.008 3925
2605.68 780.413 3907
2549.43 760.837 3809
2643.18 786.005 3935
2658.65 787.803 3944
2668.08 787.803 3944
2677.52 787.803 3944
2686.95 787.803 3944
2696.38 787.803 3944
536.184 146.415 733
537.937 146.415 733
539.689 146.415 733
539.965 146.015 731
541.713 146.015 731
541.231 145.416 728
542.226 145.216 727
543.216 145.017 726
544.201 144.817 725
545.935 144.817 725
547.669 144.817 725
549.402 144.817 725
551.136 144.817 725
552.87 144.817 725
554.604 144.817 725
-2361.48 637.558 3154
-2353.94 637.558 3154
-2333 633.92 3136
-2329.95 635.133 3142
-2326.87 636.345 3148
-2319.35 636.345 3148
-2311.82 636.345 3148
-2304.29 636.345 3148
-2292.38 635.133 3142
-2284.87 635.133 3142
-2277.36 635.133 3142
-2282.85 638.771 3160
-2305.53 647.261 3202
-2315.82 652.315 3227
-2308.1 652.315 3227
-2322.48 658.581 3258
-2351.63 669.093 3310
-2377 678.593 3357
-2442.36 699.616 3461
-2454.48 705.478 3490
-2493.1 719.022 3557
-2484.59 719.022 3557
-2497.66 725.288 3588
-2499.49 728.32 3603
-2501.94 731.555 3619
-2493.28 731.555 3619
-2517.58 741.258 3667
-2508.81 741.258 3667
-2500.04 741.258 3667
-2485.16 739.438 3658
-2476.41 739.438 3658
-2467.67 739.438 3658
-2458.92 739.438 3658
-2450.17 739.438 3658
-2447.43 741.258 3667
-2443.98 742.875 3675
-2435.19 742.875 3675
-2426.41 742.875 3675
-2417.62 742.875 3675
-2408.83 742.875 3675
-2400.04 742.875 3675
-2386.05 741.258 3667
-2377.28 741.258 3667
-2373.68 742.875 3675
-2375.19 746.109 3691
-2366.36 746.109 3691
-2357.53 746.109 3691
-2348.71 746.109 3691
-2339.88 746.109 3691
-2331.05 746.109 3691
-2327.26 747.726 3699
-2323.43 749.343 3707
-2320.18 751.163 3716
-2311.3 751.163 3716
-2312.33 754.397 3732
-2303.4 754.397 3732
-2294.48 754.397 3732
-2275.75 751.163 3716
-2266.87 751.163 3716
-2257.98 751.163 3716
-2249.1 751.163 3716
-2245.03 752.78 3724
-2236.13 752.78 3724
-2232.01 754.397 3732
-2237.97 759.45 3757
-2228.99 759.45 3757
-2220.01 759.45 3757
-2216.32 761.27 3766
-2207.31 761.27 3766
-2198.31 761.27 3766
-2245.11 780.675 3862
-2267.14 791.591 3916
-2262.96 793.41 3925
-2253.58 793.41 3925
-2249.91 795.432 3935
-2267.26 804.932 3982
-2257.74 804.932 3982
-2248.21 804.932 3982
-2206.65 793.41 3925
-2197.26 793.41 3925
-2203.48 799.07 3953
-2194.03 799.07 3953
-2184.58 799.07 3953
-2154.76 791.591 3916
-2140.47 789.772 3907
-2131.13 789.772 3907
-2121.78 789.772 3907
-2132.45 797.251 3944
-2148.31 806.752 3991
-2148.95 810.593 4010
-2139.36 810.593 4010
-2129.77 810.593 4010
-2110.14 806.752 3991
-2100.6 806.752 3991
-2076.38 801.092 3963
-2028.31 786.133 3889
-1986.3 773.398 3826
-1977.15 773.398 3826
-1941.26 762.887 3774
-1923.53 759.45 3757
-1914.55 759.45 3757
-1905.56 759.45 3757
-1892.54 757.833 3749
-1883.57 757.833 3749
-1862.11 752.78 3724
-1853.2 752.78 3724
-1840.34 751.163 3716
-1783.64 731.555 3619
-1763.22 726.703 3595
-1754.62 726.703 3595
-1707.89 736.204 3642
-1699.18 736.204 3642
-1724.82 751.163 3716
-1719.62 752.78 3724
-1710.72 752.78 3724
-1701.81 752.78 3724
-1689.27 751.163 3716
-1680.39 751.163 3716
-1671.5 751.163 3716
-1662.61 751.163 3716
-1653.73 751.163 3716
-1655.47 756.014 3740
-1657.97 761.27 3766
-1648.96 761.27 3766
-1639.96 761.27 3766
-1630.95 761.27 3766
-1621.95 761.27 3766
-1612.94 761.27 3766
-1596.69 757.833 3749
-1569.94 749.343 3707
-1554.34 746.109 3691
-1545.51 746.109 3691
-1536.69 746.109 3691
-1527.86 746.109 3691
-1515.74 744.492 3683
-1523.71 752.78 3724
-1514.8 752.78 3724
-1505.9 752.78 3724
-1510.26 759.45 3757
-1504.87 761.27 3766
-1495.87 761.27 3766
-1486.86 761.27 3766
-1467.65 756.014 3740
-1458.71 756.014 3740
-1440.46 751.163 3716
-1428.11 749.343 3707
-1419.24 749.343 3707
-1419.89 754.397 3732
-1410.97 754.397 3732
-1402.04 754.397 3732
-1396.1 756.014 3740
-1396.8 761.27 3766
-1387.8 761.27 3766
-1410.65 778.856 3853
-1401.43 778.856 3853
-1392.22 778.856 3853
-1383 778.856 3853
-642.505 364.261 1802
-638.195 364.261 1802
-633.886 364.261 1802
-628.878 363.857 1800
-624.574 363.857 1800
-620.27 363.857 1800
-615.965 363.857 1800
-611.661 363.857 1800
-607.357 363.857 1800
-602.382 363.453 1798
-594.756 361.431 1788
-590.481 361.431 1788
-586.205 361.431 1788
-580.628 360.623 1784
-575.715 360.218 1782
-570.492 359.612 1779
-564.328 358.399 1773
-560.088 358.399 1773
-553.968 357.186 1767
-549.742 357.186 1767
-544.282 356.378 1763
-540.066 356.378 1763
-534.33 355.367 1758
-528.92 354.558 1754
-523.23 353.548 1749
-519.048 353.548 1749
-513.688 352.739 1745
-508.931 352.335 1743
-503.894 351.728 1740
-499.733 351.728 1740
-495.003 351.324 1738
-489.717 350.516 1734
-485.57 350.516 1734
-481.424 350.516 1734
-476.727 350.111 1732
-472.312 349.909 1731
-468.173 349.909 1731
-464.034 349.909 1731
-459.894 349.909 1731
-455.228 349.505 1729
-451.094 349.505 1729
-446.959 349.505 1729
-443.337 349.909 1731
-439.198 349.909 1731
-435.058 349.909 1731
-430.919 349.909 1731
-426.78 349.909 1731
-422.64 349.909 1731
-418.501 349.909 1731
-413.404 349.101 1727
-409.274 349.101 1727
-405.144 349.101 1727
-400.55 348.696 1725
-395.966 348.292 1723
-391.845 348.292 1723
-386.6 347.281 1718
-382.492 347.281 1718
-377.723 346.675 1715
-373.622 346.675 1715
-369.521 346.675 1715
-364.567 345.866 1711
-359.844 345.26 1708
-355.759 345.26 1708
-350.851 344.451 1704
-345.759 343.441 1699
-340.892 342.632 1695
-336.839 342.632 1695
-332.196 342.026 1692
-327.568 341.419 1689
-323.146 341.015 1687
-318.734 340.611 1685
-314.705 340.611 1685
-310.122 340.004 1682
-306.1 340.004 1682
-301.359 339.196 1678
-297.347 339.196 1678
-293.159 338.993 1677
-288.459 338.185 1673
-284.289 337.983 1672
-280.458 338.185 1673
-276.458 338.185 1673
-272.457 338.185 1673
-268.296 337.983 1672
-264.297 337.983 1672
-260.299 337.983 1672
-256.301 337.983 1672
-252.454 338.185 1673
-248.75 338.589 1675
-244.745 338.589 1675
-240.739 338.589 1675
-237.016 338.993 1677
-233.423 339.6 1680
-229.406 339.6 1680
-225.657 340.004 1682
-221.766 340.206 1683
-217.742 340.206 1683
-213.717 340.206 1683
-209.942 340.611 1685
-206.157 341.015 1687
-202.482 341.621 1690
-198.676 342.026 1692
-194.629 342.026 1692
-190.809 342.43 1694
-187.088 343.036 1697
-183.462 343.845 1701
-179.394 343.845 1701
-175.636 344.451 1704
-171.762 344.856 1706
-167.683 344.856 1706
-163.603 344.856 1706
-159.804 345.462 1709
-156.264 346.675 1715
-152.163 346.675 1715
-148.062 346.675 1715
-143.961 346.675 1715
-139.86 346.675 1715
-135.759 346.675 1715
-131.197 345.462 1709
-268.208 806.752 3991
-258.664 806.752 3991
-250.306 810.593 4010
-240.717 810.593 4010
-231.128 810.593 4010
-220.489 806.752 3991
-210.946 806.752 3991
-201.402 806.752 3991
-192.339 808.773 4001
-183.182 810.593 4010
-173.593 810.593 4010
-164.004 810.593 4010
-154.415 810.593 4010
-144.826 810.593 4010
-135.237 810.593 4010
-125.648 810.593 4010
-115.509 806.752 3991
-105.965 806.752 3991
-95.0684 795.432 3935
-85.6586 795.432 3935
-75.7063 789.772 3907
-66.3635 789.772 3907
-56.6266 784.314 3880
-46.909 777.037 3844
-37.2066 766.525 3792
-28.1388 766.525 3792
-18.895 759.45 3757
-9.71562 744.492 3683
-0.902288 739.438 3658
7.76146 731.555 3619
16.4156 731.555 3619
25.0143 729.938 3611
33.5002 726.703 3595
42.015 725.288 3588
50.595 725.288 3588
59.043 723.671 3580
67.4528 722.054 3572
75.9945 722.054 3572
84.5363 722.054 3572
93.078 722.054 3572
101.62 722.054 3572
109.946 720.639 3565
118.471 720.639 3565
126.711 719.022 3557
135.216 719.022 3557
143.722 719.022 3557
152.228 719.022 3557
160.734 719.022 3557
169.24 719.022 3557
177.746 719.022 3557
186.252 719.022 3557
195.196 720.639 3565
203.721 720.639 3565
212.662 722.054 3572
221.699 723.671 3580
230.775 725.288 3588
239.355 725.288 3588
248.419 726.703 3595
257.015 726.703 3595
265.612 726.703 3595
274.209 726.703 3595
283.435 728.32 3603
292.699 729.938 3611
302.002 731.555 3619
310.656 731.555 3619
320.722 734.789 3635
329.414 734.789 3635
338.106 734.789 3635
346.799 734.789 3635
355.491 734.789 3635
364.184 734.789 3635
372.876 734.789 3635
380.729 733.172 3627
385.966 726.703 3595
392.917 723.671 3580
401.478 723.671 3580
409.122 722.054 3572
416.845 720.639 3565
420.836 712.958 3527
426.593 708.51 3505
434.974 708.51 3505
440.573 704.063 3483
445.164 698.201 3454
451.586 695.371 3440
459.812 695.371 3440
465.181 691.126 3419
467.542 682.636 3377
471.815 677.178 3350
479.826 677.178 3350
482.012 669.093 3310
488.003 666.465 3297
495.887 666.465 3297
504.688 667.678 3303
512.586 667.678 3303
520.485 667.678 3303
529.503 669.093 3310
537.418 669.093 3310
546.487 670.508 3317
554.419 670.508 3317
562.35 670.508 3317
571.314 671.72 3323
580.48 673.135 3330
588.444 673.135 3330
596.407 673.135 3330
604.37 673.135 3330
613.62 674.55 3337
621.6 674.55 3337
629.579 674.55 3337
638.706 675.763 3343
648.054 677.178 3350
656.065 677.178 3350
666.653 679.806 3363
674.694 679.806 3363
682.736 679.806 3363
690.778 679.806 3363
698.82 679.806 3363
709.805 682.636 3377
717.88 682.636 3377
727.461 684.051 3384
735.553 684.051 3384
743.645 684.051 3384
751.737 684.051 3384
761.401 685.466 3391
769.51 685.466 3391
779.224 686.881 3398
787.35 686.881 3398
797.114 688.296 3405
805.256 688.296 3405
813.399 688.296 3405
821.541 688.296 3405
829.684 688.296 3405
837.826 688.296 3405
845.968 688.296 3405
857.622 691.126 3419
869.344 693.956 3433
877.553 693.956 3433
892.987 699.616 3461
905.169 702.648 3476
919 706.893 3497
927.362 706.893 3497
939.738 709.925 3512
952.186 712.958 3527
966.612 717.405 3549
975.099 717.405 3549
992.177 723.671 3580
1002.97 725.288 3588
1013.53 726.703 3595
1022.12 726.703 3595
1033.02 728.32 3603
1048.57 733.172 3627
1061.61 736.204 3642
1072.68 737.821 3650
1081.4 737.821 3650
1092.52 739.438 3658
1103.98 741.258 3667
1117.6 744.492 3683
1126.41 744.492 3683
1135.22 744.492 3683
1146.51 746.109 3691
1155.33 746.109 3691
1164.16 746.109 3691
1172.99 746.109 3691
1176.69 742.875 3675
1185.48 742.875 3675
1194.27 742.875 3675
1200.44 741.258 3667
1206.24 739.438 3658
1214.98 739.438 3658
1221.06 737.821 3650
1227.09 736.204 3642
1235.8 736.204 3642
1244.51 736.204 3642
1253.22 736.204 3642
1259.5 734.789 3635
1268.19 734.789 3635
1276.88 734.789 3635
1282.75 733.172 3627
1291.42 733.172 3627
1297.23 731.555 3619
1302.99 729.938 3611
1311.63 729.938 3611
1320.26 729.938 3611
