1383.77 870.264 3619
1389.34 868.34 3611
1397.98 868.34 3611
1397.65 862.81 3588
1406.23 862.81 3588
1408.51 858.962 3572
1414.27 857.279 3565
1416.41 853.431 3549
1422.09 851.748 3542
1430.56 851.748 3542
1426.84 844.534 3512
1432.37 842.851 3505
1434.59 839.243 3490
1442.94 839.243 3490
1445.46 835.877 3476
1447.5 832.27 3461
1452.83 830.587 3454
1461.09 830.587 3454
1463.39 827.22 3440
1477.61 830.587 3454
1498.34 837.56 3483
1525.71 848.141 3527
1534.14 848.141 3527
1552.2 853.431 3549
1567.72 857.279 3565
1589.51 864.493 3595
1612.33 872.188 3627
1621 872.188 3627
1647.65 881.807 3667
1724.63 918.118 3818
1733.76 918.118 3818
1754.76 924.37 3844
1792.86 939.52 3907
1806.35 941.684 3916
1815.72 941.684 3916
1838.13 948.417 3944
1856.46 952.986 3963
1865.94 952.986 3963
1875.42 952.986 3963
1880.14 950.581 3953
1889.59 950.581 3953
1894.72 948.417 3944
1904.15 948.417 3944
1891.26 937.356 3898
1883.03 928.699 3862
1879.04 922.206 3835
1888.21 922.206 3835
1884.51 915.954 3809
1867.77 903.449 3757
1860.27 895.514 3724
1869.18 895.514 3724
1865.47 889.502 3699
1858.1 881.807 3667
1850.58 874.112 3635
1855.18 872.188 3627
1867.97 874.112 3635
1876.66 874.112 3635
1885.35 874.112 3635
1894.04 874.112 3635
1902.74 874.112 3635
1911.43 874.112 3635
1928.04 877.719 3650
1958.53 887.578 3691
1984.94 895.514 3724
1993.85 895.514 3724
2016.2 901.525 3749
2038.67 907.537 3774
2061.8 913.789 3800
2070.89 913.789 3800
2118.84 930.863 3871
2163.28 946.253 3935
2193.12 955.15 3972
2202.62 955.15 3972
2228.26 962.124 4001
2254.05 969.098 4030
2268.74 971.262 4039
2284.04 973.667 4049
2293.73 973.667 4049
2309.1 976.071 4059
2318.8 976.071 4059
2328.51 976.071 4059
2338.22 976.071 4059
2347.92 976.071 4059
2357.63 976.071 4059
2373.17 978.476 4069
2382.9 978.476 4069
2392.63 978.476 4069
2402.36 978.476 4069
2412.09 978.476 4069
2421.82 978.476 4069
2431.55 978.476 4069
2441.28 978.476 4069
2451.01 978.476 4069
2460.74 978.476 4069
2470.47 978.476 4069
2480.2 978.476 4069
2489.93 978.476 4069
2499.66 978.476 4069
2509.39 978.476 4069
2512.93 976.071 4059
2510.21 971.262 4039
2519.87 971.262 4039
2511.36 964.288 4010
2520.95 964.288 4010
2536.85 966.693 4020
2546.46 966.693 4020
2556.08 966.693 4020
2577.82 971.262 4039
2587.47 971.262 4039
2597.13 971.262 4039
2606.79 971.262 4039
2610.62 969.098 4030
2613.75 966.693 4020
2623.37 966.693 4020
2626.43 964.288 4010
2636.02 964.288 4010
2645.61 964.288 4010
2649.24 962.124 4001
2658.81 962.124 4001
2661.71 959.719 3991
2658.53 955.15 3972
2668.03 955.15 3972
2677.53 955.15 3972
2687.03 955.15 3972
2690.42 952.986 3963
2699.89 952.986 3963
2709.37 952.986 3963
2674.25 937.356 3898
2664.98 930.863 3871
2625.19 913.789 3800
2622.49 909.701 3783
2631.54 909.701 3783
2604.99 897.437 3732
2613.91 897.437 3732
2622.84 897.437 3732
2631.76 897.437 3732
2640.69 897.437 3732
535.784 173.86 723
537.513 173.86 723
539.242 173.86 723
540.223 173.62 722
541.949 173.62 722
543.676 173.62 722
544.647 173.38 721
546.371 173.38 721
548.095 173.38 721
549.819 173.38 721
550.779 173.139 720
-2361.48 766.001 3154
-2353.94 766.001 3154
-2346.39 766.001 3154
-2334.4 764.544 3148
-2322.44 763.086 3142
-2314.93 763.086 3142
-2307.41 763.086 3142
-2295.51 761.629 3136
-2292.38 763.086 3142
-2302.32 768.915 3166
-2294.75 768.915 3166
-2291.52 770.372 3172
-2296.89 774.744 3190
-2302.18 779.115 3208
-2294.51 779.115 3208
-2322.48 791.259 3258
-2333.16 797.573 3284
-2348.68 805.588 3317
-2340.74 805.588 3317
-2404.55 830.36 3419
-2430.72 842.261 3468
-2422.42 842.261 3468
-2434.32 849.304 3497
-2431.5 851.247 3505
-2427.96 852.947 3512
-2419.56 852.947 3512
-2411.17 852.947 3512
-2408.24 854.89 3520
-2409.37 858.29 3534
-2400.92 858.29 3534
-2392.47 858.29 3534
-2384.02 858.29 3534
-2375.56 858.29 3534
-2367.11 858.29 3534
-2364 860.233 3542
-2360.19 861.933 3549
-2357 863.876 3557
-2348.5 863.876 3557
-2345.25 865.819 3565
-2336.73 865.819 3565
-2332.77 867.519 3572
-2324.23 867.519 3572
-2320.88 869.462 3580
-2317.48 871.405 3588
-2308.9 871.405 3588
-2300.32 871.405 3588
-2296.21 873.105 3595
-2292.71 875.048 3603
-2284.09 875.048 3603
-2280.53 876.991 3611
-2276.93 878.934 3619
-2273.29 880.877 3627
-2264.61 880.877 3627
-2260.92 882.819 3635
-2252.22 882.819 3635
-2247.85 884.52 3642
-2244.06 886.462 3650
-2235.33 886.462 3650
-2226.61 886.462 3650
-2217.88 886.462 3650
-2209.15 886.462 3650
-2200.42 886.462 3650
-2191.69 886.462 3650
-2182.96 886.462 3650
-2174.24 886.462 3650
-2165.51 886.462 3650
-2156.78 886.462 3650
-2148.05 886.462 3650
-2139.32 886.462 3650
-2135.26 888.405 3658
-2126.52 888.405 3658
-2117.77 888.405 3658
-2109.02 888.405 3658
-2100.28 888.405 3658
-2086.95 886.462 3650
-2073.67 884.52 3642
-2064.96 884.52 3642
-2056.25 884.52 3642
-2047.54 884.52 3642
-2038.83 884.52 3642
-2039.04 888.405 3658
-2030.3 888.405 3658
-2021.55 888.405 3658
-2012.8 888.405 3658
-2004.05 888.405 3658
-1995.31 888.405 3658
-1986.56 888.405 3658
-1982.68 890.591 3667
-1986.83 896.42 3691
-1978 896.42 3691
-1969.18 896.42 3691
-1964.6 898.363 3699
-1955.75 898.363 3699
-1946.91 898.363 3699
-1938.06 898.363 3699
-1920.87 894.477 3683
-1912.06 894.477 3683
-1903.26 894.477 3683
-1886.22 890.591 3667
-1872.84 888.405 3658
-1864.1 888.405 3658
-1855.35 888.405 3658
-1838.52 884.52 3642
-1826.3 882.819 3635
-1809.6 878.934 3619
-1800.95 878.934 3619
-1784.37 875.048 3603
-1771.81 873.105 3595
-1763.22 873.105 3595
-1754.62 873.105 3595
-1742.62 871.405 3588
-1730.18 869.462 3580
-1710.56 863.876 3557
-1698.22 861.933 3549
-1689.74 861.933 3549
-1681.25 861.933 3549
-1672.76 861.933 3549
-1660.99 860.233 3542
-1655.79 861.933 3549
-1647.3 861.933 3549
-1638.82 861.933 3549
-1630.33 861.933 3549
-1621.84 861.933 3549
-1613.35 861.933 3549
-1604.87 861.933 3549
-1596.38 861.933 3549
-1587.89 861.933 3549
-1579.41 861.933 3549
-1567.82 860.233 3542
-1559.35 860.233 3542
-1553.95 861.933 3549
-1545.46 861.933 3549
-1536.97 861.933 3549
-1528.49 861.933 3549
-1520 861.933 3549
-1511.51 861.933 3549
-1506.42 863.876 3557
-1501.28 865.819 3565
-1492.75 865.819 3565
-1484.23 865.819 3565
-1475.7 865.819 3565
-1460.59 861.933 3549
-1452.11 861.933 3549
-1440.77 860.233 3542
-1435.13 861.933 3549
-1429.86 863.876 3557
-1421.36 863.876 3557
-1412.85 863.876 3557
-1404.35 863.876 3557
-1395.84 863.876 3557
-1405.27 875.048 3603
-1396.66 875.048 3603
-1391.12 876.991 3611
-1385.55 878.934 3619
-1382.99 882.819 3635
-1374.29 882.819 3635
-1374.24 888.405 3658
-1368.85 890.591 3667
-1363.05 892.534 3675
-1354.26 892.534 3675
-1345.48 892.534 3675
-1336.69 892.534 3675
-1327.9 892.534 3675
-1316.24 890.591 3667
-1307.47 890.591 3667
-1298.7 890.591 3667
-1289.93 890.591 3667
-1272.43 884.52 3642
-1261.29 882.819 3635
-1249.84 880.877 3627
-1238.43 878.934 3619
-1229.78 878.934 3619
-1215.73 875.048 3603
-1207.11 875.048 3603
-1198.49 875.048 3603
-1189.88 875.048 3603
-586.861 434.731 1790
-582.58 434.731 1790
-578.3 434.731 1790
-572.737 433.759 1786
-567.829 433.274 1784
-563.563 433.274 1784
-558.67 432.788 1782
-548.187 427.931 1762
-543.973 427.931 1762
-539.76 427.931 1762
-533.115 425.988 1754
-528.317 425.502 1752
-509.254 416.759 1716
-505.151 416.759 1716
-501.047 416.759 1716
-496.944 416.759 1716
-492.84 416.759 1716
-485.889 414.33 1706
-480.68 413.359 1702
-475.209 412.144 1697
-468.93 410.201 1689
-464.891 410.201 1689
-458.397 408.016 1680
-453.568 407.287 1677
-447.145 405.101 1668
-443.156 405.101 1668
-438.378 404.373 1665
-433.092 403.158 1660
-429.122 403.158 1660
-425.153 403.158 1660
-421.183 403.158 1660
-416.711 402.673 1658
-412.746 402.673 1658
-409.274 403.158 1660
-405.305 403.158 1660
-401.335 403.158 1660
-396.887 402.673 1658
-392.922 402.673 1658
-388.957 402.673 1658
-384.76 402.43 1657
-380.798 402.43 1657
-376.836 402.43 1657
-372.423 401.944 1655
-368.466 401.944 1655
-364.508 401.944 1655
-360.55 401.944 1655
-356.593 401.944 1655
-352.635 401.944 1655
-348.678 401.944 1655
-344.72 401.944 1655
-340.762 401.944 1655
-336.805 401.944 1655
-333.853 403.158 1660
-330.281 403.644 1662
-326.503 403.887 1663
-322.526 403.887 1663
-319.89 405.587 1670
-315.897 405.587 1670
-312.837 406.801 1675
-308.831 406.801 1675
-304.826 406.801 1675
-302.617 409.23 1685
-298.942 409.716 1687
-294.907 409.716 1687
-291.391 410.444 1690
-288.029 411.416 1694
-284.481 412.144 1697
-280.423 412.144 1697
-277.831 414.33 1706
-274.875 416.03 1713
-272.359 418.459 1723
-268.239 418.459 1723
-265.039 419.916 1729
-261.96 421.616 1736
-260.037 425.259 1751
-255.849 425.259 1751
-254.537 430.116 1771
-252.422 433.759 1786
-250.096 437.16 1800
-245.792 437.16 1800
-242.963 439.831 1811
-240.477 443.231 1825
-236.113 443.231 1825
-232.511 444.688 1831
-228.88 446.146 1837
-224.732 446.631 1839
-220.334 446.631 1839
-216.171 447.117 1841
-211.999 447.603 1843
-207.817 448.089 1845
-203.405 448.089 1845
-198.993 448.089 1845
-194.792 448.574 1847
-190.375 448.574 1847
-186.261 449.303 1850
-181.837 449.303 1850
-177.605 449.789 1852
-173.176 449.789 1852
-168.747 449.789 1852
-164.318 449.789 1852
-309.277 948.879 3907
-302.774 957.865 3944
-293.343 957.865 3944
-283.912 957.865 3944
-274.481 957.865 3944
-265.049 957.865 3944
-255.618 957.865 3944
-246.187 957.865 3944
-237.896 962.48 3963
-228.938 964.665 3972
-219.44 964.665 3972
-209.941 964.665 3972
-200.948 967.094 3982
-191.426 967.094 3982
-181.903 967.094 3982
-172.381 967.094 3982
-162.082 962.48 3963
-151.874 957.865 3944
-142.442 957.865 3944
-132.067 951.065 3916
-120.446 933.578 3844
-110.994 931.393 3835
-101.823 931.393 3835
-91.6136 920.949 3792
-82.1539 916.578 3774
-72.3153 906.378 3732
-63.3909 906.378 3732
-54.1017 900.306 3707
-44.8467 892.534 3675
-35.8133 886.462 3650
-27.0851 886.462 3650
-18.1607 876.991 3611
-9.48348 873.105 3595
-0.881075 867.519 3572
7.66066 867.519 3572
16.2024 867.519 3572
24.7441 867.519 3572
33.2206 865.819 3565
41.7456 865.819 3565
50.2706 865.819 3565
58.5317 861.933 3549
67.0185 861.933 3549
75.5052 861.933 3549
83.9919 861.933 3549
92.2963 860.233 3542
100.539 858.29 3534
108.774 856.59 3527
117.208 856.59 3527
125.642 856.59 3527
134.076 856.59 3527
142.51 856.59 3527
150.944 856.59 3527
159.062 854.89 3520
167.479 854.89 3520
175.897 854.89 3520
183.895 852.947 3512
192.294 852.947 3512
200.692 852.947 3512
208.673 851.247 3505
217.055 851.247 3505
225.436 851.247 3505
233.818 851.247 3505
242.683 852.947 3512
251.081 852.947 3512
259.48 852.947 3512
267.878 852.947 3512
276.276 852.947 3512
285.89 856.59 3527
295.576 860.233 3542
304.046 860.233 3542
313.134 861.933 3549
321.621 861.933 3549
330.107 861.933 3549
338.594 861.933 3549
347.863 863.876 3557
357.872 867.519 3572
366.414 867.519 3572
374.955 867.519 3572
381.887 863.876 3557
389.514 861.933 3549
398.001 861.933 3549
402.25 852.947 3512
408.894 849.304 3497
417.257 849.304 3497
424.767 847.604 3490
433.113 847.604 3490
436.905 838.861 3454
441.556 832.06 3426
447.91 828.66 3412
456.069 828.66 3412
457.562 816.76 3363
462.835 811.902 3343
468.012 807.045 3323
475.958 807.045 3323
483.031 805.588 3317
490.963 805.588 3317
497.842 803.888 3310
505.757 803.888 3310
513.672 803.888 3310
521.588 803.888 3310
528.383 802.188 3303
537.418 803.888 3310
545.333 803.888 3310
553.248 803.888 3310
561.164 803.888 3310
569.079 803.888 3310
578.214 805.588 3317
586.146 805.588 3317
594.078 805.588 3317
603.099 807.045 3323
613.62 810.445 3337
621.6 810.445 3337
629.579 810.445 3337
637.559 810.445 3337
645.539 810.445 3337
653.519 810.445 3337
660.111 808.745 3330
668.074 808.745 3330
676.037 808.745 3330
684 808.745 3330
691.963 808.745 3330
698.455 807.045 3323
706.401 807.045 3323
714.347 807.045 3323
722.294 807.045 3323
730.24 807.045 3323
738.186 807.045 3323
746.133 807.045 3323
754.079 807.045 3323
762.025 807.045 3323
769.971 807.045 3323
777.918 807.045 3323
785.864 807.045 3323
793.81 807.045 3323
801.757 807.045 3323
811.409 808.745 3330
819.372 808.745 3330
827.335 808.745 3330
840.315 813.602 3350
848.325 813.602 3350
856.336 813.602 3350
869.507 818.46 3370
884.857 825.26 3398
898.502 830.36 3419
906.678 830.36 3419
918.6 833.76 3433
936.258 842.261 3468
952.45 849.304 3497
960.812 849.304 3497
977.489 856.59 3527
990.116 860.233 3542
1002.81 863.876 3557
1011.32 863.876 3557
1022.12 865.819 3565
1039.32 873.105 3595
1052.58 876.991 3611
1063.56 878.934 3619
1072.22 878.934 3619
1090.13 886.462 3650
1101.27 888.405 3658
1110.02 888.405 3658
1118.76 888.405 3658
1130.28 890.591 3667
1141.54 892.534 3675
1152.83 894.477 3683
1161.64 894.477 3683
1170.45 894.477 3683
1179.25 894.477 3683
1188.06 894.477 3683
1196.87 894.477 3683
1203.05 892.534 3675
1209.2 890.591 3667
1217.97 890.591 3667
1226.74 890.591 3667
1235.51 890.591 3667
1244.28 890.591 3667
1253.05 890.591 3667
1261.82 890.591 3667
1267.47 888.405 3658
1276.22 888.405 3658
1284.96 888.405 3658
1293.71 888.405 3658
1299.61 886.462 3650
1308.34 886.462 3650
1317.07 886.462 3650
1325.79 886.462 3650
1331.6 884.52 3642
1340.31 884.52 3642
1346.42 882.819 3635
1355.12 882.819 3635
1360.81 880.877 3627
1366.46 878.934 3619
1372.07 876.991 3611
1380.71 876.991 3611
1389.34 876.991 3611
1394.88 875.048 3603
1397.65 871.405 3588
1406.23 871.405 3588
1408.51 867.519 3572
1414.27 865.819 3565
1416.41 861.933 3549
1422.09 860.233 3542
1430.56 860.233 3542
1426.84 852.947 3512
1429.11 849.304 3497
1434.59 847.604 3490
1442.94 847.604 3490
1442.13 842.261 3468
1447.5 840.561 3461
1452.83 838.861 3454
1461.09 838.861 3454
1463.39 835.461 3440
1477.61 838.861 3454
1501.36 847.604 3490
1532.2 860.233 3542
1540.67 860.233 3542
1555.7 863.876 3557
1570.8 867.519 3572
1593.05 875.048 3603
1615.89 882.819 3635
1624.58 882.819 3635
1651.24 892.534 3675
1720.56 925.078 3809
1729.67 925.078 3809
1746.54 929.207 3826
1784.6 944.508 3889
1806.35 951.065 3916
1815.72 951.065 3916
1833.94 955.679 3935
1851.78 960.051 3953
1861.23 960.051 3953
1870.68 960.051 3953
1880.14 960.051 3953
1889.59 960.051 3953
1890.39 955.679 3935
1899.8 955.679 3935
1878.16 940.136 3871
1869.87 931.393 3835
1870.71 927.264 3818
1879.84 927.264 3818
1880.06 922.892 3800
1867.77 912.449 3757
1860.27 904.435 3724
1869.18 904.435 3724
1865.47 898.363 3699
1858.1 890.591 3667
1846.51 880.877 3627
1851.09 878.934 3619
1859.74 878.934 3619
1868.4 878.934 3619
1881.2 880.877 3627
1889.88 880.877 3627
1898.55 880.877 3627
1907.22 880.877 3627
1920.12 882.819 3635
1954.28 894.477 3683
1984.94 904.435 3724
1993.85 904.435 3724
2016.2 910.506 3749
2034.35 914.635 3766
2052.58 918.764 3783
2061.62 918.764 3783
2113.91 937.95 3862
2163.28 955.679 3935
2193.12 964.665 3972
2202.62 964.665 3972
2228.26 971.709 4001
2254.05 978.752 4030
2268.74 980.938 4039
2284.04 983.366 4049
2293.73 983.366 4049
2309.1 985.795 4059
2318.8 985.795 4059
2328.51 985.795 4059
2338.22 985.795 4059
2347.92 985.795 4059
2357.63 985.795 4059
2373.17 988.223 4069
2382.9 988.223 4069
2392.63 988.223 4069
2402.36 988.223 4069
2412.09 988.223 4069
2421.82 988.223 4069
2431.55 988.223 4069
2441.28 988.223 4069
2451.01 988.223 4069
2460.74 988.223 4069
2470.47 988.223 4069
2480.2 988.223 4069
2489.93 988.223 4069
2499.66 988.223 4069
2509.39 988.223 4069
2512.93 985.795 4059
2510.21 980.938 4039
2519.87 980.938 4039
2511.36 973.894 4010
2520.95 973.894 4010
2536.85 976.323 4020
2546.46 976.323 4020
2556.08 976.323 4020
2577.82 980.938 4039
2587.47 980.938 4039
2597.13 980.938 4039
2606.79 980.938 4039
2610.62 978.752 4030
2613.75 976.323 4020
2623.37 976.323 4020
2626.43 973.894 4010
2636.02 973.894 4010
2645.61 973.894 4010
2642.62 969.28 3991
2652.16 969.28 3991
2649.03 964.665 3972
2658.53 964.665 3972
2668.03 964.665 3972
2677.53 964.665 3972
2687.03 964.665 3972
2690.42 962.48 3963
2699.89 962.48 3963
2709.37 962.48 3963
2674.25 946.693 3898
2664.98 940.136 3871
2625.19 922.892 3800
2622.49 918.764 3783
2631.54 918.764 3783
2593.82 902.492 3716
2613.91 906.378 3732
2622.84 906.378 3732
2631.76 906.378 3732
2640.69 906.378 3732
535.784 175.592 723
537.513 175.592 723
539.242 175.592 723
540.223 175.35 722
541.949 175.35 722
543.676 175.35 722
544.647 175.107 721
546.371 175.107 721
548.095 175.107 721
549.819 175.107 721
550.779 174.864 720
-2361.48 773.556 3154
-2353.94 773.556 3154
-2346.39 773.556 3154
-2334.4 772.085 3148
-2322.44 770.613 3142
-2314.93 770.613 3142
-2307.41 770.613 3142
-2295.51 769.141 3136
-2292.38 770.613 3142
-2302.32 776.499 3166
-2294.75 776.499 3166
-2291.52 777.971 3172
-2296.89 782.386 3190
-2302.18 786.8 3208
-2294.51 786.8 3208
-2318.2 797.592 3252
-2319.66 800.78 3265
-2338.76 810.1 3303
-2330.86 810.1 3303
-2389.78 833.4 3398
-2416 845.418 3447
-2407.75 845.418 3447
-2419.7 852.53 3476
-2411.39 852.53 3476
-2407.91 854.247 3483
-2399.58 854.247 3483
-2391.26 854.247 3483
-2392.51 857.681 3497
-2394.37 861.36 3512
-2385.97 861.36 3512
-2377.57 861.36 3512
-2369.17 861.36 3512
-2360.78 861.36 3512
-2352.38 861.36 3512
-2349.32 863.322 3520
-2345.56 865.039 3527
-2347.06 868.718 3542
-2338.59 868.718 3542
-2334.73 870.435 3549
-2331.48 872.397 3557
-2328.2 874.359 3565
-2319.68 874.359 3565
-2311.15 874.359 3565
-2312.32 878.038 3580
-2308.9 880 3588
-2300.32 880 3588
-2296.21 881.717 3595
-2287.62 881.717 3595
-2284.09 883.679 3603
-2280.53 885.641 3611
-2271.89 885.641 3611
-2268.27 887.603 3619
-2264.61 889.565 3627
-2255.94 889.565 3627
-2247.27 889.565 3627
-2243.53 891.527 3635
-2239.14 893.244 3642
-2235.33 895.206 3650
-2226.61 895.206 3650
-2217.88 895.206 3650
-2209.15 895.206 3650
-2200.42 895.206 3650
-2191.69 895.206 3650
-2182.96 895.206 3650
-2174.24 895.206 3650
-2165.51 895.206 3650
-2156.78 895.206 3650
-2148.05 895.206 3650
-2139.32 895.206 3650
-2130.59 895.206 3650
-2121.87 895.206 3650
-2113.14 895.206 3650
-2104.41 895.206 3650
-2095.68 895.206 3650
-2086.95 895.206 3650
-2073.67 893.244 3642
-2064.96 893.244 3642
-2056.25 893.244 3642
-2047.54 893.244 3642
-2038.83 893.244 3642
-2039.04 897.168 3658
-2030.3 897.168 3658
-2021.55 897.168 3658
-2012.8 897.168 3658
-2004.05 897.168 3658
-1995.31 897.168 3658
-1986.56 897.168 3658
-1982.68 899.375 3667
-1982.52 903.3 3683
-1978 905.262 3691
-1969.18 905.262 3691
-1964.6 907.224 3699
-1955.75 907.224 3699
-1946.91 907.224 3699
-1933.87 905.262 3691
-1920.87 903.3 3683
-1912.06 903.3 3683
-1903.26 903.3 3683
-1886.22 899.375 3667
-1872.84 897.168 3658
-1864.1 897.168 3658
-1855.35 897.168 3658
-1838.52 893.244 3642
-1826.3 891.527 3635
-1809.6 887.603 3619
-1800.95 887.603 3619
-1784.37 883.679 3603
-1771.81 881.717 3595
-1763.22 881.717 3595
-1754.62 881.717 3595
-1742.62 880 3588
-1730.18 878.038 3580
-1710.56 872.397 3557
-1698.22 870.435 3549
-1689.74 870.435 3549
-1681.25 870.435 3549
-1672.76 870.435 3549
-1660.99 868.718 3542
-1655.79 870.435 3549
-1647.3 870.435 3549
-1638.82 870.435 3549
-1630.33 870.435 3549
-1621.84 870.435 3549
-1613.35 870.435 3549
-1604.87 870.435 3549
-1596.38 870.435 3549
-1587.89 870.435 3549
-1579.41 870.435 3549
-1567.82 868.718 3542
-1559.35 868.718 3542
-1550.88 868.718 3542
-1542.41 868.718 3542
-1533.94 868.718 3542
-1528.49 870.435 3549
-1520 870.435 3549
-1511.51 870.435 3549
-1503.03 870.435 3549
-1497.91 872.397 3557
-1489.4 872.397 3557
-1480.9 872.397 3557
-1472.39 872.397 3557
-1460.59 870.435 3549
-1452.11 870.435 3549
-1440.77 868.718 3542
-1435.13 870.435 3549
-1426.65 870.435 3549
-1421.36 872.397 3557
-1412.85 872.397 3557
-1404.35 872.397 3557
-1395.84 872.397 3557
-1405.27 883.679 3603
-1396.66 883.679 3603
-1391.12 885.641 3611
-1385.55 887.603 3619
-1382.99 891.527 3635
-1374.29 891.527 3635
-1374.24 897.168 3658
-1368.85 899.375 3667
-1363.05 901.338 3675
-1354.26 901.338 3675
-1345.48 901.338 3675
-1336.69 901.338 3675
-1327.9 901.338 3675
-1316.24 899.375 3667
-1307.47 899.375 3667
-1298.7 899.375 3667
-1289.93 899.375 3667
-1272.43 893.244 3642
-1261.29 891.527 3635
-1249.84 889.565 3627
-1238.43 887.603 3619
-1229.78 887.603 3619
-1215.73 883.679 3603
-1207.11 883.679 3603
-1198.49 883.679 3603
-1189.88 883.679 3603
-1171.1 876.076 3572
-582.58 439.019 1790
-578.3 439.019 1790
-572.737 438.038 1786
-567.829 437.547 1784
-563.563 437.547 1784
-558.67 437.057 1782
-548.187 432.152 1762
-543.973 432.152 1762
-539.76 432.152 1762
-533.115 430.189 1754
-528.317 429.699 1752
-517.845 424.548 1731
-513.706 424.548 1731
-505.151 420.869 1716
-501.047 420.869 1716
-496.944 420.869 1716
-492.84 420.869 1716
-485.889 418.417 1706
-480.68 417.436 1702
-475.209 416.21 1697
-469.763 414.983 1692
-465.717 414.983 1692
-459.215 412.776 1683
-454.379 412.04 1680
-449.022 410.814 1675
-445.016 410.814 1675
-439.168 409.097 1668
-434.396 408.361 1665
-430.415 408.361 1665
-426.433 408.361 1665
-421.944 407.871 1663
-417.968 407.871 1663
-413.991 407.871 1663
-410.014 407.871 1663
-406.037 407.871 1663
-402.061 407.871 1663
-397.845 407.625 1662
-393.87 407.625 1662
-389.896 407.625 1662
-385.457 407.135 1660
-381.488 407.135 1660
-377.518 407.135 1660
-373.098 406.644 1658
-369.134 406.644 1658
-365.169 406.644 1658
-361.204 406.644 1658
-357.024 406.399 1657
-353.061 406.399 1657
-349.099 406.399 1657
-345.137 406.399 1657
-341.174 406.399 1657
-337.212 406.399 1657
-333.853 407.135 1660
-330.281 407.625 1662
-326.503 407.871 1663
-322.526 407.871 1663
-319.89 409.587 1670
-315.897 409.587 1670
-312.837 410.814 1675
-308.831 410.814 1675
-304.826 410.814 1675
-302.617 413.266 1685
-298.942 413.757 1687
-294.907 413.757 1687
-291.391 414.493 1690
-288.029 415.474 1694
-284.481 416.21 1697
-280.423 416.21 1697
-277.831 418.417 1706
-274.875 420.134 1713
-272.359 422.586 1723
-268.239 422.586 1723
-265.345 424.548 1731
-262.715 427.001 1741
-260.779 430.68 1756
-256.58 430.68 1756
-255.399 435.83 1777
-253.27 439.509 1792
-250.096 441.471 1800
-246.474 442.698 1805
-243.5 445.15 1815
-240.741 448.094 1827
-236.372 448.094 1827
-232.511 449.075 1831
-228.88 450.546 1837
-224.732 451.037 1839
-220.334 451.037 1839
-216.171 451.527 1841
-211.999 452.018 1843
-207.817 452.508 1845
-203.405 452.508 1845
-198.993 452.508 1845
-194.792 452.999 1847
-190.375 452.999 1847
-186.261 453.735 1850
-181.837 453.735 1850
-177.605 454.225 1852
-173.176 454.225 1852
-168.747 454.225 1852
-164.318 454.225 1852
-309.277 958.238 3907
-302.774 967.313 3944
-293.343 967.313 3944
-283.912 967.313 3944
-274.481 967.313 3944
-265.049 967.313 3944
-255.618 967.313 3944
-246.187 967.313 3944
-237.896 971.973 3963
-228.938 974.18 3972
-219.44 974.18 3972
-209.941 974.18 3972
-200.948 976.633 3982
-191.426 976.633 3982
-181.903 976.633 3982
-172.381 976.633 3982
-162.082 971.973 3963
-151.874 967.313 3944
-142.442 967.313 3944
-132.067 960.446 3916
-120.446 942.787 3844
-110.994 940.579 3835
-101.823 940.579 3835
-91.6136 930.033 3792
-82.1539 925.619 3774
-72.3153 915.318 3732
-63.3909 915.318 3732
-54.1017 909.186 3707
-44.8467 901.338 3675
-35.8133 895.206 3650
-27.0851 895.206 3650
-18.1607 885.641 3611
-9.48348 881.717 3595
-0.883048 878.038 3580
7.66066 876.076 3572
16.2024 876.076 3572
24.7441 876.076 3572
33.2206 874.359 3565
41.7456 874.359 3565
50.2706 874.359 3565
58.5317 870.435 3549
67.0185 870.435 3549
75.5052 870.435 3549
83.9919 870.435 3549
92.2963 868.718 3542
100.539 866.756 3534
108.774 865.039 3527
117.208 865.039 3527
125.642 865.039 3527
134.076 865.039 3527
142.51 865.039 3527
150.944 865.039 3527
159.378 865.039 3527
167.813 865.039 3527
175.897 863.322 3520
184.314 863.322 3520
192.732 863.322 3520
200.692 861.36 3512
209.09 861.36 3512
217.055 859.643 3505
225.436 859.643 3505
233.818 859.643 3505
242.683 861.36 3512
251.081 861.36 3512
259.48 861.36 3512
267.878 861.36 3512
276.276 861.36 3512
285.323 863.322 3520
295.576 868.718 3542
304.046 868.718 3542
312.516 868.718 3542
320.986 868.718 3542
329.456 868.718 3542
337.926 868.718 3542
347.863 872.397 3557
356.369 872.397 3557
364.875 872.397 3557
373.381 872.397 3557
381.028 870.435 3549
387.868 866.756 3534
396.319 866.756 3534
402.25 861.36 3512
408.894 857.681 3497
416.422 855.964 3490
423.063 852.53 3476
431.375 852.53 3476
436.019 845.418 3447
441.556 840.267 3426
447.91 836.834 3412
456.069 836.834 3412
458.514 826.533 3370
464.773 823.344 3357
468.998 816.722 3330
476.961 816.722 3330
483.031 813.534 3317
490.963 813.534 3317
498.895 813.534 3317
506.827 813.534 3317
514.759 813.534 3317
521.588 811.817 3310
529.503 811.817 3310
537.418 811.817 3310
545.333 811.817 3310
553.248 811.817 3310
561.164 811.817 3310
569.079 811.817 3310
578.214 813.534 3317
586.146 813.534 3317
595.153 815.005 3323
603.099 815.005 3323
613.62 818.439 3337
621.6 818.439 3337
629.579 818.439 3337
637.559 818.439 3337
645.539 818.439 3337
653.519 818.439 3337
660.111 816.722 3330
668.074 816.722 3330
676.037 816.722 3330
684 816.722 3330
690.508 815.005 3323
698.455 815.005 3323
706.401 815.005 3323
714.347 815.005 3323
722.294 815.005 3323
730.24 815.005 3323
738.186 815.005 3323
746.133 815.005 3323
754.079 815.005 3323
762.025 815.005 3323
769.971 815.005 3323
777.918 815.005 3323
785.864 815.005 3323
792.377 813.534 3317
801.757 815.005 3323
811.409 816.722 3330
819.372 816.722 3330
827.335 816.722 3330
838.559 819.911 3343
848.325 821.627 3350
856.336 821.627 3350
869.507 826.533 3370
884.857 833.4 3398
898.502 838.551 3419
906.678 838.551 3419
918.6 841.984 3433
936.258 850.568 3468
952.45 857.681 3497
960.812 857.681 3497
977.489 865.039 3527
990.116 868.718 3542
1002.81 872.397 3557
1011.32 872.397 3557
1022.12 874.359 3565
1039.32 881.717 3595
1052.58 885.641 3611
1063.56 887.603 3619
1072.22 887.603 3619
1090.13 895.206 3650
1101.27 897.168 3658
1110.02 897.168 3658
1118.76 897.168 3658
1130.28 899.375 3667
1141.54 901.338 3675
1152.83 903.3 3683
1161.64 903.3 3683
1170.45 903.3 3683
1179.25 903.3 3683
1188.06 903.3 3683
1196.87 903.3 3683
1203.05 901.338 3675
1209.2 899.375 3667
1217.97 899.375 3667
1226.74 899.375 3667
1235.51 899.375 3667
1244.28 899.375 3667
1253.05 899.375 3667
1261.82 899.375 3667
1267.47 897.168 3658
1276.22 897.168 3658
1284.96 897.168 3658
1293.71 897.168 3658
1299.61 895.206 3650
1308.34 895.206 3650
1317.07 895.206 3650
1325.79 895.206 3650
1331.6 893.244 3642
1340.31 893.244 3642
1346.42 891.527 3635
1355.12 891.527 3635
1360.81 889.565 3627
1366.46 887.603 3619
1372.07 885.641 3611
1380.71 885.641 3611
1386.27 883.679 3603
1391.78 881.717 3595
1397.65 880 3588
1406.23 880 3588
1408.51 876.076 3572
1414.27 874.359 3565
1416.41 870.435 3549
1422.09 868.718 3542
1430.56 868.718 3542
1426.84 861.36 3512
1429.11 857.681 3497
1434.59 855.964 3490
1442.94 855.964 3490
1442.13 850.568 3468
1450.43 850.568 3468
1455.78 848.852 3461
1464.05 848.852 3461
1469.35 847.135 3454
1477.61 847.135 3454
1507.81 859.643 3505
1535.22 870.435 3549
1543.71 870.435 3549
1559.19 874.359 3565
1577.83 880 3588
1600.12 887.603 3619
1615.89 891.527 3635
1631.28 895.206 3650
1654.84 903.3 3683
1724.63 936.41 3818
1733.76 936.41 3818
1746.54 938.372 3826
1780.47 951.616 3880
1798.05 956.031 3898
1807.37 956.031 3898
1833.94 965.106 3935
1847.56 967.313 3944
1856.99 967.313 3944
1866.42 967.313 3944
1875.86 967.313 3944
1880.98 965.106 3935
1885.59 962.653 3925
1894.98 962.653 3925
1878.16 949.409 3871
1869.87 940.579 3835
1866.3 934.203 3809
1875.41 934.203 3809
1880.06 931.995 3800
1867.77 921.449 3757
1860.27 913.355 3724
1869.18 913.355 3724
1861.44 905.262 3691
1853.54 897.168 3658
1846.51 889.565 3627
1847 885.641 3611
1855.63 885.641 3611
1864.27 885.641 3611
1872.9 885.641 3611
1881.54 885.641 3611
1890.17 885.641 3611
1898.81 885.641 3611
1915.9 889.565 3627
1950.04 901.338 3675
1984.94 913.355 3724
1993.85 913.355 3724
2011.36 917.28 3740
2029.49 921.449 3757
2052.58 927.826 3783
2061.62 927.826 3783
2113.91 947.202 3862
2163.28 965.106 3935
2193.12 974.18 3972
2202.62 974.18 3972
2228.26 981.293 4001
2254.05 988.406 4030
2268.74 990.613 4039
2284.04 993.066 4049
2293.73 993.066 4049
2309.1 995.518 4059
2318.8 995.518 4059
2328.51 995.518 4059
2338.22 995.518 4059
2347.92 995.518 4059
2357.63 995.518 4059
2373.17 997.971 4069
2382.9 997.971 4069
2392.63 997.971 4069
2402.36 997.971 4069
2412.09 997.971 4069
2421.82 997.971 4069
2437.53 1000.42 4079
2447.28 1000.42 4079
2457.03 1000.42 4079
2466.79 1000.42 4079
2476.54 1000.42 4079
2486.3 1000.42 4079
2496.05 1000.42 4079
2505.8 1000.42 4079
2509.39 997.971 4069
2519.12 997.971 4069
2516.42 993.066 4049
2526.1 993.066 4049
2523.89 988.406 4030
2527.24 985.953 4020
2543.16 988.406 4030
2558.5 990.613 4039
2568.16 990.613 4039
2584.2 993.066 4049
2593.88 993.066 4049
2603.56 993.066 4049
2606.79 990.613 4039
2616.45 990.613 4039
2613.75 985.953 4020
2623.37 985.953 4020
2632.98 985.953 4020
2642.59 985.953 4020
2645.61 983.5 4010
2642.62 978.84 3991
2652.16 978.84 3991
2649.03 974.18 3972
2658.53 974.18 3972
2661.98 971.973 3963
2671.46 971.973 3963
2680.94 971.973 3963
2690.42 971.973 3963
2693.08 969.52 3953
2702.53 969.52 3953
2674.25 956.031 3898
2664.98 949.409 3871
2625.19 931.995 3800
2622.49 927.826 3783
2631.54 927.826 3783
2593.82 911.393 3716
2613.91 915.318 3732
2622.84 915.318 3732
2631.76 915.318 3732
2640.69 915.318 3732
535.784 177.324 723
537.513 177.324 723
539.242 177.324 723
540.223 177.079 722
541.949 177.079 722
543.676 177.079 722
544.647 176.834 721
546.371 176.834 721
548.095 176.834 721
549.819 176.834 721
550.779 176.589 720
-2361.48 781.112 3154
-2353.94 781.112 3154
-2346.39 781.112 3154
-2334.4 779.626 3148
-2322.44 778.14 3142
-2314.93 778.14 3142
-2307.41 778.14 3142
-2295.51 776.654 3136
-2292.38 778.14 3142
-2302.32 784.083 3166
-2294.75 784.083 3166
-2291.52 785.569 3172
-2292.57 788.541 3184
-2302.18 794.485 3208
-2294.51 794.485 3208
-2308.94 802.162 3239
-2319.66 808.602 3265
-2325.31 813.307 3284
-2317.46 813.307 3284
-2356.02 829.652 3350
-2411.09 851.942 3440
-2402.86 851.942 3440
-2414.13 858.876 3468
-2405.84 858.876 3468
-2403.07 860.857 3476
-2394.76 860.857 3476
-2386.45 860.857 3476
-2382.93 862.591 3483
-2374.6 862.591 3483
-2366.27 862.591 3483
-2357.94 862.591 3483
-2349.61 862.591 3483
-2341.28 862.591 3483
-2332.95 862.591 3483
-2333.97 866.058 3497
-2330.93 868.039 3505
-2327.18 869.773 3512
-2318.79 869.773 3512
-2320.25 873.488 3527
-2316.41 875.221 3534
-2307.96 875.221 3534
-2304.71 877.203 3542
-2296.24 877.203 3542
-2292.29 878.936 3549
-2294.1 882.899 3565
-2285.58 882.899 3565
-2286.63 886.614 3580
-2283.16 888.595 3588
-2279.02 890.328 3595
-2280.53 894.291 3611
-2271.89 894.291 3611
-2263.26 894.291 3611
-2259.62 896.272 3619
-2255.94 898.254 3627
-2247.27 898.254 3627
-2243.53 900.235 3635
-2234.84 900.235 3635
-2230.43 901.968 3642
-2221.73 901.968 3642
-2213.02 901.968 3642
-2204.31 901.968 3642
-2195.6 901.968 3642
-2186.89 901.968 3642
-2178.18 901.968 3642
-2169.47 901.968 3642
-2160.76 901.968 3642
-2152.05 901.968 3642
-2143.34 901.968 3642
-2134.63 901.968 3642
-2125.93 901.968 3642
-2117.22 901.968 3642
-2108.51 901.968 3642
-2099.8 901.968 3642
-2091.09 901.968 3642
-2082.38 901.968 3642
-2073.67 901.968 3642
-2064.96 901.968 3642
-2056.25 901.968 3642
-2047.54 901.968 3642
-2038.83 901.968 3642
-2030.12 901.968 3642
-2025.86 903.95 3650
-2017.13 903.95 3650
-2008.4 903.95 3650
-1999.67 903.95 3650
-1990.94 903.95 3650
-1982.21 903.95 3650
-1977.81 905.931 3658
-1978.22 910.141 3675
-1973.71 912.122 3683
-1964.91 912.122 3683
-1960.35 914.104 3691
-1951.52 914.104 3691
-1946.91 916.085 3699
-1938.06 916.085 3699
-1929.22 916.085 3699
-1912.06 912.122 3683
-1903.26 912.122 3683
-1894.45 912.122 3683
-1881.55 910.141 3675
-1860.02 903.95 3650
-1851.29 903.95 3650
-1842.56 903.95 3650
-1826.3 900.235 3635
-1813.61 898.254 3627
-1804.93 898.254 3627
-1788.33 894.291 3611
-1775.76 892.31 3603
-1767.14 892.31 3603
-1758.53 892.31 3603
-1746.02 890.328 3595
-1734.04 888.595 3588
-1710.56 880.917 3557
-1702.05 880.917 3557
-1693.54 880.917 3557
-1681.25 878.936 3549
-1672.76 878.936 3549
-1660.99 877.203 3542
-1655.79 878.936 3549
-1647.3 878.936 3549
-1638.82 878.936 3549
-1634 880.917 3557
-1625.5 880.917 3557
-1616.99 880.917 3557
-1604.87 878.936 3549
-1596.38 878.936 3549
-1587.89 878.936 3549
-1579.41 878.936 3549
-1567.82 877.203 3542
-1559.35 877.203 3542
-1550.88 877.203 3542
-1542.41 877.203 3542
-1533.94 877.203 3542
-1525.47 877.203 3542
-1520 878.936 3549
-1511.51 878.936 3549
-1503.03 878.936 3549
-1497.91 880.917 3557
-1489.4 880.917 3557
-1480.9 880.917 3557
-1472.39 880.917 3557
-1460.59 878.936 3549
-1452.11 878.936 3549
-1440.77 877.203 3542
-1432.3 877.203 3542
-1426.65 878.936 3549
-1418.16 878.936 3549
-1409.67 878.936 3549
-1404.35 880.917 3557
-1395.84 880.917 3557
-1405.27 892.31 3603
-1396.66 892.31 3603
-1391.12 894.291 3611
-1385.55 896.272 3619
-1382.99 900.235 3635
-1374.29 900.235 3635
-1374.24 905.931 3658
-1368.85 908.16 3667
-1360.09 908.16 3667
-1351.32 908.16 3667
-1339.25 905.931 3658
-1330.51 905.931 3658
-1321.76 905.931 3658
-1307.27 901.968 3642
-1298.56 901.968 3642
-1289.85 901.968 3642
-1281.14 901.968 3642
-1269.99 900.235 3635
-1258.52 898.254 3627
-1244.33 894.291 3611
-1232.96 892.31 3603
-1224.34 892.31 3603
-1215.73 892.31 3603
-1202.08 888.595 3588
-1193.5 888.595 3588
-1184.92 888.595 3588
-1171.1 884.632 3572
-582.58 443.307 1790
-578.3 443.307 1790
-572.737 442.316 1786
-567.829 441.821 1784
-563.563 441.821 1784
-558.67 441.326 1782
-548.187 436.372 1762
-543.973 436.372 1762
-539.76 436.372 1762
-533.115 434.391 1754
-528.317 433.896 1752
-517.845 428.695 1731
-513.706 428.695 1731
-505.151 424.98 1716
-501.047 424.98 1716
-496.944 424.98 1716
-492.84 424.98 1716
-485.889 422.504 1706
-480.68 421.513 1702
-475.209 420.275 1697
-469.763 419.036 1692
-465.717 419.036 1692
-459.215 416.807 1683
-454.379 416.064 1680
-449.022 414.826 1675
-445.016 414.826 1675
-439.168 413.093 1668
-434.396 412.35 1665
-430.415 412.35 1665
-426.433 412.35 1665
-421.944 411.854 1663
-417.968 411.854 1663
-413.991 411.854 1663
-410.014 411.854 1663
-406.037 411.854 1663
-402.061 411.854 1663
-397.845 411.607 1662
-393.87 411.607 1662
-389.896 411.607 1662
-385.457 411.111 1660
-381.488 411.111 1660
-377.518 411.111 1660
-373.098 410.616 1658
-369.134 410.616 1658
-365.169 410.616 1658
-361.204 410.616 1658
-357.024 410.368 1657
-353.061 410.368 1657
-349.099 410.368 1657
-345.137 410.368 1657
-341.174 410.368 1657
-337.212 410.368 1657
-333.853 411.111 1660
-330.281 411.607 1662
-326.503 411.854 1663
-322.526 411.854 1663
-319.89 413.588 1670
-315.897 413.588 1670
-312.837 414.826 1675
-308.831 414.826 1675
-304.826 414.826 1675
-302.257 416.807 1683
-298.587 417.303 1685
-294.558 417.303 1685
-291.218 418.293 1689
-288.029 419.532 1694
-284.146 419.779 1695
-280.093 419.779 1695
-277.505 422.008 1704
-274.554 423.742 1711
-272.359 426.714 1723
-268.239 426.714 1723
-265.345 428.695 1731
-262.715 431.172 1741
-260.779 434.886 1756
-256.58 434.886 1756
-255.399 440.087 1777
-253.27 443.802 1792
-250.096 445.783 1800
-246.474 447.022 1805
-243.5 449.498 1815
-240.741 452.47 1827
-236.372 452.47 1827
-232.511 453.461 1831
-228.88 454.947 1837
-224.732 455.442 1839
-220.334 455.442 1839
-216.171 455.937 1841
-211.769 455.937 1841
-207.592 456.433 1843
-203.184 456.433 1843
-198.777 456.433 1843
-194.37 456.433 1843
-190.169 456.928 1845
-185.959 457.423 1847
-181.542 457.423 1847
-177.125 457.423 1847
-172.708 457.423 1847
-168.292 457.423 1847
-163.697 456.928 1845
-309.277 967.598 3907
-300.625 969.827 3916
-291.261 969.827 3916
-281.896 969.827 3916
-272.532 969.827 3916
-263.168 969.827 3916
-253.803 969.827 3916
-245.001 972.055 3925
-236.215 974.532 3935
-226.805 974.532 3935
-217.395 974.532 3935
-208.937 978.99 3953
-199.484 978.99 3953
-190.031 978.99 3953
-180.579 978.99 3953
-170.736 976.761 3944
-160.937 974.532 3935
-151.527 974.532 3935
-142.117 974.532 3935
-131.156 963.14 3889
-120.446 951.995 3844
-110.502 945.556 3818
-101.372 945.556 3818
-91.6136 939.117 3792
-82.1539 934.659 3774
-72.3153 924.258 3732
-63.3909 924.258 3732
-54.1017 918.066 3707
-44.8467 910.141 3675
-35.8133 903.95 3650
-27.0851 903.95 3650
-18.2009 896.272 3619
-9.48348 890.328 3595
-0.883048 886.614 3580
7.67782 886.614 3580
16.2387 886.614 3580
24.7995 886.614 3580
33.2859 884.632 3572
41.7456 882.899 3565
50.2706 882.899 3565
58.5317 878.936 3549
67.0185 878.936 3549
75.5052 878.936 3549
83.9919 878.936 3549
92.2963 877.203 3542
100.539 875.221 3534
108.99 875.221 3534
117.44 875.221 3534
125.642 873.488 3527
134.076 873.488 3527
142.51 873.488 3527
150.944 873.488 3527
159.378 873.488 3527
167.813 873.488 3527
175.897 871.754 3520
184.314 871.754 3520
192.732 871.754 3520
200.692 869.773 3512
209.09 869.773 3512
217.488 869.773 3512
225.887 869.773 3512
234.285 869.773 3512
242.683 869.773 3512
251.081 869.773 3512
260.071 871.754 3520
268.488 871.754 3520
276.906 871.754 3520
286.458 875.221 3534
295.576 877.203 3542
304.046 877.203 3542
313.134 878.936 3549
321.621 878.936 3549
330.107 878.936 3549
338.594 878.936 3549
347.863 880.917 3557
356.369 880.917 3557
364.875 880.917 3557
373.381 880.917 3557
381.887 880.917 3557
387.868 875.221 3534
396.319 875.221 3534
402.25 869.773 3512
408.894 866.058 3497
416.422 864.324 3490
423.063 860.857 3476
431.375 860.857 3476
436.019 853.675 3447
441.556 848.474 3426
447.91 845.007 3412
456.069 845.007 3412
458.514 834.606 3370
464.773 831.386 3357
468.998 824.699 3330
476.961 824.699 3330
483.905 822.966 3323
490.963 821.48 3317
498.895 821.48 3317
506.827 821.48 3317
514.759 821.48 3317
522.691 821.48 3317
530.623 821.48 3317
538.555 821.48 3317
546.487 821.48 3317
554.419 821.48 3317
562.35 821.48 3317
570.282 821.48 3317
579.26 822.966 3323
587.207 822.966 3323
595.153 822.966 3323
604.37 824.699 3330
613.62 826.433 3337
621.6 826.433 3337
629.579 826.433 3337
637.559 826.433 3337
645.539 826.433 3337
653.519 826.433 3337
660.111 824.699 3330
668.074 824.699 3330
676.037 824.699 3330
684 824.699 3330
690.508 822.966 3323
698.455 822.966 3323
706.401 822.966 3323
714.347 822.966 3323
722.294 822.966 3323
730.24 822.966 3323
738.186 822.966 3323
746.133 822.966 3323
754.079 822.966 3323
762.025 822.966 3323
769.971 822.966 3323
777.918 822.966 3323
785.864 822.966 3323
792.377 821.48 3317
801.757 822.966 3323
811.409 824.699 3330
819.372 824.699 3330
827.335 824.699 3330
838.559 827.919 3343
848.325 829.652 3350
856.336 829.652 3350
869.507 834.606 3370
884.857 841.54 3398
898.502 846.741 3419
906.678 846.741 3419
918.6 850.208 3433
936.258 858.876 3468
952.45 866.058 3497
960.812 866.058 3497
977.489 873.488 3527
990.116 877.203 3542
1002.81 880.917 3557
1011.32 880.917 3557
1022.12 882.899 3565
1039.32 890.328 3595
1052.58 894.291 3611
1063.56 896.272 3619
1072.22 896.272 3619
1090.13 903.95 3650
1101.27 905.931 3658
1110.02 905.931 3658
1118.76 905.931 3658
1130.28 908.16 3667
1141.54 910.141 3675
1152.83 912.122 3683
1161.64 912.122 3683
1170.45 912.122 3683
1179.25 912.122 3683
1188.06 912.122 3683
1196.87 912.122 3683
1203.05 910.141 3675
1209.2 908.16 3667
1217.97 908.16 3667
1226.74 908.16 3667
1235.51 908.16 3667
1244.28 908.16 3667
1253.05 908.16 3667
1261.82 908.16 3667
1267.47 905.931 3658
1276.22 905.931 3658
1284.96 905.931 3658
1293.71 905.931 3658
1299.61 903.95 3650
1308.34 903.95 3650
1317.07 903.95 3650
1325.79 903.95 3650
1331.6 901.968 3642
1340.31 901.968 3642
1346.42 900.235 3635
1355.12 900.235 3635
1360.81 898.254 3627
1366.46 896.272 3619
1372.07 894.291 3611
1380.71 894.291 3611
1386.27 892.31 3603
1391.78 890.328 3595
1397.65 888.595 3588
1406.23 888.595 3588
1408.51 884.632 3572
1414.27 882.899 3565
1416.41 878.936 3549
1422.09 877.203 3542
1430.56 877.203 3542
1426.84 869.773 3512
1429.11 866.058 3497
1434.59 864.324 3490
1442.94 864.324 3490
1445.46 860.857 3476
1450.43 858.876 3468
1455.78 857.142 3461
1464.05 857.142 3461
1469.35 855.409 3454
1480.6 857.142 3461
1510.82 869.773 3512
1538.68 880.917 3557
1547.19 880.917 3557
1559.19 882.899 3565
1577.83 888.595 3588
1600.12 896.272 3619
1615.89 900.235 3635
1631.28 903.95 3650
1654.84 912.122 3683
1724.63 945.556 3818
1733.76 945.556 3818
1746.54 947.537 3826
1776.34 958.682 3871
1802.2 967.598 3907
1811.54 967.598 3907
1833.94 974.532 3935
1851.78 978.99 3953
1861.23 978.99 3953
1870.68 978.99 3953
1880.14 978.99 3953
1880.98 974.532 3935
1885.59 972.055 3925
1894.98 972.055 3925
1878.16 958.682 3871
1865.48 947.537 3826
1866.3 943.327 3809
1875.41 943.327 3809
1876.1 939.117 3792
1867.77 930.449 3757
1860.27 922.276 3724
1869.18 922.276 3724
1861.44 914.104 3691
1849.49 903.95 3650
1838.36 894.291 3611
1842.91 892.31 3603
1851.52 892.31 3603
1860.14 892.31 3603
1868.75 892.31 3603
1873.2 890.328 3595
1885.99 892.31 3603
1894.6 892.31 3603
1907.44 894.291 3611
1941.02 905.931 3658
1971.62 916.085 3699
1980.46 916.085 3699
2002.75 922.276 3724
2020.3 926.239 3740
2043.35 932.678 3766
2052.36 932.678 3766
2084.9 943.327 3809
2147.89 967.598 3907
2188.15 981.466 3963
2197.62 981.466 3963
2228.26 990.877 4001
2254.05 998.059 4030
2268.74 1000.29 4039
2284.04 1002.76 4049
2293.73 1002.76 4049
2309.1 1005.24 4059
2318.8 1005.24 4059
2328.51 1005.24 4059
2338.22 1005.24 4059
2347.92 1005.24 4059
2357.63 1005.24 4059
2367.34 1005.24 4059
2377.04 1005.24 4059
2386.75 1005.24 4059
2396.45 1005.24 4059
2406.16 1005.24 4059
2415.87 1005.24 4059
2437.53 1010.19 4079
2447.28 1010.19 4079
2457.03 1010.19 4079
2466.79 1010.19 4079
2476.54 1010.19 4079
2486.3 1010.19 4079
2496.05 1010.19 4079
2505.8 1010.19 4079
2515.56 1010.19 4079
2519.12 1007.72 4069
2522.64 1005.24 4059
2532.34 1005.24 4059
2529.52 1000.29 4039
2533.52 998.059 4030
2548.84 1000.29 4039
2564.83 1002.76 4049
2574.52 1002.76 4049
2590.58 1005.24 4059
2600.29 1005.24 4059
2609.99 1005.24 4059
2613.25 1002.76 4049
2622.93 1002.76 4049
2620.26 998.059 4030
2629.89 998.059 4030
2639.53 998.059 4030
2642.59 995.583 4020
2652.21 995.583 4020
2649.24 990.877 4001
2658.81 990.877 4001
2661.71 988.401 3991
2658.53 983.695 3972
2668.03 983.695 3972
2677.53 983.695 3972
2680.94 981.466 3963
2690.42 981.466 3963
2693.08 978.99 3953
2702.53 978.99 3953
2668.08 963.14 3889
2664.98 958.682 3871
2619.67 939.117 3792
2610.71 932.678 3766
2619.71 932.678 3766
2587.54 918.066 3707
2596.4 918.066 3707
2605.27 918.066 3707
2614.13 918.066 3707
536.026 178.561 721
537.751 178.561 721
540.223 178.809 722
541.949 178.809 722
543.676 178.809 722
544.647 178.561 721
546.371 178.561 721
547.335 178.313 720
549.057 178.313 720
550.779 178.313 720
-2361.48 788.667 3154
-2353.94 788.667 3154
-2341.93 787.167 3148
-2329.95 785.666 3142
-2318 784.166 3136
-2310.5 784.166 3136
-2303.01 784.166 3136
-2291.11 782.666 3130
-2288.01 784.166 3136
-2302.32 791.668 3166
-2294.75 791.668 3166
-2291.52 793.168 3172
-2292.57 796.169 3184
-2297.88 800.67 3202
-2290.22 800.67 3202
-2304.66 808.421 3233
-2310.43 813.172 3252
-2311.86 816.423 3265
-2304.05 816.423 3265
-2356.02 837.677 3350
-2362.03 842.678 3370
-2363.75 846.179 3384
-2394.64 860.182 3440
-2391.27 861.932 3447
-2397.54 867.184 3468
-2389.25 867.184 3468
-2380.96 867.184 3468
-2372.66 867.184 3468
-2364.37 867.184 3468
-2356.08 867.184 3468
-2347.79 867.184 3468
-2339.49 867.184 3468
-2331.2 867.184 3468
-2322.91 867.184 3468
-2314.61 867.184 3468
-2311.64 869.184 3476
-2317.24 874.435 3497
-2314.16 876.436 3505
-2305.78 876.436 3505
-2301.99 878.186 3512
-2298.81 880.186 3520
-2290.4 880.186 3520
-2281.98 880.186 3520
-2287.77 885.688 3542
-2283.81 887.438 3549
-2285.58 891.439 3565
-2277.05 891.439 3565
-2272.98 893.189 3572
-2274.58 897.19 3588
-2270.42 898.94 3595
-2261.83 898.94 3595
-2258.25 900.941 3603
-2249.63 900.941 3603
-2245.99 902.941 3611
-2237.35 902.941 3611
-2238.59 906.942 3627
-2229.92 906.942 3627
-2226.15 908.942 3635
-2217.46 908.942 3635
-2208.76 908.942 3635
-2200.07 908.942 3635
-2191.38 908.942 3635
-2182.69 908.942 3635
-2178.18 910.693 3642
-2169.47 910.693 3642
-2160.76 910.693 3642
-2152.05 910.693 3642
-2143.34 910.693 3642
-2134.63 910.693 3642
-2125.93 910.693 3642
-2117.22 910.693 3642
-2108.51 910.693 3642
-2099.8 910.693 3642
-2091.09 910.693 3642
-2078.38 908.942 3635
-2069.68 908.942 3635
-2060.99 908.942 3635
-2052.3 908.942 3635
-2043.61 908.942 3635
-2034.92 908.942 3635
-2026.22 908.942 3635
-2021.42 910.693 3642
-2012.71 910.693 3642
-2004 910.693 3642
-1995.29 910.693 3642
-1990.94 912.693 3650
-1982.21 912.693 3650
-1973.49 912.693 3650
-1978.22 918.945 3675
-1969.43 918.945 3675
-1960.64 918.945 3675
-1956.1 920.945 3683
-1955.75 924.946 3699
-1946.91 924.946 3699
-1938.06 924.946 3699
-1929.22 924.946 3699
-1920.37 924.946 3699
-1911.53 924.946 3699
-1894.45 920.945 3683
-1881.55 918.945 3675
-1860.02 912.693 3650
-1851.29 912.693 3650
-1842.56 912.693 3650
-1829.81 910.693 3642
-1817.61 908.942 3635
-1808.91 908.942 3635
-1792.3 904.942 3619
-1779.7 902.941 3611
-1771.06 902.941 3611
-1762.43 902.941 3611
-1753.79 902.941 3611
-1737.43 898.94 3595
-1710.56 889.438 3557
-1702.05 889.438 3557
-1693.54 889.438 3557
-1685.04 889.438 3557
-1672.76 887.438 3549
-1660.99 885.688 3542
-1655.79 887.438 3549
-1647.3 887.438 3549
-1638.82 887.438 3549
-1634 889.438 3557
-1625.5 889.438 3557
-1616.99 889.438 3557
-1604.87 887.438 3549
-1596.38 887.438 3549
-1587.89 887.438 3549
-1579.41 887.438 3549
-1567.82 885.688 3542
-1559.35 885.688 3542
-1550.88 885.688 3542
-1538.93 883.687 3534
-1530.48 883.687 3534
-1525.47 885.688 3542
-1517 885.688 3542
-1508.53 885.688 3542
-1500.06 885.688 3542
-1494.54 887.438 3549
-1486.05 887.438 3549
-1477.57 887.438 3549
-1469.08 887.438 3549
-1460.59 887.438 3549
-1452.11 887.438 3549
-1437.52 883.687 3534
-1432.3 885.688 3542
-1426.65 887.438 3549
-1418.16 887.438 3549
-1409.67 887.438 3549
-1401.19 887.438 3549
-1395.84 889.438 3557
-1402.15 898.94 3595
-1393.56 898.94 3595
-1391.12 902.941 3611
-1382.49 902.941 3611
-1376.9 904.942 3619
-1368.24 904.942 3619
-1365.6 908.942 3635
-1365.49 914.694 3658
-1356.75 914.694 3658
-1348 914.694 3658
-1336.32 912.693 3650
-1322.14 908.942 3635
-1313.45 908.942 3635
-1304.75 908.942 3635
-1296.06 908.942 3635
-1287.37 908.942 3635
-1278.68 908.942 3635
-1261.6 902.941 3611
-1252.97 902.941 3611
-1241.57 900.941 3603
-1225.09 895.19 3580
-1216.53 895.19 3580
-1207.96 895.19 3580
-1199.4 895.19 3580
-1190.84 895.19 3580
-1182.28 895.19 3580
-1171.1 893.189 3572
-582.58 447.595 1790
-578.3 447.595 1790
-574.019 447.595 1790
-567.829 446.094 1784
-563.563 446.094 1784
-551.773 440.093 1760
-545.698 438.593 1754
-540.577 437.843 1751
-536.39 437.843 1751
-532.203 437.843 1751
-526.206 436.342 1745
-517.845 432.842 1731
-513.706 432.842 1731
-507.8 431.341 1725
-502.799 430.591 1722
-496.944 429.091 1716
-492.84 429.091 1716
-485.889 426.59 1706
-481.244 426.09 1704
-475.769 424.84 1699
-470.596 423.84 1695
-466.543 423.84 1695
-460.307 421.839 1687
-454.92 420.589 1682
-449.558 419.339 1677
-445.548 419.339 1677
-441.011 418.839 1675
-435.701 417.588 1670
-431.19 417.088 1668
-427.202 417.088 1668
-422.959 416.838 1667
-418.47 416.338 1665
-413.991 415.838 1663
-410.014 415.838 1663
-406.037 415.838 1663
-402.061 415.838 1663
-398.084 415.838 1663
-394.107 415.838 1663
-390.13 415.838 1663
-386.154 415.838 1663
-382.177 415.838 1663
-378.2 415.838 1663
-373.548 415.088 1660
-370.024 415.588 1662
-366.05 415.588 1662
-362.075 415.588 1662
-358.101 415.588 1662
-354.127 415.588 1662
-349.31 414.588 1658
-345.345 414.588 1658
-341.792 415.088 1660
-337.822 415.088 1660
-334.255 415.588 1662
-330.479 415.838 1663
-326.895 416.338 1665
-322.914 416.338 1665
-319.89 417.588 1670
-316.275 418.089 1672
-312.837 418.839 1675
-308.831 418.839 1675
-305.19 419.339 1677
-302.078 420.589 1682
-298.587 421.339 1685
-294.558 421.339 1685
-290.873 421.839 1687
-288.029 423.59 1694
-284.481 424.34 1697
-280.423 424.34 1697
-277.831 426.59 1706
-274.875 428.341 1713
-272.359 430.841 1723
-268.239 430.841 1723
-265.345 432.842 1731
-262.715 435.342 1741
-260.779 439.093 1756
-256.58 439.093 1756
-255.399 444.344 1777
-253.27 448.095 1792
-248.984 448.095 1792
-246.474 451.346 1805
-243.5 453.846 1815
-240.741 456.847 1827
