-500.648 -847.105 1687
-496.614 -847.105 1687
-492.58 -847.105 1687
-488.546 -847.105 1687
-484.512 -847.105 1687
-480.477 -847.105 1687
-476.443 -847.105 1687
-472.409 -847.105 1687
-468.375 -847.105 1687
-464.341 -847.105 1687
-460.307 -847.105 1687
-456.273 -847.105 1687
-451.166 -845.096 1683
-447.142 -845.096 1683
-443.117 -845.096 1683
-438.832 -844.594 1682
-434.809 -844.594 1682
-430.787 -844.594 1682
-426.765 -844.594 1682
-422.743 -844.594 1682
-418.97 -845.096 1683
-414.945 -845.096 1683
-410.921 -845.096 1683
-406.654 -844.594 1682
-401.675 -842.586 1678
-397.662 -842.586 1678
-393.415 -842.083 1677
-388.94 -841.079 1675
-384.475 -840.075 1673
-380.247 -839.573 1672
-376.474 -840.075 1673
-372.473 -840.075 1673
-369.353 -842.083 1677
-366.433 -844.594 1682
-363.057 -846.101 1685
-359.027 -846.101 1685
-355.841 -848.109 1689
-353.052 -851.122 1695
-350.234 -854.135 1701
-346.166 -854.135 1701
-342.3 -854.637 1702
-338.627 -855.641 1704
-335.534 -858.152 1709
-331.447 -858.152 1709
-328.127 -860.16 1713
-324.598 -861.667 1716
-321.802 -865.182 1723
-317.682 -865.182 1723
-313.925 -866.186 1725
-310.16 -867.19 1727
-306.916 -869.701 1732
-302.774 -869.701 1732
-298.632 -869.701 1732
-294.831 -870.705 1734
-290.684 -870.705 1734
-286.538 -870.705 1734
-282.065 -869.701 1732
-277.924 -869.701 1732
-273.782 -869.701 1732
1784.96 -2038.17 4059
1794.66 -2038.17 4059
1804.37 -2038.17 4059
1814.08 -2038.17 4059
1828.28 -2043.19 4069
1838.01 -2043.19 4069
1847.74 -2043.19 4069
1866.6 -2053.24 4089
1876.37 -2053.24 4089
1886.15 -2053.24 4089
3003.26 -2048.22 4079
3013.02 -2048.22 4079
3022.77 -2048.22 4079
2981.23 -2013.57 4010
2990.82 -2013.57 4010
3000.41 -2013.57 4010
2995.73 -2004.03 3991
2998.5 -1999.51 3982
3008.02 -1999.51 3982
2988.75 -1980.43 3944
2895.55 -1912.64 3809
2897.8 -1908.12 3800
2906.89 -1908.12 3800
-2430.56 -1800.57 3603
-2421.95 -1800.57 3603
-2413.33 -1800.57 3603
-2404.72 -1800.57 3603
-2396.1 -1800.57 3603
-2377.54 -1793.07 3588
-2368.96 -1793.07 3588
-2360.38 -1793.07 3588
-2346.56 -1789.07 3580
-2332.77 -1785.08 3572
-2324.23 -1785.08 3572
-2315.69 -1785.08 3572
-2312.32 -1789.07 3580
-2313.41 -1796.57 3595
-2309.94 -1800.57 3603
-2301.32 -1800.57 3603
-2292.71 -1800.57 3603
-2284.09 -1800.57 3603
-2275.48 -1800.57 3603
-607.738 -857.556 1716
-603.634 -857.556 1716
-600.23 -858.556 1718
-596.121 -858.556 1718
-592.013 -858.556 1718
-587.905 -858.556 1718
-583.117 -857.556 1716
-575.639 -852.559 1706
-571.56 -852.559 1706
-566.815 -851.559 1704
-562.74 -851.559 1704
-558.01 -850.56 1702
-553.94 -850.56 1702
-549.546 -850.06 1701
-544.837 -849.06 1699
-540.138 -848.061 1697
-536.08 -848.061 1697
-531.081 -846.562 1694
-526.408 -845.562 1692
-522.362 -845.562 1692
-518.316 -845.562 1692
-514.27 -845.562 1692
-509.621 -844.563 1690
-505.28 -844.063 1689
-500.648 -843.064 1687
-496.614 -843.064 1687
-492.58 -843.064 1687
-488.546 -843.064 1687
-484.512 -843.064 1687
-480.477 -843.064 1687
-476.443 -843.064 1687
-472.409 -843.064 1687
-468.375 -843.064 1687
-464.341 -843.064 1687
-460.307 -843.064 1687
-456.273 -843.064 1687
-451.702 -842.064 1685
-447.673 -842.064 1685
-443.644 -842.064 1685
-439.092 -841.065 1683
-434.809 -840.565 1682
-430.787 -840.565 1682
-426.765 -840.565 1682
-422.994 -841.065 1683
-419.468 -842.064 1685
-415.438 -842.064 1685
-411.409 -842.064 1685
-407.38 -842.064 1685
-402.632 -840.565 1682
-398.61 -840.565 1682
-394.119 -839.565 1680
-389.637 -838.566 1678
-385.624 -838.566 1678
-381.384 -838.066 1677
-377.374 -838.066 1677
-373.364 -838.066 1677
-370.675 -841.065 1683
-367.086 -842.064 1685
-363.919 -844.063 1689
-359.88 -844.063 1689
-357.105 -847.062 1695
-353.885 -849.06 1699
-350.44 -850.56 1702
-346.37 -850.56 1702
-343.707 -854.058 1709
-340.018 -855.057 1711
-335.927 -855.057 1711
-331.835 -855.057 1711
-328.51 -857.056 1715
-325.733 -860.555 1722
-322.175 -862.054 1725
-318.05 -862.054 1725
-314.289 -863.053 1727
-310.16 -863.053 1727
-306.916 -865.552 1732
-302.774 -865.552 1732
-298.977 -866.551 1734
-294.831 -866.551 1734
-290.684 -866.551 1734
-286.538 -866.551 1734
-282.065 -865.552 1732
-277.924 -865.552 1732
-273.782 -865.552 1732
1784.96 -2028.45 4059
1794.66 -2028.45 4059
1804.37 -2028.45 4059
1814.08 -2028.45 4059
1828.28 -2033.45 4069
1838.01 -2033.45 4069
1847.74 -2033.45 4069
1866.6 -2043.44 4089
1876.37 -2043.44 4089
1886.15 -2043.44 4089
2971.64 -2003.96 4010
2981.23 -2003.96 4010
2990.82 -2003.96 4010
3000.41 -2003.96 4010
2995.73 -1994.47 3991
2998.5 -1989.97 3982
3008.02 -1989.97 3982
2988.75 -1970.98 3944
2895.55 -1903.51 3809
2897.8 -1899.02 3800
2906.89 -1899.02 3800
-2416.57 -1787.96 3595
-2407.97 -1787.96 3595
-2399.38 -1787.96 3595
-2386.12 -1784.48 3588
-2377.54 -1784.48 3588
-2368.96 -1784.48 3588
-2341.32 -1776.52 3572
-2332.77 -1776.52 3572
-2324.23 -1776.52 3572
-2315.69 -1776.52 3572
-2317.48 -1784.48 3588
-2313.41 -1787.96 3595
-2309.94 -1791.94 3603
-2301.32 -1791.94 3603
-2292.71 -1791.94 3603
-2284.09 -1791.94 3603
-2275.48 -1791.94 3603
-606.675 -851.953 1713
-602.579 -851.953 1713
-599.181 -852.948 1715
-595.427 -853.445 1716
-591.324 -853.445 1716
-587.22 -853.445 1716
-582.097 -851.953 1713
-574.964 -847.477 1704
-570.89 -847.477 1704
-566.15 -846.483 1702
-562.08 -846.483 1702
-557.682 -845.985 1701
-553.614 -845.985 1701
-548.9 -844.991 1699
-544.837 -844.991 1699
-540.138 -843.996 1697
-536.08 -843.996 1697
-531.395 -843.001 1695
-527.031 -842.504 1694
-522.362 -841.509 1692
-518.316 -841.509 1692
-514.27 -841.509 1692
-510.224 -841.509 1692
-505.28 -840.017 1689
-500.648 -839.022 1687
-496.614 -839.022 1687
-492.58 -839.022 1687
-488.546 -839.022 1687
-484.512 -839.022 1687
-480.477 -839.022 1687
-476.443 -839.022 1687
-472.409 -839.022 1687
-468.375 -839.022 1687
-464.341 -839.022 1687
-460.307 -839.022 1687
-456.273 -839.022 1687
-451.702 -838.028 1685
-447.673 -838.028 1685
-443.644 -838.028 1685
-439.092 -837.033 1683
-435.068 -837.033 1683
-431.043 -837.033 1683
-427.019 -837.033 1683
-423.497 -838.028 1685
-420.463 -840.017 1689
-416.424 -840.017 1689
-412.386 -840.017 1689
-408.347 -840.017 1689
-403.829 -839.022 1687
-399.795 -839.022 1687
-394.822 -837.033 1683
-390.798 -837.033 1683
-386.773 -837.033 1683
-382.749 -837.033 1683
-379.174 -838.028 1685
-375.145 -838.028 1685
-371.115 -838.028 1685
-368.611 -841.509 1692
-365.211 -843.001 1695
-361.158 -843.001 1695
-357.526 -843.996 1697
-354.301 -845.985 1701
-351.881 -849.964 1709
-347.794 -849.964 1709
-343.707 -849.964 1709
-340.018 -850.959 1711
-335.927 -850.959 1711
-331.835 -850.959 1711
-328.51 -852.948 1715
-325.733 -856.43 1722
-322.175 -857.922 1725
-318.05 -857.922 1725
-314.289 -858.916 1727
-310.16 -858.916 1727
-306.916 -861.403 1732
-302.774 -861.403 1732
-298.977 -862.398 1734
-294.831 -862.398 1734
-290.684 -862.398 1734
-286.538 -862.398 1734
-282.065 -861.403 1732
-277.763 -860.906 1731
-273.624 -860.906 1731
1767.81 -1999.33 4020
1794.66 -2018.73 4059
1804.37 -2018.73 4059
1814.08 -2018.73 4059
1828.28 -2023.7 4069
1838.01 -2023.7 4069
1847.74 -2023.7 4069
1857.47 -2023.7 4069
2993.13 -2008.78 4039
3002.79 -2008.78 4039
3012.45 -2008.78 4039
3015.37 -2004.3 4030
3025.01 -2004.3 4030
3012.81 -1989.88 4001
3022.38 -1989.88 4001
2995.57 -1966.01 3953
2970.05 -1943.13 3907
2917.63 -1902.85 3826
2926.78 -1902.85 3826
-2332.77 -1767.96 3572
-2324.23 -1767.96 3572
-2315.69 -1767.96 3572
-2317.48 -1775.88 3588
-2313.41 -1779.35 3595
-2309.94 -1783.31 3603
-2301.32 -1783.31 3603
-2292.71 -1783.31 3603
-2279.02 -1779.35 3595
-2270.42 -1779.35 3595
-606.675 -847.85 1713
-602.579 -847.85 1713
-599.181 -848.84 1715
-595.427 -849.335 1716
-591.324 -849.335 1716
-587.22 -849.335 1716
-582.777 -848.84 1715
-574.964 -843.395 1704
-570.89 -843.395 1704
-566.815 -843.395 1704
-562.08 -842.405 1702
-558.01 -842.405 1702
-553.94 -842.405 1702
-549.87 -842.405 1702
-545.479 -841.91 1701
-541.411 -841.91 1701
-537.344 -841.91 1701
-532.022 -839.931 1697
-527.342 -838.941 1695
-523.288 -838.941 1695
-519.235 -838.941 1695
-515.182 -838.941 1695
-511.129 -838.941 1695
-505.58 -836.466 1690
-500.648 -834.981 1687
-496.614 -834.981 1687
-492.58 -834.981 1687
-488.546 -834.981 1687
-484.512 -834.981 1687
-480.477 -834.981 1687
-476.443 -834.981 1687
-472.409 -834.981 1687
-468.375 -834.981 1687
-464.341 -834.981 1687
-460.307 -834.981 1687
-456.273 -834.981 1687
-451.702 -833.991 1685
-447.673 -833.991 1685
-443.644 -833.991 1685
-439.092 -833.001 1683
-435.068 -833.001 1683
-431.556 -833.991 1685
-427.526 -833.991 1685
-424.502 -835.971 1689
-420.712 -836.466 1690
-416.671 -836.466 1690
-412.63 -836.466 1690
-408.588 -836.466 1690
-404.547 -836.466 1690
-400.506 -836.466 1690
-395.761 -834.981 1687
-391.262 -833.991 1685
-387.233 -833.991 1685
-383.203 -833.991 1685
-379.174 -833.991 1685
-375.145 -833.991 1685
-372.217 -836.466 1690
-368.611 -837.456 1692
-365.211 -838.941 1695
-361.158 -838.941 1695
-357.948 -840.921 1699
-354.51 -842.405 1702
-351.881 -845.87 1709
-347.794 -845.87 1709
-343.707 -845.87 1709
-340.018 -846.86 1711
-335.927 -846.86 1711
-331.835 -846.86 1711
-328.51 -848.84 1715
-325.733 -852.304 1722
-322.175 -853.789 1725
-318.05 -853.789 1725
-314.289 -854.779 1727
-310.16 -854.779 1727
-306.916 -857.254 1732
-302.774 -857.254 1732
-298.977 -858.244 1734
-294.831 -858.244 1734
-290.684 -858.244 1734
-286.538 -858.244 1734
-282.065 -857.254 1732
-277.763 -856.759 1731
-273.624 -856.759 1731
1772.21 -1994.65 4030
1785.82 -1999.1 4039
1795.48 -1999.1 4039
1805.14 -1999.1 4039
1828.28 -2013.95 4069
1842.52 -2018.9 4079
1852.28 -2018.9 4079
1862.03 -2018.9 4079
2993.13 -1999.1 4039
3002.79 -1999.1 4039
3012.45 -1999.1 4039
3022.11 -1999.1 4039
3031.76 -1999.1 4039
3012.81 -1980.3 4001
3022.38 -1980.3 4001
3003.15 -1961.49 3963
2970.05 -1933.77 3907
2951.94 -1915.95 3871
2961.2 -1915.95 3871
-2332.77 -1759.41 3572
-2324.23 -1759.41 3572
-2315.69 -1759.41 3572
-2317.48 -1767.29 3588
-2313.41 -1770.73 3595
-2309.94 -1774.67 3603
-2301.32 -1774.67 3603
-2292.71 -1774.67 3603
-2279.02 -1770.73 3595
-2270.42 -1770.73 3595
-606.675 -843.746 1713
-602.579 -843.746 1713
-599.181 -844.731 1715
-595.08 -844.731 1715
-590.979 -844.731 1715
-586.878 -844.731 1715
-582.777 -844.731 1715
-574.964 -839.313 1704
-570.89 -839.313 1704
-566.815 -839.313 1704
-562.08 -838.328 1702
-558.01 -838.328 1702
-553.94 -838.328 1702
-549.87 -838.328 1702
-545.479 -837.836 1701
-541.411 -837.836 1701
-537.344 -837.836 1701
-532.022 -835.865 1697
-527.342 -834.88 1695
-523.288 -834.88 1695
-519.235 -834.88 1695
-515.182 -834.88 1695
-511.129 -834.88 1695
-505.58 -832.418 1690
-500.648 -830.94 1687
-496.614 -830.94 1687
-491.996 -829.955 1685
-487.966 -829.955 1685
-483.937 -829.955 1685
-480.477 -830.94 1687
-476.443 -830.94 1687
-472.409 -830.94 1687
-468.375 -830.94 1687
-464.341 -830.94 1687
-460.307 -830.94 1687
-455.732 -829.955 1685
-451.702 -829.955 1685
-447.673 -829.955 1685
-443.644 -829.955 1685
-439.092 -828.97 1683
-435.068 -828.97 1683
-431.556 -829.955 1685
-427.526 -829.955 1685
-424.502 -831.925 1689
-420.712 -832.418 1690
-416.671 -832.418 1690
-412.63 -832.418 1690
-408.588 -832.418 1690
-404.547 -832.418 1690
-400.506 -832.418 1690
-395.761 -830.94 1687
-391.262 -829.955 1685
-387.233 -829.955 1685
-383.203 -829.955 1685
-379.174 -829.955 1685
-375.145 -829.955 1685
-372.217 -832.418 1690
-368.611 -833.403 1692
-365.211 -834.88 1695
-361.158 -834.88 1695
-357.948 -836.851 1699
-354.51 -838.328 1702
-351.881 -841.776 1709
-347.794 -841.776 1709
-343.707 -841.776 1709
-340.018 -842.761 1711
-335.927 -842.761 1711
-331.835 -842.761 1711
-328.51 -844.731 1715
-325.733 -848.179 1722
-322.175 -849.657 1725
-318.05 -849.657 1725
-314.289 -850.642 1727
-310.16 -850.642 1727
-306.384 -851.627 1729
-302.25 -851.627 1729
-298.632 -853.105 1732
-294.491 -853.105 1732
-290.349 -853.105 1732
-286.207 -853.105 1732
-282.065 -853.105 1732
-277.763 -852.612 1731
-273.624 -852.612 1731
1772.21 -1985 4030
1781.84 -1985 4030
1791.48 -1985 4030
1805.14 -1989.43 4039
1828.28 -2004.21 4069
1842.52 -2009.13 4079
1852.28 -2009.13 4079
1866.6 -2014.06 4089
1876.37 -2014.06 4089
1886.15 -2014.06 4089
2993.13 -1989.43 4039
3002.79 -1989.43 4039
3012.45 -1989.43 4039
3022.11 -1989.43 4039
3031.76 -1989.43 4039
3012.81 -1970.71 4001
3022.38 -1970.71 4001
3003.15 -1951.99 3963
2970.05 -1924.41 3907
2972.53 -1919.98 3898
2981.85 -1919.98 3898
-2328.2 -1747.42 3565
-2324.23 -1750.85 3572
-2315.69 -1750.85 3572
-2317.48 -1758.69 3588
-2313.41 -1762.12 3595
-2309.94 -1766.04 3603
-2301.32 -1766.04 3603
-2292.71 -1766.04 3603
-601.627 -844.054 1722
-597.509 -844.054 1722
-593.391 -844.054 1722
-589.274 -844.054 1722
-583.797 -842.094 1718
-575.639 -836.212 1706
-571.56 -836.212 1706
-566.815 -835.231 1704
-562.74 -835.231 1704
-558.665 -835.231 1704
-554.59 -835.231 1704
-550.516 -835.231 1704
-546.441 -835.231 1704
-541.73 -834.251 1702
-537.66 -834.251 1702
-533.276 -833.761 1701
-527.964 -831.8 1697
-523.906 -831.8 1697
-519.848 -831.8 1697
-515.79 -831.8 1697
-511.129 -830.82 1695
-507.075 -830.82 1695
-501.242 -827.879 1689
-497.203 -827.879 1689
-492.58 -826.899 1687
-488.546 -826.899 1687
-484.512 -826.899 1687
-481.901 -829.349 1692
-477.855 -829.349 1692
-473.809 -829.349 1692
-469.763 -829.349 1692
-465.717 -829.349 1692
-461.125 -828.369 1690
-456.814 -827.879 1689
-452.238 -826.899 1687
-448.204 -826.899 1687
-444.17 -826.899 1687
-439.614 -825.918 1685
-435.585 -825.918 1685
-432.58 -827.879 1689
-428.541 -827.879 1689
-424.502 -827.879 1689
-421.21 -829.349 1692
-417.164 -829.349 1692
-413.118 -829.349 1692
-409.072 -829.349 1692
-405.026 -829.349 1692
-400.98 -829.349 1692
-396.464 -828.369 1690
-391.727 -826.899 1687
-387.692 -826.899 1687
-383.658 -826.899 1687
-380.299 -828.369 1690
-376.258 -828.369 1690
-372.657 -829.349 1692
-369.047 -830.33 1694
-365.211 -830.82 1695
-361.158 -830.82 1695
-358.369 -833.761 1701
-354.51 -834.251 1702
-351.881 -837.682 1709
-347.794 -837.682 1709
-343.707 -837.682 1709
-340.018 -838.663 1711
-335.927 -838.663 1711
-331.835 -838.663 1711
-328.127 -839.643 1713
-325.355 -843.074 1720
-321.802 -844.544 1723
-317.682 -844.544 1723
-313.925 -845.525 1725
-309.8 -845.525 1725
-306.03 -846.505 1727
-301.9 -846.505 1727
-298.46 -848.466 1731
-294.491 -848.956 1732
-290.349 -848.956 1732
-286.207 -848.956 1732
-282.065 -848.956 1732
-277.924 -848.956 1732
-273.782 -848.956 1732
1772.21 -1975.34 4030
1781.84 -1975.34 4030
1791.48 -1975.34 4030
1805.14 -1979.75 4039
1828.28 -1994.46 4069
1842.52 -1999.36 4079
1852.28 -1999.36 4079
1866.6 -2004.26 4089
1876.37 -2004.26 4089
1886.15 -2004.26 4089
1925.27 -2004.26 4089
1935.04 -2004.26 4089
1944.82 -2004.26 4089
1954.6 -2004.26 4089
2993.13 -1979.75 4039
3002.79 -1979.75 4039
3012.45 -1979.75 4039
3022.11 -1979.75 4039
3031.76 -1979.75 4039
3012.81 -1961.13 4001
3022.38 -1961.13 4001
3003.15 -1942.5 3963
2970.05 -1915.05 3907
2972.53 -1910.64 3898
2981.85 -1910.64 3898
-2322.98 -1734.98 3557
-2324.23 -1742.29 3572
-2315.69 -1742.29 3572
-2322.01 -1753.51 3595
-2313.41 -1753.51 3595
-2304.81 -1753.51 3595
-2296.21 -1753.51 3595
-601.627 -839.929 1722
-597.509 -839.929 1722
-593.391 -839.929 1722
-589.274 -839.929 1722
-583.797 -837.978 1718
-575.639 -832.125 1706
-571.56 -832.125 1706
-566.815 -831.149 1704
-562.74 -831.149 1704
-558.665 -831.149 1704
-555.241 -832.125 1706
-551.162 -832.125 1706
-547.082 -832.125 1706
-543.003 -832.125 1706
-538.923 -832.125 1706
-533.276 -829.686 1701
-528.586 -828.711 1699
-523.906 -827.735 1697
-519.848 -827.735 1697
-515.79 -827.735 1697
-511.732 -827.735 1697
-507.075 -826.76 1695
-501.242 -823.833 1689
-497.203 -823.833 1689
-492.58 -822.857 1687
-488.546 -822.857 1687
-485.086 -823.833 1689
-481.901 -825.296 1692
-477.855 -825.296 1692
-473.809 -825.296 1692
-469.763 -825.296 1692
-465.717 -825.296 1692
-461.125 -824.321 1690
-457.084 -824.321 1690
-453.043 -824.321 1690
-449.001 -824.321 1690
-444.96 -824.321 1690
-440.919 -824.321 1690
-436.619 -823.833 1689
-432.836 -824.321 1690
-428.795 -824.321 1690
-425.256 -825.296 1692
-421.957 -826.76 1695
-417.904 -826.76 1695
-413.85 -826.76 1695
-409.797 -826.76 1695
-405.744 -826.76 1695
-401.691 -826.76 1695
-397.403 -826.272 1694
-392.888 -825.296 1692
-388.841 -825.296 1692
-384.795 -825.296 1692
-380.749 -825.296 1692
-376.703 -825.296 1692
-373.098 -826.272 1694
-369.047 -826.272 1694
-365.211 -826.76 1695
-361.158 -826.76 1695
-358.369 -829.686 1701
-354.51 -830.174 1702
-351.675 -833.101 1708
-347.591 -833.101 1708
-343.707 -833.588 1709
-339.621 -833.588 1709
-335.534 -833.588 1709
-331.447 -833.588 1709
-327.744 -834.564 1711
-324.976 -837.978 1718
-321.802 -840.417 1723
-317.682 -840.417 1723
-313.561 -840.417 1723
-309.441 -840.417 1723
-305.321 -840.417 1723
-301.201 -840.417 1723
-298.115 -843.344 1729
-294.321 -844.319 1731
-290.349 -844.807 1732
-286.207 -844.807 1732
-282.065 -844.807 1732
-277.924 -844.807 1732
-273.782 -844.807 1732
1763.41 -1955.93 4010
1781.84 -1965.69 4030
1791.48 -1965.69 4030
1805.14 -1970.08 4039
1823.78 -1979.83 4059
1842.52 -1989.59 4079
1852.28 -1989.59 4079
1866.6 -1994.47 4089
1876.37 -1994.47 4089
1886.15 -1994.47 4089
1925.27 -1994.47 4089
1935.04 -1994.47 4089
1944.82 -1994.47 4089
1954.6 -1994.47 4089
2993.13 -1970.08 4039
3002.79 -1970.08 4039
3012.45 -1970.08 4039
3015.37 -1965.69 4030
3025.01 -1965.69 4030
3012.81 -1951.54 4001
3022.38 -1951.54 4001
2995.57 -1928.13 3953
2970.05 -1905.69 3907
2972.53 -1901.3 3898
2981.85 -1901.3 3898
-2400.92 -1715.29 3534
-2392.47 -1715.29 3534
-2394.13 -1722.57 3549
-2385.65 -1722.57 3549
-2377.16 -1722.57 3549
-2368.67 -1722.57 3549
-2317.75 -1722.57 3549
-2334.64 -1741.5 3588
-2326.06 -1741.5 3588
-2327.17 -1748.78 3603
-2328.85 -1756.55 3619
-2320.2 -1756.55 3619
-2311.54 -1756.55 3619
-601.627 -835.804 1722
-597.509 -835.804 1722
-593.391 -835.804 1722
-589.274 -835.804 1722
-583.797 -833.863 1718
-575.639 -828.038 1706
-571.56 -828.038 1706
-567.48 -828.038 1706
-562.74 -827.068 1704
-558.665 -827.068 1704
-555.241 -828.038 1706
-551.162 -828.038 1706
-547.082 -828.038 1706
-543.003 -828.038 1706
-538.923 -828.038 1706
-533.276 -825.611 1701
-528.586 -824.641 1699
-524.523 -824.641 1699
-519.848 -823.67 1697
-515.79 -823.67 1697
-511.732 -823.67 1697
-507.075 -822.699 1695
-501.242 -819.787 1689
-497.203 -819.787 1689
-492.58 -818.816 1687
-488.546 -818.816 1687
-485.086 -819.787 1689
-481.901 -821.243 1692
-477.855 -821.243 1692
-473.809 -821.243 1692
-469.763 -821.243 1692
-465.717 -821.243 1692
-461.671 -821.243 1692
-457.625 -821.243 1692
-453.579 -821.243 1692
-449.533 -821.243 1692
-445.487 -821.243 1692
-441.441 -821.243 1692
-436.878 -820.272 1690
-433.861 -822.214 1694
-429.81 -822.214 1694
-426.01 -822.699 1695
-422.953 -824.641 1699
-419.383 -825.611 1701
-415.315 -825.611 1701
-411.248 -825.611 1701
-406.701 -824.641 1699
-402.639 -824.641 1699
-398.107 -823.67 1697
-394.049 -823.67 1697
-389.991 -823.67 1697
-385.933 -823.67 1697
-381.874 -823.67 1697
-377.371 -822.699 1695
-374.199 -824.641 1699
-370.136 -824.641 1699
-366.504 -825.611 1701
-362.437 -825.611 1701
-358.58 -826.097 1702
-355.759 -829.009 1708
-351.675 -829.009 1708
-347.591 -829.009 1708
-343.707 -829.494 1709
-339.621 -829.494 1709
-335.534 -829.494 1709
-331.447 -829.494 1709
-327.744 -830.465 1711
-324.976 -833.863 1718
-321.802 -836.289 1723
-317.682 -836.289 1723
-313.561 -836.289 1723
-309.441 -836.289 1723
-305.321 -836.289 1723
-301.201 -836.289 1723
-298.115 -839.202 1729
-294.491 -840.658 1732
-291.355 -843.57 1738
-287.199 -843.57 1738
-283.042 -843.57 1738
-278.886 -843.57 1738
-274.73 -843.57 1738
1763.41 -1946.33 4010
1785.82 -1960.4 4039
1795.48 -1960.4 4039
1805.14 -1960.4 4039
1823.78 -1970.11 4059
1842.52 -1979.82 4079
1852.28 -1979.82 4079
1862.03 -1979.82 4079
1925.27 -1984.67 4089
1935.04 -1984.67 4089
1944.82 -1984.67 4089
1954.6 -1984.67 4089
1964.38 -1984.67 4089
1974.16 -1984.67 4089
3015.36 -1974.96 4069
3025.09 -1974.96 4069
3034.82 -1974.96 4069
3015.37 -1956.03 4030
3017.5 -1951.18 4020
3019.59 -1946.33 4010
3029.17 -1946.33 4010
3003.15 -1923.51 3963
2976.9 -1900.7 3916
2979.4 -1896.33 3907
2988.74 -1896.33 3907
-2348.72 -1658.05 3433
-2359.6 -1671.57 3461
-2400.92 -1706.83 3534
-2392.47 -1706.83 3534
-2394.13 -1714.07 3549
-2385.65 -1714.07 3549
-2377.16 -1714.07 3549
-2368.67 -1714.07 3549
-2360.19 -1714.07 3549
-2317.75 -1714.07 3549
-2344.4 -1740.15 3603
-2335.79 -1740.15 3603
-2337.51 -1747.88 3619
-2328.85 -1747.88 3619
-2320.2 -1747.88 3619
-2311.54 -1747.88 3619
-597.509 -831.679 1722
-593.391 -831.679 1722
-589.274 -831.679 1722
-583.797 -829.747 1718
-575.639 -823.952 1706
-571.56 -823.952 1706
-567.48 -823.952 1706
-562.74 -822.986 1704
-558.665 -822.986 1704
-555.241 -823.952 1706
-551.162 -823.952 1706
-547.082 -823.952 1706
-543.003 -823.952 1706
-538.923 -823.952 1706
-533.276 -821.537 1701
-528.586 -820.571 1699
-524.523 -820.571 1699
-519.848 -819.605 1697
-515.79 -819.605 1697
-511.732 -819.605 1697
-507.075 -818.639 1695
-501.242 -815.741 1689
-497.203 -815.741 1689
-492.58 -814.775 1687
-488.546 -814.775 1687
-485.086 -815.741 1689
-481.901 -817.19 1692
-477.855 -817.19 1692
-473.809 -817.19 1692
-469.763 -817.19 1692
-465.717 -817.19 1692
-461.671 -817.19 1692
-457.625 -817.19 1692
-453.579 -817.19 1692
-449.533 -817.19 1692
-445.487 -817.19 1692
-441.441 -817.19 1692
-436.878 -816.224 1690
-433.861 -818.156 1694
-429.81 -818.156 1694
-426.01 -818.639 1695
-422.953 -820.571 1699
-419.383 -821.537 1701
-415.315 -821.537 1701
-411.248 -821.537 1701
-406.701 -820.571 1699
-402.639 -820.571 1699
-398.107 -819.605 1697
-394.049 -819.605 1697
-389.991 -819.605 1697
-385.933 -819.605 1697
-381.874 -819.605 1697
-377.371 -818.639 1695
-374.199 -820.571 1699
-370.136 -820.571 1699
-366.504 -821.537 1701
-362.437 -821.537 1701
-358.58 -822.02 1702
-355.759 -824.917 1708
-351.675 -824.917 1708
-347.591 -824.917 1708
-343.707 -825.4 1709
-339.621 -825.4 1709
-335.534 -825.4 1709
-331.447 -825.4 1709
-327.361 -825.4 1709
-324.598 -828.781 1716
-321.615 -831.679 1722
-317.497 -831.679 1722
-313.561 -832.162 1723
-309.441 -832.162 1723
-305.321 -832.162 1723
-301.201 -832.162 1723
-297.77 -834.094 1727
-294.491 -836.509 1732
-291.355 -839.407 1738
-287.199 -839.407 1738
-283.042 -839.407 1738
-278.886 -839.407 1738
-274.73 -839.407 1738
1759.45 -1932.37 4001
1794.66 -1960.39 4059
1804.37 -1960.39 4059
1814.08 -1960.39 4059
1837.26 -1974.88 4089
1847.04 -1974.88 4089
1856.82 -1974.88 4089
1862.03 -1970.05 4079
1925.27 -1974.88 4089
1935.04 -1974.88 4089
1944.82 -1974.88 4089
1954.6 -1974.88 4089
1964.38 -1974.88 4089
1974.16 -1974.88 4089
1974.23 -1965.22 4069
3030.18 -1974.88 4089
3039.96 -1974.88 4089
3049.74 -1974.88 4089
3052.04 -1970.05 4079
3046.78 -1960.39 4059
3027.12 -1941.55 4020
3036.73 -1941.55 4020
3024.37 -1927.54 3991
2991.34 -1900.5 3935
2986.26 -1891.32 3916
2995.62 -1891.32 3916
-2348.72 -1649.82 3433
-2359.6 -1663.28 3461
-2400.92 -1698.36 3534
-2392.47 -1698.36 3534
-2394.13 -1705.57 3549
-2385.65 -1705.57 3549
-2377.16 -1705.57 3549
-2368.67 -1705.57 3549
-2360.19 -1705.57 3549
-2313.18 -1702.2 3542
-2344.4 -1731.52 3603
-2335.79 -1731.52 3603
-2337.51 -1739.21 3619
-2328.85 -1739.21 3619
-2320.2 -1739.21 3619
-2311.54 -1739.21 3619
-596.121 -825.632 1718
-592.013 -825.632 1718
-587.905 -825.632 1718
-582.777 -824.19 1715
-576.314 -820.826 1708
-572.23 -820.826 1708
-567.48 -819.865 1706
-563.401 -819.865 1706
-559.321 -819.865 1706
-555.241 -819.865 1706
-551.162 -819.865 1706
-547.082 -819.865 1706
-543.003 -819.865 1706
-538.923 -819.865 1706
-533.276 -817.462 1701
-528.586 -816.501 1699
-524.523 -816.501 1699
-519.848 -815.54 1697
-515.79 -815.54 1697
-511.732 -815.54 1697
-506.178 -813.137 1692
-501.242 -811.695 1689
-497.203 -811.695 1689
-492.58 -810.734 1687
-488.546 -810.734 1687
-485.086 -811.695 1689
-481.901 -813.137 1692
-477.855 -813.137 1692
-473.809 -813.137 1692
-469.763 -813.137 1692
-465.717 -813.137 1692
-461.671 -813.137 1692
-457.625 -813.137 1692
-453.579 -813.137 1692
-450.064 -814.098 1694
-446.013 -814.098 1694
-441.962 -814.098 1694
-437.912 -814.098 1694
-434.117 -814.578 1695
-430.064 -814.578 1695
-426.513 -815.54 1697
-423.7 -817.942 1702
-419.63 -817.942 1702
-415.56 -817.942 1702
-411.49 -817.942 1702
-407.18 -817.462 1701
-403.113 -817.462 1701
-398.576 -816.501 1699
-394.977 -817.462 1701
-390.91 -817.462 1701
-386.842 -817.462 1701
-382.775 -817.462 1701
-378.262 -816.501 1699
-374.639 -817.462 1701
-370.79 -817.942 1702
-366.72 -817.942 1702
-362.65 -817.942 1702
-359.001 -818.904 1704
-355.759 -820.826 1708
-351.881 -821.307 1709
-347.794 -821.307 1709
-344.512 -823.229 1713
-340.416 -823.229 1713
-336.319 -823.229 1713
-331.447 -821.307 1709
-328.127 -823.229 1713
-324.976 -825.632 1718
-321.615 -827.554 1722
-317.497 -827.554 1722
-313.561 -828.035 1723
-309.441 -828.035 1723
-306.03 -829.957 1727
-301.9 -829.957 1727
-298.632 -832.36 1732
-295.511 -835.243 1738
-291.858 -836.685 1741
-287.694 -836.685 1741
-283.857 -837.646 1743
-280.651 -840.53 1749
-276.469 -840.53 1749
-272.287 -840.53 1749
1759.45 -1922.79 4001
1794.66 -1950.66 4059
1804.37 -1950.66 4059
1814.08 -1950.66 4059
1837.26 -1965.08 4089
1847.04 -1965.08 4089
1856.82 -1965.08 4089
1862.03 -1960.27 4079
1925.27 -1965.08 4089
1935.04 -1965.08 4089
1944.82 -1965.08 4089
1954.6 -1965.08 4089
1964.38 -1965.08 4089
1974.16 -1965.08 4089
1979.08 -1960.27 4079
3030.18 -1965.08 4089
3039.96 -1965.08 4089
3049.74 -1965.08 4089
3052.04 -1960.27 4079
3046.78 -1950.66 4059
3027.12 -1931.92 4020
3036.73 -1931.92 4020
3024.37 -1917.98 3991
2991.34 -1891.07 3935
2986.26 -1881.94 3916
2995.62 -1881.94 3916
-2348.72 -1641.6 3433
-2374.6 -1665.51 3483
-2375.78 -1672.2 3497
-2367.42 -1672.2 3497
-2384.02 -1689.89 3534
-2385.65 -1697.07 3549
-2382.52 -1700.89 3557
-2374.01 -1700.89 3557
-2365.51 -1700.89 3557
-2332.77 -1708.07 3572
-2344.4 -1722.89 3603
-2335.79 -1722.89 3603
-2337.51 -1730.54 3619
-2328.85 -1730.54 3619
-2320.2 -1730.54 3619
-2311.54 -1730.54 3619
-588.912 -817.213 1709
-584.825 -817.213 1709
-580.738 -817.213 1709
-576.651 -817.213 1709
-572.565 -817.213 1709
-568.145 -816.734 1708
-563.401 -815.778 1706
-559.977 -816.734 1708
-556.218 -817.213 1709
-552.131 -817.213 1709
-548.044 -817.213 1709
-543.639 -816.734 1708
-539.555 -816.734 1708
-533.59 -813.865 1702
-529.208 -813.387 1701
-524.523 -812.431 1699
-520.461 -812.431 1699
-516.398 -812.431 1699
-511.732 -811.474 1697
-506.776 -810.04 1694
-501.242 -807.649 1689
-497.203 -807.649 1689
-492.58 -806.693 1687
-488.546 -806.693 1687
-485.948 -809.083 1692
-482.471 -810.04 1694
-478.42 -810.04 1694
-474.369 -810.04 1694
-470.318 -810.04 1694
-466.268 -810.04 1694
-462.217 -810.04 1694
-458.166 -810.04 1694
-454.383 -810.518 1695
-450.33 -810.518 1695
-446.277 -810.518 1695
-442.223 -810.518 1695
-438.17 -810.518 1695
-434.629 -811.474 1697
-430.571 -811.474 1697
-426.513 -811.474 1697
-423.7 -813.865 1702
-420.123 -814.822 1704
-416.048 -814.822 1704
-411.973 -814.822 1704
-407.42 -813.865 1702
-403.35 -813.865 1702
-399.045 -813.387 1701
-395.21 -813.865 1702
-391.14 -813.865 1702
-387.07 -813.865 1702
-383 -813.865 1702
-378.707 -813.387 1701
-374.86 -813.865 1702
-371.225 -814.822 1704
-367.151 -814.822 1704
-363.076 -814.822 1704
-359.844 -816.734 1708
-355.968 -817.213 1709
-352.705 -819.125 1713
-348.608 -819.125 1713
-344.914 -820.082 1715
-340.813 -820.082 1715
-336.712 -820.082 1715
-332.611 -820.082 1715
-328.51 -820.082 1715
-324.976 -821.516 1718
-321.802 -823.907 1723
-317.682 -823.907 1723
-313.925 -824.864 1725
-310.16 -825.82 1727
-306.384 -826.776 1729
-302.25 -826.776 1729
-299.322 -830.123 1736
-296.021 -832.514 1741
-292.193 -833.471 1743
-288.025 -833.471 1743
-284.508 -835.383 1747
-280.651 -836.34 1749
-276.469 -836.34 1749
-272.287 -836.34 1749
1794.66 -1940.94 4059
1804.37 -1940.94 4059
1814.08 -1940.94 4059
1837.26 -1955.29 4089
1847.04 -1955.29 4089
1856.82 -1955.29 4089
1925.27 -1955.29 4089
1935.04 -1955.29 4089
1944.82 -1955.29 4089
1949.82 -1950.5 4079
1959.57 -1950.5 4079
1969.33 -1950.5 4079
1979.08 -1950.5 4079
3030.18 -1955.29 4089
3039.96 -1955.29 4089
3049.74 -1955.29 4089
3052.04 -1950.5 4079
3046.78 -1940.94 4059
3027.12 -1922.29 4020
3036.73 -1922.29 4020
3038.76 -1917.51 4010
2991.34 -1881.65 3935
2986.26 -1872.56 3916
2995.62 -1872.56 3916
-2348.72 -1633.37 3433
-2374.6 -1657.16 3483
-2375.78 -1663.82 3497
-2367.42 -1663.82 3497
-2384.02 -1681.43 3534
-2385.65 -1688.57 3549
-2382.52 -1692.37 3557
-2374.01 -1692.37 3557
-2365.51 -1692.37 3557
-2332.48 -1674.77 3520
-2324.07 -1674.77 3520
-2331.48 -1692.37 3557
-2332.77 -1699.51 3572
-2344.4 -1714.26 3603
-2335.79 -1714.26 3603
-2337.51 -1721.87 3619
-2328.85 -1721.87 3619
-2320.2 -1721.87 3619
-2311.54 -1721.87 3619
-588.912 -813.119 1709
-584.825 -813.119 1709
-580.738 -813.119 1709
-576.651 -813.119 1709
-572.565 -813.119 1709
-568.478 -813.119 1709
-564.061 -812.643 1708
-560.305 -813.119 1709
-556.218 -813.119 1709
-552.131 -813.119 1709
-548.044 -813.119 1709
-543.958 -813.119 1709
-539.871 -813.119 1709
-534.844 -811.691 1706
-529.52 -809.788 1702
-525.45 -809.788 1702
-521.073 -809.312 1701
-517.006 -809.312 1701
-512.938 -809.312 1701
-507.674 -807.409 1697
-502.725 -805.982 1694
-498.675 -805.982 1694
-493.164 -803.603 1689
-489.994 -805.03 1692
-486.522 -805.982 1694
-482.471 -805.982 1694
-478.42 -805.982 1694
-474.649 -806.458 1695
-470.596 -806.458 1695
-466.543 -806.458 1695
-462.49 -806.458 1695
-458.436 -806.458 1695
-454.919 -807.409 1697
-450.861 -807.409 1697
-446.803 -807.409 1697
-442.745 -807.409 1697
-438.687 -807.409 1697
-434.629 -807.409 1697
-430.571 -807.409 1697
-427.518 -809.312 1701
-424.197 -810.74 1704
-420.616 -811.691 1706
-416.536 -811.691 1706
-412.457 -811.691 1706
-408.377 -811.691 1706
-404.298 -811.691 1706
-399.749 -810.74 1704
-395.674 -810.74 1704
-391.599 -810.74 1704
-387.524 -810.74 1704
-383.45 -810.74 1704
-379.375 -810.74 1704
-375.3 -810.74 1704
-371.225 -810.74 1704
-367.151 -810.74 1704
-363.076 -810.74 1704
-359.844 -812.643 1708
-355.968 -813.119 1709
-352.705 -815.022 1713
-348.608 -815.022 1713
-344.914 -815.973 1715
-340.813 -815.973 1715
-336.712 -815.973 1715
-332.611 -815.973 1715
-328.51 -815.973 1715
-324.976 -817.401 1718
-321.802 -819.78 1723
-317.682 -819.78 1723
-313.925 -820.731 1725
-310.16 -821.683 1727
-306.384 -822.634 1729
-302.25 -822.634 1729
-299.322 -825.965 1736
-296.021 -828.344 1741
-292.193 -829.295 1743
-288.025 -829.295 1743
-284.834 -832.15 1749
-280.651 -832.15 1749
-276.469 -832.15 1749
-272.287 -832.15 1749
-268.104 -832.15 1749
1794.66 -1931.22 4059
1804.37 -1931.22 4059
1814.08 -1931.22 4059
1832.77 -1940.73 4079
1847.04 -1945.49 4089
1856.82 -1945.49 4089
1866.6 -1945.49 4089
1876.37 -1945.49 4089
1886.15 -1945.49 4089
1895.93 -1945.49 4089
1905.71 -1945.49 4089
1915.49 -1945.49 4089
1925.27 -1945.49 4089
1935.04 -1945.49 4089
1944.82 -1945.49 4089
1949.82 -1940.73 4079
1959.57 -1940.73 4079
1969.33 -1940.73 4079
1979.08 -1940.73 4079
3017.5 -1912.66 4020
3027.12 -1912.66 4020
3036.73 -1912.66 4020
3038.76 -1907.9 4010
2991.34 -1872.22 3935
3000.75 -1872.22 3935
3010.16 -1872.22 3935
-2374.6 -1648.82 3483
-2375.78 -1655.45 3497
-2367.42 -1655.45 3497
-2384.02 -1672.96 3534
-2385.65 -1680.06 3549
-2382.52 -1683.85 3557
-2374.01 -1683.85 3557
-2365.51 -1683.85 3557
-2332.48 -1666.34 3520
-2333.31 -1672.96 3534
-2324.86 -1672.96 3534
-2331.48 -1683.85 3557
-2332.77 -1690.95 3572
-2344.4 -1705.63 3603
-2335.79 -1705.63 3603
-2337.51 -1713.2 3619
-2328.85 -1713.2 3619
-2320.2 -1713.2 3619
-2311.54 -1713.2 3619
-588.912 -809.025 1709
-584.825 -809.025 1709
-580.738 -809.025 1709
-576.651 -809.025 1709
-572.565 -809.025 1709
-568.478 -809.025 1709
-564.061 -808.551 1708
-561.616 -810.918 1713
-557.52 -810.918 1713
-553.423 -810.918 1713
-549.327 -810.918 1713
-545.231 -810.918 1713
-541.134 -810.918 1713
-535.784 -809.025 1709
-529.52 -805.711 1702
-525.45 -805.711 1702
-521.073 -805.238 1701
-517.006 -805.238 1701
-512.938 -805.238 1701
-507.674 -803.344 1697
-502.725 -801.924 1694
-498.675 -801.924 1694
-493.164 -799.557 1689
-489.994 -800.977 1692
-486.522 -801.924 1694
-482.471 -801.924 1694
-478.42 -801.924 1694
-474.649 -802.397 1695
-470.596 -802.397 1695
-466.543 -802.397 1695
-462.49 -802.397 1695
-458.436 -802.397 1695
-454.919 -803.344 1697
-450.861 -803.344 1697
-446.803 -803.344 1697
-442.745 -803.344 1697
-438.687 -803.344 1697
-434.629 -803.344 1697
-430.571 -803.344 1697
-427.518 -805.238 1701
-424.197 -806.658 1704
-420.616 -807.605 1706
-416.536 -807.605 1706
-412.457 -807.605 1706
-408.377 -807.605 1706
-404.298 -807.605 1706
-399.749 -806.658 1704
-395.674 -806.658 1704
-391.599 -806.658 1704
-387.524 -806.658 1704
-383.45 -806.658 1704
-379.375 -806.658 1704
-375.3 -806.658 1704
-371.225 -806.658 1704
-367.151 -806.658 1704
-363.076 -806.658 1704
-359.844 -808.551 1708
-355.968 -809.025 1709
-352.705 -810.918 1713
-348.608 -810.918 1713
-344.914 -811.865 1715
-340.813 -811.865 1715
-336.712 -811.865 1715
-332.611 -811.865 1715
-328.51 -811.865 1715
-324.976 -813.285 1718
-321.802 -815.652 1723
-317.682 -815.652 1723
-313.925 -816.599 1725
-310.16 -817.546 1727
-306.384 -818.493 1729
-302.25 -818.493 1729
-299.322 -821.806 1736
-296.021 -824.173 1741
-292.193 -825.12 1743
-288.025 -825.12 1743
-284.834 -827.96 1749
-280.651 -827.96 1749
-276.469 -827.96 1749
-272.287 -827.96 1749
-268.104 -827.96 1749
1794.66 -1921.49 4059
1804.37 -1921.49 4059
1814.08 -1921.49 4059
1832.77 -1930.96 4079
1847.04 -1935.69 4089
1856.82 -1935.69 4089
1866.6 -1935.69 4089
1876.37 -1935.69 4089
1886.15 -1935.69 4089
1895.93 -1935.69 4089
1905.71 -1935.69 4089
1915.49 -1935.69 4089
1925.27 -1935.69 4089
1935.04 -1935.69 4089
1940.06 -1930.96 4079
1945.04 -1926.23 4069
1954.77 -1926.23 4069
1964.5 -1926.23 4069
1969.38 -1921.49 4059
3017.5 -1903.03 4020
3027.12 -1903.03 4020
3036.73 -1903.03 4020
3038.76 -1898.3 4010
3005.02 -1871.31 3953
3014.47 -1871.31 3953
3023.93 -1871.31 3953
-2374.6 -1640.48 3483
-2371.02 -1643.77 3490
-2362.68 -1643.77 3490
-2369.17 -1654.14 3512
-2380.94 -1668.27 3542
-2377.16 -1671.56 3549
-2368.67 -1671.56 3549
-2360.19 -1671.56 3549
-2341.76 -1664.5 3534
-2333.31 -1664.5 3534
-2324.86 -1664.5 3534
-2331.48 -1675.33 3557
-2332.77 -1682.39 3572
-2324.23 -1682.39 3572
-2315.69 -1682.39 3572
-2332.34 -1700.76 3611
-2323.7 -1700.76 3611
-2315.07 -1700.76 3611
-2306.43 -1700.76 3611
-588.912 -804.931 1709
-584.825 -804.931 1709
-580.738 -804.931 1709
-576.651 -804.931 1709
-572.565 -804.931 1709
-568.478 -804.931 1709
-564.061 -804.46 1708
-561.616 -806.815 1713
-557.52 -806.815 1713
-553.423 -806.815 1713
-549.327 -806.815 1713
-545.231 -806.815 1713
-541.134 -806.815 1713
-535.784 -804.931 1709
-530.764 -803.518 1706
-526.684 -803.518 1706
-522.605 -803.518 1706
-518.525 -803.518 1706
-513.843 -802.576 1704
-508.87 -801.163 1701
-503.616 -799.279 1697
-499.558 -799.279 1697
-494.624 -797.866 1694
-491.442 -799.279 1697
-488.532 -801.163 1701
-484.465 -801.163 1701
-480.397 -801.163 1701
-477.17 -802.576 1704
-473.095 -802.576 1704
-469.02 -802.576 1704
-464.945 -802.576 1704
-460.059 -801.163 1701
-455.992 -801.163 1701
-451.924 -801.163 1701
-447.856 -801.163 1701
-443.789 -801.163 1701
-439.721 -801.163 1701
-435.653 -801.163 1701
-431.586 -801.163 1701
-428.272 -802.576 1704
-425.193 -804.46 1708
-421.109 -804.46 1708
-417.025 -804.46 1708
-412.94 -804.46 1708
-408.377 -803.518 1706
-404.298 -803.518 1706
-400.218 -803.518 1706
-396.603 -804.46 1708
-392.518 -804.46 1708
-388.434 -804.46 1708
-384.35 -804.46 1708
-379.375 -802.576 1704
-375.741 -803.518 1706
-371.661 -803.518 1706
-367.581 -803.518 1706
-363.928 -804.46 1708
-360.054 -804.931 1709
-356.801 -806.815 1713
-353.116 -807.757 1715
-349.015 -807.757 1715
-344.914 -807.757 1715
-340.813 -807.757 1715
-336.712 -807.757 1715
-332.611 -807.757 1715
-328.701 -808.228 1716
-325.355 -810.112 1720
-321.802 -811.525 1723
-317.682 -811.525 1723
-313.925 -812.467 1725
-310.16 -813.409 1727
-306.384 -814.351 1729
-302.25 -814.351 1729
-299.322 -817.648 1736
-296.021 -820.003 1741
-292.193 -820.945 1743
-288.025 -820.945 1743
-284.834 -823.771 1749
-280.651 -823.771 1749
-276.469 -823.771 1749
-272.287 -823.771 1749
-268.104 -823.771 1749
1759.45 -1884.45 4001
1794.66 -1911.77 4059
1804.37 -1911.77 4059
1814.08 -1911.77 4059
1832.77 -1921.19 4079
1847.04 -1925.9 4089
1856.82 -1925.9 4089
1866.6 -1925.9 4089
1876.37 -1925.9 4089
1886.15 -1925.9 4089
1895.93 -1925.9 4089
1905.71 -1925.9 4089
1915.49 -1925.9 4089
1925.27 -1925.9 4089
1935.04 -1925.9 4089
1940.06 -1921.19 4079
1945.04 -1916.48 4069
1954.77 -1916.48 4069
1964.5 -1916.48 4069
1969.38 -1911.77 4059
3042.28 -1921.19 4079
3052.04 -1921.19 4079
3061.79 -1921.19 4079
3019.59 -1888.69 4010
3029.17 -1888.69 4010
3038.76 -1888.69 4010
3005.02 -1861.84 3953
3014.47 -1861.84 3953
3023.93 -1861.84 3953
-2356.08 -1625.1 3468
-2347.79 -1625.1 3468
-2354.33 -1635.41 3490
-2350.69 -1638.69 3497
-2347.69 -1642.44 3505
-2339.31 -1642.44 3505
-2340.9 -1649.47 3520
-2341.76 -1656.03 3534
-2333.31 -1656.03 3534
-2324.86 -1656.03 3534
-2331.48 -1666.81 3557
-2332.77 -1673.84 3572
-2339.2 -1684.62 3595
-2330.6 -1684.62 3595
-2327.17 -1688.36 3603
-2318.56 -1688.36 3603
-2309.94 -1688.36 3603
-2301.32 -1688.36 3603
-588.912 -800.837 1709
-584.825 -800.837 1709
-580.738 -800.837 1709
-576.651 -800.837 1709
-572.565 -800.837 1709
-568.478 -800.837 1709
-561.616 -802.711 1713
-559.798 -805.992 1720
-555.685 -805.992 1720
-551.572 -805.992 1720
-546.186 -804.117 1716
-542.082 -804.117 1716
-537.038 -802.711 1713
-531.697 -800.837 1709
-527.611 -800.837 1709
-523.524 -800.837 1709
-519.437 -800.837 1709
-514.446 -799.431 1706
-509.768 -798.494 1704
-504.803 -797.088 1701
-500.735 -797.088 1701
-496.084 -796.151 1699
-492.6 -797.088 1701
-489.394 -798.494 1704
-485.889 -799.431 1706
-481.809 -799.431 1706
-478.57 -800.837 1709
-474.483 -800.837 1709
-470.396 -800.837 1709
-466.31 -800.837 1709
-461.952 -800.368 1708
-456.796 -798.494 1704
-452.721 -798.494 1704
-448.646 -798.494 1704
-444.571 -798.494 1704
-440.497 -798.494 1704
-436.934 -799.431 1706
-432.854 -799.431 1706
-429.278 -800.368 1708
-425.442 -800.837 1709
-421.849 -801.774 1711
-417.757 -801.774 1711
-413.666 -801.774 1711
-409.095 -800.837 1709
-405.482 -801.774 1711
-401.391 -801.774 1711
-397.764 -802.711 1713
-393.668 -802.711 1713
-389.571 -802.711 1713
-385.025 -801.774 1711
-380.488 -800.837 1709
-376.401 -800.837 1709
-372.75 -801.774 1711
-368.659 -801.774 1711
-364.567 -801.774 1711
-360.476 -801.774 1711
-357.217 -803.648 1715
-353.322 -804.117 1716
-349.219 -804.117 1716
-345.115 -804.117 1716
-341.012 -804.117 1716
-336.908 -804.117 1716
-332.805 -804.117 1716
-329.084 -805.054 1718
-325.733 -806.929 1722
-321.802 -807.397 1723
-317.682 -807.397 1723
-313.925 -808.334 1725
-309.8 -808.334 1725
-306.03 -809.272 1727
-301.9 -809.272 1727
-298.977 -812.552 1734
-295.851 -815.363 1740
-291.858 -815.832 1741
-287.694 -815.832 1741
-284.508 -818.644 1747
-280.651 -819.581 1749
-276.469 -819.581 1749
-272.287 -819.581 1749
-267.798 -818.644 1747
1759.45 -1874.87 4001
1777.42 -1883.77 4020
1787.03 -1883.77 4020
1809.61 -1897.36 4049
1823.78 -1902.05 4059
1838.01 -1906.73 4069
1847.74 -1906.73 4069
1862.03 -1911.42 4079
1871.79 -1911.42 4079
1881.54 -1911.42 4079
1891.29 -1911.42 4079
1901.05 -1911.42 4079
1910.8 -1911.42 4079
1920.56 -1911.42 4079
1930.31 -1911.42 4079
1930.55 -1902.05 4059
1940.26 -1902.05 4059
1940.36 -1892.67 4039
1950.02 -1892.67 4039
1959.67 -1892.67 4039
3042.28 -1911.42 4079
3052.04 -1911.42 4079
3061.79 -1911.42 4079
3019.59 -1879.08 4010
3029.17 -1879.08 4010
3024.37 -1870.18 3991
3005.02 -1852.37 3953
3014.47 -1852.37 3953
3023.93 -1852.37 3953
-2346.57 -1610.27 3454
-2338.31 -1610.27 3454
-2344.89 -1620.53 3476
-2350.69 -1630.32 3497
-2347.69 -1634.05 3505
-2339.31 -1634.05 3505
-2350.21 -1647.57 3534
-2341.76 -1647.57 3534
-2348.5 -1658.29 3557
-2339.99 -1658.29 3557
-2356.39 -1676 3595
-2347.8 -1676 3595
-2344.4 -1679.73 3603
-2335.79 -1679.73 3603
-2327.17 -1679.73 3603
-2323.7 -1683.46 3611
-2315.07 -1683.46 3611
-2306.43 -1683.46 3611
-2292.71 -1679.73 3603
-560.449 -802.804 1722
-556.331 -802.804 1722
-552.213 -802.804 1722
-547.459 -801.871 1720
-543.346 -801.871 1720
-537.665 -799.54 1715
-532.942 -798.608 1713
-528.228 -797.675 1711
-524.137 -797.675 1711
-520.045 -797.675 1711
-515.35 -796.743 1709
-510.366 -795.344 1706
-505.693 -794.412 1704
-501.618 -794.412 1704
-496.96 -793.48 1702
-493.469 -794.412 1704
-490.543 -796.277 1708
-487.313 -797.675 1711
-483.221 -797.675 1711
-479.69 -798.608 1713
-475.594 -798.608 1713
-471.497 -798.608 1713
-467.401 -798.608 1713
-462.223 -796.743 1709
-457.868 -796.277 1708
-453.784 -796.277 1708
-449.699 -796.277 1708
-445.615 -796.277 1708
-441.531 -796.277 1708
-437.702 -796.743 1709
-433.616 -796.743 1709
-429.529 -796.743 1709
-425.94 -797.675 1711
-422.835 -799.54 1715
-418.734 -799.54 1715
-414.633 -799.54 1715
-410.053 -798.608 1713
-405.956 -798.608 1713
-401.86 -798.608 1713
-398.228 -799.54 1715
-394.127 -799.54 1715
-390.026 -799.54 1715
-385.475 -798.608 1713
-380.933 -797.675 1711
-376.842 -797.675 1711
-372.75 -797.675 1711
-368.659 -797.675 1711
-364.993 -798.608 1713
-361.318 -799.54 1715
-357.426 -800.006 1716
-353.322 -800.006 1716
-349.219 -800.006 1716
-345.115 -800.006 1716
-341.012 -800.006 1716
-336.908 -800.006 1716
-332.805 -800.006 1716
-329.084 -800.939 1718
-325.733 -802.804 1722
-321.802 -803.27 1723
-317.682 -803.27 1723
-313.925 -804.202 1725
-309.8 -804.202 1725
-306.03 -805.135 1727
-301.9 -805.135 1727
-298.977 -808.398 1734
-295.851 -811.195 1740
-291.858 -811.661 1741
-287.694 -811.661 1741
-284.508 -814.459 1747
-280.651 -815.391 1749
-276.469 -815.391 1749
-272.287 -815.391 1749
-267.798 -814.459 1747
1758.19 -1874.14 4020
1767.81 -1874.14 4020
1777.42 -1874.14 4020
1787.03 -1874.14 4020
1796.65 -1874.14 4020
1819.29 -1887.66 4049
1833.49 -1892.32 4059
1843.2 -1892.32 4059
1857.47 -1896.98 4069
1867.2 -1896.98 4069
1876.93 -1896.98 4069
1886.66 -1896.98 4069
1896.39 -1896.98 4069
1901.43 -1892.32 4059
1911.14 -1892.32 4059
1920.85 -1892.32 4059
1921.04 -1883 4039
1930.7 -1883 4039
1931.23 -1874.14 4020
1940.84 -1874.14 4020
1945.6 -1869.48 4010
3039.96 -1906.31 4089
3049.74 -1906.31 4089
3059.52 -1906.31 4089
3061.79 -1901.65 4079
3019.59 -1869.48 4010
3029.17 -1869.48 4010
2995.57 -1842.91 3953
3005.02 -1842.91 3953
3000.75 -1834.51 3935
3010.16 -1834.51 3935
-2375.78 -1621.94 3497
-2367.42 -1621.94 3497
-2359.06 -1621.94 3497
-2350.69 -1621.94 3497
-2367.11 -1639.1 3534
-2358.66 -1639.1 3534
-2355.53 -1642.81 3542
-2362.3 -1653.48 3565
-2373.59 -1667.39 3595
-2364.99 -1667.39 3595
-2361.64 -1671.1 3603
-2358.24 -1674.81 3611
-2354.81 -1678.52 3619
-2346.16 -1678.52 3619
-2337.51 -1678.52 3619
-2328.85 -1678.52 3619
-2320.2 -1678.52 3619
-2311.54 -1678.52 3619
-2297.8 -1674.81 3611
-560.449 -798.679 1722
-556.331 -798.679 1722
-552.213 -798.679 1722
-547.459 -797.751 1720
-543.346 -797.751 1720
-537.979 -795.896 1716
-532.942 -794.504 1713
-528.846 -794.504 1713
-524.749 -794.504 1713
-520.653 -794.504 1713
-516.557 -794.504 1713
-511.264 -792.649 1709
-506.287 -791.258 1706
-502.207 -791.258 1706
-498.128 -791.258 1706
-494.917 -792.649 1709
-491.404 -793.577 1711
-488.452 -795.432 1715
-484.351 -795.432 1715
-480.53 -795.896 1716
-476.427 -795.896 1716
-472.323 -795.896 1716
-468.22 -795.896 1716
-462.223 -792.649 1709
-457.868 -792.185 1708
-453.784 -792.185 1708
-449.699 -792.185 1708
-445.615 -792.185 1708
-441.531 -792.185 1708
-437.702 -792.649 1709
-433.616 -792.649 1709
-429.529 -792.649 1709
-425.94 -793.577 1711
-422.835 -795.432 1715
-418.734 -795.432 1715
-414.633 -795.432 1715
-410.053 -794.504 1713
-405.956 -794.504 1713
-401.86 -794.504 1713
-398.228 -795.432 1715
-394.127 -795.432 1715
-390.026 -795.432 1715
-385.475 -794.504 1713
-380.933 -793.577 1711
-376.842 -793.577 1711
-372.75 -793.577 1711
-368.659 -793.577 1711
-364.993 -794.504 1713
-361.318 -795.432 1715
-357.426 -795.896 1716
-353.322 -795.896 1716
-349.219 -795.896 1716
-345.115 -795.896 1716
-341.012 -795.896 1716
-336.908 -795.896 1716
-332.805 -795.896 1716
-329.084 -796.823 1718
-325.733 -798.679 1722
-321.802 -799.142 1723
-317.682 -799.142 1723
-313.925 -800.07 1725
-309.8 -800.07 1725
-306.03 -800.998 1727
-301.9 -800.998 1727
-298.632 -803.317 1732
-295.171 -805.172 1736
-291.69 -807.027 1740
-287.529 -807.027 1740
-284.182 -809.346 1745
-280.331 -810.274 1747
-276.153 -810.274 1747
-271.975 -810.274 1747
-267.185 -808.419 1743
1751.51 -1877.96 4049
1761.2 -1877.96 4049
1770.88 -1877.96 4049
1772.21 -1869.15 4030
1781.84 -1869.15 4030
1791.48 -1869.15 4030
1801.12 -1869.15 4030
1819.29 -1877.96 4049
1842.52 -1891.88 4079
1852.28 -1891.88 4079
1862.03 -1891.88 4079
1871.79 -1891.88 4079
1881.54 -1891.88 4079
1882.02 -1882.6 4059
1891.73 -1882.6 4059
1901.43 -1882.6 4059
1911.14 -1882.6 4059
1911.38 -1873.32 4039
1921.04 -1873.32 4039
1916.84 -1859.87 4010
1926.43 -1859.87 4010
1936.01 -1859.87 4010
3039.96 -1896.51 4089
3049.74 -1896.51 4089
3059.52 -1896.51 4089
3061.79 -1891.88 4079
3005.28 -1851.06 3991
3014.82 -1851.06 3991
2981.93 -1825.09 3935
2983.74 -1820.45 3925
2993.12 -1820.45 3925
3002.51 -1820.45 3925
-2375.78 -1613.56 3497
-2367.42 -1613.56 3497
-2359.06 -1613.56 3497
-2356.07 -1617.25 3505
-2367.11 -1630.63 3534
-2358.66 -1630.63 3534
-2365.51 -1641.25 3557
-2362.3 -1644.94 3565
-2384.15 -1666.16 3611
-2375.51 -1666.16 3611
-2366.88 -1666.16 3611
-2363.47 -1669.85 3619
-2354.81 -1669.85 3619
-2346.16 -1669.85 3619
-2337.51 -1669.85 3619
-2328.85 -1669.85 3619
-2320.2 -1669.85 3619
-2311.54 -1669.85 3619
-2297.8 -1666.16 3611
-560.449 -794.553 1722
-556.331 -794.553 1722
-552.213 -794.553 1722
-547.459 -793.631 1720
-543.346 -793.631 1720
-537.979 -791.785 1716
-532.942 -790.401 1713
-528.846 -790.401 1713
-524.749 -790.401 1713
-520.653 -790.401 1713
-516.557 -790.401 1713
-511.264 -788.555 1709
-506.287 -787.171 1706
-502.207 -787.171 1706
-498.128 -787.171 1706
-494.917 -788.555 1709
-491.404 -789.478 1711
-488.452 -791.324 1715
-484.351 -791.324 1715
-480.53 -791.785 1716
-476.427 -791.785 1716
-472.323 -791.785 1716
-468.22 -791.785 1716
-463.305 -790.401 1713
-458.136 -788.555 1709
-454.049 -788.555 1709
-449.963 -788.555 1709
-445.876 -788.555 1709
-441.789 -788.555 1709
-437.702 -788.555 1709
-433.616 -788.555 1709
-430.032 -789.478 1711
-426.936 -791.324 1715
-422.835 -791.324 1715
-418.734 -791.324 1715
-414.633 -791.324 1715
-410.531 -791.324 1715
-406.43 -791.324 1715
-402.329 -791.324 1715
-398.228 -791.324 1715
-394.127 -791.324 1715
-390.026 -791.324 1715
-385.925 -791.324 1715
-380.933 -789.478 1711
-376.842 -789.478 1711
-372.75 -789.478 1711
-368.659 -789.478 1711
-364.993 -790.401 1713
-361.529 -791.785 1716
-357.426 -791.785 1716
-353.322 -791.785 1716
-349.219 -791.785 1716
-345.115 -791.785 1716
-341.012 -791.785 1716
-336.908 -791.785 1716
-332.805 -791.785 1716
-329.084 -792.708 1718
-325.355 -793.631 1720
-321.802 -795.015 1723
-317.682 -795.015 1723
-313.561 -795.015 1723
-309.441 -795.015 1723
-305.675 -795.938 1725
-301.55 -795.938 1725
-298.115 -797.783 1729
-294.491 -799.168 1732
-291.355 -801.936 1738
-287.199 -801.936 1738
-283.368 -802.859 1740
-279.689 -804.243 1743
-275.521 -804.243 1743
-271.353 -804.243 1743
-267.185 -804.243 1743
-262.262 -801.936 1738
-258.106 -801.936 1738
1751.51 -1868.26 4049
1761.2 -1868.26 4049
1770.88 -1868.26 4049
1772.21 -1859.5 4030
1781.84 -1859.5 4030
1791.48 -1859.5 4030
1809.61 -1868.26 4049
1832.77 -1882.1 4079
1847.04 -1886.72 4089
1856.82 -1886.72 4089
1866.6 -1886.72 4089
1876.37 -1886.72 4089
1886.15 -1886.72 4089
1895.93 -1886.72 4089
1896.39 -1877.49 4069
1901.43 -1872.88 4059
1911.14 -1872.88 4059
1916.11 -1868.26 4049
1921.04 -1863.65 4039
