317.733 487.489 4039
327.392 487.489 4039
334.63 483.989 4010
341.816 480.609 3982
347.191 474.937 3935
358.232 477.109 3953
368.615 478.316 3963
378.092 478.316 3963
387.569 478.316 3963
395.142 476.023 3944
404.573 476.023 3944
409.176 470.471 3898
413.666 465.04 3853
414.209 455.505 3774
423.234 455.505 3774
428.364 451.401 3740
433.449 447.418 3707
434.558 439.573 3642
443.267 439.573 3642
447.136 434.866 3603
448.036 427.503 3542
453.671 424.848 3520
461.038 423.882 3512
469.436 423.882 3512
477.834 423.882 3512
480.141 418.572 3468
492.518 422.072 3497
505.178 425.693 3527
513.612 425.693 3527
523.082 426.538 3534
532.736 427.503 3542
543.498 429.314 3557
552.004 429.314 3557
571.54 437.762 3627
603.729 455.505 3774
615.677 457.677 3792
624.744 457.677 3792
633.812 457.677 3792
683.229 486.403 4030
696.133 488.696 4049
705.815 488.696 4049
715.498 488.696 4049
725.18 488.696 4049
734.863 488.696 4049
739.212 485.196 4020
746.963 483.989 4010
754.854 482.903 4001
766.141 483.989 4010
775.73 483.989 4010
785.319 483.989 4010
794.908 483.989 4010
804.497 483.989 4010
812.259 482.903 4001
819.773 481.696 3991
827.446 480.609 3982
836.969 480.609 3982
846.491 480.609 3982
849.779 477.109 3953
859.232 477.109 3953
877.035 481.696 3991
886.579 481.696 3991
896.122 481.696 3991
905.666 481.696 3991
915.21 481.696 3991
924.754 481.696 3991
929.849 479.402 3972
943.841 481.696 3991
955.773 482.903 4001
965.341 482.903 4001
974.909 482.903 4001
979.801 480.609 3982
986.839 479.402 3972
996.337 479.402 3972
1003.56 478.316 3963
1013.03 478.316 3963
1022.51 478.316 3963
1031.99 478.316 3963
1041.46 478.316 3963
1048.29 477.109 3953
1055.33 476.023 3944
1054.78 471.557 3907
1064.12 471.557 3907
1073.46 471.557 3907
1070.33 466.126 3862
1077.05 465.04 3853
1091.34 467.212 3871
1100.6 467.212 3871
1115.01 469.385 3889
1129.52 471.557 3907
1141.48 472.643 3916
1150.85 472.643 3916
1168.51 476.023 3944
1183.61 478.316 3963
1193.09 478.316 3963
1202.57 478.316 3963
1212.04 478.316 3963
1218.44 477.109 3953
1227.89 477.109 3953
1231.71 474.937 3935
1243.96 476.023 3944
1271.5 482.903 4001
1287.16 485.196 4020
1306.12 488.696 4049
1315.81 488.696 4049
1332.04 491.11 4069
1341.77 491.11 4069
1351.5 491.11 4069
1361.23 491.11 4069
1413.34 492.317 4079
1423.1 492.317 4079
1432.85 492.317 4079
1657.2 492.317 4079
1666.95 492.317 4079
1676.7 492.317 4079
1686.46 492.317 4079
1692.05 491.11 4069
1693.42 488.696 4049
1703.1 488.696 4049
1708.55 487.489 4039
1718.21 487.489 4039
1727.87 487.489 4039
1733.66 486.403 4030
1743.29 486.403 4030
1748.58 485.196 4020
1749.88 482.903 4001
1759.45 482.903 4001
1769.02 482.903 4001
1774.14 481.696 3991
1779.66 480.609 3982
1789.19 480.609 3982
1802.77 481.696 3991
1812.32 481.696 3991
1821.86 481.696 3991
1831.4 481.696 3991
1845.56 482.903 4001
1855.13 482.903 4001
1878.21 486.403 4030
1901.43 489.903 4059
1920.56 492.317 4079
1930.31 492.317 4079
1940.06 492.317 4079
1949.82 492.317 4079
1959.57 492.317 4079
1969.33 492.317 4079
1964.53 488.696 4049
1964.94 486.403 4030
1946.16 479.402 3972
1955.66 479.402 3972
1863.24 454.539 3766
1872.25 454.539 3766
1803.82 435.831 3611
1789.37 430.279 3565
1797.89 430.279 3565
1806.42 430.279 3565
1806.8 428.348 3549
1807.61 426.538 3534
1816.06 426.538 3534
1817.29 424.848 3520
1821.56 423.882 3512
1829.95 423.882 3512
1838.35 423.882 3512
1843.07 423.038 3505
1855.15 423.882 3512
1867.79 424.848 3520
1887.94 427.503 3542
1900.15 428.348 3549
1908.64 428.348 3549
1917.13 428.348 3549
1925.61 428.348 3549
1934.1 428.348 3549
1922.33 423.882 3512
1972.51 433.055 3588
2002.63 437.762 3627
2015.74 438.728 3635
2024.43 438.728 3635
2068.92 446.453 3699
2134.5 458.643 3800
2188.71 468.298 3880
2197.99 468.298 3880
2227.75 472.643 3916
2247.97 474.937 3935
2262.54 476.023 3944
2271.97 476.023 3944
2281.4 476.023 3944
2290.83 476.023 3944
2322.43 480.609 3982
2331.95 480.609 3982
2352.64 482.903 4001
2362.21 482.903 4001
2371.78 482.903 4001
2381.35 482.903 4001
2390.91 482.903 4001
2383.08 479.402 3972
2398.6 480.609 3982
2425.06 483.989 4010
2434.65 483.989 4010
2450.33 485.196 4020
2466.07 486.403 4030
2493.52 489.903 4059
2503.22 489.903 4059
2531.5 493.524 4089
2541.28 493.524 4089
2551.06 493.524 4089
2560.84 493.524 4089
2570.62 493.524 4089
2429.28 462.867 3835
2438.45 462.867 3835
2447.62 462.867 3835
525.365 89.9181 745
527.146 89.9181 745
528.928 89.9181 745
530.709 89.9181 745
532.491 89.9181 745
533.555 89.7974 744
535.334 89.7974 744
536.392 89.6767 743
537.444 89.556 742
538.492 89.4353 741
540.264 89.4353 741
542.036 89.4353 741
543.808 89.4353 741
545.58 89.4353 741
547.352 89.4353 741
549.123 89.4353 741
550.895 89.4353 741
552.667 89.4353 741
554.439 89.4353 741
556.211 89.4353 741
557.983 89.4353 741
559.755 89.4353 741
561.527 89.4353 741
564.059 89.556 742
565.834 89.556 742
567.608 89.556 742
-2309.07 379.613 3084
-2301.69 379.613 3084
-2294.32 379.613 3084
-2286.94 379.613 3084
-2279.57 379.613 3084
-2272.19 379.613 3084
-2256.01 378.135 3072
-2245 377.52 3067
-2233.29 376.781 3061
-2242.69 379.613 3084
-2235.32 379.613 3084
-2244.56 382.444 3107
-2253.69 385.275 3130
-2280.65 391.183 3178
-2273.05 391.183 3178
-2286.84 394.876 3208
-2319.66 401.892 3265
-2311.86 401.892 3265
-2304.05 401.892 3265
-2287.1 400.292 3252
-2450.96 442.512 3595
-2442.36 442.512 3595
-2433.76 442.512 3595
-2415.05 440.666 3580
-2406.49 440.666 3580
-2397.93 440.666 3580
-2389.36 440.666 3580
-2380.8 440.666 3580
-2372.24 440.666 3580
-2348.5 437.835 3557
-2324.86 435.004 3534
-2311.82 434.142 3527
-2293.59 432.296 3512
-2285.19 432.296 3512
-2272.26 431.434 3505
-2263.87 431.434 3505
-2260 432.296 3512
-2265.7 435.004 3534
-2257.25 435.004 3534
-2263.44 437.835 3557
-2254.93 437.835 3557
-2295.69 447.436 3635
-2286.99 447.436 3635
-2292.72 450.267 3658
-2294.58 452.359 3675
-2290.77 453.344 3683
-2281.97 453.344 3683
-2273.16 453.344 3683
-2164.49 497.164 4039
-2154.84 497.164 4039
-2145.18 497.164 4039
-2125.47 494.826 4020
-2115.86 494.826 4020
-2066.43 485.471 3944
-2037.7 480.916 3907
-2000.32 474.27 3853
-1991.11 474.27 3853
-1937.14 463.561 3766
-1902.54 457.406 3716
-1893.65 457.406 3716
-1884.77 457.406 3716
-1875.88 457.406 3716
-1854.43 454.329 3691
-1841.61 453.344 3683
-1832.8 453.344 3683
-1823.99 453.344 3683
-1815.19 453.344 3683
-1802.45 452.359 3675
-1793.67 452.359 3675
-1784.88 452.359 3675
-1779.96 453.344 3683
-1778.84 455.314 3699
-1814.5 466.761 3792
-1805.43 466.761 3792
-1808.68 469.961 3818
-1820.29 475.377 3862
-1845.29 484.363 3935
-1835.88 484.363 3935
-1843.64 488.917 3972
-1834.14 488.917 3972
-1824.64 488.917 3972
-1793.67 483.132 3925
-1780.19 482.024 3916
-1774.9 483.132 3925
-1765.51 483.132 3925
-1756.12 483.132 3925
-1742.73 482.024 3916
-1713.45 476.485 3871
-1704.19 476.485 3871
-1694.94 476.485 3871
-1705.28 482.024 3916
-1711.94 486.579 3953
-1702.48 486.579 3953
-1693.03 486.579 3953
-1683.58 486.579 3953
-1594.93 463.561 3766
-1585.92 463.561 3766
-1580.27 464.545 3774
-1571.24 464.545 3774
-1562.22 464.545 3774
-1549.9 463.561 3766
-1540.89 463.561 3766
-1531.89 463.561 3766
-695.528 211.716 1720
-691.415 211.716 1720
-687.302 211.716 1720
-683.984 211.963 1722
-681.84 212.578 1727
-677.71 212.578 1727
-673.58 212.578 1727
-669.45 212.578 1727
-668.017 213.44 1734
-663.871 213.44 1734
-659.724 213.44 1734
-656.334 213.686 1736
-652.183 213.686 1736
-648.031 213.686 1736
-643.138 213.44 1734
-638.992 213.44 1734
-634.845 213.44 1734
-630.699 213.44 1734
-626.552 213.44 1734
-621.688 213.194 1732
-617.546 213.194 1732
-613.404 213.194 1732
-608.911 213.07 1731
-604.073 212.824 1729
-599.244 212.578 1727
-595.114 212.578 1727
-590.985 212.578 1727
-586.175 212.332 1725
-582.05 212.332 1725
-577.925 212.332 1725
-573.135 212.086 1723
-568.684 211.963 1722
-563.911 211.716 1720
-559.798 211.716 1720
-554.393 211.224 1716
-549.968 211.101 1715
-545.231 210.855 1713
-541.134 210.855 1713
-536.411 210.609 1711
-531.697 210.362 1709
-526.067 209.747 1704
-521.992 209.747 1704
-517.31 209.501 1702
-513.24 209.501 1702
-509.17 209.501 1702
-505.1 209.501 1702
-500.735 209.378 1701
-496.084 209.132 1699
-492.021 209.132 1699
-487.958 209.132 1699
-482.756 208.639 1695
-478.42 208.516 1694
-474.369 208.516 1694
-469.763 208.27 1692
-465.717 208.27 1692
-461.671 208.27 1692
-457.625 208.27 1692
-453.579 208.27 1692
-450.064 208.516 1694
-446.013 208.516 1694
-441.962 208.516 1694
-438.17 208.639 1695
-434.117 208.639 1695
-430.064 208.639 1695
-426.01 208.639 1695
-422.455 208.885 1697
-418.397 208.885 1697
-414.339 208.885 1697
-410.764 209.132 1699
-407.18 209.378 1701
-403.824 209.747 1704
-399.749 209.747 1704
-396.603 210.239 1708
-393.208 210.609 1711
-389.571 210.855 1713
-385.475 210.855 1713
-381.379 210.855 1713
-377.943 211.224 1716
-374.711 211.716 1720
-370.598 211.716 1720
-366.485 211.716 1720
-362.793 211.963 1722
-358.884 212.086 1723
-354.764 212.086 1723
-351.05 212.332 1725
-346.925 212.332 1725
-343.198 212.578 1727
-339.068 212.578 1727
-335.326 212.824 1729
-331.766 213.194 1732
-327.624 213.194 1732
-323.483 213.194 1732
-319.341 213.194 1732
-315.017 213.07 1731
-310.878 213.07 1731
-306.03 212.578 1727
-301.9 212.578 1727
-297.425 212.332 1725
-293.3 212.332 1725
-289.175 212.332 1725
-284.72 212.086 1723
-280.437 211.963 1722
-275.998 211.716 1720
-271.885 211.716 1720
-267.772 211.716 1720
-263.352 211.47 1718
-259.244 211.47 1718
-255.136 211.47 1718
-251.028 211.47 1718
-246.919 211.47 1718
-242.811 211.47 1718
-238.703 211.47 1718
-234.595 211.47 1718
-230.486 211.47 1718
-226.642 211.716 1720
-222.528 211.716 1720
-218.415 211.716 1720
-214.925 212.332 1725
-211.045 212.578 1727
-206.915 212.578 1727
-202.785 212.578 1727
-198.885 212.824 1729
-195.314 213.44 1734
-191.609 213.932 1738
-187.453 213.932 1738
-183.507 214.178 1740
-179.656 214.548 1743
-176.092 215.286 1749
-171.909 215.286 1749
-167.727 215.286 1749
-163.825 215.655 1752
-159.636 215.655 1752
-155.446 215.655 1752
-151.947 216.64 1760
-147.906 216.886 1762
-144.427 217.994 1771
-140.192 217.994 1771
-136.417 218.733 1777
-132.391 219.102 1780
-128.279 219.348 1782
-124.296 219.84 1786
-120.025 219.84 1786
-115.754 219.84 1786
-111.858 220.579 1792
-107.813 221.071 1796
-103.518 221.071 1796
-99.5544 221.81 1802
-95.351 222.056 1804
-91.0371 222.056 1804
-86.7232 222.056 1804
-82.455 222.179 1805
-78.1387 222.179 1805
-73.8224 222.179 1805
-69.4676 222.056 1804
-65.1536 222.056 1804
-60.7723 221.81 1802
-56.4632 221.81 1802
-52.0383 221.318 1798
-47.6325 220.825 1794
282.555 503.319 4089
292.333 503.319 4089
302.111 503.319 4089
308.075 497.164 4039
315.452 493.595 4010
325.041 493.595 4010
332.294 490.148 3982
340.185 487.81 3963
346.309 483.132 3925
356.601 484.363 3935
366.848 485.471 3944
376.279 485.471 3944
385.71 485.471 3944
394.24 484.363 3935
403.65 484.363 3935
407.286 477.593 3880
411.733 472.054 3835
411.465 461.468 3749
420.43 461.468 3749
426.532 458.391 3724
430.643 453.344 3683
431.814 445.466 3619
440.468 445.466 3619
445.275 441.65 3588
447.024 435.004 3534
453.671 433.28 3520
460.119 431.434 3505
468.5 431.434 3505
476.882 431.434 3505
484.156 430.449 3497
492.518 430.449 3497
503.029 432.296 3512
511.427 432.296 3512
522.046 434.142 3527
531.533 435.004 3534
542.276 436.85 3549
550.762 436.85 3549
565.395 441.65 3588
598.29 460.36 3740
615.677 466.761 3792
624.744 466.761 3792
633.812 466.761 3792
681.534 494.826 4020
694.414 497.164 4039
704.072 497.164 4039
713.731 497.164 4039
723.389 497.164 4039
733.048 497.164 4039
737.374 493.595 4010
746.963 493.595 4010
756.552 493.595 4010
769.962 496.057 4030
779.599 496.057 4030
789.236 496.057 4030
798.873 496.057 4030
808.51 496.057 4030
818.147 496.057 4030
827.784 496.057 4030
835.343 494.826 4020
844.956 494.826 4020
846.491 490.148 3982
853.863 488.917 3972
865.535 490.148 3982
879.233 492.487 4001
893.021 494.826 4020
902.634 494.826 4020
912.247 494.826 4020
921.86 494.826 4020
931.473 494.826 4020
941.086 494.826 4020
950.699 494.826 4020
960.312 494.826 4020
969.925 494.826 4020
974.909 492.487 4001
979.801 490.148 3982
984.603 487.81 3963
994.08 487.81 3963
1001.02 486.579 3953
1010.48 486.579 3953
1019.93 486.579 3953
1029.38 486.579 3953
1038.84 486.579 3953
1045.9 485.471 3944
1052.92 484.363 3935
1054.78 480.916 3907
1064.12 480.916 3907
1070.99 479.809 3898
1067.84 474.27 3853
1074.54 473.162 3844
1086.27 474.27 3853
1095.48 474.27 3853
1104.69 474.27 3853
1119.11 476.485 3871
1133.61 478.701 3889
1142.91 478.701 3889
1154.88 479.809 3898
1177.94 485.471 3944
1187.37 485.471 3944
1196.8 485.471 3944
1203.48 484.363 3935
1209.81 483.132 3925
1219.19 483.132 3925
1231.71 484.363 3935
1241.12 484.363 3935
1265.47 490.148 3982
1283.95 493.595 4010
1299.99 496.057 4030
1309.63 496.057 4030
1325.49 498.395 4049
1341.77 500.857 4069
1354.82 502.088 4079
1364.57 502.088 4079
1374.33 502.088 4079
1387.47 503.319 4089
1397.25 503.319 4089
1407.03 503.319 4089
1413.34 502.088 4079
1423.1 502.088 4079
1432.85 502.088 4079
1439.07 500.857 4069
1448.8 500.857 4069
1592.81 503.319 4089
1602.59 503.319 4089
1612.37 503.319 4089
1637.69 502.088 4079
1647.44 502.088 4079
1657.2 502.088 4079
1666.95 502.088 4079
1676.7 502.088 4079
1686.46 502.088 4079
1687.89 499.626 4059
1689.24 497.164 4039
1698.9 497.164 4039
1704.75 496.057 4030
1714.38 496.057 4030
1724.02 496.057 4030
1733.66 496.057 4030
1743.29 496.057 4030
1748.58 494.826 4020
1753.82 493.595 4010
1759.45 492.487 4001
1769.02 492.487 4001
1774.14 491.256 3991
1779.66 490.148 3982
1789.19 490.148 3982
1802.77 491.256 3991
1812.32 491.256 3991
1821.86 491.256 3991
1840.12 493.595 4010
1849.71 493.595 4010
1859.3 493.595 4010
1873.55 494.826 4020
1901.43 499.626 4059
1920.56 502.088 4079
1930.31 502.088 4079
1940.06 502.088 4079
1949.82 502.088 4079
1959.57 502.088 4079
1969.33 502.088 4079
1964.53 498.395 4049
1964.94 496.057 4030
1936.85 486.579 3953
1946.31 486.579 3953
1876.1 466.761 3792
1867.77 462.453 3757
1803.82 444.482 3611
1789.37 438.819 3565
1797.89 438.819 3565
1794.77 435.988 3542
1803.24 435.988 3542
1804.03 434.142 3527
1812.47 434.142 3527
1817.29 433.28 3520
1817.92 431.434 3505
1826.31 431.434 3505
1834.69 431.434 3505
1843.07 431.434 3505
1855.15 432.296 3512
1867.79 433.28 3520
1887.94 435.988 3542
1900.15 436.85 3549
1908.64 436.85 3549
1917.13 436.85 3549
1925.61 436.85 3549
1934.1 436.85 3549
1922.33 432.296 3512
1972.51 441.65 3588
2002.63 446.451 3627
2015.74 447.436 3635
2024.43 447.436 3635
2068.92 455.314 3699
2134.5 467.746 3800
2188.71 477.593 3880
2197.99 477.593 3880
2217.51 479.809 3898
2247.97 484.363 3935
2262.54 485.471 3944
2271.97 485.471 3944
2281.4 485.471 3944
2290.83 485.471 3944
2322.43 490.148 3982
2331.95 490.148 3982
2352.64 492.487 4001
2362.21 492.487 4001
2371.78 492.487 4001
2381.35 492.487 4001
2390.91 492.487 4001
2383.08 488.917 3972
2398.6 490.148 3982
2425.06 493.595 4010
2434.65 493.595 4010
2450.33 494.826 4020
2466.07 496.057 4030
2493.52 499.626 4059
2503.22 499.626 4059
2531.5 503.319 4089
2541.28 503.319 4089
2551.06 503.319 4089
2560.84 503.319 4089
2570.62 503.319 4089
2429.28 472.054 3835
2438.45 472.054 3835
2447.62 472.054 3835
525.365 91.7028 745
527.146 91.7028 745
528.928 91.7028 745
530.709 91.7028 745
532.491 91.7028 745
532.838 91.4566 743
534.615 91.4566 743
536.392 91.4566 743
536.72 91.2104 741
538.492 91.2104 741
540.264 91.2104 741
542.036 91.2104 741
543.808 91.2104 741
545.58 91.2104 741
547.352 91.2104 741
549.123 91.2104 741
550.152 91.0873 740
552.667 91.2104 741
554.439 91.2104 741
556.211 91.2104 741
557.983 91.2104 741
559.755 91.2104 741
561.527 91.2104 741
563.299 91.2104 741
565.071 91.2104 741
566.843 91.2104 741
-2312.81 387.628 3089
-2305.42 387.628 3089
-2298.04 387.628 3089
-2295.1 388.381 3095
-2287.7 388.381 3095
-2280.3 388.381 3095
-2268.49 387.628 3089
-2248.66 385.494 3072
-2241.31 385.494 3072
-2242.69 387 3084
-2235.32 387 3084
-2244.56 389.887 3107
-2253.69 392.773 3130
-2293.57 401.055 3196
-2285.93 401.055 3196
-2313.93 407.329 3246
-2319.66 409.713 3265
-2311.86 409.713 3265
-2304.05 409.713 3265
-2287.1 408.082 3252
-2450.96 451.124 3595
-2442.36 451.124 3595
-2433.76 451.124 3595
-2425.17 451.124 3595
-2416.57 451.124 3595
-2407.97 451.124 3595
-2389.36 449.242 3580
-2380.8 449.242 3580
-2372.24 449.242 3580
-2348.5 446.355 3557
-2334.73 445.352 3549
-2316.41 443.469 3534
-2298.81 441.712 3520
-2290.4 441.712 3520
-2276.79 440.709 3512
-2268.4 440.709 3512
-2269.65 442.591 3527
-2265.7 443.469 3534
-2257.25 443.469 3534
-2263.44 446.355 3557
-2254.93 446.355 3557
-2300.11 457.022 3642
-2291.4 457.022 3642
-2292.72 459.03 3658
-2294.58 461.163 3675
-2290.77 462.167 3683
-2281.97 462.167 3683
-2273.16 462.167 3683
-2164.49 506.84 4039
-2154.84 506.84 4039
-2145.18 506.84 4039
-2125.47 504.456 4020
-2115.86 504.456 4020
-2076.38 497.303 3963
-2037.7 490.276 3907
-2000.32 483.499 3853
-1991.11 483.499 3853
-1937.14 472.582 3766
-1914.83 469.319 3740
-1919.13 472.582 3766
-1910.13 472.582 3766
-1901.12 472.582 3766
-1875.03 468.316 3732
-1845.61 463.171 3691
-1836.78 463.171 3691
-1827.95 463.171 3691
-1815.19 462.167 3683
-1802.45 461.163 3675
-1797.57 462.167 3683
-1788.76 462.167 3683
-1787.69 464.175 3699
-1787.02 466.308 3716
-1822.63 477.978 3809
-1813.53 477.978 3809
-1846.58 489.146 3898
-1863.18 496.048 3953
-1876.24 502.071 4001
-1866.67 502.071 4001
-1857.1 502.071 4001
-1842.92 500.817 3991
-1833.37 500.817 3991
-1815.15 498.432 3972
-1780.19 491.405 3916
-1774.9 492.534 3925
-1765.51 492.534 3925
-1756.12 492.534 3925
-1742.73 491.405 3916
-1713.45 485.758 3871
-1704.19 485.758 3871
-1694.94 485.758 3871
-1705.28 491.405 3916
-1711.94 496.048 3953
-1702.48 496.048 3953
-1693.03 496.048 3953
-1683.58 496.048 3953
-1598.32 473.586 3774
-1589.29 473.586 3774
-1580.27 473.586 3774
-1571.24 473.586 3774
-1562.22 473.586 3774
-1549.9 472.582 3766
-1540.89 472.582 3766
-1531.89 472.582 3766
-695.528 215.837 1720
-691.415 215.837 1720
-687.302 215.837 1720
-685.97 216.715 1727
-681.84 216.715 1727
-677.71 216.715 1727
-677.09 217.845 1736
-672.939 217.845 1736
-668.788 217.845 1736
-664.637 217.845 1736
-660.485 217.845 1736
-657.846 218.346 1740
-653.685 218.346 1740
-649.524 218.346 1740
-644.622 218.096 1738
-639.729 217.845 1736
-635.577 217.845 1736
-631.426 217.845 1736
-627.275 217.845 1736
-622.406 217.594 1734
-617.546 217.343 1732
-613.404 217.343 1732
-608.911 217.217 1731
-604.073 216.966 1729
-599.244 216.715 1727
-595.114 216.715 1727
-590.985 216.715 1727
-586.175 216.464 1725
-582.05 216.464 1725
-577.925 216.464 1725
-573.135 216.213 1723
-568.684 216.088 1722
-563.911 215.837 1720
-559.798 215.837 1720
-554.393 215.335 1716
-549.968 215.209 1715
-545.231 214.958 1713
-541.134 214.958 1713
-536.411 214.707 1711
-531.697 214.456 1709
-526.067 213.829 1704
-521.992 213.829 1704
-517.31 213.578 1702
-513.24 213.578 1702
-509.17 213.578 1702
-505.1 213.578 1702
-500.735 213.453 1701
-496.668 213.453 1701
-492.021 213.202 1699
-487.958 213.202 1699
-482.756 212.7 1695
-478.42 212.574 1694
-474.369 212.574 1694
-469.763 212.323 1692
-465.717 212.323 1692
-461.671 212.323 1692
-457.625 212.323 1692
-453.579 212.323 1692
-450.064 212.574 1694
-446.013 212.574 1694
-442.223 212.7 1695
-438.17 212.7 1695
-434.629 212.951 1697
-430.571 212.951 1697
-426.513 212.951 1697
-422.455 212.951 1697
-418.89 213.202 1699
-414.827 213.202 1699
-411.248 213.453 1701
-407.18 213.453 1701
-404.298 214.08 1706
-400.218 214.08 1706
-397.299 214.707 1711
-393.668 214.958 1713
-390.254 215.335 1716
-386.15 215.335 1716
-382.047 215.335 1716
-378.824 215.837 1720
-375.365 216.213 1723
-371.244 216.213 1723
-367.124 216.213 1723
-363.425 216.464 1725
-360.133 216.966 1729
-355.999 216.966 1729
-352.271 217.217 1731
-348.132 217.217 1731
-344.191 217.343 1732
-340.05 217.343 1732
-335.908 217.343 1732
-332.532 217.845 1736
-328.381 217.845 1736
-324.23 217.845 1736
-320.078 217.845 1736
-315.927 217.845 1736
-311.776 217.845 1736
-306.739 217.217 1731
-302.599 217.217 1731
-297.77 216.715 1727
-293.64 216.715 1727
-289.511 216.715 1727
-285.05 216.464 1725
-280.6 216.213 1723
-276.319 216.088 1722
-272.201 216.088 1722
-267.772 215.837 1720
-263.659 215.837 1720
-259.244 215.586 1718
-255.433 215.837 1720
-251.32 215.837 1720
-247.207 215.837 1720
-243.094 215.837 1720
-238.981 215.837 1720
-234.868 215.837 1720
-230.755 215.837 1720
-226.642 215.837 1720
-222.787 216.088 1722
-218.669 216.088 1722
-214.925 216.464 1725
-211.045 216.715 1727
-207.155 216.966 1729
-203.02 216.966 1729
-199.231 217.343 1732
-195.314 217.594 1734
-191.829 218.346 1740
-187.668 218.346 1740
-183.507 218.346 1740
-179.862 218.974 1745
-176.092 219.476 1749
-171.909 219.476 1749
-167.919 219.727 1751
-163.825 219.852 1752
-159.818 220.103 1754
-155.623 220.103 1754
-151.947 220.856 1760
-147.906 221.107 1762
-144.264 221.986 1769
-140.033 221.986 1769
-136.264 222.739 1775
-132.317 223.24 1779
-128.279 223.617 1782
-124.296 224.119 1786
-120.025 224.119 1786
-115.884 224.37 1788
-111.858 224.872 1792
-107.813 225.374 1796
-103.518 225.374 1796
-99.4439 225.876 1800
-95.2453 226.127 1802
-90.9362 226.127 1802
-86.627 226.127 1802
-82.3179 226.127 1802
-78.0088 226.127 1802
-73.6997 226.127 1802
-69.3905 226.127 1802
-65.0814 226.127 1802
-60.7723 226.127 1802
-56.4632 226.127 1802
-52.154 226.127 1802
-107.001 505.711 4030
-97.3636 505.711 4030
-87.7266 505.711 4030
282.555 513.114 4089
292.333 513.114 4089
302.111 513.114 4089
307.388 505.711 4030
312.463 498.432 3972
321.961 498.432 3972
330.708 497.303 3963
336.923 492.534 3925
343.927 489.146 3898
354.879 491.405 3916
364.243 491.405 3916
373.608 491.405 3916
382.972 491.405 3916
388.73 486.888 3880
398.008 486.888 3880
404.452 483.499 3853
407.976 476.849 3800
408.721 467.312 3724
417.626 467.312 3724
422.752 463.171 3691
427.72 459.03 3658
431.814 454.136 3619
440.468 454.136 3619
445.275 450.246 3588
448.922 445.352 3549
455.475 443.469 3534
462.088 441.712 3520
470.505 441.712 3520
476.882 439.83 3505
484.156 438.826 3497
493.645 439.83 3505
503.029 440.709 3512
511.427 440.709 3512
521.01 441.712 3520
530.48 442.591 3527
539.984 443.469 3534
548.435 443.469 3534
562.873 448.238 3572
597.01 468.316 3732
612.754 473.586 3774
621.779 473.586 3774
630.804 473.586 3774
679.839 503.201 4010
694.414 506.84 4039
704.072 506.84 4039
713.731 506.84 4039
723.389 506.84 4039
733.048 506.84 4039
737.374 503.201 4010
746.963 503.201 4010
756.552 503.201 4010
769.962 505.711 4030
779.599 505.711 4030
790.999 506.84 4039
800.657 506.84 4039
810.315 506.84 4039
819.974 506.84 4039
829.632 506.84 4039
835.343 504.456 4020
844.956 504.456 4020
852.443 503.201 4010
853.863 498.432 3972
869.665 502.071 4001
885.605 505.711 4030
895.242 505.711 4030
904.879 505.711 4030
914.516 505.711 4030
926.217 506.84 4039
935.876 506.84 4039
945.534 506.84 4039
955.193 506.84 4039
962.701 505.711 4030
972.338 505.711 4030
979.538 504.456 4020
982.016 500.817 3991
984.603 497.303 3963
994.08 497.303 3963
1001.02 496.048 3953
1010.48 496.048 3953
1019.93 496.048 3953
1029.38 496.048 3953
1038.84 496.048 3953
1043.51 493.789 3935
1047.84 491.405 3916
1057.2 491.405 3916
1066.57 491.405 3916
1070.99 489.146 3898
1065.34 482.37 3844
1072.02 481.241 3835
1081.19 481.241 3835
1087.8 480.111 3826
1096.95 480.111 3826
1108.7 481.241 3835
1123.12 483.499 3853
1132.33 483.499 3853
1146.88 485.758 3871
1164.2 489.146 3898
1173.52 489.146 3898
1182.84 489.146 3898
1192.16 489.146 3898
1204.26 490.276 3907
1213.6 490.276 3907
1225.76 491.405 3916
1235.13 491.405 3916
1259.43 497.303 3963
1277.87 500.817 3991
1296.77 504.456 4020
1306.38 504.456 4020
1319.27 505.711 4030
1335.17 508.095 4049
1354.82 511.859 4079
1364.57 511.859 4079
1374.33 511.859 4079
1387.47 513.114 4089
1397.25 513.114 4089
1407.03 513.114 4089
1409.88 510.605 4069
1416.12 509.35 4059
1429.34 510.605 4069
1439.07 510.605 4069
1448.8 510.605 4069
1462.11 511.859 4079
1475.48 513.114 4089
1485.25 513.114 4089
1495.03 513.114 4089
1504.81 513.114 4089
1514.59 513.114 4089
1524.37 513.114 4089
1534.14 513.114 4089
1532.59 509.35 4059
1542.3 509.35 4059
1548.18 508.095 4049
1557.87 508.095 4049
1575.29 510.605 4069
1592.81 513.114 4089
1602.59 513.114 4089
1612.37 513.114 4089
1637.69 511.859 4079
1647.44 511.859 4079
1657.2 511.859 4079
1666.95 511.859 4079
1676.7 511.859 4079
1682.32 510.605 4069
1687.89 509.35 4059
1685.47 505.711 4030
1695.11 505.711 4030
1704.75 505.711 4030
1714.38 505.711 4030
1727.87 506.84 4039
1737.53 506.84 4039
1747.19 506.84 4039
1748.58 504.456 4020
1758.19 504.456 4020
1763.41 503.201 4010
1773 503.201 4010
1778.59 502.071 4001
1779.66 499.687 3982
1793.23 500.817 3991
1807.29 502.071 4001
1816.86 502.071 4001
1826.43 502.071 4001
1840.12 503.201 4010
1849.71 503.201 4010
1859.3 503.201 4010
1864.7 502.071 4001
1896.75 508.095 4049
1920.56 511.859 4079
1930.31 511.859 4079
1940.06 511.859 4079
1949.82 511.859 4079
1959.57 511.859 4079
1969.33 511.859 4079
1955.31 505.711 4030
1927.4 496.048 3953
1857.97 475.845 3792
1867.04 475.845 3792
1876.1 475.845 3792
1851.37 467.312 3724
1799.83 452.128 3603
1800.91 450.246 3588
1809.49 450.246 3588
1802.37 446.355 3557
1803.24 444.473 3542
1800.45 441.712 3520
1808.87 441.712 3520
1817.29 441.712 3520
1817.92 439.83 3505
1826.31 439.83 3505
1838.35 440.709 3512
1846.75 440.709 3512
1855.15 440.709 3512
1871.51 442.591 3527
1887.94 444.473 3542
1900.15 445.352 3549
1908.64 445.352 3549
1917.13 445.352 3549
1925.61 445.352 3549
1946.63 448.238 3572
1955.18 448.238 3572
1976.36 451.124 3595
2007.04 456.143 3635
2046.79 463.171 3691
2055.62 463.171 3691
2078.43 466.308 3716
2134.5 476.849 3800
2178.56 484.629 3862
2187.79 484.629 3862
2212.39 488.017 3889
2242.25 492.534 3925
2257.38 493.789 3935
2266.79 493.789 3935
2276.2 493.789 3935
2290.83 494.919 3944
2322.43 499.687 3982
2331.95 499.687 3982
2352.64 502.071 4001
2362.21 502.071 4001
2371.78 502.071 4001
2381.35 502.071 4001
2390.91 502.071 4001
2400.48 502.071 4001
2410.05 502.071 4001
2431.11 504.456 4020
2440.72 504.456 4020
2450.33 504.456 4020
2466.07 505.711 4030
2493.52 509.35 4059
2503.22 509.35 4059
2531.5 513.114 4089
2541.28 513.114 4089
2551.06 513.114 4089
2560.84 513.114 4089
2570.62 513.114 4089
2431.46 483.499 3853
2440.68 483.499 3853
2449.89 483.499 3853
2447.62 481.241 3835
2429.24 475.845 3792
525.365 93.4874 745
527.146 93.4874 745
528.928 93.4874 745
530.709 93.4874 745
531.776 93.3619 744
532.838 93.2365 743
534.615 93.2365 743
535.67 93.111 742
536.72 92.9855 741
537.765 92.86 740
540.264 92.9855 741
542.036 92.9855 741
543.808 92.9855 741
545.58 92.9855 741
546.613 92.86 740
548.382 92.86 740
550.152 92.86 740
551.922 92.86 740
553.691 92.86 740
555.461 92.86 740
557.23 92.86 740
559 92.86 740
561.527 92.9855 741
563.299 92.9855 741
565.071 92.9855 741
566.843 92.9855 741
-2312.81 395.027 3089
-2305.42 395.027 3089
-2298.04 395.027 3089
-2295.1 395.795 3095
-2287.7 395.795 3095
-2280.3 395.795 3095
-2268.49 395.027 3089
-2248.66 392.853 3072
-2241.31 392.853 3072
-2242.69 394.388 3084
-2235.32 394.388 3084
-2240.23 396.562 3101
-2253.69 400.271 3130
-2293.57 408.711 3196
-2285.93 408.711 3196
-2313.93 415.105 3246
-2319.66 417.535 3265
-2311.86 417.535 3265
-2304.05 417.535 3265
-2450.96 459.736 3595
-2442.36 459.736 3595
-2433.76 459.736 3595
-2425.17 459.736 3595
-2416.57 459.736 3595
-2407.97 459.736 3595
-2389.36 457.818 3580
-2380.8 457.818 3580
-2372.24 457.818 3580
-2348.5 454.876 3557
-2334.73 453.853 3549
-2316.41 451.935 3534
-2298.81 450.145 3520
-2290.4 450.145 3520
-2276.79 449.122 3512
-2268.4 449.122 3512
-2269.65 451.04 3527
-2265.7 451.935 3534
-2257.25 451.935 3534
-2258.35 453.853 3549
-2254.93 454.876 3557
-2300.11 465.746 3642
-2291.4 465.746 3642
-2292.72 467.792 3658
-2294.58 469.966 3675
-2290.77 470.989 3683
-2281.97 470.989 3683
-2273.16 470.989 3683
-2164.49 516.515 4039
-2154.84 516.515 4039
-2145.18 516.515 4039
-2125.47 514.086 4020
-2115.86 514.086 4020
-2076.38 506.796 3963
-2014.23 493.88 3862
-2000.32 492.729 3853
-1991.11 492.729 3853
-1928.4 479.43 3749
-1914.83 478.279 3740
-1919.13 481.604 3766
-1910.13 481.604 3766
-1901.12 481.604 3766
-1875.03 477.256 3732
-1845.61 472.012 3691
-1836.78 472.012 3691
-1827.95 472.012 3691
-1815.19 470.989 3683
-1802.45 469.966 3675
-1797.57 470.989 3683
-1788.76 470.989 3683
-1787.69 473.035 3699
-1787.02 475.21 3716
-1822.63 487.103 3809
-1813.53 487.103 3809
-1846.58 498.484 3898
-1863.18 505.518 3953
-1876.24 511.656 4001
-1866.67 511.656 4001
-1857.1 511.656 4001
-1842.92 510.377 3991
-1833.37 510.377 3991
-1815.15 507.947 3972
-1780.19 500.786 3916
-1770.83 500.786 3916
-1761.46 500.786 3916
-1752.1 500.786 3916
-1734.72 498.484 3898
-1705.48 492.729 3853
-1696.27 492.729 3853
-1667.79 487.103 3809
-1705.28 500.786 3916
-1695.91 500.786 3916
-1686.55 500.786 3916
-1677.18 500.786 3916
-1622.25 487.103 3809
-1598.32 482.627 3774
-1589.29 482.627 3774
-1580.27 482.627 3774
-1571.24 482.627 3774
-1562.22 482.627 3774
-1549.9 481.604 3766
-1540.89 481.604 3766
-1531.89 481.604 3766
-695.528 219.957 1720
-691.415 219.957 1720
-687.302 219.957 1720
-685.97 220.852 1727
-681.84 220.852 1727
-677.71 220.852 1727
-677.09 222.003 1736
-672.939 222.003 1736
-668.788 222.003 1736
-664.637 222.003 1736
-660.485 222.003 1736
-657.846 222.515 1740
-653.685 222.515 1740
-649.524 222.515 1740
-644.622 222.259 1738
-639.729 222.003 1736
-635.577 222.003 1736
-631.426 222.003 1736
-627.275 222.003 1736
-622.406 221.747 1734
-617.546 221.492 1732
-613.404 221.492 1732
-608.911 221.364 1731
-604.073 221.108 1729
-599.244 220.852 1727
-595.114 220.852 1727
-590.985 220.852 1727
-586.175 220.596 1725
-581.375 220.341 1723
-577.255 220.341 1723
-573.135 220.341 1723
-568.684 220.213 1722
-563.255 219.701 1718
-559.147 219.701 1718
-554.393 219.446 1716
-549.968 219.318 1715
-544.594 218.806 1711
-540.503 218.806 1711
-536.411 218.806 1711
-531.697 218.55 1709
-526.067 217.911 1704
-521.992 217.911 1704
-517.31 217.655 1702
-513.24 217.655 1702
-509.17 217.655 1702
-505.1 217.655 1702
-500.735 217.527 1701
-496.668 217.527 1701
-492.021 217.272 1699
-487.958 217.272 1699
-482.756 216.76 1695
-478.42 216.632 1694
-474.369 216.632 1694
-469.763 216.376 1692
-465.717 216.376 1692
-461.671 216.376 1692
-457.625 216.376 1692
-453.579 216.376 1692
-450.064 216.632 1694
-446.013 216.632 1694
-442.223 216.76 1695
-438.17 216.76 1695
-434.629 217.016 1697
-430.571 217.016 1697
-426.513 217.016 1697
-422.455 217.016 1697
-418.89 217.272 1699
-414.827 217.272 1699
-411.248 217.527 1701
-407.18 217.527 1701
-404.298 218.167 1706
-400.218 218.167 1706
-397.299 218.806 1711
-394.357 219.446 1716
-391.163 219.957 1720
-387.05 219.957 1720
-383.382 220.213 1722
-379.925 220.596 1725
-376.672 221.108 1729
-372.537 221.108 1729
-368.829 221.364 1731
-364.9 221.492 1732
-361.591 222.003 1736
-357.44 222.003 1736
-353.696 222.259 1738
-349.54 222.259 1738
-345.384 222.259 1738
-341.228 222.259 1738
-337.072 222.259 1738
-333.299 222.515 1740
-329.138 222.515 1740
-324.977 222.515 1740
-320.816 222.515 1740
-316.655 222.515 1740
-312.494 222.515 1740
-307.979 222.259 1738
-303.473 222.003 1736
-298.46 221.364 1731
-293.98 221.108 1729
-289.846 221.108 1729
-285.381 220.852 1727
-281.251 220.852 1727
-276.479 220.341 1723
-272.359 220.341 1723
-268.083 220.213 1722
-263.965 220.213 1722
-259.546 219.957 1720
-255.433 219.957 1720
-251.32 219.957 1720
-247.207 219.957 1720
-243.094 219.957 1720
-238.981 219.957 1720
-234.868 219.957 1720
-230.755 219.957 1720
-226.905 220.213 1722
-223.175 220.596 1725
-219.05 220.596 1725
-215.175 220.852 1727
-211.289 221.108 1729
-207.514 221.492 1732
-203.372 221.492 1732
-199.461 221.747 1734
-195.539 222.003 1736
-191.829 222.515 1740
-187.668 222.515 1740
-183.824 222.898 1743
-180.068 223.41 1747
-176.293 223.921 1751
-172.106 223.921 1751
-167.919 223.921 1751
-163.825 224.049 1752
-159.818 224.305 1754
-155.623 224.305 1754
-151.947 225.072 1760
-147.99 225.456 1763
-144.427 226.479 1771
-140.192 226.479 1771
-136.264 226.991 1775
-132.391 227.63 1780
-128.423 228.141 1784
-124.296 228.397 1786
-120.025 228.397 1786
-116.143 229.165 1792
-111.982 229.42 1794
-107.933 229.932 1798
-103.633 229.932 1798
-99.5544 230.443 1802
-95.351 230.699 1804
-91.0371 230.699 1804
-86.7232 230.699 1804
-82.4093 230.699 1804
-78.0954 230.699 1804
-73.7815 230.699 1804
-69.3905 230.443 1802
-65.0814 230.443 1802
-60.7723 230.443 1802
-56.4632 230.443 1802
-117.187 517.794 4049
-107.505 517.794 4049
-97.8226 517.794 4049
-88.1402 517.794 4049
282.555 522.909 4089
292.333 522.909 4089
302.111 522.909 4089
307.388 515.364 4030
312.463 507.947 3972
321.961 507.947 3972
330.708 506.796 3963
336.923 501.937 3925
343.927 498.484 3898
354.879 500.786 3916
364.243 500.786 3916
373.608 500.786 3916
382.972 500.786 3916
388.73 496.182 3880
398.008 496.182 3880
404.452 492.729 3853
407.976 485.952 3800
408.721 476.233 3724
417.626 476.233 3724
422.752 472.012 3691
427.72 467.792 3658
431.814 462.805 3619
440.468 462.805 3619
445.275 458.841 3588
448.922 453.853 3549
455.475 451.935 3534
462.088 450.145 3520
470.505 450.145 3520
476.882 448.226 3505
484.156 447.203 3497
493.645 448.226 3505
503.029 449.122 3512
511.427 449.122 3512
521.01 450.145 3520
530.48 451.04 3527
539.984 451.935 3534
548.435 451.935 3534
562.873 456.794 3572
597.01 477.256 3732
612.754 482.627 3774
621.779 482.627 3774
630.804 482.627 3774
679.839 512.807 4010
694.414 516.515 4039
704.072 516.515 4039
713.731 516.515 4039
723.389 516.515 4039
733.048 516.515 4039
737.374 512.807 4010
746.963 512.807 4010
756.552 512.807 4010
769.962 515.364 4030
779.599 515.364 4030
790.999 516.515 4039
800.657 516.515 4039
810.315 516.515 4039
819.974 516.515 4039
829.632 516.515 4039
835.343 514.086 4020
844.956 514.086 4020
852.443 512.807 4010
853.863 507.947 3972
869.665 511.656 4001
885.605 515.364 4030
895.242 515.364 4030
904.879 515.364 4030
914.516 515.364 4030
926.217 516.515 4039
935.876 516.515 4039
945.534 516.515 4039
955.193 516.515 4039
962.701 515.364 4030
972.338 515.364 4030
979.538 514.086 4020
982.016 510.377 3991
984.603 506.796 3963
994.08 506.796 3963
1001.02 505.518 3953
1010.48 505.518 3953
1019.93 505.518 3953
1029.38 505.518 3953
1038.84 505.518 3953
1043.51 503.216 3935
1047.84 500.786 3916
1057.2 500.786 3916
1066.57 500.786 3916
1070.99 498.484 3898
1065.34 491.578 3844
1072.02 490.427 3835
1081.19 490.427 3835
1087.8 489.277 3826
1096.95 489.277 3826
1108.7 490.427 3835
1123.12 492.729 3853
1132.33 492.729 3853
1146.88 495.031 3871
1164.2 498.484 3898
1173.52 498.484 3898
1182.84 498.484 3898
1192.16 498.484 3898
1204.26 499.635 3907
1213.6 499.635 3907
1225.76 500.786 3916
1235.13 500.786 3916
1259.43 506.796 3963
1277.87 510.377 3991
1296.77 514.086 4020
1306.38 514.086 4020
1319.27 515.364 4030
1335.17 517.794 4049
1354.82 521.631 4079
1364.57 521.631 4079
1374.33 521.631 4079
1387.47 522.909 4089
1397.25 522.909 4089
1407.03 522.909 4089
1409.88 520.352 4069
1416.12 519.073 4059
1429.34 520.352 4069
1439.07 520.352 4069
1448.8 520.352 4069
1462.11 521.631 4079
1475.48 522.909 4089
1485.25 522.909 4089
1495.03 522.909 4089
1504.81 522.909 4089
1514.59 522.909 4089
1524.37 522.909 4089
1534.14 522.909 4089
1532.59 519.073 4059
1542.3 519.073 4059
1548.18 517.794 4049
1557.87 517.794 4049
1575.29 520.352 4069
1592.81 522.909 4089
1602.59 522.909 4089
1612.37 522.909 4089
1614.21 520.352 4069
1637.69 521.631 4079
1647.44 521.631 4079
1657.2 521.631 4079
1666.95 521.631 4079
1676.7 521.631 4079
1682.32 520.352 4069
1687.89 519.073 4059
1685.47 515.364 4030
1695.11 515.364 4030
1704.75 515.364 4030
1714.38 515.364 4030
1727.87 516.515 4039
1737.53 516.515 4039
1747.19 516.515 4039
1748.58 514.086 4020
1758.19 514.086 4020
1763.41 512.807 4010
1773 512.807 4010
1782.59 512.807 4010
1779.66 509.226 3982
1793.23 510.377 3991
1815.87 514.086 4020
1825.49 514.086 4020
1835.1 514.086 4020
1840.12 512.807 4010
1849.71 512.807 4010
1859.3 512.807 4010
1864.7 511.656 4001
1896.75 517.794 4049
1920.56 521.631 4079
1930.31 521.631 4079
1940.06 521.631 4079
1949.82 521.631 4079
1959.57 521.631 4079
1969.33 521.631 4079
1955.31 515.364 4030
1927.4 505.518 3953
1857.97 484.929 3792
1867.04 484.929 3792
1876.1 484.929 3792
1851.37 476.233 3724
1807.82 462.805 3619
1800.91 458.841 3588
1809.49 458.841 3588
1806.42 455.899 3565
1810.87 454.876 3557
1804.03 451.04 3527
1812.47 451.04 3527
1817.29 450.145 3520
1821.56 449.122 3512
1837.77 451.04 3527
1849.87 451.935 3534
1858.32 451.935 3534
1866.77 451.935 3534
1875.22 451.935 3534
1887.94 452.958 3542
1908.72 455.899 3565
1917.24 455.899 3565
1929.55 456.794 3572
1938.09 456.794 3572
1946.63 456.794 3572
1955.18 456.794 3572
2002.2 465.746 3642
2029.13 469.966 3675
2065.09 476.233 3724
2074 476.233 3724
2106.39 481.604 3766
2149.1 489.277 3826
2178.56 493.88 3862
2187.79 493.88 3862
2212.39 497.333 3889
2242.25 501.937 3925
2257.38 503.216 3935
2266.79 503.216 3935
2276.2 503.216 3935
2290.83 504.367 3944
2322.43 509.226 3982
2331.95 509.226 3982
2352.64 511.656 4001
2362.21 511.656 4001
2371.78 511.656 4001
2381.35 511.656 4001
2390.91 511.656 4001
2400.48 511.656 4001
2410.05 511.656 4001
2431.11 514.086 4020
2440.72 514.086 4020
2450.33 514.086 4020
2466.07 515.364 4030
2493.52 519.073 4059
2503.22 519.073 4059
2519.12 520.352 4069
2528.85 520.352 4069
2538.58 520.352 4069
2542.05 519.073 4059
2422.25 492.729 3853
2431.46 492.729 3853
2440.68 492.729 3853
2449.89 492.729 3853
2420.17 484.929 3792
2429.24 484.929 3792
2389.44 475.21 3716
2398.33 475.21 3716
524.66 95.1442 744
526.439 95.1442 744
528.218 95.1442 744
529.997 95.1442 744
531.061 95.0163 743
532.121 94.8884 742
533.895 94.8884 742
534.948 94.7606 741
535.995 94.6327 740
537.765 94.6327 740
539.535 94.6327 740
541.304 94.6327 740
543.074 94.6327 740
544.843 94.6327 740
546.613 94.6327 740
548.382 94.6327 740
550.152 94.6327 740
551.922 94.6327 740
553.691 94.6327 740
555.461 94.6327 740
557.23 94.6327 740
559 94.6327 740
560.769 94.6327 740
563.299 94.7606 741
565.071 94.7606 741
566.843 94.7606 741
-2321.79 403.991 3101
-2314.38 403.991 3101
-2306.96 403.991 3101
-2299.55 403.991 3101
-2292.13 403.991 3101
-2284.72 403.991 3101
-2272.9 403.209 3095
-2253.05 400.994 3078
-2250.07 401.776 3084
-2255.06 403.991 3101
-2247.64 403.991 3101
-2244.56 404.772 3107
-2253.69 407.769 3130
-2297.88 417.149 3202
-2290.22 417.149 3202
-2327.47 425.356 3265
-2319.66 425.356 3265
-2311.86 425.356 3265
-2450.96 468.348 3595
-2442.36 468.348 3595
-2433.76 468.348 3595
-2430.56 469.39 3603
-2421.95 469.39 3603
-2413.33 469.39 3603
-2389.36 466.393 3580
-2380.8 466.393 3580
-2372.24 466.393 3580
-2348.5 463.397 3557
-2334.73 462.355 3549
-2316.41 460.401 3534
-2298.81 458.577 3520
-2290.4 458.577 3520
-2281.98 458.577 3520
-2273.56 458.577 3520
-2269.65 459.489 3527
-2265.7 460.401 3534
-2257.25 460.401 3534
-2258.35 462.355 3549
-2254.93 463.397 3557
-2300.11 474.471 3642
-2291.4 474.471 3642
-2292.72 476.555 3658
-2294.58 478.77 3675
-2285.8 478.77 3675
-2277.01 478.77 3675
-2268.22 478.77 3675
-2164.49 526.191 4039
-2154.84 526.191 4039
-2145.18 526.191 4039
-2115.43 521.24 4001
-2105.86 521.24 4001
-2076.38 516.29 3963
-2061.69 514.987 3953
-1986.3 498.442 3826
-1977.15 498.442 3826
-1928.4 488.41 3749
-1928.14 490.625 3766
-1927.79 492.84 3783
-1918.75 492.84 3783
-1909.7 492.84 3783
-1892.11 490.625 3766
-1849.61 481.896 3699
-1840.76 481.896 3699
-1831.92 481.896 3699
-1815.19 479.812 3683
-1802.45 478.77 3675
-1797.57 479.812 3683
-1788.76 479.812 3683
-1791.56 482.939 3707
-1802.89 488.41 3749
-1835.08 499.614 3835
-1825.9 499.614 3835
-1864.11 512.642 3935
-1890.05 522.413 4010
-1880.46 522.413 4010
-1870.87 522.413 4010
-1861.28 522.413 4010
-1847.53 521.24 4001
-1837.97 521.24 4001
-1823.83 519.938 3991
-1784.28 511.339 3925
-1770.83 510.167 3916
-1761.46 510.167 3916
-1752.1 510.167 3916
-1738.73 508.994 3907
-1709.47 503.132 3862
-1700.23 503.132 3862
-1691 503.132 3862
-1709.2 511.339 3925
-1699.81 511.339 3925
-1690.42 511.339 3925
-1681.04 511.339 3925
-1648.65 504.304 3871
-1609.33 495.055 3800
-1589.29 491.667 3774
-1580.27 491.667 3774
-1571.24 491.667 3774
-1562.22 491.667 3774
-1549.9 490.625 3766
-1540.89 490.625 3766
-1531.89 490.625 3766
-696.337 224.338 1722
-692.219 224.338 1722
-690.099 224.989 1727
-685.97 224.989 1727
-686.972 226.683 1740
-682.811 226.683 1740
-678.651 226.683 1740
-674.49 226.683 1740
-670.329 226.683 1740
-666.168 226.683 1740
-662.007 226.683 1740
-658.98 227.074 1743
-654.812 227.074 1743
-650.644 227.074 1743
-645.364 226.683 1740
-640.466 226.422 1738
-636.31 226.422 1738
-632.154 226.422 1738
-627.997 226.422 1738
-623.124 226.162 1736
-618.259 225.901 1734
-614.113 225.901 1734
-609.263 225.641 1732
-604.073 225.25 1729
-599.244 224.989 1727
-595.114 224.989 1727
-590.985 224.989 1727
-586.175 224.729 1725
-581.375 224.468 1723
-577.255 224.468 1723
-573.135 224.468 1723
-568.684 224.338 1722
-563.255 223.817 1718
-559.147 223.817 1718
-554.393 223.556 1716
-550.289 223.556 1716
-544.594 222.905 1711
-540.503 222.905 1711
-535.784 222.644 1709
-531.386 222.514 1708
-526.067 221.993 1704
-521.992 221.993 1704
-517.31 221.732 1702
-513.24 221.732 1702
-509.17 221.732 1702
-505.1 221.732 1702
-500.735 221.602 1701
-496.668 221.602 1701
-492.021 221.341 1699
-487.958 221.341 1699
-482.756 220.82 1695
-478.703 220.82 1695
-474.369 220.69 1694
-469.763 220.43 1692
-465.717 220.43 1692
-461.671 220.43 1692
-457.625 220.43 1692
-453.579 220.43 1692
-450.064 220.69 1694
-446.013 220.69 1694
-442.223 220.82 1695
-438.17 220.82 1695
-434.629 221.081 1697
-430.571 221.081 1697
-426.513 221.081 1697
-422.953 221.341 1699
-418.89 221.341 1699
-414.827 221.341 1699
-411.248 221.602 1701
-407.898 221.993 1704
-404.772 222.514 1708
-400.687 222.514 1708
-397.764 223.165 1713
-394.357 223.556 1716
-391.163 224.077 1720
-387.05 224.077 1720
-383.382 224.338 1722
-379.925 224.729 1725
-376.672 225.25 1729
-372.537 225.25 1729
-368.829 225.51 1731
-364.9 225.641 1732
-361.591 226.162 1736
-357.44 226.162 1736
-353.696 226.422 1738
-349.54 226.422 1738
-345.384 226.422 1738
-341.228 226.422 1738
-337.072 226.422 1738
-333.299 226.683 1740
-329.138 226.683 1740
-324.977 226.683 1740
-320.816 226.683 1740
-316.655 226.683 1740
-312.494 226.683 1740
-307.979 226.422 1738
-303.473 226.162 1736
-298.46 225.51 1731
-293.98 225.25 1729
-289.846 225.25 1729
-285.381 224.989 1727
-281.251 224.989 1727
-276.479 224.468 1723
-272.359 224.468 1723
-268.083 224.338 1722
-263.965 224.338 1722
-259.546 224.077 1720
-255.433 224.077 1720
-251.32 224.077 1720
-247.207 224.077 1720
-243.094 224.077 1720
-238.981 224.077 1720
-234.868 224.077 1720
-230.755 224.077 1720
-226.905 224.338 1722
-223.175 224.729 1725
-219.05 224.729 1725
-215.175 224.989 1727
-211.289 225.25 1729
-207.514 225.641 1732
-203.372 225.641 1732
-199.461 225.901 1734
-195.539 226.162 1736
-191.829 226.683 1740
-187.668 226.683 1740
-183.824 227.074 1743
-180.068 227.595 1747
-176.293 228.116 1751
-172.106 228.116 1751
-167.919 228.116 1751
-163.825 228.246 1752
-159.818 228.507 1754
-155.623 228.507 1754
-151.947 229.288 1760
-147.99 229.679 1763
-144.427 230.721 1771
-140.192 230.721 1771
-136.264 231.243 1775
-132.391 231.894 1780
-128.423 232.415 1784
-124.296 232.676 1786
-120.025 232.676 1786
-116.143 233.457 1792
-111.982 233.718 1794
-107.933 234.239 1798
-103.633 234.239 1798
-99.5544 234.76 1802
-95.351 235.021 1804
-91.0371 235.021 1804
-86.7232 235.021 1804
-82.4093 235.021 1804
-78.0954 235.021 1804
-73.7815 235.021 1804
-69.3905 234.76 1802
-65.0814 234.76 1802
-60.7723 234.76 1802
-56.4632 234.76 1802
-117.187 527.494 4049
-107.505 527.494 4049
-97.8226 527.494 4049
-88.1402 527.494 4049
280.481 528.796 4059
290.188 528.796 4059
299.894 528.796 4059
305.176 521.24 4001
311.755 516.29 3963
321.231 516.29 3963
329.123 513.814 3944
336.923 511.339 3925
340.75 503.132 3862
350.801 504.304 3871
360.058 504.304 3871
369.315 504.304 3871
378.571 504.304 3871
386.025 501.959 3853
395.238 501.959 3853
400.778 497.4 3818
404.325 490.625 3766
407.843 484.111 3716
416.729 484.111 3716
422.752 480.854 3691
427.72 476.555 3658
430.859 470.432 3611
436.695 467.436 3588
445.275 467.436 3588
448.922 462.355 3549
455.475 460.401 3534
462.088 458.577 3520
470.505 458.577 3520
476.882 456.623 3505
484.156 455.58 3497
493.645 456.623 3505
503.029 457.535 3512
511.427 457.535 3512
521.01 458.577 3520
529.427 458.577 3520
539.984 460.401 3534
548.435 460.401 3534
561.77 464.439 3565
593.011 482.939 3707
611.455 490.625 3766
620.461 490.625 3766
629.466 490.625 3766
679.839 522.413 4010
689.428 522.413 4010
699.017 522.413 4010
708.606 522.413 4010
718.195 522.413 4010
727.784 522.413 4010
737.374 522.413 4010
746.963 522.413 4010
756.552 522.413 4010
769.962 525.018 4030
779.599 525.018 4030
790.999 526.191 4039
800.657 526.191 4039
810.315 526.191 4039
819.974 526.191 4039
829.632 526.191 4039
835.343 523.716 4020
844.956 523.716 4020
852.443 522.413 4010
853.863 517.462 3972
869.665 521.24 4001
885.605 525.018 4030
895.242 525.018 4030
904.879 525.018 4030
914.516 525.018 4030
926.217 526.191 4039
935.876 526.191 4039
945.534 526.191 4039
955.193 526.191 4039
962.701 525.018 4030
972.338 525.018 4030
979.538 523.716 4020
982.016 519.938 3991
984.603 516.29 3963
994.08 516.29 3963
1001.02 514.987 3953
1010.48 514.987 3953
1019.93 514.987 3953
1029.38 514.987 3953
1038.84 514.987 3953
1043.51 512.642 3935
1047.84 510.167 3916
1057.2 510.167 3916
1066.57 510.167 3916
1070.99 507.822 3898
1065.34 500.787 3844
1072.02 499.614 3835
1081.19 499.614 3835
1085.53 497.4 3818
1092.08 496.227 3809
1103.79 497.4 3818
1117.87 499.614 3835
1127.04 499.614 3835
1141.55 501.959 3853
1158.82 505.477 3880
1168.1 505.477 3880
1177.38 505.477 3880
1186.66 505.477 3880
1193.16 504.304 3871
1208.01 506.649 3889
1222.95 508.994 3907
1232.29 508.994 3907
1259.43 516.29 3963
1271.79 517.462 3972
1290.64 521.24 4001
1300.21 521.24 4001
1315.99 523.716 4020
1331.87 526.191 4039
1351.5 530.099 4069
1361.23 530.099 4069
1374.33 531.402 4079
1384.08 531.402 4079
1393.83 531.402 4079
1400.15 530.099 4069
1396.36 525.018 4030
1392.39 519.938 3991
1408.61 522.413 4010
1418.2 522.413 4010
1448.8 530.099 4069
1462.11 531.402 4079
1475.48 532.705 4089
1485.25 532.705 4089
1495.03 532.705 4089
1504.81 532.705 4089
1514.59 532.705 4089
1524.37 532.705 4089
1534.14 532.705 4089
1532.59 528.796 4059
1542.3 528.796 4059
1548.18 527.494 4049
1557.87 527.494 4049
1575.29 530.099 4069
1585.02 530.099 4069
1594.75 530.099 4069
1604.48 530.099 4069
1622.15 532.705 4089
1631.92 532.705 4089
1641.7 532.705 4089
1651.48 532.705 4089
1657.2 531.402 4079
1666.95 531.402 4079
1676.7 531.402 4079
1682.32 530.099 4069
1687.89 528.796 4059
1685.47 525.018 4030
1695.11 525.018 4030
1704.75 525.018 4030
1714.38 525.018 4030
1727.87 526.191 4039
1737.53 526.191 4039
1747.19 526.191 4039
1748.58 523.716 4020
1758.19 523.716 4020
1763.41 522.413 4010
1773 522.413 4010
1782.59 522.413 4010
1788.16 521.24 4001
1801.77 522.413 4010
1820.39 525.018 4030
1830.03 525.018 4030
1839.66 525.018 4030
1844.71 523.716 4020
1854.32 523.716 4020
1859.3 522.413 4010
1864.7 521.24 4001
1887.85 525.018 4030
1906.43 527.494 4049
1920.85 528.796 4059
1930.55 528.796 4059
1940.26 528.796 4059
1936.03 525.018 4030
1945.67 525.018 4030
1941.24 521.24 4001
1941.54 518.765 3982
1914.31 508.994 3907
1923.66 508.994 3907
1871.65 492.84 3783
1851.37 485.153 3724
1819.31 474.471 3642
1816.47 471.474 3619
1825.13 471.474 3619
1818.07 467.436 3588
1814.94 464.439 3565
1815.29 462.355 3549
1823.77 462.355 3549
1820.9 459.489 3527
1832.97 460.401 3534
1845.59 461.443 3542
1854.06 461.443 3542
1862.53 461.443 3542
1871 461.443 3542
1883.18 462.355 3549
1900.19 464.439 3565
1916.75 466.393 3580
1925.31 466.393 3580
1933.87 466.393 3580
1942.43 466.393 3580
