430.782 -1011.85 3925
440.167 -1011.85 3925
448.523 -1009.52 3916
457.887 -1009.52 3916
466.177 -1007.2 3907
475.52 -1007.2 3907
478.162 -993.284 3853
482.948 -984.261 3818
490.918 -981.941 3809
500.027 -981.941 3809
509.135 -981.941 3809
518.243 -981.941 3809
527.352 -981.941 3809
536.46 -981.941 3809
545.569 -981.941 3809
1784.96 -1046.39 4059
1794.66 -1046.39 4059
1804.37 -1046.39 4059
1814.08 -1046.39 4059
1806.26 -1036.34 4020
1815.87 -1036.34 4020
1812.32 -1028.86 3991
1783.52 -1007.2 3907
1780.47 -1000.24 3880
1789.75 -1000.24 3880
1799.02 -1000.24 3880
1767.29 -977.558 3792
1776.36 -977.558 3792
1765.18 -966.473 3749
1774.14 -966.473 3749
2981.47 -1023.96 3972
2990.97 -1023.96 3972
3008.02 -1026.54 3982
3017.55 -1026.54 3982
3027.07 -1026.54 3982
3043.45 -1028.86 3991
3053 -1028.86 3991
-2453.23 -922.247 3611
-2460.84 -928.377 3635
-2452.15 -928.377 3635
-2443.46 -928.377 3635
-2434.76 -928.377 3635
-2420.73 -926.334 3627
-2412.06 -926.334 3627
-2392.78 -922.247 3611
-2389.43 -924.29 3619
-2380.78 -924.29 3619
-2377.37 -926.334 3627
-2368.69 -926.334 3627
-2360.02 -926.334 3627
-2340.97 -922.247 3611
-2327.17 -920.204 3603
-2318.56 -920.204 3603
-2309.94 -920.204 3603
-2291.74 -916.373 3588
-2272.98 -912.287 3572
-2245.42 -904.625 3542
-2236.95 -904.625 3542
-2214.64 -899.006 3520
-628.599 -450.269 1763
-624.383 -450.269 1763
-620.167 -450.269 1763
-614.903 -449.503 1760
-603.061 -443.884 1738
-598.905 -443.884 1738
-593.38 -442.863 1734
-585.496 -440.053 1723
-576.651 -436.478 1709
-572.565 -436.478 1709
-566.15 -434.69 1702
-561.089 -433.924 1699
-556.37 -433.413 1697
-552.312 -433.413 1697
-547.285 -432.647 1694
-540.989 -430.859 1687
-534.091 -428.56 1678
-528.183 -427.028 1672
-524.184 -427.028 1672
-518.942 -426.006 1668
-509.396 -421.409 1650
-501.468 -418.089 1637
-497.553 -418.089 1637
-492.131 -416.812 1632
-486.433 -415.279 1626
-480.765 -413.747 1620
-476.891 -413.747 1620
-471.557 -412.47 1615
-466.826 -411.704 1612
-462.11 -410.938 1609
-458.262 -410.938 1609
-453.002 -409.661 1604
-447.767 -408.384 1599
-442.832 -407.362 1595
-438.192 -406.596 1592
-434.385 -406.596 1592
-429.767 -405.83 1589
-425.163 -405.063 1586
-420.574 -404.297 1583
-416.788 -404.297 1583
-412.481 -403.786 1581
-408.442 -403.531 1580
-404.151 -403.02 1578
-400.378 -403.02 1578
-396.353 -402.765 1577
-392.084 -402.254 1575
-388.318 -402.254 1575
-384.551 -402.254 1575
-380.543 -401.999 1574
-376.779 -401.999 1574
-373.015 -401.999 1574
-369.252 -401.999 1574
-365.023 -401.488 1572
-361.264 -401.488 1572
-357.505 -401.488 1572
-354.196 -401.999 1574
-350.432 -401.999 1574
-346.888 -402.254 1575
-343.558 -402.765 1577
-340.002 -403.02 1578
-336.229 -403.02 1578
-332.876 -403.531 1580
-329.307 -403.786 1581
-325.526 -403.786 1581
-321.745 -403.786 1581
-319.171 -405.319 1587
-315.972 -406.085 1590
-312.563 -406.596 1592
-308.756 -406.596 1592
-306.098 -408.128 1598
-303.223 -409.405 1603
-300.697 -411.193 1610
-296.847 -411.193 1610
-294.453 -413.236 1618
-292.02 -415.279 1626
-289.195 -416.812 1632
-285.293 -416.812 1632
-282.252 -418.089 1637
-279.528 -419.877 1644
-277.105 -422.175 1653
-273.153 -422.175 1653
-271.968 -426.517 1670
-268.777 -427.794 1675
-265.562 -429.071 1680
-261.545 -429.071 1680
-258.6 -430.859 1687
-255.622 -432.647 1694
-252.314 -433.924 1699
-248.251 -433.924 1699
-244.907 -435.201 1704
-240.832 -435.201 1704
-237.035 -435.711 1706
-232.956 -435.711 1706
-229.547 -436.988 1711
-226.114 -438.265 1716
-222.27 -438.776 1718
-218.161 -438.776 1718
-214.053 -438.776 1718
-430.209 -955.194 3740
-421.266 -955.194 3740
-412.322 -955.194 3740
-403.379 -955.194 3740
-397.177 -961.834 3766
-388.172 -961.834 3766
-379.972 -963.877 3774
-375.272 -975.115 3818
-367.772 -979.457 3835
-358.601 -979.457 3835
-351.071 -984.054 3853
-341.857 -984.054 3853
-332.643 -984.054 3853
-323.43 -984.054 3853
-310.628 -972.816 3809
-299.461 -966.176 3783
-287.805 -957.492 3749
-278.84 -957.492 3749
-269.875 -957.492 3749
-260.91 -957.492 3749
-152.962 -955.194 3740
-145.019 -961.834 3766
-137.892 -975.115 3818
-128.762 -975.115 3818
-120.728 -984.054 3853
-112.817 -995.547 3898
-103.496 -995.547 3898
-94.1745 -995.547 3898
-84.8532 -995.547 3898
-75.5319 -995.547 3898
-66.2106 -995.547 3898
43.4084 -946.766 3707
52.5127 -951.107 3724
61.4179 -951.107 3724
70.7952 -957.492 3749
80.675 -968.475 3792
89.7429 -968.475 3792
98.8107 -968.475 3792
107.879 -968.475 3792
117.193 -970.518 3800
126.28 -970.518 3800
135.367 -970.518 3800
144.454 -970.518 3800
153.905 -972.816 3809
164.896 -984.054 3853
174.11 -984.054 3853
185.465 -995.547 3898
195.685 -1000.14 3916
207.511 -1012.15 3963
216.987 -1012.15 3963
226.978 -1014.45 3972
236.477 -1014.45 3972
245.975 -1014.45 3972
325.041 -1024.15 4010
334.63 -1024.15 4010
344.219 -1024.15 4010
353.809 -1024.15 4010
363.398 -1024.15 4010
372.987 -1024.15 4010
379.905 -1017 3982
388.449 -1014.45 3972
397.045 -1012.15 3963
406.522 -1012.15 3963
414.004 -1007.3 3944
422.469 -1005 3935
430.782 -1002.44 3925
440.167 -1002.44 3925
448.523 -1000.14 3916
457.887 -1000.14 3916
466.177 -997.846 3907
475.52 -997.846 3907
478.162 -984.054 3853
482.948 -975.115 3818
490.918 -972.816 3809
500.027 -972.816 3809
507.932 -970.518 3800
517.019 -970.518 3800
526.106 -970.518 3800
535.193 -970.518 3800
544.28 -970.518 3800
1784.96 -1036.67 4059
1794.66 -1036.67 4059
1804.37 -1036.67 4059
1814.08 -1036.67 4059
1806.26 -1026.71 4020
1815.87 -1026.71 4020
1812.32 -1019.3 3991
1783.52 -997.846 3907
1784.6 -993.248 3889
1793.9 -993.248 3889
1799.02 -990.95 3880
1767.29 -968.475 3792
1776.36 -968.475 3792
1781.19 -966.176 3783
1790.23 -966.176 3783
1736.02 -932.208 3650
1744.75 -932.208 3650
2981.47 -1014.45 3972
2998.5 -1017 3982
3029.17 -1024.15 4010
3038.76 -1024.15 4010
3048.35 -1024.15 4010
3051.08 -1021.85 4001
3060.65 -1021.85 4001
-2478.23 -919.669 3635
-2469.53 -919.669 3635
-2460.84 -919.669 3635
-2462.27 -923.464 3650
-2453.54 -923.464 3650
-2444.81 -923.464 3650
-2436.08 -923.464 3650
-2412.06 -917.645 3627
-2392.78 -913.597 3611
-2389.43 -915.621 3619
-2380.78 -915.621 3619
-2372.12 -915.621 3619
-2363.47 -915.621 3619
-2354.81 -915.621 3619
-2340.97 -913.597 3611
-2317.48 -907.778 3588
-2308.9 -907.778 3588
-2300.32 -907.778 3588
-2291.74 -907.778 3588
-2272.98 -903.73 3572
-2240.35 -894.116 3534
-2231.9 -894.116 3534
-2195.77 -882.984 3490
-615.529 -439.721 1738
-611.373 -439.721 1738
-607.217 -439.721 1738
-601.673 -438.709 1734
-597.527 -438.709 1734
-592.696 -438.203 1732
-585.496 -435.926 1723
-576.314 -432.131 1708
-572.23 -432.131 1708
-565.817 -430.36 1701
-561.089 -429.854 1699
-555.715 -428.842 1695
-551.661 -428.842 1695
-547.285 -428.589 1694
-540.989 -426.818 1687
-533.772 -424.288 1677
-528.183 -423.023 1672
-524.184 -423.023 1672
-518.63 -421.758 1667
-509.396 -417.456 1650
-501.468 -414.167 1637
-497.553 -414.167 1637
-492.131 -412.902 1632
-486.433 -411.384 1626
-480.765 -409.866 1620
-476.891 -409.866 1620
-471.557 -408.601 1615
-466.826 -407.842 1612
-462.11 -407.083 1609
-458.262 -407.083 1609
-453.002 -405.818 1604
-448.327 -405.059 1601
-442.832 -403.541 1595
-438.468 -403.035 1593
-434.658 -403.035 1593
-429.767 -402.023 1589
-425.967 -402.023 1589
-420.839 -400.758 1584
-417.051 -400.758 1584
-412.481 -399.999 1581
-408.442 -399.746 1580
-404.151 -399.24 1578
-400.378 -399.24 1578
-396.353 -398.987 1577
-392.582 -398.987 1577
-388.071 -398.228 1574
-384.307 -398.228 1574
-380.543 -398.228 1574
-376.779 -398.228 1574
-372.541 -397.722 1572
-368.782 -397.722 1572
-365.023 -397.722 1572
-361.264 -397.722 1572
-357.505 -397.722 1572
-354.196 -398.228 1574
-350.432 -398.228 1574
-346.888 -398.481 1575
-343.122 -398.481 1575
-340.002 -399.24 1578
-336.229 -399.24 1578
-332.876 -399.746 1580
-329.307 -399.999 1581
-325.526 -399.999 1581
-321.745 -399.999 1581
-319.171 -401.517 1587
-315.972 -402.276 1590
-312.563 -402.782 1592
-308.756 -402.782 1592
-306.29 -404.553 1599
-303.223 -405.565 1603
-300.697 -407.336 1610
-296.847 -407.336 1610
-294.817 -409.866 1620
-292.02 -411.384 1626
-289.904 -413.914 1636
-285.992 -413.914 1636
-282.597 -414.673 1639
-280.038 -416.697 1647
-277.944 -419.48 1658
-273.979 -419.48 1658
-272.294 -423.023 1672
-269.098 -424.288 1677
-265.878 -425.553 1682
-261.856 -425.553 1682
-258.6 -426.818 1687
-255.622 -428.589 1694
-252.017 -429.348 1697
-247.959 -429.348 1697
-244.62 -430.613 1702
-240.832 -431.119 1704
-237.035 -431.625 1706
-232.956 -431.625 1706
-229.547 -432.89 1711
-226.114 -434.155 1716
-222.27 -434.661 1718
-218.161 -434.661 1718
-214.053 -434.661 1718
-430.209 -946.235 3740
-421.266 -946.235 3740
-412.322 -946.235 3740
-404.35 -948.512 3749
-398.021 -954.837 3774
-388.996 -954.837 3774
-382.589 -961.415 3800
-375.272 -965.969 3818
-367.772 -970.27 3835
-358.601 -970.27 3835
-351.071 -974.824 3853
-341.857 -974.824 3853
-332.643 -974.824 3853
-322.674 -972.547 3844
-308.507 -957.114 3783
-297.403 -950.536 3757
-287.114 -946.235 3740
-278.17 -946.235 3740
-269.227 -946.235 3740
-260.283 -946.235 3740
-145.019 -952.813 3766
-137.892 -965.969 3818
-128.762 -965.969 3818
-120.728 -974.824 3853
-113.599 -993.04 3925
-104.213 -993.04 3925
-94.8268 -993.04 3925
-85.4409 -993.04 3925
-75.5319 -986.209 3898
-66.2106 -986.209 3898
44.2984 -957.114 3783
53.3447 -957.114 3783
62.391 -957.114 3783
71.7583 -961.415 3800
81.0367 -963.692 3809
90.3582 -965.969 3818
99.4882 -965.969 3818
109.358 -972.547 3844
118.55 -972.547 3844
128.041 -974.824 3853
137.255 -974.824 3853
146.811 -977.101 3862
156.046 -977.101 3862
166.822 -986.209 3898
176.143 -986.209 3898
188.081 -1000.12 3953
197.534 -1000.12 3953
207.982 -1004.93 3972
217.48 -1004.93 3972
226.978 -1004.93 3972
236.477 -1004.93 3972
245.975 -1004.93 3972
325.041 -1014.55 4010
334.63 -1014.55 4010
344.219 -1014.55 4010
353.809 -1014.55 4010
363.398 -1014.55 4010
372.987 -1014.55 4010
379.905 -1007.46 3982
388.449 -1004.93 3972
397.045 -1002.65 3963
406.522 -1002.65 3963
414.004 -997.847 3944
422.469 -995.57 3935
430.782 -993.04 3925
440.167 -993.04 3925
448.523 -990.763 3916
457.887 -990.763 3916
465.103 -986.209 3898
474.425 -986.209 3898
478.162 -974.824 3853
482.948 -965.969 3818
489.758 -961.415 3800
497.795 -959.391 3792
507.932 -961.415 3800
517.019 -961.415 3800
526.106 -961.415 3800
535.193 -961.415 3800
544.28 -961.415 3800
1743.29 -1019.61 4030
1752.93 -1019.61 4030
1762.57 -1019.61 4030
1784.96 -1026.94 4059
1794.66 -1026.94 4059
1804.37 -1026.94 4059
1796.65 -1017.08 4020
1806.26 -1017.08 4020
1815.87 -1017.08 4020
1812.32 -1009.74 3991
1783.52 -988.486 3907
1784.6 -983.932 3889
1793.9 -983.932 3889
1799.02 -981.655 3880
1771.02 -961.415 3800
1776.36 -959.391 3792
1781.19 -957.114 3783
1790.23 -957.114 3783
1763.13 -937.885 3707
1748.58 -925.488 3658
2967.21 -1000.12 3953
2998.5 -1007.46 3982
3036.73 -1017.08 4020
3046.34 -1017.08 4020
3055.95 -1017.08 4020
3057.94 -1014.55 4010
3067.53 -1014.55 4010
-2478.23 -910.962 3635
-2469.53 -910.962 3635
-2471 -914.721 3650
-2467.67 -916.726 3658
-2458.92 -916.726 3658
-2450.17 -916.726 3658
-2436.08 -914.721 3650
-2412.06 -908.957 3627
-2398.09 -906.952 3619
-2394.71 -908.957 3627
-2386.04 -908.957 3627
-2377.37 -908.957 3627
-2358.24 -904.947 3611
-2349.61 -904.947 3611
-2335.79 -902.942 3603
-2322.01 -900.937 3595
-2313.41 -900.937 3595
-2304.81 -900.937 3595
-2291.74 -899.183 3588
-2272.98 -895.173 3572
-2240.35 -885.65 3534
-2231.9 -885.65 3534
-2195.77 -874.623 3490
-605.121 -434.054 1732
-600.979 -434.054 1732
-596.837 -434.054 1732
-589.616 -431.798 1723
-583.117 -430.044 1716
-576.314 -428.039 1708
-572.23 -428.039 1708
-565.152 -425.784 1699
-559.768 -424.781 1695
-555.387 -424.531 1694
-551.336 -424.531 1694
-545.023 -422.776 1687
-539.707 -421.774 1683
-532.499 -419.268 1673
-526.919 -418.015 1668
-522.93 -418.015 1668
-516.453 -416.01 1660
-508.47 -412.752 1647
-501.468 -410.246 1637
-497.553 -410.246 1637
-492.131 -408.993 1632
-486.433 -407.489 1626
-480.765 -405.986 1620
-476.891 -405.986 1620
-471.557 -404.733 1615
-466.826 -403.981 1612
-462.11 -403.229 1609
-458.262 -403.229 1609
-453.002 -401.976 1604
-448.327 -401.224 1601
-443.11 -399.971 1596
-438.468 -399.219 1593
-434.658 -399.219 1593
-430.038 -398.467 1590
-425.967 -398.217 1589
-420.839 -396.964 1584
-417.051 -396.964 1584
-412.481 -396.212 1581
-408.442 -395.961 1580
-404.151 -395.46 1578
-400.378 -395.46 1578
-396.353 -395.209 1577
-392.582 -395.209 1577
-388.071 -394.458 1574
-384.307 -394.458 1574
-380.543 -394.458 1574
-376.779 -394.458 1574
-372.541 -393.956 1572
-368.782 -393.956 1572
-364.791 -393.706 1571
-361.034 -393.706 1571
-357.505 -393.956 1572
-353.746 -393.956 1572
-349.987 -393.956 1572
-346.888 -394.708 1575
-343.122 -394.708 1575
-339.787 -395.209 1577
-336.016 -395.209 1577
-332.455 -395.46 1578
-329.307 -396.212 1581
-325.526 -396.212 1581
-321.745 -396.212 1581
-319.171 -397.716 1587
-315.774 -398.217 1589
-312.563 -398.969 1592
-308.756 -398.969 1592
-306.29 -400.723 1599
-303.223 -401.725 1603
-300.697 -403.48 1610
-296.847 -403.48 1610
-294.817 -405.986 1620
-292.02 -407.489 1626
-289.904 -409.995 1636
-285.992 -409.995 1636
-282.597 -410.747 1639
-280.038 -412.752 1647
-277.944 -415.509 1658
-273.979 -415.509 1658
-272.294 -419.017 1672
-269.098 -420.27 1677
-265.878 -421.523 1682
-261.856 -421.523 1682
-258.6 -422.776 1687
-255.622 -424.531 1694
-252.017 -425.282 1697
-247.959 -425.282 1697
-244.62 -426.535 1702
-240.55 -426.535 1702
-237.035 -427.538 1706
-232.956 -427.538 1706
-229.547 -428.791 1711
-225.983 -429.793 1715
-222.011 -430.044 1716
-217.908 -430.044 1716
-213.804 -430.044 1716
-430.209 -937.275 3740
-421.266 -937.275 3740
-412.322 -937.275 3740
-405.212 -941.536 3757
-398.021 -945.796 3774
-388.996 -945.796 3774
-382.589 -952.312 3800
-375.272 -956.823 3818
-367.772 -961.083 3835
-358.601 -961.083 3835
-351.071 -965.594 3853
-341.857 -965.594 3853
-332.643 -965.594 3853
-322.674 -963.339 3844
-308.507 -948.052 3783
-297.403 -941.536 3757
-286.5 -935.271 3732
-278.17 -937.275 3740
-269.227 -937.275 3740
-260.283 -937.275 3740
-145.019 -943.791 3766
-137.567 -954.567 3809
-128.458 -954.567 3809
-120.728 -965.594 3853
-113.599 -983.638 3925
-104.213 -983.638 3925
-94.8268 -983.638 3925
-85.4409 -983.638 3925
-76.0551 -983.638 3925
-66.6692 -983.638 3925
44.2984 -948.052 3783
53.7113 -954.567 3809
62.8198 -954.567 3809
72.0982 -956.823 3818
82.5473 -972.361 3880
92.4645 -979.127 3907
101.807 -979.127 3907
111.15 -979.127 3907
119.66 -972.361 3880
131.065 -988.4 3944
140.497 -988.4 3944
149.928 -988.4 3944
160.127 -993.161 3963
169.604 -993.161 3963
179.08 -993.161 3963
189.461 -997.923 3982
199.933 -1002.68 4001
209.5 -1002.68 4001
219.068 -1002.68 4001
226.978 -995.417 3972
325.041 -1004.94 4010
334.63 -1004.94 4010
344.219 -1004.94 4010
353.809 -1004.94 4010
363.398 -1004.94 4010
372.987 -1004.94 4010
379.905 -997.923 3982
388.449 -995.417 3972
397.045 -993.161 3963
406.522 -993.161 3963
414.004 -988.4 3944
422.469 -986.144 3935
430.782 -983.638 3925
440.167 -983.638 3925
448.523 -981.383 3916
457.887 -981.383 3916
465.103 -976.872 3898
474.425 -976.872 3898
478.162 -965.594 3853
482.948 -956.823 3818
489.758 -952.312 3800
497.795 -950.307 3792
507.932 -952.312 3800
517.019 -952.312 3800
526.106 -952.312 3800
535.193 -952.312 3800
544.28 -952.312 3800
1733.66 -1009.95 4030
1751.51 -1014.71 4049
1761.2 -1014.71 4049
1770.88 -1014.71 4049
1784.96 -1017.22 4059
1794.66 -1017.22 4059
1804.37 -1017.22 4059
1801.12 -1009.95 4030
1806.26 -1007.45 4020
1815.87 -1007.45 4020
1812.32 -1000.18 3991
1783.52 -979.127 3907
1784.6 -974.616 3889
1793.9 -974.616 3889
1799.02 -972.361 3880
1775.21 -954.567 3809
1776.36 -950.307 3792
1781.19 -948.052 3783
1790.23 -948.052 3783
1763.13 -929.005 3707
1752.88 -918.981 3667
1753.48 -914.721 3650
1762.21 -914.721 3650
2988.98 -997.923 3982
3027.12 -1007.45 4020
3044.28 -1009.95 4030
3053.92 -1009.95 4030
3063.56 -1009.95 4030
3057.94 -1004.94 4010
3067.53 -1004.94 4010
-2514.29 -912.182 3675
-2505.5 -912.182 3675
-2496.71 -912.182 3675
-2487.92 -912.182 3675
-2479.13 -912.182 3675
-2470.35 -912.182 3675
-2461.56 -912.182 3675
-2436.08 -905.977 3650
-2422.04 -903.991 3642
-2403.39 -900.268 3627
-2394.71 -900.268 3627
-2386.04 -900.268 3627
-2377.37 -900.268 3627
-2358.24 -896.297 3611
-2349.61 -896.297 3611
-2335.79 -894.311 3603
-2322.01 -892.325 3595
-2313.41 -892.325 3595
-2304.81 -892.325 3595
-2291.74 -890.588 3588
-2272.98 -886.616 3572
-2240.35 -877.184 3534
-2231.9 -877.184 3534
-2195.77 -866.263 3490
-2173.63 -860.802 3468
-605.121 -429.905 1732
-600.979 -429.905 1732
-596.837 -429.905 1732
-589.616 -427.671 1723
-583.117 -425.933 1716
-576.314 -423.948 1708
-572.23 -423.948 1708
-565.152 -421.714 1699
-559.768 -420.721 1695
-555.387 -420.473 1694
-551.336 -420.473 1694
-545.023 -418.735 1687
-539.707 -417.742 1683
-532.499 -415.26 1673
-526.919 -414.019 1668
-522.93 -414.019 1668
-516.453 -412.033 1660
-508.47 -408.807 1647
-502.081 -406.821 1639
-498.161 -406.821 1639
-492.131 -405.083 1632
-487.032 -404.091 1628
-481.655 -402.85 1623
-477.774 -402.85 1623
-472.433 -401.608 1618
-467.695 -400.864 1615
-462.397 -399.623 1610
-458.547 -399.623 1610
-453.567 -398.63 1606
-449.167 -398.133 1604
-443.665 -396.644 1598
-439.018 -395.9 1595
-435.204 -395.9 1595
-430.579 -395.155 1592
-425.967 -394.41 1589
-420.839 -393.169 1584
-417.051 -393.169 1584
-412.481 -392.425 1581
-408.442 -392.176 1580
-404.151 -391.68 1578
-400.378 -391.68 1578
-396.353 -391.432 1577
-392.582 -391.432 1577
-388.318 -390.935 1575
-384.551 -390.935 1575
-380.543 -390.687 1574
-376.779 -390.687 1574
-372.541 -390.191 1572
-368.782 -390.191 1572
-364.791 -389.942 1571
-361.034 -389.942 1571
-357.505 -390.191 1572
-353.746 -390.191 1572
-349.987 -390.191 1572
-346.888 -390.935 1575
-343.122 -390.935 1575
-339.787 -391.432 1577
-336.016 -391.432 1577
-332.455 -391.68 1578
-329.307 -392.425 1581
-325.526 -392.425 1581
-321.745 -392.425 1581
-319.171 -393.914 1587
-315.774 -394.41 1589
-312.563 -395.155 1592
-308.756 -395.155 1592
-306.29 -396.892 1599
-303.412 -398.133 1604
-300.697 -399.623 1610
-296.847 -399.623 1610
-294.817 -402.105 1620
-292.02 -403.594 1626
-289.904 -406.076 1636
-285.992 -406.076 1636
-282.597 -406.821 1639
-280.038 -408.807 1647
-277.944 -411.537 1658
-273.979 -411.537 1658
-272.294 -415.012 1672
-269.098 -416.253 1677
-265.878 -417.494 1682
-261.856 -417.494 1682
-258.6 -418.735 1687
-255.622 -420.473 1694
-252.017 -421.217 1697
-247.959 -421.217 1697
-244.62 -422.458 1702
-240.55 -422.458 1702
-237.035 -423.451 1706
-232.956 -423.451 1706
-229.547 -424.692 1711
-225.983 -425.685 1715
-222.011 -425.933 1716
-217.908 -425.933 1716
-214.302 -426.926 1720
-210.189 -426.926 1720
-206.076 -426.926 1720
-430.209 -928.316 3740
-421.266 -928.316 3740
-412.322 -928.316 3740
-405.212 -932.536 3757
-399.919 -941.223 3792
-390.852 -941.223 3792
-382.589 -943.209 3800
-375.272 -947.677 3818
-367.772 -951.896 3835
-358.601 -951.896 3835
-351.891 -958.598 3862
-342.655 -958.598 3862
-333.42 -958.598 3862
-322.674 -954.13 3844
-310.628 -945.443 3809
-298.115 -934.77 3766
-287.805 -930.55 3749
-278.84 -930.55 3749
-269.875 -930.55 3749
-260.91 -930.55 3749
-145.019 -934.77 3766
-137.567 -945.443 3809
-128.458 -945.443 3809
-120.728 -956.364 3853
-113.599 -974.236 3925
-104.213 -974.236 3925
-94.8268 -974.236 3925
-85.4409 -974.236 3925
-76.0551 -974.236 3925
-66.6692 -974.236 3925
-56.3639 -958.598 3862
-46.909 -954.13 3844
36.156 -963.066 3880
45.4342 -963.066 3880
54.7125 -963.066 3880
63.5454 -956.364 3853
72.7591 -956.364 3853
84.5046 -985.902 3972
94.2395 -988.384 3982
103.762 -988.384 3982
113.284 -988.384 3982
119.66 -963.066 3880
133.259 -995.334 4010
142.848 -995.334 4010
152.437 -995.334 4010
160.895 -988.384 3982
170.417 -988.384 3982
179.939 -988.384 3982
190.365 -993.1 4001
199.933 -993.1 4001
209.5 -993.1 4001
219.068 -993.1 4001
226.978 -985.902 3972
325.041 -995.334 4010
334.63 -995.334 4010
344.219 -995.334 4010
353.809 -995.334 4010
360.86 -988.384 3982
370.382 -988.384 3982
378.092 -983.668 3963
387.569 -983.668 3963
394.24 -976.718 3935
403.65 -976.718 3935
413.06 -976.718 3935
421.396 -974.236 3925
429.794 -972.002 3916
439.158 -972.002 3916
448.523 -972.002 3916
455.782 -967.534 3898
464.03 -965.3 3889
473.329 -965.3 3889
478.162 -956.364 3853
480.671 -943.209 3800
488.727 -941.223 3792
496.613 -938.989 3783
506.863 -941.223 3792
515.93 -941.223 3792
524.998 -941.223 3792
534.066 -941.223 3792
543.134 -941.223 3792
1733.66 -1000.3 4030
1751.51 -1005.01 4049
1761.2 -1005.01 4049
1770.88 -1005.01 4049
1772.21 -1000.3 4030
1781.84 -1000.3 4030
1791.48 -1000.3 4030
1801.12 -1000.3 4030
1806.26 -997.816 4020
1815.87 -997.816 4020
1812.32 -990.618 3991
1783.52 -969.768 3907
1780.47 -963.066 3880
1789.75 -963.066 3880
1778.16 -951.896 3835
1775.21 -945.443 3809
1772.14 -938.989 3783
1776.95 -936.755 3774
1785.98 -936.755 3774
1763.13 -920.125 3707
1752.88 -910.197 3667
1753.48 -905.977 3650
1762.21 -905.977 3650
2988.98 -988.384 3982
3027.12 -997.816 4020
3044.28 -1000.3 4030
3053.92 -1000.3 4030
3063.56 -1000.3 4030
3057.94 -995.334 4010
3067.53 -995.334 4010
-2530.71 -909.279 3699
-2521.86 -909.279 3699
-2513.01 -909.279 3699
-2487.92 -903.379 3675
-2484.53 -905.345 3683
-2475.72 -905.345 3683
-2466.92 -905.345 3683
-2452.77 -903.379 3675
-2427.36 -897.233 3650
-2418.63 -897.233 3650
-2409.9 -897.233 3650
-2401.17 -897.233 3650
-2387.2 -895.267 3642
-2373.92 -893.546 3635
-2365.23 -893.546 3635
-2335.79 -885.68 3603
-2322.01 -883.714 3595
-2313.41 -883.714 3595
-2304.81 -883.714 3595
-2291.74 -881.993 3588
-2263.44 -874.372 3557
-2235.91 -866.998 3527
-2227.48 -866.998 3527
-2195.77 -857.903 3490
-2173.63 -852.495 3468
-595.427 -421.823 1716
-591.324 -421.823 1716
-587.22 -421.823 1716
-580.398 -419.856 1708
-573.952 -418.135 1701
-569.884 -418.135 1701
-562.823 -415.923 1692
-558.777 -415.923 1692
-554.075 -415.431 1690
-550.034 -415.431 1690
-543.731 -413.711 1683
-537.782 -412.236 1677
-530.908 -410.023 1668
-525.024 -408.548 1662
-521.049 -408.548 1662
-515.83 -407.565 1658
-507.852 -404.37 1645
-502.081 -402.895 1639
-498.161 -402.895 1639
-492.131 -401.174 1632
-487.032 -400.191 1628
-481.655 -398.962 1623
-477.774 -398.962 1623
-472.433 -397.733 1618
-467.695 -396.995 1615
-462.397 -395.766 1610
-458.547 -395.766 1610
-453.567 -394.783 1606
-449.167 -394.291 1604
-443.665 -392.816 1598
-439.018 -392.079 1595
-435.204 -392.079 1595
-430.579 -391.341 1592
-425.967 -390.604 1589
-420.839 -389.375 1584
-417.051 -389.375 1584
-412.481 -388.637 1581
-408.442 -388.391 1580
-404.151 -387.9 1578
-400.378 -387.9 1578
-396.353 -387.654 1577
-392.582 -387.654 1577
-388.318 -387.162 1575
-384.551 -387.162 1575
-380.543 -386.917 1574
-376.779 -386.917 1574
-372.541 -386.425 1572
-368.782 -386.425 1572
-364.791 -386.179 1571
-361.034 -386.179 1571
-357.505 -386.425 1572
-353.746 -386.425 1572
-349.987 -386.425 1572
-346.888 -387.162 1575
-343.122 -387.162 1575
-339.787 -387.654 1577
-336.016 -387.654 1577
-332.455 -387.9 1578
-329.307 -388.637 1581
-325.526 -388.637 1581
-321.745 -388.637 1581
-319.171 -390.112 1587
-315.774 -390.604 1589
-312.563 -391.341 1592
-308.756 -391.341 1592
-306.29 -393.062 1599
-303.412 -394.291 1604
-300.697 -395.766 1610
-296.847 -395.766 1610
-294.817 -398.224 1620
-292.02 -399.699 1626
-289.55 -401.666 1634
-285.642 -401.666 1634
-282.597 -402.895 1639
-280.038 -404.861 1647
-277.944 -407.565 1658
-273.979 -407.565 1658
-272.294 -411.007 1672
-269.098 -412.236 1677
-265.878 -413.465 1682
-261.856 -413.465 1682
-258.6 -414.694 1687
-255.622 -416.415 1694
-251.72 -416.66 1695
-247.667 -416.66 1695
-244.62 -418.381 1702
-240.55 -418.381 1702
-237.035 -419.364 1706
-232.956 -419.364 1706
-229.547 -420.594 1711
-225.719 -421.085 1713
-221.882 -421.577 1715
-217.781 -421.577 1715
-214.302 -422.806 1720
-210.189 -422.806 1720
-206.076 -422.806 1720
-405.212 -923.536 3757
-399.919 -932.14 3792
-390.852 -932.14 3792
-382.589 -934.106 3800
-375.272 -938.531 3818
-367.772 -942.71 3835
-358.601 -942.71 3835
-351.891 -949.347 3862
-342.655 -949.347 3862
-333.42 -949.347 3862
-322.674 -944.922 3844
-310.628 -936.318 3809
-298.115 -925.748 3766
-287.805 -921.569 3749
-278.84 -921.569 3749
-269.875 -921.569 3749
-260.91 -921.569 3749
-113.599 -964.833 3925
-104.213 -964.833 3925
-94.8268 -964.833 3925
-85.4409 -964.833 3925
-76.0551 -964.833 3925
-66.6692 -964.833 3925
-56.3639 -949.347 3862
-46.909 -944.922 3844
36.156 -953.771 3880
45.4342 -953.771 3880
54.7125 -953.771 3880
63.5454 -947.134 3853
72.7591 -947.134 3853
84.5046 -976.387 3972
94.2395 -978.845 3982
103.762 -978.845 3982
113.284 -978.845 3982
119.66 -953.771 3880
133.259 -985.728 4010
142.848 -985.728 4010
152.437 -985.728 4010
160.895 -978.845 3982
170.417 -978.845 3982
179.939 -978.845 3982
190.365 -983.515 4001
199.933 -983.515 4001
209.5 -983.515 4001
219.068 -983.515 4001
325.041 -985.728 4010
334.63 -985.728 4010
344.219 -985.728 4010
353.809 -985.728 4010
358.232 -971.716 3953
367.685 -971.716 3953
377.138 -971.716 3953
383.852 -964.833 3925
391.435 -960.409 3907
400.778 -960.409 3907
410.12 -960.409 3907
417.531 -955.984 3889
426.831 -955.984 3889
436.13 -955.984 3889
444.399 -953.771 3880
453.677 -953.771 3880
460.808 -949.347 3862
470.043 -949.347 3862
477.045 -944.922 3844
480.671 -934.106 3800
486.407 -927.715 3774
495.432 -927.715 3774
505.66 -929.927 3783
514.706 -929.927 3783
523.752 -929.927 3783
531.531 -927.715 3774
540.556 -927.715 3774
1733.66 -990.644 4030
1751.51 -995.315 4049
1761.2 -995.315 4049
1770.88 -995.315 4049
1772.21 -990.644 4030
1781.84 -990.644 4030
1791.48 -990.644 4030
1801.12 -990.644 4030
1806.26 -988.186 4020
1815.87 -988.186 4020
1812.32 -981.057 3991
1791.73 -964.833 3925
1780.47 -953.771 3880
1789.75 -953.771 3880
1786.51 -947.134 3853
1779.41 -938.531 3818
1788.54 -938.531 3818
1773.18 -925.748 3766
1782.19 -925.748 3766
1783.11 -921.569 3749
1764.35 -907.312 3691
1773.18 -907.312 3691
1782 -907.312 3691
1779.18 -901.412 3667
2962.48 -976.387 3972
2971.97 -976.387 3972
3017.5 -988.186 4020
3034.65 -990.644 4030
3051.08 -992.856 4039
3060.74 -992.856 4039
3070.4 -992.856 4039
3073.19 -990.644 4030
3082.83 -990.644 4030
-2530.71 -900.417 3699
-2521.86 -900.417 3699
-2513.01 -900.417 3699
-2487.92 -894.575 3675
-2484.53 -896.523 3683
-2475.72 -896.523 3683
-2466.92 -896.523 3683
-2452.77 -894.575 3675
-2427.36 -888.49 3650
-2418.63 -888.49 3650
-2409.9 -888.49 3650
-2401.17 -888.49 3650
-2387.2 -886.542 3642
-2373.92 -884.839 3635
-2365.23 -884.839 3635
-2335.79 -877.049 3603
-2322.01 -875.102 3595
-2313.41 -875.102 3595
-2304.81 -875.102 3595
-2286.63 -871.45 3580
-2263.44 -865.852 3557
-2226.4 -854.898 3512
-2218.01 -854.898 3512
-2195.77 -849.542 3490
-2173.63 -844.187 3468
-590.223 -414.061 1701
-586.155 -414.061 1701
-582.087 -414.061 1701
-578.02 -414.061 1701
-570.915 -411.87 1692
-566.869 -411.87 1692
-562.158 -411.383 1690
-557.786 -411.14 1689
-552.436 -410.166 1685
-548.407 -410.166 1685
-542.762 -408.949 1680
-537.141 -407.732 1675
-530.908 -406.028 1668
-524.392 -404.08 1660
-520.422 -404.08 1660
-515.83 -403.593 1658
-507.852 -400.429 1645
-502.081 -398.968 1639
-498.161 -398.968 1639
-492.131 -397.264 1632
-487.032 -396.291 1628
-481.655 -395.074 1623
-477.774 -395.074 1623
-473.017 -394.343 1620
-468.274 -393.613 1617
-462.971 -392.396 1612
-459.117 -392.396 1612
-453.85 -391.179 1607
-449.727 -390.936 1606
-443.665 -388.988 1598
-439.293 -388.501 1596
-435.477 -388.501 1596
-430.579 -387.528 1592
-426.235 -387.041 1590
-421.371 -386.067 1586
-417.578 -386.067 1586
-413.003 -385.337 1583
-408.7 -384.85 1581
-404.663 -384.607 1580
-400.885 -384.607 1580
-396.604 -384.12 1578
-392.582 -383.876 1577
-388.318 -383.389 1575
-384.551 -383.389 1575
-380.785 -383.389 1575
-377.019 -383.389 1575
-372.541 -382.659 1572
-368.782 -382.659 1572
-365.023 -382.659 1572
-361.034 -382.416 1571
-357.505 -382.659 1572
-354.196 -383.146 1574
-350.432 -383.146 1574
-346.668 -383.146 1574
-343.122 -383.389 1575
-339.787 -383.876 1577
-336.016 -383.876 1577
-332.455 -384.12 1578
-329.307 -384.85 1581
-325.938 -385.337 1583
-322.152 -385.337 1583
-319.171 -386.311 1587
-315.774 -386.797 1589
-312.563 -387.528 1592
-308.756 -387.528 1592
-306.29 -389.232 1599
-303.412 -390.449 1604
-300.697 -391.909 1610
-296.847 -391.909 1610
-294.453 -393.857 1618
-292.02 -395.804 1626
-289.018 -397.021 1631
-285.118 -397.021 1631
-282.08 -398.238 1636
-279.188 -399.699 1642
-276.938 -402.133 1652
-272.987 -402.133 1652
-271.48 -405.784 1667
-268.777 -407.732 1675
-265.562 -408.949 1680
-261.545 -408.949 1680
-258.6 -410.653 1687
-255.321 -411.87 1692
-251.72 -412.6 1695
-247.667 -412.6 1695
-244.476 -414.061 1701
-240.55 -414.304 1702
-237.035 -415.278 1706
-232.956 -415.278 1706
-229.145 -415.765 1708
-225.719 -416.982 1713
-221.623 -416.982 1713
-217.527 -416.982 1713
-214.302 -418.686 1720
-210.434 -419.172 1722
-206.675 -419.903 1725
-202.55 -419.903 1725
-198.425 -419.903 1725
-399.919 -923.056 3792
-390.852 -923.056 3792
-382.589 -925.003 3800
-375.272 -929.385 3818
-366.909 -931.332 3826
-357.76 -931.332 3826
-351.891 -940.095 3862
-342.655 -940.095 3862
-333.42 -940.095 3862
-322.674 -935.714 3844
-310.628 -927.194 3809
-298.115 -916.727 3766
-289.11 -916.727 3766
-280.104 -916.727 3766
-270.45 -914.536 3757
-261.466 -914.536 3757
-104.213 -955.431 3925
-94.8268 -955.431 3925
-85.4409 -955.431 3925
-75.5319 -948.858 3898
-66.2106 -948.858 3898
-56.8893 -948.858 3898
-47.568 -948.858 3898
17.6811 -948.858 3898
27.0024 -948.858 3898
36.7524 -960.056 3944
46.1837 -960.056 3944
55.615 -960.056 3944
64.8978 -957.865 3935
75.1951 -969.306 3982
85.7385 -980.99 4030
95.3755 -980.99 4030
105.012 -980.99 4030
114.905 -983.181 4039
124.564 -983.181 4039
134.222 -983.181 4039
143.56 -980.99 4030
153.197 -980.99 4030
162.43 -978.556 4020
172.043 -978.556 4020
179.939 -969.306 3982
190.365 -973.931 4001
199.933 -973.931 4001
209.5 -973.931 4001
219.068 -973.931 4001
320.421 -962.247 3953
329.874 -962.247 3953
339.327 -962.247 3953
348.779 -962.247 3953
355.695 -955.431 3925
365.081 -955.431 3925
374.466 -955.431 3925
381.212 -948.858 3898
389.631 -946.668 3889
398.931 -946.668 3889
408.231 -946.668 3889
415.598 -942.286 3871
424.855 -942.286 3871
434.112 -942.286 3871
443.368 -942.286 3871
452.625 -942.286 3871
459.734 -937.904 3853
468.948 -937.904 3853
475.928 -933.523 3835
479.659 -923.056 3792
485.376 -916.727 3766
494.382 -916.727 3766
503.387 -916.727 3766
511.168 -914.536 3757
520.153 -914.536 3757
1729.36 -978.556 4020
1738.97 -978.556 4020
1748.58 -978.556 4020
1762.57 -980.99 4030
1772.21 -980.99 4030
1781.84 -980.99 4030
1791.48 -980.99 4030
1788.16 -973.931 4001
1797.72 -973.931 4001
1807.29 -973.931 4001
1803.69 -966.872 3972
1791.73 -955.431 3925
1784.6 -946.668 3889
1793.9 -946.668 3889
1786.51 -937.904 3853
1795.72 -937.904 3853
1788.54 -929.385 3818
1793.43 -927.194 3809
1802.54 -927.194 3809
1791.19 -916.727 3766
1772 -902.365 3707
1773.18 -898.47 3691
1782 -898.47 3691
1779.18 -892.628 3667
2962.48 -966.872 3972
2971.97 -966.872 3972
3017.5 -978.556 4020
3034.65 -980.99 4030
3058.64 -985.615 4049
3068.32 -985.615 4049
3078 -985.615 4049
3073.19 -980.99 4030
3082.83 -980.99 4030
-2530.71 -891.557 3699
-2521.86 -891.557 3699
-2513.01 -891.557 3699
-2493.34 -887.7 3683
-2489.93 -889.628 3691
-2481.1 -889.628 3691
-2472.27 -889.628 3691
-2463.45 -889.628 3691
-2427.36 -879.746 3650
-2418.63 -879.746 3650
-2409.9 -879.746 3650
-2401.17 -879.746 3650
-2392.44 -879.746 3650
-2373.92 -876.131 3635
-2365.23 -876.131 3635
-2340.97 -870.346 3611
-2322.01 -866.49 3595
-2313.41 -866.49 3595
-2304.81 -866.49 3595
-2286.63 -862.874 3580
-2268.53 -859.259 3565
-2226.4 -846.485 3512
-2218.01 -846.485 3512
-2195.77 -841.182 3490
-2173.63 -835.879 3468
-2165.34 -835.879 3468
-2157.05 -835.879 3468
-583.054 -407.817 1692
-579.008 -407.817 1692
-574.961 -407.817 1692
-570.24 -407.335 1690
-566.199 -407.335 1690
-561.825 -407.094 1689
-557.126 -406.611 1687
-551.78 -405.647 1683
-547.756 -405.647 1683
-542.762 -404.924 1680
-537.141 -403.719 1675
-530.908 -402.032 1668
-524.392 -400.104 1660
-520.422 -400.104 1660
-515.519 -399.381 1657
-507.852 -396.488 1645
-502.081 -395.042 1639
-498.161 -395.042 1639
-492.131 -393.355 1632
-487.331 -392.632 1629
-481.655 -391.186 1623
-477.774 -391.186 1623
-473.017 -390.463 1620
-468.274 -389.74 1617
-462.971 -388.534 1612
-459.117 -388.534 1612
-454.414 -387.811 1609
-449.727 -387.088 1606
-443.943 -385.401 1599
-439.293 -384.678 1596
-435.477 -384.678 1596
-430.849 -383.955 1593
-426.772 -383.714 1592
-421.636 -382.509 1587
-417.841 -382.509 1587
-413.003 -381.545 1583
-408.7 -381.063 1581
-404.663 -380.822 1580
-400.885 -380.822 1580
-396.604 -380.34 1578
-392.582 -380.099 1577
-388.318 -379.617 1575
-384.551 -379.617 1575
-380.785 -379.617 1575
-377.019 -379.617 1575
-372.541 -378.893 1572
-368.782 -378.893 1572
-365.023 -378.893 1572
-361.264 -378.893 1572
-357.505 -378.893 1572
-354.196 -379.375 1574
-350.432 -379.375 1574
-346.888 -379.617 1575
-343.558 -380.099 1577
-340.002 -380.34 1578
-336.229 -380.34 1578
-332.876 -380.822 1580
-329.307 -381.063 1581
-326.144 -381.786 1584
-322.356 -381.786 1584
-319.574 -382.991 1589
-315.972 -383.232 1590
-312.563 -383.714 1592
-308.756 -383.714 1592
-306.29 -385.401 1599
-303.412 -386.606 1604
-300.697 -388.052 1610
-296.847 -388.052 1610
-294.453 -389.981 1618
-291.661 -391.427 1624
-289.018 -393.114 1631
-285.118 -393.114 1631
-281.735 -393.837 1634
-279.188 -395.765 1642
-276.938 -398.176 1652
-272.987 -398.176 1652
-271.48 -401.791 1667
-268.777 -403.719 1675
-265.562 -404.924 1680
-261.545 -404.924 1680
-258.907 -407.094 1689
-255.773 -408.54 1695
-252.314 -409.504 1699
-248.251 -409.504 1699
-244.476 -409.986 1701
-240.55 -410.227 1702
-236.758 -410.709 1704
-232.683 -410.709 1704
-229.145 -411.673 1708
-225.719 -412.878 1713
-221.882 -413.36 1715
-217.781 -413.36 1715
-214.552 -415.047 1722
-210.8 -415.77 1725
-206.915 -416.253 1727
-202.785 -416.253 1727
-198.655 -416.253 1727
-399.919 -913.972 3792
-390.852 -913.972 3792
-381.784 -913.972 3792
-372.716 -913.972 3792
-366.142 -920.239 3818
-357.012 -920.239 3818
-348.611 -922.167 3826
-339.461 -922.167 3826
-330.312 -922.167 3826
-321.163 -922.167 3826
-310.628 -918.069 3809
-300.173 -913.972 3792
-291.106 -913.972 3792
-280.699 -909.633 3774
-271.098 -907.705 3766
-262.093 -907.705 3766
-252.482 -905.536 3757
-243.498 -905.536 3757
-104.213 -946.029 3925
-94.8268 -946.029 3925
-85.4409 -946.029 3925
-75.7063 -941.69 3907
-66.3635 -941.69 3907
-57.0206 -941.69 3907
-47.6778 -941.69 3907
8.62146 -968.926 4020
18.2345 -968.926 4020
27.8475 -968.926 4020
37.3674 -966.516 4010
46.9565 -966.516 4010
56.5456 -966.516 4010
65.9863 -964.346 4001
75.7239 -966.516 4010
85.7385 -971.336 4030
95.3755 -971.336 4030
105.012 -971.336 4030
114.905 -973.505 4039
124.564 -973.505 4039
134.222 -973.505 4039
143.56 -971.336 4030
153.197 -971.336 4030
162.43 -968.926 4020
172.043 -968.926 4020
318.962 -948.439 3935
328.372 -948.439 3935
337.781 -948.439 3935
347.191 -948.439 3935
354.879 -943.859 3916
364.243 -943.859 3916
371.032 -937.352 3889
380.332 -937.352 3889
387.828 -933.013 3871
397.085 -933.013 3871
406.341 -933.013 3871
413.666 -928.675 3853
422.879 -928.675 3853
432.093 -928.675 3853
441.307 -928.675 3853
450.52 -928.675 3853
457.586 -924.336 3835
466.757 -924.336 3835
470.591 -913.972 3792
476.37 -907.705 3766
484.216 -905.536 3757
493.2 -905.536 3757
502.184 -905.536 3757
511.168 -905.536 3757
520.153 -905.536 3757
1711.61 -964.346 4001
1729.36 -968.926 4020
1738.97 -968.926 4020
1748.58 -968.926 4020
1762.57 -971.336 4030
1772.21 -971.336 4030
1781.84 -971.336 4030
1791.48 -971.336 4030
1788.16 -964.346 4001
1797.72 -964.346 4001
1807.29 -964.346 4001
1803.69 -957.357 3972
1791.73 -946.029 3925
1792.86 -941.69 3907
1802.2 -941.69 3907
1794.85 -933.013 3871
1795.72 -928.675 3853
1804.93 -928.675 3853
1797.67 -920.239 3818
1806.8 -920.239 3818
1811.65 -918.069 3809
1795.9 -905.536 3757
1777.02 -891.557 3699
1785.86 -891.557 3699
1779.18 -883.844 3667
2962.48 -957.357 3972
2971.97 -957.357 3972
3017.5 -968.926 4020
3034.65 -971.336 4030
3058.64 -975.916 4049
3068.32 -975.916 4049
3078 -975.916 4049
3073.19 -971.336 4030
3082.83 -971.336 4030
-2519.76 -878.877 3683
-2510.95 -878.877 3683
-2502.14 -878.877 3683
-2493.34 -878.877 3683
-2489.93 -880.786 3691
-2481.1 -880.786 3691
-2472.27 -880.786 3691
-2463.45 -880.786 3691
-2427.36 -871.003 3650
-2418.63 -871.003 3650
-2409.9 -871.003 3650
-2401.17 -871.003 3650
-2392.44 -871.003 3650
-2373.92 -867.423 3635
-2365.23 -867.423 3635
-2340.97 -861.696 3611
-2332.34 -861.696 3611
-2313.41 -857.878 3595
-2304.81 -857.878 3595
-2286.63 -854.298 3580
-2272.98 -852.389 3572
-2240.35 -843.321 3534
-2231.9 -843.321 3534
-2205.2 -836.401 3505
-2187.42 -832.822 3490
-2165.34 -827.572 3468
-2157.05 -827.572 3468
-2144.42 -825.901 3461
-584.087 -404.479 1695
-580.034 -404.479 1695
-575.981 -404.479 1695
-570.24 -403.286 1690
-566.199 -403.286 1690
-561.825 -403.048 1689
-557.126 -402.57 1687
-551.78 -401.616 1683
-547.756 -401.616 1683
-542.762 -400.9 1680
-537.141 -399.707 1675
-530.908 -398.036 1668
-524.392 -396.127 1660
-520.422 -396.127 1660
-515.519 -395.411 1657
-507.852 -392.548 1645
-502.081 -391.116 1639
-498.161 -391.116 1639
-492.131 -389.446 1632
-487.331 -388.73 1629
-481.655 -387.298 1623
-477.774 -387.298 1623
-473.017 -386.582 1620
-468.274 -385.866 1617
-462.971 -384.673 1612
-459.117 -384.673 1612
-454.414 -383.957 1609
-449.727 -383.241 1606
-443.943 -381.571 1599
-440.119 -381.571 1599
-436.023 -381.332 1598
-430.849 -380.139 1593
-427.04 -380.139 1593
-422.168 -379.184 1589
-418.368 -379.184 1589
-413.264 -377.991 1584
-409.217 -377.753 1583
-404.663 -377.037 1580
-400.885 -377.037 1580
-396.604 -376.559 1578
-392.582 -376.321 1577
-388.318 -375.844 1575
-384.551 -375.844 1575
-380.785 -375.844 1575
-377.019 -375.844 1575
-372.541 -375.128 1572
-368.782 -375.128 1572
-365.023 -375.128 1572
-361.264 -375.128 1572
-357.96 -375.605 1574
-354.196 -375.605 1574
-350.432 -375.605 1574
-346.888 -375.844 1575
-343.558 -376.321 1577
-340.002 -376.559 1578
-336.229 -376.559 1578
-332.876 -377.037 1580
-329.723 -377.753 1583
-326.144 -377.991 1584
-322.356 -377.991 1584
-319.574 -379.184 1589
-315.972 -379.423 1590
-312.563 -379.9 1592
-308.756 -379.9 1592
-306.29 -381.571 1599
-303.412 -382.764 1604
-300.697 -384.196 1610
-296.847 -384.196 1610
-294.453 -386.105 1618
-291.661 -387.536 1624
-289.018 -389.207 1631
-285.118 -389.207 1631
-281.735 -389.923 1634
-279.188 -391.832 1642
-276.938 -394.218 1652
-272.987 -394.218 1652
-271.48 -397.798 1667
-268.777 -399.707 1675
-265.562 -400.9 1680
-261.545 -400.9 1680
-258.907 -403.048 1689
-255.773 -404.479 1695
-252.314 -405.434 1699
-248.251 -405.434 1699
-244.476 -405.911 1701
-240.55 -406.15 1702
-236.758 -406.627 1704
-232.683 -406.627 1704
-229.279 -407.82 1709
-225.719 -408.775 1713
-221.882 -409.252 1715
-217.781 -409.252 1715
-214.552 -410.922 1722
-210.8 -411.638 1725
-206.915 -412.115 1727
-202.785 -412.115 1727
-198.655 -412.115 1727
-399.919 -904.888 3792
-390.852 -904.888 3792
-381.784 -904.888 3792
-372.716 -904.888 3792
-366.142 -911.093 3818
-357.012 -911.093 3818
-348.611 -913.002 3826
-339.461 -913.002 3826
-330.312 -913.002 3826
-321.163 -913.002 3826
-312.014 -913.002 3826
-301.519 -908.945 3809
-292.411 -908.945 3809
-282.038 -904.888 3792
-271.674 -900.593 3774
-262.649 -900.593 3774
-253.087 -898.684 3766
-244.081 -898.684 3766
-104.213 -936.626 3925
-94.8268 -936.626 3925
-86.0504 -943.308 3953
-76.5976 -943.308 3953
-67.1448 -943.308 3953
-57.0206 -932.331 3907
-47.6778 -932.331 3907
-10.6046 -959.296 4020
-0.991579 -959.296 4020
8.66221 -963.83 4039
18.3207 -963.83 4039
27.9792 -963.83 4039
37.3674 -956.91 4010
46.9565 -956.91 4010
56.5456 -956.91 4010
66.1348 -956.91 4010
75.7239 -956.91 4010
85.7385 -961.682 4030
95.3755 -961.682 4030
105.012 -961.682 4030
114.905 -963.83 4039
124.564 -963.83 4039
134.222 -963.83 4039
143.56 -961.682 4030
153.197 -961.682 4030
162.43 -959.296 4020
172.043 -959.296 4020
190.365 -954.762 4001
199.933 -954.762 4001
209.5 -954.762 4001
219.068 -954.762 4001
318.962 -939.012 3935
328.372 -939.012 3935
337.781 -939.012 3935
347.191 -939.012 3935
354.879 -934.478 3916
364.243 -934.478 3916
371.032 -928.035 3889
380.332 -928.035 3889
387.828 -923.74 3871
397.085 -923.74 3871
406.341 -923.74 3871
413.666 -919.445 3853
422.879 -919.445 3853
432.093 -919.445 3853
441.307 -919.445 3853
450.52 -919.445 3853
457.586 -915.149 3835
466.757 -915.149 3835
470.591 -904.888 3792
476.37 -898.684 3766
484.216 -896.536 3757
493.2 -896.536 3757
502.184 -896.536 3757
511.168 -896.536 3757
520.153 -896.536 3757
1711.61 -954.762 4001
1729.36 -959.296 4020
1738.97 -959.296 4020
1748.58 -959.296 4020
1758.19 -959.296 4020
1759.45 -954.762 4001
1769.02 -954.762 4001
1778.59 -954.762 4001
1788.16 -954.762 4001
1784.69 -947.842 3972
1794.19 -947.842 3972
1799.6 -945.694 3963
1791.73 -936.626 3925
1792.86 -932.331 3907
1802.2 -932.331 3907
1794.85 -923.74 3871
1795.72 -919.445 3853
1804.93 -919.445 3853
1797.67 -911.093 3818
1806.8 -911.093 3818
1811.65 -908.945 3809
1795.9 -896.536 3757
1777.02 -882.696 3699
1785.86 -882.696 3699
2962.48 -947.842 3972
2971.97 -947.842 3972
2988.98 -950.228 3982
3034.65 -961.682 4030
3058.64 -966.216 4049
3068.32 -966.216 4049
3078 -966.216 4049
3073.19 -961.682 4030
3082.83 -961.682 4030
-2519.76 -870.055 3683
-2510.95 -870.055 3683
-2502.14 -870.055 3683
-2493.34 -870.055 3683
-2489.93 -871.945 3691
-2481.1 -871.945 3691
-2472.27 -871.945 3691
-2463.45 -871.945 3691
-2427.36 -862.259 3650
-2418.63 -862.259 3650
-2409.9 -862.259 3650
-2401.17 -862.259 3650
-2392.44 -862.259 3650
-2373.92 -858.715 3635
-2365.23 -858.715 3635
-2340.97 -853.046 3611
-2332.34 -853.046 3611
-2318.56 -851.156 3603
-2309.94 -851.156 3603
-2296.21 -849.266 3595
-2278.07 -845.723 3580
-2245.42 -836.746 3542
-2236.95 -836.746 3542
-2223.45 -834.856 3534
-2206.22 -831.548 3520
-2183.45 -826.115 3497
-2175.08 -826.115 3497
-2153.71 -821.154 3476
-584.087 -400.419 1695
-580.034 -400.419 1695
-575.981 -400.419 1695
-569.228 -398.529 1687
-565.194 -398.529 1687
-561.16 -398.529 1687
-555.805 -397.584 1683
-551.452 -397.348 1682
-547.43 -397.348 1682
-542.116 -396.403 1678
-536.5 -395.222 1673
-530.589 -393.804 1667
-523.444 -391.442 1657
-519.482 -391.442 1657
-514.275 -390.497 1653
-506.926 -387.898 1642
-501.468 -386.717 1637
-497.553 -386.717 1637
-492.131 -385.536 1632
-487.331 -384.827 1629
-481.655 -383.41 1623
-477.774 -383.41 1623
-473.017 -382.701 1620
-468.274 -381.993 1617
-462.971 -380.811 1612
-459.117 -380.811 1612
-454.414 -380.103 1609
-449.727 -379.394 1606
-443.943 -377.74 1599
-440.119 -377.74 1599
-436.023 -377.504 1598
-430.849 -376.323 1593
-427.04 -376.323 1593
-422.168 -375.378 1589
-418.368 -375.378 1589
-413.264 -374.197 1584
-409.217 -373.961 1583
-404.663 -373.252 1580
-400.885 -373.252 1580
-396.604 -372.779 1578
-392.582 -372.543 1577
-388.318 -372.071 1575
-384.551 -372.071 1575
-380.785 -372.071 1575
-377.019 -372.071 1575
-372.541 -371.362 1572
-368.782 -371.362 1572
-365.023 -371.362 1572
-361.264 -371.362 1572
-357.96 -371.834 1574
-354.196 -371.834 1574
-350.432 -371.834 1574
-346.888 -372.071 1575
-343.558 -372.543 1577
-340.002 -372.779 1578
-336.229 -372.779 1578
-332.876 -373.252 1580
-329.723 -373.961 1583
-326.144 -374.197 1584
-322.356 -374.197 1584
-319.574 -375.378 1589
-315.972 -375.614 1590
-312.563 -376.087 1592
-308.756 -376.087 1592
-306.29 -377.74 1599
-303.412 -378.922 1604
-300.697 -380.339 1610
-296.847 -380.339 1610
-294.453 -382.229 1618
-291.661 -383.646 1624
-289.018 -385.3 1631
-285.118 -385.3 1631
-281.735 -386.009 1634
-278.848 -387.426 1640
-276.603 -389.788 1650
-272.657 -389.788 1650
-271.154 -393.332 1665
-268.456 -395.222 1673
-265.562 -396.875 1680
-261.545 -396.875 1680
-258.907 -399.001 1689
-255.773 -400.419 1695
-252.314 -401.364 1699
-248.251 -401.364 1699
-244.476 -401.836 1701
-240.55 -402.073 1702
-236.758 -402.545 1704
-232.683 -402.545 1704
-229.279 -403.726 1709
-225.719 -404.671 1713
-221.882 -405.144 1715
-217.781 -405.144 1715
-214.552 -406.797 1722
-210.8 -407.506 1725
-206.915 -407.978 1727
-202.785 -407.978 1727
-198.655 -407.978 1727
-399.919 -895.804 3792
-390.852 -895.804 3792
-381.784 -895.804 3792
-372.716 -895.804 3792
-365.278 -899.82 3809
-356.17 -899.82 3809
-348.611 -903.836 3826
-339.461 -903.836 3826
-330.312 -903.836 3826
-321.163 -903.836 3826
-312.014 -903.836 3826
-301.519 -899.82 3809
-292.411 -899.82 3809
-282.038 -895.804 3792
-271.674 -891.552 3774
-262.649 -891.552 3774
-253.087 -889.662 3766
-244.081 -889.662 3766
-102.54 -912.341 3862
-93.3047 -912.341 3862
-86.0504 -933.838 3953
-76.5976 -933.838 3953
-67.1448 -933.838 3953
-57.0206 -922.971 3907
-47.6778 -922.971 3907
-10.6046 -949.666 4020
-0.991579 -949.666 4020
8.66221 -954.155 4039
18.3207 -954.155 4039
27.9792 -954.155 4039
37.3674 -947.304 4010
46.9565 -947.304 4010
56.5456 -947.304 4010
66.1348 -947.304 4010
75.7239 -947.304 4010
85.7385 -952.028 4030
95.3755 -952.028 4030
105.012 -952.028 4030
114.649 -952.028 4030
123.978 -949.666 4020
133.591 -949.666 4020
143.204 -949.666 4020
152.817 -949.666 4020
160.491 -938.327 3972
169.989 -938.327 3972
190.365 -945.178 4001
199.933 -945.178 4001
209.5 -945.178 4001
219.068 -945.178 4001
314.504 -916.593 3880
323.782 -916.593 3880
333.06 -916.593 3880
342.338 -916.593 3880
350.801 -914.467 3871
360.058 -914.467 3871
367.597 -910.215 3853
374.17 -903.836 3826
383.32 -903.836 3826
392.469 -903.836 3826
401.618 -903.836 3826
410.767 -903.836 3826
419.916 -903.836 3826
429.065 -903.836 3826
436.267 -899.82 3809
445.376 -899.82 3809
452.456 -895.804 3792
461.524 -895.804 3792
467.365 -889.662 3766
476.37 -889.662 3766
479.963 -879.74 3724
492.15 -885.646 3749
501.115 -885.646 3749
510.08 -885.646 3749
1715.46 -947.304 4010
1725.05 -947.304 4010
1734.64 -947.304 4010
1740.32 -945.178 4001
1745.51 -942.815 3991
1755.05 -942.815 3991
1764.6 -942.815 3991
1765.7 -938.327 3972
1775.19 -938.327 3972
1780.65 -936.201 3963
1790.13 -936.201 3963
1799.6 -936.201 3963
1809.08 -936.201 3963
1809.84 -931.712 3944
1819.27 -931.712 3944
1815.72 -925.098 3916
1820.89 -922.971 3907
1804.93 -910.215 3853
1814.15 -910.215 3853
1823.36 -910.215 3853
1815.93 -901.947 3818
1800.2 -889.662 3766
1804.88 -887.536 3757
1813.87 -887.536 3757
2948.31 -933.838 3953
2957.76 -933.838 3953
2981.47 -938.327 3972
3034.65 -952.028 4030
3058.64 -956.517 4049
3068.32 -956.517 4049
3078 -956.517 4049
3073.19 -952.028 4030
3082.83 -952.028 4030
-2514.29 -859.361 3675
-2505.5 -859.361 3675
-2496.71 -859.361 3675
-2482.51 -857.491 3667
-2484.53 -861.232 3683
-2475.72 -861.232 3683
-2466.92 -861.232 3683
-2447.43 -857.491 3667
-2427.36 -853.515 3650
-2418.63 -853.515 3650
-2409.9 -853.515 3650
-2401.17 -853.515 3650
-2382.61 -850.008 3635
-2363.47 -846.266 3619
-2354.81 -846.266 3619
-2340.97 -844.396 3611
-2332.34 -844.396 3611
-2318.56 -842.525 3603
-2309.94 -842.525 3603
-2296.21 -840.654 3595
-2278.07 -837.147 3580
-2245.42 -828.261 3542
-2236.95 -828.261 3542
-2223.45 -826.39 3534
-2206.22 -823.116 3520
-2183.45 -817.738 3497
-2175.08 -817.738 3497
-2153.71 -812.827 3476
-584.777 -396.826 1697
-580.719 -396.826 1697
-576.66 -396.826 1697
-571.928 -396.359 1695
-567.874 -396.359 1695
-560.495 -394.02 1685
-555.805 -393.552 1683
-550.797 -392.851 1680
-546.779 -392.851 1680
-541.793 -392.149 1677
-536.5 -391.214 1673
-530.908 -390.045 1668
-522.812 -387.005 1655
-518.855 -387.005 1655
-513.964 -386.303 1652
-506.926 -383.965 1642
-501.468 -382.796 1637
-497.553 -382.796 1637
-492.131 -381.627 1632
-487.032 -380.691 1628
-481.655 -379.522 1623
-477.774 -379.522 1623
-473.017 -378.821 1620
-468.274 -378.119 1617
-462.971 -376.95 1612
-459.117 -376.95 1612
