90.5475 -830.515 3826
99.6967 -830.515 3826
108.846 -830.515 3826
117.193 -824.871 3800
126.878 -828.778 3818
136.008 -828.778 3818
145.138 -828.778 3818
155.682 -836.376 3853
164.896 -836.376 3853
174.11 -836.376 3853
182.039 -830.515 3826
190.788 -828.778 3818
199.918 -828.778 3818
204.339 -810.11 3732
211.378 -802.947 3699
219.271 -799.474 3683
228.078 -799.474 3683
241.13 -813.8 3749
250.095 -813.8 3749
260.788 -819.227 3774
272.315 -826.824 3809
281.423 -826.824 3809
290.532 -826.824 3809
296.257 -817.49 3766
305.263 -817.49 3766
314.269 -817.49 3766
323.274 -817.49 3766
332.28 -817.49 3766
339.745 -813.8 3749
348.71 -813.8 3749
357.675 -813.8 3749
365.76 -811.847 3740
375.605 -813.8 3749
387.135 -819.227 3774
396.159 -819.227 3774
406.15 -821.181 3783
415.197 -821.181 3783
424.243 -821.181 3783
433.289 -821.181 3783
443.388 -823.134 3792
454.484 -826.824 3809
463.593 -826.824 3809
472.701 -826.824 3809
481.81 -826.824 3809
492.078 -828.778 3818
504.621 -834.422 3844
515.016 -836.376 3853
524.23 -836.376 3853
533.444 -836.376 3853
1793.75 -885.434 4079
1807.93 -887.604 4089
1817.71 -887.604 4089
1827.48 -887.604 4089
1837.26 -887.604 4089
1847.04 -887.604 4089
1856.82 -887.604 4089
1866.6 -887.604 4089
1871.79 -885.434 4079
1881.54 -885.434 4079
1872.75 -876.751 4039
1882.41 -876.751 4039
1892.06 -876.751 4039
1901.72 -876.751 4039
2990.82 -870.456 4010
3000.41 -870.456 4010
3010 -870.456 4010
3027.12 -872.627 4020
3036.73 -872.627 4020
3046.34 -872.627 4020
3055.95 -872.627 4020
3043.45 -866.331 3991
3053 -866.331 3991
-698.912 -394.359 1837
-694.519 -394.359 1837
-690.126 -394.359 1837
-685.734 -394.359 1837
-680.599 -393.93 1835
-675.474 -393.501 1833
-671.091 -393.501 1833
-666.707 -393.501 1833
-659.434 -391.783 1825
-654.352 -391.354 1823
-649.992 -391.354 1823
-644.924 -390.925 1821
-640.57 -390.925 1821
-635.517 -390.495 1819
-631.167 -390.495 1819
-623.371 -388.348 1809
-617.676 -387.49 1805
-612.341 -386.846 1802
-608.032 -386.846 1802
-603.052 -386.416 1800
-597.417 -385.558 1796
-591.141 -384.27 1790
-585.549 -383.411 1786
-581.279 -383.411 1786
-572.808 -380.62 1773
-566.002 -378.903 1765
-557.644 -376.112 1752
-553.454 -376.112 1752
-547.07 -374.609 1745
-541.342 -373.536 1740
-536.564 -373.106 1738
-532.408 -373.106 1738
-526.428 -371.818 1732
-521.984 -371.604 1731
-516.05 -370.316 1725
-511.925 -370.316 1725
-506.917 -369.672 1722
-502.799 -369.672 1722
-496.944 -368.384 1716
-492.553 -368.169 1715
-488.452 -368.169 1715
-483.786 -367.74 1713
-478.29 -366.666 1708
-473.65 -366.237 1706
-469.571 -366.237 1706
-464.945 -365.807 1704
-460.33 -365.378 1702
-456.26 -365.378 1702
-452.19 -365.378 1702
-448.12 -365.378 1702
-444.05 -365.378 1702
-439.721 -365.163 1701
-435.653 -365.163 1701
-431.586 -365.163 1701
-427.518 -365.163 1701
-423.451 -365.163 1701
-419.383 -365.163 1701
-415.315 -365.163 1701
-411.248 -365.163 1701
-407.18 -365.163 1701
-403.113 -365.163 1701
-399.045 -365.163 1701
-395.21 -365.378 1702
-391.14 -365.378 1702
-387.07 -365.378 1702
-383 -365.378 1702
-379.375 -365.807 1704
-375.3 -365.807 1704
-371.225 -365.807 1704
-367.151 -365.807 1704
-363.076 -365.807 1704
-359.001 -365.807 1704
-354.926 -365.807 1704
-350.44 -365.378 1702
-346.37 -365.378 1702
-342.702 -365.807 1704
-338.627 -365.807 1704
-334.552 -365.807 1704
-330.09 -365.378 1702
-326.02 -365.378 1702
-321.76 -365.163 1701
-317.693 -365.163 1701
-313.625 -365.163 1701
-309.558 -365.163 1701
-305.49 -365.163 1701
-301.422 -365.163 1701
-297.005 -364.734 1699
-292.942 -364.734 1699
-288.88 -364.734 1699
-284.817 -364.734 1699
-280.754 -364.734 1699
-276.691 -364.734 1699
-272.949 -365.163 1701
-269.04 -365.378 1702
-264.97 -365.378 1702
-260.9 -365.378 1702
-256.83 -365.378 1702
-253.057 -365.807 1704
-248.982 -365.807 1704
-245.482 -366.666 1708
-241.539 -366.881 1709
-238.286 -368.169 1715
-234.185 -368.169 1715
-230.486 -368.813 1718
-226.642 -369.242 1720
-222.787 -369.672 1722
-218.669 -369.672 1722
-215.175 -370.745 1727
-211.289 -371.174 1729
-207.394 -371.604 1731
-203.255 -371.604 1731
-199.461 -372.248 1734
-195.99 -373.536 1740
-192.16 -374.18 1743
-187.992 -374.18 1743
-184.457 -375.468 1749
-180.48 -375.897 1751
-177.199 -377.829 1760
-172.991 -377.829 1760
-169.07 -378.473 1763
-165.602 -380.191 1771
-162.096 -381.908 1779
-157.842 -381.908 1779
-153.846 -382.552 1782
-150.089 -383.84 1788
-146.139 -384.699 1792
-141.854 -384.699 1792
-138.183 -386.416 1800
-134.027 -386.846 1802
-129.862 -387.275 1804
-125.618 -387.49 1805
-121.302 -387.49 1805
-117.245 -388.348 1809
-113.168 -389.207 1813
-108.833 -389.207 1813
-104.498 -389.207 1813
-100.273 -389.637 1815
-96.0381 -390.066 1817
-91.9959 -391.354 1823
-87.6366 -391.354 1823
-83.2772 -391.354 1823
-79.0045 -391.783 1825
-74.6403 -391.783 1825
-70.2762 -391.783 1825
-65.9843 -392.213 1827
-61.8177 -393.501 1833
-57.4972 -393.93 1835
-53.1091 -393.93 1835
-48.7742 -394.359 1837
-44.3814 -394.359 1837
-40.0321 -394.789 1839
-35.6345 -394.789 1839
-31.3048 -395.647 1843
-26.9268 -396.077 1845
-22.5149 -396.077 1845
-18.1029 -396.077 1845
53.8382 -819.632 3818
62.9682 -819.632 3818
72.0982 -819.632 3818
81.2282 -819.632 3818
90.3582 -819.632 3818
99.4882 -819.632 3818
108.618 -819.632 3818
117.193 -815.768 3800
126.878 -819.632 3818
136.008 -819.632 3818
147.495 -832.942 3880
156.773 -832.942 3880
166.052 -832.942 3880
175.33 -832.942 3880
184.608 -832.942 3880
191.188 -821.349 3826
200.337 -821.349 3826
205.27 -804.819 3749
212.807 -799.453 3724
221.712 -799.453 3724
232.661 -806.537 3757
241.645 -806.537 3757
250.629 -806.537 3757
269.356 -836.806 3898
278.677 -836.806 3898
287.999 -836.806 3898
297.32 -836.806 3898
301.685 -823.282 3835
308.749 -817.7 3809
317.857 -817.7 3809
326.193 -815.768 3800
335.28 -815.768 3800
341.286 -808.469 3766
350.291 -808.469 3766
358.438 -806.537 3757
366.64 -804.819 3749
377.308 -808.469 3766
388.058 -812.118 3783
397.104 -812.118 3783
406.15 -812.118 3783
415.197 -812.118 3783
424.243 -812.118 3783
433.289 -812.118 3783
443.388 -814.051 3792
454.484 -817.7 3809
463.593 -817.7 3809
472.701 -817.7 3809
481.81 -817.7 3809
494.269 -823.282 3835
505.803 -827.146 3853
516.219 -829.078 3862
525.455 -829.078 3862
534.69 -829.078 3862
1807.93 -877.809 4089
1817.71 -877.809 4089
1827.48 -877.809 4089
1837.26 -877.809 4089
1847.04 -877.809 4089
1856.82 -877.809 4089
1866.6 -877.809 4089
1876.37 -877.809 4089
1886.15 -877.809 4089
1886.66 -873.516 4069
1887.07 -869.222 4049
1896.75 -869.222 4049
1906.43 -869.222 4049
2998.28 -862.997 4020
3007.89 -862.997 4020
3017.5 -862.997 4020
3027.12 -862.997 4020
3036.73 -862.997 4020
3046.34 -862.997 4020
3055.95 -862.997 4020
3051.08 -858.918 4001
3060.65 -858.918 4001
-698.912 -389.959 1837
-694.519 -389.959 1837
-690.126 -389.959 1837
-685.734 -389.959 1837
-680.599 -389.534 1835
-675.474 -389.11 1833
-671.091 -389.11 1833
-665.98 -388.685 1831
-659.434 -387.411 1825
-655.069 -387.411 1825
-650.705 -387.411 1825
-644.924 -386.562 1821
-639.866 -386.138 1819
-635.517 -386.138 1819
-631.167 -386.138 1819
-623.371 -384.015 1809
-617.334 -382.954 1804
-611.661 -382.104 1800
-607.357 -382.104 1800
-602.382 -381.68 1798
-596.752 -380.831 1794
-590.481 -379.557 1788
-584.238 -378.283 1782
-579.977 -378.283 1782
-571.515 -375.524 1769
-564.399 -373.613 1760
-557.326 -371.703 1751
-553.139 -371.703 1751
-546.443 -370.004 1743
-540.72 -368.943 1738
-535.946 -368.519 1736
-531.795 -368.519 1736
-526.428 -367.669 1732
-521.984 -367.457 1731
-516.05 -366.183 1725
-511.925 -366.183 1725
-506.917 -365.547 1722
-502.799 -365.547 1722
-497.523 -364.697 1718
-493.415 -364.697 1718
-488.737 -364.273 1716
-484.351 -364.061 1715
-478.57 -362.787 1709
-474.205 -362.575 1708
-470.121 -362.575 1708
-464.945 -361.726 1704
-460.871 -361.726 1704
-456.26 -361.301 1702
-452.19 -361.301 1702
-448.12 -361.301 1702
-444.05 -361.301 1702
-439.98 -361.301 1702
-435.91 -361.301 1702
-431.84 -361.301 1702
-427.518 -361.089 1701
-423.451 -361.089 1701
-419.383 -361.089 1701
-415.315 -361.089 1701
-411.248 -361.089 1701
-407.18 -361.089 1701
-403.113 -361.089 1701
-399.045 -361.089 1701
-395.21 -361.301 1702
-391.14 -361.301 1702
-387.07 -361.301 1702
-383 -361.301 1702
-378.93 -361.301 1702
-375.3 -361.726 1704
-371.225 -361.726 1704
-367.151 -361.726 1704
-362.65 -361.301 1702
-358.58 -361.301 1702
-354.51 -361.301 1702
-350.234 -361.089 1701
-346.166 -361.089 1701
-342.3 -361.301 1702
-338.23 -361.301 1702
-334.16 -361.301 1702
-329.896 -361.089 1701
-325.828 -361.089 1701
-321.76 -361.089 1701
-317.693 -361.089 1701
-313.257 -360.664 1699
-309.194 -360.664 1699
-305.131 -360.664 1699
-301.068 -360.664 1699
-297.005 -360.664 1699
-292.942 -360.664 1699
-288.54 -360.24 1697
-284.481 -360.24 1697
-280.423 -360.24 1697
-276.365 -360.24 1697
-272.628 -360.664 1699
-268.882 -361.089 1701
-264.814 -361.089 1701
-260.746 -361.089 1701
-256.83 -361.301 1702
-253.057 -361.726 1704
-248.982 -361.726 1704
-245.482 -362.575 1708
-241.539 -362.787 1709
-238.286 -364.061 1715
-234.185 -364.061 1715
-230.218 -364.273 1716
-226.378 -364.697 1718
-222.787 -365.547 1722
-218.669 -365.547 1722
-214.925 -366.183 1725
-211.289 -367.033 1729
-207.394 -367.457 1731
-203.255 -367.457 1731
-199.461 -368.094 1734
-196.103 -369.58 1741
-192.38 -370.429 1745
-188.208 -370.429 1745
-184.457 -371.278 1749
-180.48 -371.703 1751
-177.401 -374.038 1762
-173.187 -374.038 1762
-169.07 -374.25 1763
-165.976 -376.797 1775
-162.187 -377.859 1780
-157.93 -377.859 1780
-154.019 -378.708 1784
-150.425 -380.406 1792
-146.139 -380.406 1792
-141.854 -380.406 1792
-138.183 -382.104 1800
-134.027 -382.529 1802
-129.862 -382.954 1804
-125.757 -383.59 1807
-121.436 -383.59 1807
-117.245 -384.015 1809
-113.044 -384.44 1811
-108.833 -384.864 1813
-104.498 -384.864 1813
-100.273 -385.289 1815
-96.0381 -385.713 1817
-91.9959 -386.987 1823
-87.6366 -386.987 1823
-83.2772 -386.987 1823
-79.0045 -387.411 1825
-74.6403 -387.411 1825
-70.2762 -387.411 1825
-65.9121 -387.411 1825
-61.8177 -389.11 1833
-57.4972 -389.534 1835
-53.1091 -389.534 1835
-48.7211 -389.534 1835
-44.333 -389.534 1835
-39.9885 -389.959 1837
-35.5957 -389.959 1837
-31.2369 -390.383 1839
-26.8684 -390.808 1841
-22.466 -390.808 1841
-18.0637 -390.808 1841
-13.6019 -389.11 1833
71.7583 -806.665 3800
81.2282 -810.486 3818
90.3582 -810.486 3818
99.4882 -810.486 3818
108.618 -810.486 3818
147.495 -823.647 3880
156.773 -823.647 3880
166.052 -823.647 3880
175.33 -823.647 3880
184.608 -823.647 3880
192.537 -817.916 3853
201.751 -817.916 3853
209.979 -814.095 3835
219.15 -814.095 3835
229.928 -819.826 3862
241.95 -829.379 3907
251.292 -829.379 3907
261.836 -833.2 3925
272.535 -837.233 3944
281.966 -837.233 3944
291.397 -837.233 3944
300.142 -835.323 3935
304.517 -821.737 3871
310.856 -814.095 3835
320.027 -814.095 3835
327.738 -810.486 3818
336.868 -810.486 3818
343.642 -804.967 3792
352.71 -804.967 3792
360.06 -801.146 3774
367.422 -797.537 3757
377.308 -799.447 3766
388.981 -804.967 3792
398.049 -804.967 3792
407.117 -804.967 3792
416.184 -804.967 3792
425.252 -804.967 3792
433.289 -803.056 3783
443.388 -804.967 3792
454.484 -808.576 3809
464.688 -810.486 3818
473.818 -810.486 3818
482.948 -810.486 3818
495.429 -816.005 3844
508.166 -821.737 3871
517.422 -821.737 3871
526.679 -821.737 3871
535.936 -821.737 3871
545.193 -821.737 3871
554.449 -821.737 3871
549.581 -801.146 3774
558.605 -801.146 3774
1866.6 -868.014 4089
1876.37 -868.014 4089
1886.15 -868.014 4089
1891.29 -865.891 4079
1891.73 -861.646 4059
1896.75 -859.523 4049
1906.43 -859.523 4049
3012.45 -857.4 4039
3022.11 -857.4 4039
3031.76 -857.4 4039
3048.95 -859.523 4049
3058.64 -859.523 4049
3068.32 -859.523 4049
3070.4 -857.4 4039
3065.57 -853.367 4020
3075.18 -853.367 4020
-698.912 -385.558 1837
-694.519 -385.558 1837
-690.126 -385.558 1837
-685.734 -385.558 1837
-680.599 -385.139 1835
-675.474 -384.719 1833
-671.091 -384.719 1833
-665.98 -384.299 1831
-659.434 -383.04 1825
-655.069 -383.04 1825
-650.705 -383.04 1825
-644.924 -382.2 1821
-639.866 -381.78 1819
-635.517 -381.78 1819
-631.167 -381.78 1819
-623.371 -379.682 1809
-617.334 -378.632 1804
-611.661 -377.793 1800
-607.357 -377.793 1800
-602.382 -377.373 1798
-596.752 -376.533 1794
-590.481 -375.274 1788
-584.238 -374.015 1782
-579.977 -374.015 1782
-571.515 -371.286 1769
-564.399 -369.397 1760
-557.326 -367.508 1751
-553.139 -367.508 1751
-546.443 -365.829 1743
-540.72 -364.78 1738
-535.946 -364.36 1736
-531.795 -364.36 1736
-526.428 -363.52 1732
-521.984 -363.31 1731
-516.05 -362.051 1725
-511.925 -362.051 1725
-506.917 -361.422 1722
-502.799 -361.422 1722
-497.523 -360.582 1718
-493.415 -360.582 1718
-488.737 -360.162 1716
-484.351 -359.952 1715
-478.57 -358.693 1709
-474.205 -358.483 1708
-470.121 -358.483 1708
-465.491 -358.063 1706
-460.871 -357.644 1704
-456.26 -357.224 1702
-452.19 -357.224 1702
-448.12 -357.224 1702
-444.05 -357.224 1702
-439.98 -357.224 1702
-435.91 -357.224 1702
-431.84 -357.224 1702
-427.77 -357.224 1702
-423.451 -357.014 1701
-419.383 -357.014 1701
-415.315 -357.014 1701
-411.248 -357.014 1701
-407.18 -357.014 1701
-403.113 -357.014 1701
-399.045 -357.014 1701
-395.21 -357.224 1702
-391.14 -357.224 1702
-387.07 -357.224 1702
-383 -357.224 1702
-378.93 -357.224 1702
-375.3 -357.644 1704
-371.225 -357.644 1704
-367.151 -357.644 1704
-362.65 -357.224 1702
-358.58 -357.224 1702
-354.51 -357.224 1702
-350.234 -357.014 1701
-346.166 -357.014 1701
-342.3 -357.224 1702
-338.23 -357.224 1702
-334.16 -357.224 1702
-329.896 -357.014 1701
-325.828 -357.014 1701
-321.76 -357.014 1701
-317.693 -357.014 1701
-313.257 -356.594 1699
-309.194 -356.594 1699
-305.131 -356.594 1699
-301.068 -356.594 1699
-297.005 -356.594 1699
-292.942 -356.594 1699
-288.54 -356.174 1697
-284.481 -356.174 1697
-280.423 -356.174 1697
-276.691 -356.594 1699
-272.949 -357.014 1701
-268.882 -357.014 1701
-264.814 -357.014 1701
-260.746 -357.014 1701
-256.83 -357.224 1702
-253.057 -357.644 1704
-248.982 -357.644 1704
-245.482 -358.483 1708
-241.539 -358.693 1709
-238.286 -359.952 1715
-234.185 -359.952 1715
-230.218 -360.162 1716
-226.378 -360.582 1718
-222.787 -361.422 1722
-218.669 -361.422 1722
-214.925 -362.051 1725
-211.289 -362.891 1729
-207.394 -363.31 1731
-203.255 -363.31 1731
-199.461 -363.94 1734
-196.103 -365.409 1741
-192.38 -366.249 1745
-188.208 -366.249 1745
-184.457 -367.088 1749
-180.583 -367.718 1752
-177.401 -369.817 1762
-173.187 -369.817 1762
-169.453 -370.866 1767
-165.976 -372.545 1775
-162.187 -373.595 1780
-157.93 -373.595 1780
-154.192 -374.854 1786
-150.425 -376.113 1792
-146.302 -376.533 1794
-142.012 -376.533 1794
-138.183 -377.793 1800
-134.027 -378.212 1802
-129.934 -378.842 1805
-125.757 -379.262 1807
-121.436 -379.262 1807
-117.245 -379.682 1809
-113.168 -380.521 1813
-108.953 -380.941 1815
-104.613 -380.941 1815
-100.273 -380.941 1815
-96.0381 -381.361 1817
-91.9959 -382.62 1823
-87.6366 -382.62 1823
-83.3686 -383.04 1825
-79.0045 -383.04 1825
-74.7221 -383.459 1827
-70.3532 -383.459 1827
-65.9843 -383.459 1827
-61.8177 -384.719 1833
-57.4972 -385.139 1835
-53.1091 -385.139 1835
-48.7211 -385.139 1835
-44.333 -385.139 1835
-39.9885 -385.558 1837
-35.5957 -385.558 1837
-31.2369 -385.978 1839
-26.8684 -386.398 1841
-22.466 -386.398 1841
-18.0637 -386.398 1841
-13.6019 -384.719 1833
-9.16835 -382.62 1823
-4.80901 -382.62 1823
53.5844 -797.562 3800
62.6713 -797.562 3800
72.2493 -803.019 3826
81.5899 -804.908 3835
92.6775 -821.909 3916
102.042 -821.909 3916
111.406 -821.909 3916
147.495 -814.353 3880
156.773 -814.353 3880
166.052 -814.353 3880
175.33 -814.353 3880
184.608 -814.353 3880
192.537 -808.686 3853
201.751 -808.686 3853
209.979 -804.908 3835
220.692 -810.575 3862
232.607 -820.02 3907
245.418 -831.773 3963
254.894 -831.773 3963
264.371 -831.773 3963
273.848 -831.773 3963
283.324 -831.773 3963
292.801 -831.773 3963
300.829 -827.785 3944
304.517 -812.464 3871
311.586 -806.797 3844
320.778 -806.797 3844
327.738 -801.34 3818
336.868 -801.34 3818
345.182 -799.451 3809
354.291 -799.451 3809
360.06 -792.105 3774
367.422 -788.537 3757
377.308 -790.426 3766
388.981 -795.883 3792
398.049 -795.883 3792
407.117 -795.883 3792
416.184 -795.883 3792
425.252 -795.883 3792
433.289 -793.994 3783
443.388 -795.883 3792
454.484 -799.451 3809
464.688 -801.34 3818
473.818 -801.34 3818
483.96 -803.019 3826
495.429 -806.797 3844
508.166 -812.464 3871
517.422 -812.464 3871
526.679 -812.464 3871
535.936 -812.464 3871
545.193 -812.464 3871
554.449 -812.464 3871
549.581 -792.105 3774
558.605 -792.105 3774
566.427 -790.426 3766
575.432 -790.426 3766
1866.6 -858.219 4089
1876.37 -858.219 4089
1886.15 -858.219 4089
1891.29 -856.12 4079
1891.73 -851.922 4059
1896.75 -849.823 4049
1906.43 -849.823 4049
3012.45 -847.724 4039
3022.11 -847.724 4039
3031.76 -847.724 4039
3048.95 -849.823 4049
3058.64 -849.823 4049
3068.32 -849.823 4049
3070.4 -847.724 4039
3065.57 -843.737 4020
3075.18 -843.737 4020
-706.927 -380.743 1835
-702.539 -380.743 1835
-698.912 -381.158 1837
-694.519 -381.158 1837
-690.126 -381.158 1837
-684.24 -380.328 1833
-679.857 -380.328 1833
-674.737 -379.913 1831
-670.358 -379.913 1831
-665.98 -379.913 1831
-659.434 -378.668 1825
-655.069 -378.668 1825
-650.705 -378.668 1825
-644.216 -377.423 1819
-639.866 -377.423 1819
-634.818 -377.008 1817
-630.473 -377.008 1817
-622.682 -374.933 1807
-617.334 -374.311 1804
-611.661 -373.481 1800
-607.357 -373.481 1800
-601.712 -372.651 1796
-596.087 -371.821 1792
-589.82 -370.576 1786
-583.254 -369.123 1779
-579 -369.123 1779
-571.515 -367.048 1769
-563.758 -364.766 1758
-557.644 -363.521 1752
-553.454 -363.521 1752
-546.443 -361.654 1743
-541.342 -361.031 1740
-536.564 -360.616 1738
-532.408 -360.616 1738
-526.428 -359.371 1732
-521.984 -359.164 1731
-516.649 -358.334 1727
-512.519 -358.334 1727
-507.211 -357.504 1723
-502.799 -357.296 1722
-497.523 -356.467 1718
-493.415 -356.467 1718
-488.737 -356.052 1716
-484.351 -355.844 1715
-478.57 -354.599 1709
-474.205 -354.392 1708
-470.121 -354.392 1708
-465.491 -353.977 1706
-460.871 -353.562 1704
-456.26 -353.147 1702
-452.19 -353.147 1702
-448.12 -353.147 1702
-444.05 -353.147 1702
-439.98 -353.147 1702
-435.91 -353.147 1702
-431.84 -353.147 1702
-427.77 -353.147 1702
-423.451 -352.939 1701
-419.383 -352.939 1701
-415.315 -352.939 1701
-411.248 -352.939 1701
-407.18 -352.939 1701
-403.113 -352.939 1701
-399.045 -352.939 1701
-394.977 -352.939 1701
-390.91 -352.939 1701
-387.07 -353.147 1702
-383 -353.147 1702
-378.93 -353.147 1702
-374.86 -353.147 1702
-370.79 -353.147 1702
-366.72 -353.147 1702
-362.65 -353.147 1702
-358.369 -352.939 1701
-354.301 -352.939 1701
-350.234 -352.939 1701
-346.166 -352.939 1701
-341.696 -352.524 1699
-337.633 -352.524 1699
-333.571 -352.524 1699
-329.508 -352.524 1699
-325.445 -352.524 1699
-321.382 -352.524 1699
-317.319 -352.524 1699
-312.888 -352.109 1697
-309.194 -352.524 1699
-305.131 -352.524 1699
-301.068 -352.524 1699
-296.656 -352.109 1697
-292.598 -352.109 1697
-288.199 -351.694 1695
-284.481 -352.109 1697
-280.423 -352.109 1697
-276.691 -352.524 1699
-272.949 -352.939 1701
-268.882 -352.939 1701
-264.814 -352.939 1701
-260.746 -352.939 1701
-256.83 -353.147 1702
-253.057 -353.562 1704
-248.982 -353.562 1704
-245.482 -354.392 1708
-241.539 -354.599 1709
-238.286 -355.844 1715
-234.185 -355.844 1715
-230.218 -356.052 1716
-226.378 -356.467 1718
-222.528 -356.882 1720
-218.415 -356.882 1720
-214.925 -357.919 1725
-211.289 -358.749 1729
-207.394 -359.164 1731
-203.255 -359.164 1731
-199.461 -359.786 1734
-196.103 -361.239 1741
-192.38 -362.069 1745
-188.208 -362.069 1745
-184.457 -362.899 1749
-180.583 -363.521 1752
-177.401 -365.596 1762
-173.187 -365.596 1762
-169.453 -366.633 1767
-165.976 -368.293 1775
-162.187 -369.331 1780
-157.93 -369.331 1780
-154.192 -370.576 1786
-150.425 -371.821 1792
-146.302 -372.236 1794
-142.012 -372.236 1794
-138.183 -373.481 1800
-134.027 -373.896 1802
-129.934 -374.518 1805
-125.757 -374.933 1807
-121.436 -374.933 1807
-117.245 -375.348 1809
-113.168 -376.178 1813
-108.953 -376.593 1815
-104.613 -376.593 1815
-100.273 -376.593 1815
-96.0381 -377.008 1817
-91.9959 -378.253 1823
-87.6366 -378.253 1823
-83.3686 -378.668 1825
-79.0045 -378.668 1825
-74.7221 -379.083 1827
-70.3532 -379.083 1827
-65.9843 -379.083 1827
-61.8177 -380.328 1833
-57.4972 -380.743 1835
-53.1091 -380.743 1835
-48.7211 -380.743 1835
-44.333 -380.743 1835
-39.945 -380.743 1835
-35.5182 -380.328 1833
-31.1689 -380.743 1835
-26.8101 -381.158 1837
-22.4172 -381.158 1837
-18.0244 -381.158 1837
-13.6019 -380.328 1833
-9.16835 -378.253 1823
-4.80901 -378.253 1823
53.5844 -788.459 3800
62.6713 -788.459 3800
72.2493 -793.854 3826
81.5899 -795.721 3835
92.6775 -812.528 3916
102.042 -812.528 3916
111.406 -812.528 3916
183.323 -799.456 3853
192.537 -799.456 3853
201.751 -799.456 3853
209.979 -795.721 3835
220.692 -801.323 3862
232.607 -810.66 3907
245.418 -822.28 3963
254.894 -822.28 3963
264.371 -822.28 3963
273.848 -822.28 3963
283.324 -822.28 3963
292.801 -822.28 3963
300.829 -818.338 3944
304.517 -803.191 3871
311.586 -797.589 3844
320.778 -797.589 3844
327.738 -792.194 3818
336.868 -792.194 3818
345.182 -790.327 3809
354.291 -790.327 3809
360.06 -783.064 3774
367.422 -779.537 3757
377.308 -781.404 3766
388.981 -786.799 3792
398.049 -786.799 3792
407.117 -786.799 3792
416.184 -786.799 3792
425.252 -786.799 3792
433.289 -784.932 3783
443.388 -786.799 3792
454.484 -790.327 3809
464.688 -792.194 3818
473.818 -792.194 3818
483.96 -793.854 3826
495.429 -797.589 3844
508.166 -803.191 3871
517.422 -803.191 3871
526.679 -803.191 3871
535.936 -803.191 3871
545.193 -803.191 3871
554.449 -803.191 3871
549.581 -783.064 3774
558.605 -783.064 3774
566.427 -781.404 3766
575.432 -781.404 3766
1866.6 -848.424 4089
1876.37 -848.424 4089
1886.15 -848.424 4089
1891.29 -846.349 4079
1891.73 -842.199 4059
1896.75 -840.124 4049
1906.43 -840.124 4049
3012.45 -838.049 4039
3022.11 -838.049 4039
3031.76 -838.049 4039
3048.95 -840.124 4049
3058.64 -840.124 4049
3068.32 -840.124 4049
3070.4 -838.049 4039
3065.57 -834.107 4020
3075.18 -834.107 4020
-706.927 -376.347 1835
-702.539 -376.347 1835
-698.151 -376.347 1835
-693.007 -375.937 1833
-688.624 -375.937 1833
-684.24 -375.937 1833
-679.115 -375.527 1831
-674 -375.116 1829
-669.626 -375.116 1829
-665.253 -375.116 1829
-659.434 -374.296 1825
-654.352 -373.886 1823
-649.992 -373.886 1823
-644.216 -373.065 1819
-639.163 -372.655 1817
-634.119 -372.245 1815
-629.779 -372.245 1815
-622.682 -370.604 1807
-617.334 -369.989 1804
-611.661 -369.169 1800
-607.357 -369.169 1800
-601.712 -368.348 1796
-596.087 -367.528 1792
-589.16 -365.887 1784
-583.254 -364.862 1779
-579 -364.862 1779
-571.515 -362.811 1769
-563.758 -360.555 1758
-557.644 -359.324 1752
-553.454 -359.324 1752
-546.443 -357.478 1743
-541.342 -356.863 1740
-536.564 -356.453 1738
-532.408 -356.453 1738
-526.428 -355.222 1732
-521.984 -355.017 1731
-516.649 -354.197 1727
-512.519 -354.197 1727
-507.211 -353.376 1723
-502.799 -353.171 1722
-497.523 -352.351 1718
-493.415 -352.351 1718
-488.737 -351.941 1716
-484.351 -351.736 1715
-478.57 -350.505 1709
-474.483 -350.505 1709
-470.396 -350.505 1709
-466.037 -350.3 1708
-461.411 -349.89 1706
-456.796 -349.48 1704
-452.721 -349.48 1704
-448.646 -349.48 1704
-444.571 -349.48 1704
-440.497 -349.48 1704
-436.422 -349.48 1704
-431.84 -349.07 1702
-427.77 -349.07 1702
-423.7 -349.07 1702
-419.63 -349.07 1702
-415.315 -348.864 1701
-411.248 -348.864 1701
-407.18 -348.864 1701
-403.113 -348.864 1701
-399.045 -348.864 1701
-394.977 -348.864 1701
-390.91 -348.864 1701
-386.842 -348.864 1701
-382.775 -348.864 1701
-378.707 -348.864 1701
-374.639 -348.864 1701
-370.572 -348.864 1701
-366.504 -348.864 1701
-362.437 -348.864 1701
-357.948 -348.454 1699
-353.885 -348.454 1699
-349.822 -348.454 1699
-345.759 -348.454 1699
-341.696 -348.454 1699
-337.633 -348.454 1699
-333.571 -348.454 1699
-329.12 -348.044 1697
-325.062 -348.044 1697
-321.004 -348.044 1697
-316.946 -348.044 1697
-312.888 -348.044 1697
-308.83 -348.044 1697
-304.772 -348.044 1697
-300.714 -348.044 1697
-296.656 -348.044 1697
-292.253 -347.634 1695
-288.199 -347.634 1695
-284.481 -348.044 1697
-280.423 -348.044 1697
-276.691 -348.454 1699
-272.949 -348.864 1701
-268.882 -348.864 1701
-264.814 -348.864 1701
-260.9 -349.07 1702
-256.83 -349.07 1702
-253.057 -349.48 1704
-248.982 -349.48 1704
-245.195 -349.89 1706
-241.539 -350.505 1709
-238.286 -351.736 1715
-234.185 -351.736 1715
-230.218 -351.941 1716
-226.378 -352.351 1718
-222.528 -352.761 1720
-218.415 -352.761 1720
-214.925 -353.787 1725
-211.289 -354.607 1729
-207.394 -355.017 1731
-203.255 -355.017 1731
-199.461 -355.633 1734
-196.103 -357.068 1741
-192.38 -357.889 1745
-188.208 -357.889 1745
-184.667 -359.119 1751
-180.583 -359.324 1752
-177.199 -360.965 1760
-172.991 -360.965 1760
-169.453 -362.401 1767
-165.976 -364.041 1775
-162.187 -365.067 1780
-157.93 -365.067 1780
-154.192 -366.297 1786
-150.592 -367.938 1794
-146.302 -367.938 1794
-142.012 -367.938 1794
-138.183 -369.169 1800
-134.176 -369.989 1804
-130.078 -370.604 1807
-125.896 -371.015 1809
-121.57 -371.015 1809
-117.504 -371.835 1813
-113.168 -371.835 1813
-108.953 -372.245 1815
-104.613 -372.245 1815
-100.383 -372.655 1817
-96.1438 -373.065 1819
-91.9959 -373.886 1823
-87.6366 -373.886 1823
-83.46 -374.706 1827
-79.091 -374.706 1827
-74.7221 -374.706 1827
-70.3532 -374.706 1827
-66.0565 -375.116 1829
-61.8177 -375.937 1833
-57.4972 -376.347 1835
-53.1091 -376.347 1835
-48.7211 -376.347 1835
-44.333 -376.347 1835
-39.945 -376.347 1835
-35.557 -376.347 1835
-31.1689 -376.347 1835
-26.7517 -375.937 1833
-22.3684 -375.937 1833
-17.9852 -375.937 1833
-13.5425 -374.296 1825
-9.17841 -374.296 1825
-4.81429 -374.296 1825
-0.448184 -372.655 1817
44.4974 -779.356 3800
53.951 -784.689 3826
63.1002 -784.689 3826
73.269 -795.764 3880
83.1217 -801.301 3907
93.1272 -807.044 3935
102.537 -807.044 3935
114.365 -824.477 4020
124.564 -828.374 4039
134.222 -828.374 4039
143.881 -828.374 4039
191.638 -786.534 3835
200.808 -786.534 3835
209.979 -786.534 3835
220.692 -792.072 3862
233.143 -803.147 3916
245.975 -814.632 3972
255.473 -814.632 3972
264.971 -814.632 3972
274.47 -814.632 3972
283.968 -814.632 3972
292.801 -812.786 3963
300.829 -808.89 3944
304.517 -793.918 3871
311.586 -788.38 3844
320.778 -788.38 3844
328.425 -784.689 3826
337.574 -784.689 3826
345.182 -781.202 3809
354.291 -781.202 3809
360.06 -774.024 3774
368.303 -772.383 3766
377.308 -772.383 3766
387.135 -774.024 3774
396.159 -774.024 3774
405.184 -774.024 3774
414.209 -774.024 3774
423.234 -774.024 3774
432.258 -774.024 3774
442.336 -775.87 3783
452.456 -777.715 3792
463.593 -781.202 3809
472.701 -781.202 3809
483.96 -784.689 3826
495.429 -788.38 3844
506.984 -792.072 3862
517.422 -793.918 3871
526.679 -793.918 3871
535.936 -793.918 3871
543.925 -792.072 3862
553.16 -792.072 3862
549.581 -774.024 3774
557.421 -772.383 3766
566.427 -772.383 3766
575.432 -772.383 3766
1847.04 -838.628 4089
1856.82 -838.628 4089
1866.6 -838.628 4089
1876.37 -838.628 4089
1886.15 -838.628 4089
1891.29 -836.577 4079
1891.73 -832.475 4059
1896.75 -830.424 4049
1906.43 -830.424 4049
3012.45 -828.374 4039
3022.11 -828.374 4039
3031.76 -828.374 4039
3048.95 -830.424 4049
3058.64 -830.424 4049
3068.32 -830.424 4049
3070.4 -828.374 4039
3065.57 -824.477 4020
3075.18 -824.477 4020
-722.334 -375.397 1852
-717.905 -375.397 1852
-713.476 -375.397 1852
-708.282 -374.992 1850
-698.912 -372.357 1837
-693.007 -371.546 1833
-688.624 -371.546 1833
-683.494 -371.14 1831
-679.115 -371.14 1831
-674 -370.735 1829
-669.626 -370.735 1829
-664.525 -370.33 1827
-659.434 -369.924 1825
-652.916 -368.708 1819
-648.566 -368.708 1819
-643.508 -368.303 1817
-638.459 -367.897 1815
-633.42 -367.492 1813
-629.085 -367.492 1813
-621.993 -365.87 1805
-616.65 -365.262 1802
-610.981 -364.451 1798
-606.682 -364.451 1798
-601.042 -363.641 1794
-595.422 -362.83 1790
-589.16 -361.614 1784
-583.582 -360.803 1780
-579.326 -360.803 1780
-572.162 -358.979 1771
-564.399 -356.749 1760
-558.281 -355.533 1754
-554.086 -355.533 1754
-546.443 -353.303 1743
-541.342 -352.695 1740
-537.181 -352.695 1740
-533.02 -352.695 1740
-527.036 -351.479 1734
-522.286 -351.073 1732
-516.649 -350.06 1727
-512.519 -350.06 1727
-507.211 -349.249 1723
-502.799 -349.046 1722
-497.523 -348.236 1718
-493.415 -348.236 1718
-488.737 -347.83 1716
-484.351 -347.627 1715
-479.13 -346.817 1711
-474.483 -346.411 1709
-470.396 -346.411 1709
-466.037 -346.209 1708
-461.952 -346.209 1708
-457.332 -345.803 1706
-453.252 -345.803 1706
-449.173 -345.803 1706
-445.093 -345.803 1706
-441.014 -345.803 1706
-436.934 -345.803 1706
-432.347 -345.398 1704
-428.272 -345.398 1704
-423.7 -344.992 1702
-419.63 -344.992 1702
-415.56 -344.992 1702
-411.49 -344.992 1702
-407.42 -344.992 1702
-403.35 -344.992 1702
-399.28 -344.992 1702
-394.977 -344.79 1701
-390.91 -344.79 1701
-386.842 -344.79 1701
-382.775 -344.79 1701
-378.707 -344.79 1701
-374.639 -344.79 1701
-370.572 -344.79 1701
-366.504 -344.79 1701
-362.437 -344.79 1701
-357.948 -344.384 1699
-353.885 -344.384 1699
-349.822 -344.384 1699
-345.759 -344.384 1699
-341.294 -343.979 1697
-337.236 -343.979 1697
-333.178 -343.979 1697
-329.12 -343.979 1697
-325.062 -343.979 1697
-321.004 -343.979 1697
-316.946 -343.979 1697
-312.888 -343.979 1697
-308.83 -343.979 1697
-304.772 -343.979 1697
-300.714 -343.979 1697
-296.656 -343.979 1697
-292.598 -343.979 1697
-288.54 -343.979 1697
-284.481 -343.979 1697
-280.423 -343.979 1697
-276.691 -344.384 1699
-272.949 -344.79 1701
-268.882 -344.79 1701
-264.814 -344.79 1701
-260.9 -344.992 1702
-256.83 -344.992 1702
-253.057 -345.398 1704
-248.982 -345.398 1704
-245.195 -345.803 1706
-241.539 -346.411 1709
-238.286 -347.627 1715
-234.185 -347.627 1715
-230.218 -347.83 1716
-226.378 -348.236 1718
-222.528 -348.641 1720
-218.415 -348.641 1720
-214.925 -349.654 1725
-211.289 -350.465 1729
-207.394 -350.871 1731
-203.255 -350.871 1731
-199.461 -351.479 1734
-196.103 -352.898 1741
-192.38 -353.708 1745
-188.208 -353.708 1745
-184.667 -354.925 1751
-180.583 -355.127 1752
-177.199 -356.749 1760
-172.991 -356.749 1760
-169.453 -358.168 1767
-165.976 -359.789 1775
-162.187 -360.803 1780
-157.93 -360.803 1780
-154.364 -362.424 1788
-150.592 -363.641 1794
-146.466 -364.046 1796
-142.171 -364.046 1796
-138.183 -364.857 1800
-134.251 -365.87 1805
-130.078 -366.276 1807
-125.896 -366.681 1809
-121.705 -367.086 1811
-117.504 -367.492 1813
-113.293 -367.897 1815
-108.953 -367.897 1815
-104.613 -367.897 1815
-100.383 -368.303 1817
-96.1438 -368.708 1819
-91.9959 -369.519 1823
-87.6366 -369.519 1823
-83.46 -370.33 1827
-79.091 -370.33 1827
-74.7221 -370.33 1827
-70.3532 -370.33 1827
-66.0565 -370.735 1829
-61.8177 -371.546 1833
-57.4972 -371.951 1835
-53.1091 -371.951 1835
-48.7211 -371.951 1835
-44.333 -371.951 1835
-39.945 -371.951 1835
-35.557 -371.951 1835
-31.1689 -371.951 1835
-26.7809 -371.951 1835
-22.3928 -371.951 1835
-18.0048 -371.951 1835
-13.5425 -369.924 1825
-9.17841 -369.924 1825
-4.81429 -369.924 1825
-0.448677 -368.708 1819
44.8019 -775.523 3826
54.7125 -786.469 3880
63.9907 -786.469 3880
73.7789 -791.942 3907
84.1003 -801.266 3953
95.1388 -814.847 4020
104.752 -814.847 4020
114.905 -818.698 4039
124.564 -818.698 4039
134.555 -820.725 4049
144.237 -820.725 4049
155.44 -828.833 4089
165.218 -828.833 4089
174.996 -828.833 4089
200.882 -814.847 4020
210.495 -814.847 4020
220.108 -814.847 4020
227.55 -807.144 3982
237.072 -807.144 3982
247.152 -808.969 3991
256.695 -808.969 3991
266.906 -810.996 4001
276.474 -810.996 4001
286.041 -810.996 4001
295.609 -810.996 4001
301.515 -801.266 3953
306.641 -790.118 3898
310.856 -777.348 3835
320.778 -779.172 3844
329.97 -779.172 3844
339.162 -779.172 3844
345.998 -773.902 3818
355.128 -773.902 3818
363.399 -772.078 3809
368.303 -763.362 3766
377.308 -763.362 3766
387.135 -764.983 3774
396.159 -764.983 3774
405.184 -764.983 3774
414.209 -764.983 3774
423.234 -764.983 3774
431.342 -763.362 3766
443.388 -768.632 3792
452.456 -768.632 3792
463.593 -772.078 3809
472.701 -772.078 3809
483.96 -775.523 3826
496.589 -780.996 3853
508.166 -784.645 3871
517.422 -784.645 3871
526.679 -784.645 3871
534.69 -782.821 3862
541.39 -779.172 3844
550.582 -779.172 3844
553.367 -770.253 3800
557.421 -763.362 3766
563.87 -759.916 3749
572.835 -759.916 3749
1847.04 -828.833 4089
1856.82 -828.833 4089
1866.6 -828.833 4089
1871.79 -826.806 4079
1881.54 -826.806 4079
1886.66 -824.779 4069
1887.07 -820.725 4049
1896.75 -820.725 4049
1906.43 -820.725 4049
1907.12 -816.874 4030
3012.45 -818.698 4039
3022.11 -818.698 4039
3031.76 -818.698 4039
3041.42 -818.698 4039
3051.08 -818.698 4039
3060.74 -818.698 4039
3055.95 -814.847 4020
3043.45 -808.969 3991
3053 -808.969 3991
-722.334 -370.961 1852
-717.905 -370.961 1852
-713.476 -370.961 1852
-708.282 -370.56 1850
-698.912 -367.956 1837
-693.007 -367.155 1833
-688.624 -367.155 1833
-684.24 -367.155 1833
-679.115 -366.754 1831
-674 -366.354 1829
-669.626 -366.354 1829
-664.525 -365.953 1827
-657.988 -364.751 1821
-652.916 -364.351 1819
-648.566 -364.351 1819
-642.799 -363.549 1815
-637.756 -363.149 1813
-632.722 -362.748 1811
-628.391 -362.748 1811
-621.993 -361.546 1805
-615.965 -360.545 1800
-610.981 -360.144 1798
-606.682 -360.144 1798
-601.042 -359.343 1794
-595.422 -358.542 1790
-589.16 -357.34 1784
-583.582 -356.539 1780
-579.326 -356.539 1780
-572.162 -354.736 1771
-564.399 -352.533 1760
-558.281 -351.331 1754
-554.086 -351.331 1754
-547.07 -349.528 1745
-541.653 -348.727 1741
-537.181 -348.527 1740
-533.02 -348.527 1740
-527.036 -347.325 1734
-522.286 -346.924 1732
-516.649 -345.923 1727
-512.519 -345.923 1727
-507.211 -345.122 1723
-502.799 -344.921 1722
-497.523 -344.12 1718
-493.415 -344.12 1718
-488.737 -343.719 1716
-484.351 -343.519 1715
-479.13 -342.718 1711
-475.038 -342.718 1711
-470.947 -342.718 1711
-466.037 -342.117 1708
-461.952 -342.117 1708
-457.868 -342.117 1708
-453.784 -342.117 1708
-449.173 -341.716 1706
-445.093 -341.716 1706
-441.014 -341.716 1706
-436.934 -341.716 1706
-432.854 -341.716 1706
-428.272 -341.316 1704
-424.197 -341.316 1704
-420.123 -341.316 1704
-416.048 -341.316 1704
-411.49 -340.915 1702
-407.42 -340.915 1702
-403.35 -340.915 1702
-399.28 -340.915 1702
-395.21 -340.915 1702
-390.91 -340.715 1701
-386.842 -340.715 1701
-382.775 -340.715 1701
-378.707 -340.715 1701
-374.639 -340.715 1701
-370.572 -340.715 1701
-366.504 -340.715 1701
-362.437 -340.715 1701
-357.948 -340.314 1699
-353.885 -340.314 1699
-349.822 -340.314 1699
-345.759 -340.314 1699
-341.294 -339.914 1697
-337.236 -339.914 1697
-333.178 -339.914 1697
-329.12 -339.914 1697
-325.062 -339.914 1697
-321.004 -339.914 1697
-316.946 -339.914 1697
-312.888 -339.914 1697
-308.83 -339.914 1697
-304.772 -339.914 1697
-300.714 -339.914 1697
-296.656 -339.914 1697
-292.598 -339.914 1697
-288.54 -339.914 1697
-284.481 -339.914 1697
-280.423 -339.914 1697
-276.691 -340.314 1699
-272.949 -340.715 1701
-268.882 -340.715 1701
-264.814 -340.715 1701
-260.9 -340.915 1702
-256.83 -340.915 1702
-253.057 -341.316 1704
-248.982 -341.316 1704
-245.195 -341.716 1706
-241.539 -342.317 1709
-238.286 -343.519 1715
-234.185 -343.519 1715
-230.218 -343.719 1716
-226.378 -344.12 1718
-222.528 -344.521 1720
-218.415 -344.521 1720
-214.925 -345.522 1725
-211.289 -346.323 1729
-207.394 -346.724 1731
-203.255 -346.724 1731
-199.461 -347.325 1734
-196.103 -348.727 1741
-192.38 -349.528 1745
-188.208 -349.528 1745
-184.667 -350.73 1751
-180.583 -350.93 1752
-177.401 -352.933 1762
-173.187 -352.933 1762
-169.645 -354.336 1769
-166.163 -355.938 1777
-162.187 -356.539 1780
-157.93 -356.539 1780
-154.364 -358.141 1788
-150.592 -359.343 1794
-146.466 -359.744 1796
-142.171 -359.744 1796
-138.337 -360.945 1802
-134.251 -361.546 1805
-130.222 -362.348 1809
-125.896 -362.348 1809
-121.705 -362.748 1811
-117.504 -363.149 1813
-113.293 -363.549 1815
-109.073 -363.95 1817
-104.728 -363.95 1817
-100.494 -364.351 1819
-96.2496 -364.751 1821
-91.9959 -365.152 1823
-87.6366 -365.152 1823
-83.46 -365.953 1827
-79.091 -365.953 1827
-74.7221 -365.953 1827
-70.3532 -365.953 1827
-66.1288 -366.754 1831
-61.8177 -367.155 1833
-57.4972 -367.555 1835
-53.1091 -367.555 1835
-48.7211 -367.555 1835
-44.333 -367.555 1835
-39.945 -367.555 1835
-35.557 -367.555 1835
-31.1689 -367.555 1835
-26.7809 -367.555 1835
-22.3928 -367.555 1835
-18.0048 -367.555 1835
-13.5425 -365.552 1825
-9.17841 -365.552 1825
-4.81429 -365.552 1825
-0.448677 -364.351 1819
45.5396 -778.977 3889
54.8394 -778.977 3889
64.1392 -778.977 3889
74.6475 -791.797 3953
84.3131 -793.8 3963
95.1388 -805.217 4020
104.752 -805.217 4020
115.19 -811.026 4049
124.872 -811.026 4049
134.555 -811.026 4049
144.237 -811.026 4049
155.44 -819.038 4089
165.218 -819.038 4089
174.996 -819.038 4089
200.882 -805.217 4020
210.495 -805.217 4020
220.108 -805.217 4020
228.636 -801.411 4001
238.203 -801.411 4001
247.771 -801.411 4001
257.338 -801.411 4001
266.906 -801.411 4001
276.474 -801.411 4001
286.041 -801.411 4001
295.609 -801.411 4001
301.515 -791.797 3953
306.641 -780.78 3898
310.856 -768.161 3835
322.28 -773.569 3862
331.515 -773.569 3862
340.75 -773.569 3862
349.985 -773.569 3862
359.221 -773.569 3862
363.399 -762.953 3809
369.965 -757.745 3783
378.11 -755.942 3774
387.135 -755.942 3774
396.159 -755.942 3774
405.184 -755.942 3774
414.209 -755.942 3774
423.234 -755.942 3774
432.258 -755.942 3774
443.388 -759.548 3792
452.456 -759.548 3792
463.593 -762.953 3809
472.701 -762.953 3809
483.96 -766.358 3826
498.909 -775.372 3871
508.166 -775.372 3871
517.422 -775.372 3871
526.679 -775.372 3871
535.936 -775.372 3871
541.39 -769.964 3844
550.582 -769.964 3844
553.367 -761.15 3800
557.421 -754.34 3766
566.427 -754.34 3766
575.432 -754.34 3766
1847.04 -819.038 4089
1856.82 -819.038 4089
1866.6 -819.038 4089
1871.79 -817.035 4079
1881.54 -817.035 4079
1886.66 -815.032 4069
1887.07 -811.026 4049
1896.75 -811.026 4049
1906.43 -811.026 4049
1907.12 -807.22 4030
3019.91 -811.026 4049
3029.59 -811.026 4049
3039.27 -811.026 4049
3041.42 -809.023 4039
3051.08 -809.023 4039
3060.74 -809.023 4039
3063.56 -807.22 4030
3057.94 -803.214 4010
3067.53 -803.214 4010
-722.334 -366.524 1852
-717.905 -366.524 1852
-713.476 -366.524 1852
-708.282 -366.128 1850
-698.912 -363.556 1837
-693.007 -362.764 1833
-688.624 -362.764 1833
-684.24 -362.764 1833
-679.115 -362.368 1831
-674 -361.972 1829
-669.626 -361.972 1829
-664.525 -361.576 1827
-657.988 -360.389 1821
-652.916 -359.993 1819
-648.566 -359.993 1819
-642.799 -359.202 1815
-637.756 -358.806 1813
-632.722 -358.41 1811
-628.391 -358.41 1811
-621.993 -357.223 1805
-615.965 -356.233 1800
-610.981 -355.837 1798
-606.682 -355.837 1798
-601.042 -355.046 1794
-595.422 -354.254 1790
-589.16 -353.066 1784
-583.582 -352.275 1780
-579.326 -352.275 1780
-572.162 -350.494 1771
-564.399 -348.317 1760
-558.917 -347.525 1756
-554.718 -347.525 1756
-547.07 -345.348 1745
-541.653 -344.556 1741
-537.181 -344.359 1740
-533.02 -344.359 1740
-527.036 -343.171 1734
-522.286 -342.775 1732
-516.649 -341.786 1727
-512.519 -341.786 1727
-507.211 -340.994 1723
-502.799 -340.796 1722
-497.523 -340.005 1718
-493.415 -340.005 1718
-488.452 -339.411 1715
-484.351 -339.411 1715
-479.13 -338.619 1711
-475.038 -338.619 1711
-470.947 -338.619 1711
-466.037 -338.026 1708
-461.952 -338.026 1708
-457.868 -338.026 1708
-453.784 -338.026 1708
-449.699 -338.026 1708
-445.093 -337.63 1706
-441.014 -337.63 1706
-436.934 -337.63 1706
-432.854 -337.63 1706
-428.272 -337.234 1704
-424.197 -337.234 1704
-420.123 -337.234 1704
-416.048 -337.234 1704
-411.49 -336.838 1702
-407.42 -336.838 1702
-403.35 -336.838 1702
-399.28 -336.838 1702
-395.21 -336.838 1702
-390.91 -336.64 1701
-386.842 -336.64 1701
-382.775 -336.64 1701
-378.707 -336.64 1701
-374.639 -336.64 1701
-370.572 -336.64 1701
-366.504 -336.64 1701
-362.437 -336.64 1701
-357.948 -336.244 1699
-353.885 -336.244 1699
-349.822 -336.244 1699
-345.759 -336.244 1699
-341.696 -336.244 1699
-337.633 -336.244 1699
-333.571 -336.244 1699
-329.508 -336.244 1699
-325.062 -335.849 1697
-321.004 -335.849 1697
-316.946 -335.849 1697
-312.888 -335.849 1697
-308.83 -335.849 1697
-304.772 -335.849 1697
-300.714 -335.849 1697
-296.656 -335.849 1697
-292.598 -335.849 1697
-288.54 -335.849 1697
-284.481 -335.849 1697
-280.423 -335.849 1697
-276.691 -336.244 1699
-272.949 -336.64 1701
-268.882 -336.64 1701
-264.814 -336.64 1701
-260.9 -336.838 1702
-256.83 -336.838 1702
-253.057 -337.234 1704
-248.982 -337.234 1704
-245.195 -337.63 1706
-241.539 -338.223 1709
-238.286 -339.411 1715
-234.185 -339.411 1715
-230.218 -339.609 1716
-226.378 -340.005 1718
-222.528 -340.4 1720
-218.415 -340.4 1720
-214.925 -341.39 1725
-211.045 -341.786 1727
-207.394 -342.577 1731
-203.255 -342.577 1731
-199.461 -343.171 1734
-196.103 -344.556 1741
-192.38 -345.348 1745
-188.208 -345.348 1745
-184.667 -346.536 1751
-180.583 -346.733 1752
-177.401 -348.712 1762
-173.187 -348.712 1762
-169.645 -350.098 1769
-166.163 -351.681 1777
-162.187 -352.275 1780
-157.93 -352.275 1780
-154.364 -353.858 1788
-150.592 -355.046 1794
-146.466 -355.441 1796
-142.171 -355.441 1796
-138.337 -356.629 1802
-134.251 -357.223 1805
-130.222 -358.014 1809
-125.896 -358.014 1809
-121.705 -358.41 1811
-117.504 -358.806 1813
-113.293 -359.202 1815
-109.073 -359.597 1817
-104.728 -359.597 1817
-100.494 -359.993 1819
-96.2496 -360.389 1821
-91.9959 -360.785 1823
-87.6366 -360.785 1823
-83.46 -361.576 1827
-79.091 -361.576 1827
-74.7221 -361.576 1827
-70.3532 -361.576 1827
-66.1288 -362.368 1831
-61.8177 -362.764 1833
-57.4972 -363.16 1835
-53.1091 -363.16 1835
-48.7211 -363.16 1835
-44.333 -363.16 1835
-39.945 -363.16 1835
-35.557 -363.16 1835
-31.1689 -363.16 1835
-26.7809 -363.16 1835
-22.3928 -363.16 1835
-18.0048 -363.16 1835
-13.5425 -361.181 1825
-9.17841 -361.181 1825
-4.81429 -361.181 1825
-0.448677 -359.993 1819
45.5396 -769.661 3889
54.8394 -769.661 3889
64.1392 -769.661 3889
74.6475 -782.327 3953
84.3131 -784.306 3963
95.1388 -795.587 4020
104.752 -795.587 4020
115.19 -801.326 4049
124.872 -801.326 4049
134.555 -801.326 4049
144.237 -801.326 4049
155.44 -809.243 4089
165.218 -809.243 4089
174.996 -809.243 4089
200.882 -795.587 4020
210.495 -795.587 4020
220.108 -795.587 4020
228.636 -791.827 4001
238.203 -791.827 4001
247.771 -791.827 4001
257.338 -791.827 4001
266.906 -791.827 4001
276.474 -791.827 4001
286.041 -791.827 4001
295.609 -791.827 4001
301.515 -782.327 3953
306.641 -771.442 3898
310.856 -758.974 3835
322.28 -764.318 3862
331.515 -764.318 3862
340.75 -764.318 3862
349.985 -764.318 3862
359.221 -764.318 3862
363.399 -753.829 3809
369.965 -748.683 3783
378.11 -746.902 3774
387.135 -746.902 3774
396.159 -746.902 3774
404.325 -745.319 3766
413.331 -745.319 3766
423.234 -746.902 3774
432.258 -746.902 3774
443.388 -750.464 3792
452.456 -750.464 3792
463.593 -753.829 3809
472.701 -753.829 3809
483.96 -757.193 3826
498.909 -766.099 3871
508.166 -766.099 3871
517.422 -766.099 3871
526.679 -766.099 3871
535.936 -766.099 3871
541.39 -760.755 3844
550.582 -760.755 3844
553.367 -752.047 3800
557.421 -745.319 3766
566.427 -745.319 3766
575.432 -745.319 3766
1847.04 -809.243 4089
1856.82 -809.243 4089
1866.6 -809.243 4089
1871.79 -807.263 4079
1881.54 -807.263 4079
1882.02 -803.305 4059
1887.07 -801.326 4049
1896.75 -801.326 4049
1906.43 -801.326 4049
1907.12 -797.566 4030
3019.91 -801.326 4049
3029.59 -801.326 4049
3039.27 -801.326 4049
3041.42 -799.347 4039
3051.08 -799.347 4039
3060.74 -799.347 4039
3063.56 -797.566 4030
3057.94 -793.608 4010
3067.53 -793.608 4010
-722.334 -362.088 1852
-717.905 -362.088 1852
-713.476 -362.088 1852
-708.282 -361.697 1850
-698.912 -359.155 1837
-693.007 -358.373 1833
-688.624 -358.373 1833
-684.24 -358.373 1833
-679.115 -357.982 1831
-674 -357.591 1829
-669.626 -357.591 1829
-663.798 -356.809 1825
-657.266 -355.636 1819
-652.916 -355.636 1819
-648.566 -355.636 1819
-642.091 -354.463 1813
-637.756 -354.463 1813
-632.722 -354.072 1811
-628.391 -354.072 1811
-621.993 -352.899 1805
-615.965 -351.921 1800
-610.981 -351.53 1798
-606.682 -351.53 1798
-601.042 -350.748 1794
-595.422 -349.966 1790
-589.16 -348.793 1784
-583.582 -348.011 1780
-579.326 -348.011 1780
-572.162 -346.251 1771
-564.399 -344.101 1760
-558.917 -343.319 1756
-554.718 -343.319 1756
-547.07 -341.168 1745
-541.653 -340.386 1741
-537.181 -340.19 1740
-533.02 -340.19 1740
-527.036 -339.017 1734
-522.286 -338.626 1732
-516.649 -337.649 1727
-512.519 -337.649 1727
-507.211 -336.867 1723
-502.799 -336.671 1722
-497.523 -335.889 1718
-493.415 -335.889 1718
-488.452 -335.303 1715
-484.351 -335.303 1715
-479.13 -334.521 1711
-475.038 -334.521 1711
-470.947 -334.521 1711
-466.037 -333.934 1708
-461.952 -333.934 1708
-457.868 -333.934 1708
-453.784 -333.934 1708
-449.699 -333.934 1708
-445.093 -333.543 1706
-441.014 -333.543 1706
-436.934 -333.543 1706
-432.854 -333.543 1706
-428.272 -333.152 1704
-424.197 -333.152 1704
-420.123 -333.152 1704
-416.048 -333.152 1704
-411.49 -332.761 1702
-407.42 -332.761 1702
-403.35 -332.761 1702
-399.28 -332.761 1702
-395.21 -332.761 1702
-390.91 -332.565 1701
-386.842 -332.565 1701
-382.775 -332.565 1701
-378.707 -332.565 1701
-374.639 -332.565 1701
-370.572 -332.565 1701
-366.504 -332.565 1701
-362.437 -332.565 1701
-357.948 -332.174 1699
-353.885 -332.174 1699
-349.822 -332.174 1699
-345.759 -332.174 1699
-341.696 -332.174 1699
-337.633 -332.174 1699
-333.571 -332.174 1699
-329.508 -332.174 1699
-325.062 -331.783 1697
-321.004 -331.783 1697
-316.946 -331.783 1697
-312.888 -331.783 1697
-308.83 -331.783 1697
-304.772 -331.783 1697
-300.714 -331.783 1697
-296.656 -331.783 1697
-292.598 -331.783 1697
-288.54 -331.783 1697
-284.481 -331.783 1697
-280.423 -331.783 1697
-276.691 -332.174 1699
-272.949 -332.565 1701
-268.882 -332.565 1701
-264.814 -332.565 1701
-260.9 -332.761 1702
-256.83 -332.761 1702
-253.057 -333.152 1704
-248.982 -333.152 1704
-245.195 -333.543 1706
-241.539 -334.129 1709
-238.286 -335.303 1715
-234.185 -335.303 1715
-230.084 -335.303 1715
-226.378 -335.889 1718
-222.528 -336.28 1720
-218.415 -336.28 1720
-214.925 -337.258 1725
-211.045 -337.649 1727
-207.394 -338.431 1731
-203.255 -338.431 1731
-199.461 -339.017 1734
-196.103 -340.386 1741
-192.38 -341.168 1745
-188.208 -341.168 1745
-184.667 -342.341 1751
-180.583 -342.536 1752
-177.401 -344.492 1762
-173.187 -344.492 1762
-169.645 -345.86 1769
-166.35 -347.815 1779
-162.369 -348.402 1782
-158.108 -348.402 1782
-154.364 -349.575 1788
-150.76 -351.139 1796
-146.629 -351.53 1798
-142.329 -351.53 1798
-138.49 -352.703 1804
-134.251 -352.899 1805
-130.366 -354.072 1811
-126.036 -354.072 1811
-121.839 -354.463 1813
-117.633 -354.854 1815
-113.418 -355.245 1817
-109.193 -355.636 1819
-104.843 -355.636 1819
-100.604 -356.027 1821
-96.3553 -356.418 1823
-92.0968 -356.809 1825
-87.7327 -356.809 1825
-83.46 -357.2 1827
-79.091 -357.2 1827
-74.8039 -357.591 1829
-70.4302 -357.591 1829
-66.1288 -357.982 1831
-61.8852 -358.764 1835
-57.4972 -358.764 1835
-53.1091 -358.764 1835
-48.7742 -359.155 1837
-44.3814 -359.155 1837
-39.9885 -359.155 1837
-35.5957 -359.155 1837
-31.2029 -359.155 1837
-26.7517 -358.373 1833
-22.3684 -358.373 1833
-17.9852 -358.373 1833
-13.5425 -356.809 1825
-9.17841 -356.809 1825
-4.81429 -356.809 1825
-0.448184 -355.245 1817
36.3237 -762.105 3898
45.7504 -763.864 3907
55.347 -767.383 3925
64.7329 -767.383 3925
74.8364 -774.813 3963
85.313 -784.002 4010
95.1388 -785.957 4020
104.752 -785.957 4020
115.19 -791.627 4049
124.872 -791.627 4049
134.555 -791.627 4049
144.237 -791.627 4049
153.919 -791.627 4049
201.382 -787.912 4030
211.019 -787.912 4030
220.656 -787.912 4030
228.636 -782.242 4001
238.203 -782.242 4001
247.771 -782.242 4001
257.338 -782.242 4001
266.906 -782.242 4001
275.783 -780.287 3991
285.326 -780.287 3991
294.87 -780.287 3991
301.515 -772.858 3953
306.641 -762.105 3898
310.856 -749.787 3835
322.28 -755.066 3862
331.515 -755.066 3862
340.75 -755.066 3862
349.985 -755.066 3862
359.221 -755.066 3862
