-354.127 475.308 1662
-350.363 475.594 1663
-346.386 475.594 1663
-342.41 475.594 1663
-338.229 475.308 1662
-334.456 475.594 1663
-330.877 476.166 1665
-326.895 476.166 1665
-322.914 476.166 1665
-319.507 477.024 1668
-316.275 478.168 1672
-312.277 478.168 1672
-308.278 478.168 1672
-304.462 478.454 1673
-300.821 479.026 1675
-297.347 479.884 1678
-293.334 479.884 1678
-289.322 479.884 1678
-286.499 481.886 1685
-283.14 483.03 1689
-279.101 483.03 1689
-275.551 483.888 1692
-271.986 484.746 1695
-268.565 485.889 1699
-264.503 485.889 1699
-260.746 486.461 1701
-257.735 488.463 1708
-254.096 489.321 1711
-250.005 489.321 1711
-246.201 489.893 1713
-242.811 491.323 1718
-239.397 492.753 1723
-235.277 492.753 1723
-232.23 495.041 1731
-228.75 496.471 1736
-225.116 497.615 1740
-220.955 497.615 1740
-216.919 497.901 1741
-213 498.473 1743
-209.311 499.617 1747
-205.134 499.617 1747
-201.531 501.047 1752
-198.243 503.335 1760
-194.585 504.765 1765
-190.365 504.765 1765
-186.777 506.48 1771
-183.469 509.054 1780
-179.414 509.626 1782
-175.153 509.626 1782
-172.042 513.058 1794
-168.126 514.202 1798
-163.827 514.202 1798
-159.527 514.202 1798
-274.194 1089.32 3809
-265.085 1089.32 3809
-257.119 1094.18 3826
-247.97 1094.18 3826
-239.383 1096.75 3835
-230.212 1096.75 3835
-221.041 1096.75 3835
-211.374 1094.18 3826
-201.326 1089.32 3809
-192.217 1089.32 3809
-183.542 1091.89 3818
-174.412 1091.89 3818
-165.282 1091.89 3818
-156.152 1091.89 3818
-147.33 1094.18 3826
-138.181 1094.18 3826
-129.031 1094.18 3826
-119.882 1094.18 3826
-109.749 1084.46 3792
-100.681 1084.46 3792
-89.9707 1065.01 3724
-80.5213 1057.86 3699
-71.5208 1055.57 3691
-62.6945 1055.57 3691
-53.7515 1053.28 3683
-44.7491 1048.71 3667
-35.8918 1046.14 3658
-27.1444 1046.14 3658
-18.2814 1039.56 3635
-9.50459 1030.41 3603
-0.888721 1030.41 3603
7.72714 1030.41 3603
16.343 1030.41 3603
24.9035 1028.12 3595
33.435 1026.12 3588
41.9213 1023.83 3580
50.4821 1023.83 3580
58.9111 1021.54 3572
67.3206 1019.54 3565
75.6754 1017.25 3557
84.1813 1017.25 3557
92.0878 1010.67 3534
100.766 1012.96 3542
109.236 1012.96 3542
117.706 1012.96 3542
126.176 1012.96 3542
134.342 1010.67 3534
142.793 1010.67 3534
151.244 1010.67 3534
159.695 1010.67 3534
167.813 1008.67 3527
176.247 1008.67 3527
184.681 1008.67 3527
193.115 1008.67 3527
201.549 1008.67 3527
209.983 1008.67 3527
218.417 1008.67 3527
226.851 1008.67 3527
235.286 1008.67 3527
243.72 1008.67 3527
252.654 1010.67 3534
261.696 1012.96 3542
270.166 1012.96 3542
280.445 1019.54 3565
289.538 1021.54 3572
298.08 1021.54 3572
306.621 1021.54 3572
315.163 1021.54 3572
323.705 1021.54 3572
333.735 1026.12 3588
342.315 1026.12 3588
350.895 1026.12 3588
359.475 1026.12 3588
368.055 1026.12 3588
375.795 1023.83 3580
382.745 1019.54 3565
387.1 1008.67 3527
395.534 1008.67 3527
400.532 1000.09 3497
404.685 989.796 3461
412.961 989.796 3461
417.83 981.789 3433
426.039 981.789 3433
433.363 979.787 3426
440.653 977.785 3419
445.154 969.777 3391
453.262 969.777 3391
457.562 961.77 3363
461.035 952.332 3330
467.167 948.614 3317
475.099 948.614 3317
482.012 946.612 3310
489.927 946.612 3310
497.842 946.612 3310
505.757 946.612 3310
513.672 946.612 3310
520.485 944.61 3303
528.383 944.61 3303
536.281 944.61 3303
545.333 946.612 3310
553.248 946.612 3310
562.35 948.614 3317
570.282 948.614 3317
578.214 948.614 3317
584.909 946.612 3310
592.825 946.612 3310
600.74 946.612 3310
611.045 950.33 3323
618.992 950.33 3323
626.938 950.33 3323
634.884 950.33 3323
644.185 952.332 3330
652.148 952.332 3330
660.111 952.332 3330
670.682 956.05 3343
678.676 956.05 3343
686.67 956.05 3343
694.664 956.05 3343
702.659 956.05 3343
710.653 956.05 3343
720.152 958.052 3350
728.162 958.052 3350
736.173 958.052 3350
742.629 956.05 3343
750.623 956.05 3343
757.256 954.334 3337
766.612 956.05 3343
774.606 956.05 3343
782.6 956.05 3343
789.175 954.334 3337
797.155 954.334 3337
806.582 956.05 3343
814.576 956.05 3343
822.57 956.05 3343
830.565 956.05 3343
838.559 956.05 3343
846.553 956.05 3343
854.547 956.05 3343
867.701 961.77 3363
877.566 963.771 3370
891.144 969.777 3391
899.252 969.777 3391
914.854 977.785 3419
926.809 981.789 3433
936.925 983.79 3440
945.151 983.79 3440
963.354 994.086 3476
977.537 1000.09 3497
994.357 1008.67 3527
1002.79 1008.67 3527
1019.83 1017.25 3557
1030.65 1019.54 3565
1043.54 1023.83 3580
1061.21 1032.69 3611
1069.85 1032.69 3611
1087.74 1041.56 3642
1106.39 1051 3675
1115.17 1051 3675
1123.96 1051 3675
1135.22 1053.28 3683
1144.02 1053.28 3683
1152.83 1053.28 3683
1161.64 1053.28 3683
1170.45 1053.28 3683
1179.25 1053.28 3683
1188.06 1053.28 3683
1196.87 1053.28 3683
1205.67 1053.28 3683
1214.48 1053.28 3683
1223.29 1053.28 3683
1232.1 1053.28 3683
1238.21 1051 3675
1244.28 1048.71 3667
1253.05 1048.71 3667
1261.82 1048.71 3667
1270.59 1048.71 3667
1273.43 1043.85 3650
1282.15 1043.85 3650
1290.88 1043.85 3650
1299.61 1043.85 3650
1308.34 1043.85 3650
1317.07 1043.85 3650
1325.79 1043.85 3650
1334.52 1043.85 3650
1343.25 1043.85 3650
1351.98 1043.85 3650
1360.71 1043.85 3650
1369.44 1043.85 3650
1375.14 1041.56 3642
1381.19 1039.56 3635
1389.89 1039.56 3635
1395.5 1037.27 3627
1397.98 1032.69 3611
1403.5 1030.41 3603
1412.11 1030.41 3603
1417.57 1028.12 3595
1423.39 1026.12 3588
1428.78 1023.83 3580
1434.13 1021.54 3572
1442.67 1021.54 3572
1441.87 1014.96 3549
1450.36 1014.96 3549
1455.97 1012.96 3542
1464.44 1012.96 3542
1466.67 1008.67 3527
1472.17 1006.67 3520
1477.23 1004.38 3512
1485.63 1004.38 3512
1494.02 1004.38 3512
1505.84 1006.67 3520
1523.73 1012.96 3542
1538.68 1017.25 3557
1547.19 1017.25 3557
1559.19 1019.54 3565
1574.32 1023.83 3580
1603.66 1037.27 3627
1612.33 1037.27 3627
1634.86 1046.14 3658
1654.84 1053.28 3683
1685.78 1067.3 3732
1706.06 1074.45 3757
1715.04 1074.45 3757
1724.03 1074.45 3757
1745 1081.88 3783
1766.1 1089.32 3809
1775.21 1089.32 3809
1792.28 1094.18 3826
1801.43 1094.18 3826
1810.58 1094.18 3826
1807.37 1086.75 3800
1804.02 1079.31 3774
1801.04 1072.16 3749
1810 1072.16 3749
1783.07 1051 3675
1779.66 1043.85 3650
1773.2 1034.98 3619
1781.86 1034.98 3619
1782.6 1030.41 3603
1775.8 1021.54 3572
1761.86 1008.67 3527
1740.68 991.798 3468
1748.98 991.798 3468
1739.53 981.789 3433
1740.62 977.785 3419
1748.79 977.785 3419
1756.97 977.785 3419
1765.14 977.785 3419
1762.43 971.779 3398
1770.55 971.779 3398
1778.68 971.779 3398
1786.8 971.779 3398
1794.93 971.779 3398
1803.06 971.779 3398
1811.18 971.779 3398
1819.31 971.779 3398
1827.43 971.779 3398
1835.56 971.779 3398
1843.68 971.779 3398
1851.81 971.779 3398
2314.37 1144.23 4001
2323.94 1144.23 4001
2338.76 1146.8 4010
2348.35 1146.8 4010
2357.94 1146.8 4010
2345.09 1135.93 3972
2354.59 1135.93 3972
2364.09 1135.93 3972
2390.91 1144.23 4001
2400.48 1144.23 4001
2410.05 1144.23 4001
2396.64 1133.36 3963
2406.11 1133.36 3963
2494.57 1130.5 3953
2504.02 1130.5 3953
2513.48 1130.5 3953
2522.93 1130.5 3953
534.568 200.476 701
536.244 200.476 701
-2361.48 909.554 3154
-2353.94 909.554 3154
-2346.39 909.554 3154
-2329.95 906.093 3142
-2318 904.363 3136
-2310.5 904.363 3136
-2303.01 904.363 3136
-2291.11 902.633 3130
-2292.38 906.093 3142
-2289.23 907.824 3148
-2281.71 907.824 3148
-2291.52 914.745 3172
-2288.25 916.475 3178
-2289.26 919.936 3190
-2281.64 919.936 3190
-2282.56 923.396 3202
-2296.93 932.336 3233
-2302.65 937.815 3252
-2294.87 937.815 3252
-2291.32 939.546 3258
-2305.96 948.774 3290
-2330.92 962.328 3337
-2322.94 962.328 3337
-2333 969.826 3363
-2334.63 973.863 3377
-2326.56 973.863 3377
-2318.48 973.863 3377
-2310.41 973.863 3377
-2302.33 973.863 3377
-2294.26 973.863 3377
-2276.7 969.826 3363
-2264.61 968.095 3357
-2256.58 968.095 3357
-2248.56 968.095 3357
-2235.86 966.077 3350
-2227.85 966.077 3350
-2219.84 966.077 3350
-2220.41 969.826 3363
-2212.37 969.826 3363
-2208.91 971.844 3370
-2205.43 973.863 3377
-2215.57 981.938 3405
-2207.43 981.938 3405
-2208.33 985.975 3419
-2209.16 990.012 3433
-2209.93 994.05 3447
-2201.68 994.05 3447
-2202.35 998.087 3461
-2198.51 1000.11 3468
-2195.27 1002.41 3476
-2186.96 1002.41 3476
-2196.82 1010.78 3505
-2192.81 1012.79 3512
-2189.39 1015.1 3520
-2180.97 1015.1 3520
-2176.87 1017.12 3527
-2177.66 1021.45 3542
-2173.48 1023.46 3549
-2164.99 1023.46 3549
-2161.37 1025.77 3557
-2157.7 1028.08 3565
-2153.4 1030.1 3572
-2144.86 1030.1 3572
-2141.1 1032.4 3580
-2132.54 1032.4 3580
-2128.72 1034.71 3588
-2120.14 1034.71 3588
-2111.56 1034.71 3588
-2098.29 1032.4 3580
-2089.73 1032.4 3580
-2081.17 1032.4 3580
-2077.24 1034.71 3588
-2068.66 1034.71 3588
-2064.1 1036.73 3595
-2055.51 1036.73 3595
-2046.91 1036.73 3595
-2038.31 1036.73 3595
-2029.72 1036.73 3595
-2021.12 1036.73 3595
-2012.52 1036.73 3595
-2000.02 1034.71 3588
-1991.44 1034.71 3588
-1982.86 1034.71 3588
-1978.14 1036.73 3595
-1969.54 1036.73 3595
-1965.31 1039.04 3603
-1956.69 1039.04 3603
-1952.4 1041.34 3611
-1952.38 1045.96 3627
-1947.99 1048.27 3635
-1939.3 1048.27 3635
-1938.57 1052.59 3650
-1943.06 1059.8 3675
-1938.49 1062.11 3683
-1929.68 1062.11 3683
-1920.87 1062.11 3683
-1916.22 1064.41 3691
-1915.66 1069.03 3707
-1906.79 1069.03 3707
-1906.63 1073.93 3724
-1897.73 1073.93 3724
-1892.88 1076.24 3732
-1883.96 1076.24 3732
-1875.03 1076.24 3732
-1866.11 1076.24 3732
-1857.18 1076.24 3732
-1848.26 1076.24 3732
-1843.28 1078.55 3740
-1834.33 1078.55 3740
-1825.39 1078.55 3740
-1808.68 1073.93 3724
-1787.69 1066.72 3699
-1763.46 1057.49 3667
-1754.69 1057.49 3667
-1730.68 1048.27 3635
-1710.62 1041.34 3611
-1687.37 1032.4 3580
-1668.03 1025.77 3557
-1659.52 1025.77 3557
-1637.09 1017.12 3527
-1621.73 1012.79 3512
-1589.9 998.087 3461
-1581.63 998.087 3461
-1560.62 990.012 3433
-1542.92 983.956 3412
-1534.76 983.956 3412
-1526.6 983.956 3412
-1509.09 977.9 3391
-1497.89 975.882 3384
-1486.71 973.863 3377
-1478.64 973.863 3377
-1464.46 969.826 3363
-1459.45 971.844 3370
-1454.41 973.863 3377
-1452.33 977.9 3391
-1444.22 977.9 3391
-1445.01 983.956 3412
-1442.74 987.994 3426
-1440.41 992.031 3440
-1432.19 992.031 3440
-1426.86 994.05 3447
-1421.5 996.068 3454
-1427.97 1006.45 3490
-1419.62 1006.45 3490
-1411.28 1006.45 3490
-1408.96 1010.78 3505
-1403.38 1012.79 3512
-1394.98 1012.79 3512
-1389.74 1015.1 3520
-1381.32 1015.1 3520
-1378.36 1019.14 3534
-1369.91 1019.14 3534
-1361.46 1019.14 3534
-1356.07 1021.45 3542
-1347.6 1021.45 3542
-1339.13 1021.45 3542
-1330.66 1021.45 3542
-1322.19 1021.45 3542
-1313.72 1021.45 3542
-1302.3 1019.14 3534
-1293.85 1019.14 3534
-1282.86 1017.12 3527
-1271.89 1015.1 3520
-1263.48 1015.1 3520
-1249.71 1010.78 3505
-1236.02 1006.45 3490
-1222.75 1002.41 3476
-1214.43 1002.41 3476
-1203.35 1000.11 3468
-1192.64 998.087 3461
-1181.97 996.068 3454
-1173.71 996.068 3454
-1165.45 996.068 3454
-1152.5 992.031 3440
-1127.97 977.9 3391
-1119.87 977.9 3391
-1104.87 971.844 3370
-1096.81 971.844 3370
-1082.29 966.077 3350
-1074.28 966.077 3350
-577.696 523.412 1815
-573.356 523.412 1815
-569.016 523.412 1815
-564.676 523.412 1815
-560.335 523.412 1815
-555.995 523.412 1815
-551.655 523.412 1815
-547.315 523.412 1815
-542.975 523.412 1815
-538.634 523.412 1815
-533.705 522.835 1813
-528.202 521.681 1809
-523.876 521.681 1809
-519.55 521.681 1809
-514.085 520.528 1805
-507.227 517.932 1796
-501.252 516.202 1790
-496.972 516.202 1790
-489.113 512.453 1777
-480.771 508.127 1762
-474.394 505.82 1754
-470.199 505.82 1754
-463.083 502.648 1743
-456.018 499.476 1732
-451.094 498.611 1729
-446.959 498.611 1729
-441.288 496.881 1723
-435.392 494.862 1716
-429.529 492.843 1709
-424.197 491.401 1704
-420.123 491.401 1704
-415.315 490.536 1701
-409.555 488.518 1694
-404.308 487.076 1689
-400.269 487.076 1689
-395.292 485.922 1685
-390.566 485.057 1682
-385.624 483.903 1678
-381.612 483.903 1678
-377.599 483.903 1678
-372.25 482.173 1672
-367.812 481.596 1670
-363.818 481.596 1670
-358.747 480.155 1665
-354.127 479.289 1662
-350.152 479.289 1662
-346.178 479.289 1662
-342.204 479.289 1662
-338.229 479.289 1662
-334.456 479.578 1663
-330.877 480.155 1665
-326.895 480.155 1665
-322.914 480.155 1665
-319.507 481.02 1668
-316.275 482.173 1672
-312.277 482.173 1672
-308.278 482.173 1672
-304.462 482.462 1673
-300.821 483.038 1675
-297.347 483.903 1678
-293.334 483.903 1678
-289.322 483.903 1678
-286.499 485.922 1685
-283.14 487.076 1689
-279.101 487.076 1689
-275.551 487.941 1692
-271.986 488.806 1695
-268.565 489.959 1699
-264.503 489.959 1699
-260.746 490.536 1701
-257.735 492.555 1708
-254.096 493.42 1711
-250.005 493.42 1711
-246.201 493.997 1713
-242.811 495.439 1718
-239.397 496.881 1723
-235.277 496.881 1723
-232.23 499.188 1731
-228.75 500.63 1736
-225.116 501.783 1740
-220.955 501.783 1740
-216.919 502.071 1741
-213 502.648 1743
-209.311 503.802 1747
-205.134 503.802 1747
-201.531 505.244 1752
-198.243 507.551 1760
-194.585 508.993 1765
-190.365 508.993 1765
-186.777 510.723 1771
-183.469 513.318 1780
-179.414 513.895 1782
-175.153 513.895 1782
-172.042 517.356 1794
-168.126 518.509 1798
-163.827 518.509 1798
-159.527 518.509 1798
-272.322 1090.95 3783
-263.276 1090.95 3783
-254.23 1090.95 3783
-246.285 1095.85 3800
-237.198 1095.85 3800
-228.111 1095.85 3800
-219.024 1095.85 3800
-209.937 1095.85 3800
-200.427 1093.54 3792
-191.36 1093.54 3792
-182.676 1095.85 3800
-173.589 1095.85 3800
-164.502 1095.85 3800
-156.152 1101.04 3818
-147.33 1103.35 3826
-138.181 1103.35 3826
-129.031 1103.35 3826
-119.882 1103.35 3826
-109.749 1093.54 3792
-100.681 1093.54 3792
-89.9707 1073.93 3724
-80.3471 1064.41 3691
-71.5208 1064.41 3691
-62.6945 1064.41 3691
-53.7515 1062.11 3683
-44.7491 1057.49 3667
-35.8918 1054.9 3658
-27.1444 1054.9 3658
-18.2814 1048.27 3635
-9.50459 1039.04 3603
-0.888721 1039.04 3603
7.70999 1036.73 3595
16.3067 1036.73 3595
24.9035 1036.73 3595
33.435 1034.71 3588
41.8276 1030.1 3572
50.3693 1030.1 3572
58.9111 1030.1 3572
67.1695 1025.77 3557
75.5052 1023.46 3549
83.9919 1023.46 3549
92.0878 1019.14 3534
100.766 1021.45 3542
109.236 1021.45 3542
117.706 1021.45 3542
126.176 1021.45 3542
134.342 1019.14 3534
142.793 1019.14 3534
151.244 1019.14 3534
159.695 1019.14 3534
167.813 1017.12 3527
176.247 1017.12 3527
184.681 1017.12 3527
193.115 1017.12 3527
201.549 1017.12 3527
209.983 1017.12 3527
218.417 1017.12 3527
226.851 1017.12 3527
235.286 1017.12 3527
243.72 1017.12 3527
252.654 1019.14 3534
261.696 1021.45 3542
270.166 1021.45 3542
280.445 1028.08 3565
289.538 1030.1 3572
298.08 1030.1 3572
306.621 1030.1 3572
315.163 1030.1 3572
323.705 1030.1 3572
333.735 1034.71 3588
342.315 1034.71 3588
350.895 1034.71 3588
359.475 1034.71 3588
368.055 1034.71 3588
375.795 1032.4 3580
382.745 1028.08 3565
387.1 1017.12 3527
395.534 1017.12 3527
400.532 1008.47 3497
404.685 998.087 3461
412.961 998.087 3461
417.83 990.012 3433
426.039 990.012 3433
433.363 987.994 3426
440.653 985.975 3419
445.154 977.9 3391
453.262 977.9 3391
457.562 969.826 3363
461.035 960.309 3330
467.167 956.56 3317
475.099 956.56 3317
482.012 954.541 3310
489.927 954.541 3310
497.842 954.541 3310
505.757 954.541 3310
513.672 954.541 3310
520.485 952.523 3303
528.383 952.523 3303
536.281 952.523 3303
545.333 954.541 3310
553.248 954.541 3310
561.164 954.541 3310
569.079 954.541 3310
576.994 954.541 3310
584.909 954.541 3310
592.825 954.541 3310
600.74 954.541 3310
609.942 956.56 3317
617.874 956.56 3317
625.806 956.56 3317
634.884 958.29 3323
642.831 958.29 3323
650.777 958.29 3323
660.111 960.309 3330
670.682 964.058 3343
678.676 964.058 3343
686.67 964.058 3343
694.664 964.058 3343
702.659 964.058 3343
710.653 964.058 3343
720.152 966.077 3350
728.162 966.077 3350
736.173 966.077 3350
742.629 964.058 3343
750.623 964.058 3343
758.617 964.058 3343
768.217 966.077 3350
776.228 966.077 3350
784.238 966.077 3350
790.594 964.058 3343
798.588 964.058 3343
806.582 964.058 3343
814.576 964.058 3343
822.57 964.058 3343
832.304 966.077 3350
840.315 966.077 3350
848.325 966.077 3350
856.336 966.077 3350
869.507 971.844 3370
877.566 971.844 3370
891.144 977.9 3391
899.252 977.9 3391
914.854 985.975 3419
926.809 990.012 3433
936.925 992.031 3440
945.151 992.031 3440
963.354 1002.41 3476
977.537 1008.47 3497
994.357 1017.12 3527
1002.79 1017.12 3527
1019.83 1025.77 3557
1030.65 1028.08 3565
1043.54 1032.4 3580
1061.21 1041.34 3611
1069.85 1041.34 3611
1087.74 1050.28 3642
1106.39 1059.8 3675
1117.6 1062.11 3683
1126.41 1062.11 3683
1135.22 1062.11 3683
1144.02 1062.11 3683
1152.83 1062.11 3683
1161.64 1062.11 3683
1170.45 1062.11 3683
1179.25 1062.11 3683
1188.06 1062.11 3683
1196.87 1062.11 3683
1205.67 1062.11 3683
1214.48 1062.11 3683
1223.29 1062.11 3683
1232.1 1062.11 3683
1238.21 1059.8 3675
1244.28 1057.49 3667
1253.05 1057.49 3667
1261.82 1057.49 3667
1270.59 1057.49 3667
1273.43 1052.59 3650
1282.15 1052.59 3650
1290.88 1052.59 3650
1299.61 1052.59 3650
1308.34 1052.59 3650
1319.95 1054.9 3658
1328.7 1054.9 3658
1337.45 1054.9 3658
1343.25 1052.59 3650
1351.98 1052.59 3650
1360.71 1052.59 3650
1369.44 1052.59 3650
1375.14 1050.28 3642
1381.19 1048.27 3635
1389.89 1048.27 3635
1395.5 1045.96 3627
1397.98 1041.34 3611
1403.5 1039.04 3603
1412.11 1039.04 3603
1417.57 1036.73 3595
1423.39 1034.71 3588
1428.78 1032.4 3580
1434.13 1030.1 3572
1442.67 1030.1 3572
1445.12 1025.77 3557
1450.36 1023.46 3549
1455.97 1021.45 3542
1464.44 1021.45 3542
1466.67 1017.12 3527
1472.17 1015.1 3520
1477.23 1012.79 3512
1485.63 1012.79 3512
1494.02 1012.79 3512
1505.84 1015.1 3520
1523.73 1021.45 3542
1538.68 1025.77 3557
1547.19 1025.77 3557
1559.19 1028.08 3565
1574.32 1032.4 3580
1603.66 1045.96 3627
1612.33 1045.96 3627
1634.86 1054.9 3658
1654.84 1062.11 3683
1685.78 1076.24 3732
1706.06 1083.45 3757
1715.04 1083.45 3757
1724.03 1083.45 3757
1745 1090.95 3783
1766.1 1098.44 3809
1775.21 1098.44 3809
1792.28 1103.35 3826
1801.43 1103.35 3826
1810.58 1103.35 3826
1807.37 1095.85 3800
1804.02 1088.35 3774
1801.04 1081.14 3749
1810 1081.14 3749
1783.07 1059.8 3675
1779.66 1052.59 3650
1773.2 1043.65 3619
1781.86 1043.65 3619
1782.6 1039.04 3603
1775.8 1030.1 3572
1761.86 1017.12 3527
1740.68 1000.11 3468
1748.98 1000.11 3468
1739.53 990.012 3433
1740.62 985.975 3419
1748.79 985.975 3419
1756.97 985.975 3419
1765.14 985.975 3419
1762.43 979.919 3398
1770.55 979.919 3398
1778.68 979.919 3398
1786.8 979.919 3398
1794.93 979.919 3398
1803.06 979.919 3398
1811.18 979.919 3398
1819.31 979.919 3398
1827.43 979.919 3398
1835.56 979.919 3398
1843.68 979.919 3398
1851.81 979.919 3398
2311.35 1142.85 3963
2320.82 1142.85 3963
2330.3 1142.85 3963
2339.78 1142.85 3963
2349.25 1142.85 3963
2330.76 1129.3 3916
2334.74 1126.7 3907
2344.08 1126.7 3907
2353.43 1126.7 3907
2346.44 1118.92 3880
2355.72 1118.92 3880
533.805 201.867 700
535.479 201.867 700
-2365.97 918.854 3160
-2358.41 918.854 3160
-2346.39 917.109 3154
-2329.95 913.62 3142
-2322.44 913.62 3142
-2314.93 913.62 3142
-2303.01 911.875 3136
-2295.51 911.875 3136
-2292.38 913.62 3142
-2289.23 915.365 3148
-2281.71 915.365 3148
-2291.52 922.343 3172
-2296.89 927.577 3190
-2293.57 929.322 3196
-2285.93 929.322 3196
-2286.84 932.811 3208
-2306.17 943.861 3246
-2306.9 947.35 3258
-2299.11 947.35 3258
-2305.38 953.166 3278
-2305.96 956.655 3290
-2330.92 970.321 3337
-2322.94 970.321 3337
-2333 977.882 3363
-2334.63 981.953 3377
-2326.56 981.953 3377
-2318.48 981.953 3377
-2310.41 981.953 3377
-2302.33 981.953 3377
-2294.26 981.953 3377
-2276.7 977.882 3363
-2264.61 976.137 3357
-2256.58 976.137 3357
-2248.56 976.137 3357
-2235.86 974.102 3350
-2227.85 974.102 3350
-2219.84 974.102 3350
-2220.41 977.882 3363
-2212.37 977.882 3363
-2208.91 979.917 3370
-2205.43 981.953 3377
-2215.57 990.094 3405
-2207.43 990.094 3405
-2212.85 996.201 3426
-2209.16 998.236 3433
-2209.93 1002.31 3447
-2201.68 1002.31 3447
-2202.35 1006.38 3461
-2198.51 1008.41 3468
-2195.27 1010.74 3476
-2186.96 1010.74 3476
-2196.82 1019.17 3505
-2192.81 1021.21 3512
-2189.39 1023.53 3520
-2180.97 1023.53 3520
-2176.87 1025.57 3527
-2177.66 1029.93 3542
-2173.48 1031.97 3549
-2164.99 1031.97 3549
-2161.37 1034.29 3557
-2157.7 1036.62 3565
-2149.18 1036.62 3565
-2140.65 1036.62 3565
-2136.31 1038.65 3572
-2127.77 1038.65 3572
-2119.23 1038.65 3572
-2110.69 1038.65 3572
-2102.15 1038.65 3572
-2093.61 1038.65 3572
-2085.06 1038.65 3572
-2076.52 1038.65 3572
-2072.61 1040.98 3580
-2064.05 1040.98 3580
-2060.08 1043.31 3588
-2051.5 1043.31 3588
-2042.92 1043.31 3588
-2034.34 1043.31 3588
-2025.76 1043.31 3588
-2017.18 1043.31 3588
-2008.6 1043.31 3588
-2000.02 1043.31 3588
-1991.44 1043.31 3588
-1982.86 1043.31 3588
-1974.28 1043.31 3588
-1969.54 1045.34 3595
-1965.31 1047.67 3603
-1956.69 1047.67 3603
-1948.07 1047.67 3603
-1943.76 1049.99 3611
-1947.99 1056.97 3635
-1939.3 1056.97 3635
-1938.57 1061.33 3650
-1934.07 1063.66 3658
-1934.28 1068.6 3675
-1925.49 1068.6 3675
-1920.87 1070.93 3683
-1916.22 1073.26 3691
-1915.66 1077.91 3707
-1906.79 1077.91 3707
-1906.63 1082.85 3724
-1897.73 1082.85 3724
-1892.88 1085.18 3732
-1883.96 1085.18 3732
-1875.03 1085.18 3732
-1870.11 1087.5 3740
-1861.17 1087.5 3740
-1852.22 1087.5 3740
-1843.28 1087.5 3740
-1834.33 1087.5 3740
-1825.39 1087.5 3740
-1808.68 1082.85 3724
-1787.69 1075.58 3699
-1763.46 1066.28 3667
-1754.69 1066.28 3667
-1730.68 1056.97 3635
-1714.41 1052.32 3619
-1687.37 1040.98 3580
-1668.03 1034.29 3557
-1659.52 1034.29 3557
-1640.34 1027.6 3534
-1625.42 1023.53 3520
-1589.9 1006.38 3461
-1581.63 1006.38 3461
-1551.08 992.13 3412
-1539.75 990.094 3405
-1525.31 986.023 3391
-1517.2 986.023 3391
-1505.98 983.988 3384
-1491.69 979.917 3370
-1474.83 974.102 3350
-1466.81 974.102 3350
-1458.8 974.102 3350
-1453.82 976.137 3357
-1448.38 977.882 3363
-1446.34 981.953 3377
-1438.26 981.953 3377
-1436.11 986.023 3391
-1436.85 992.13 3412
-1434.55 996.201 3426
-1426.36 996.201 3426
-1421.06 998.236 3433
-1418.62 1002.31 3447
-1425.1 1012.77 3483
-1416.77 1012.77 3483
-1411.28 1014.81 3490
-1405.74 1016.85 3497
-1400.58 1019.17 3505
-1392.2 1019.17 3505
-1383.81 1019.17 3505
-1378.18 1021.21 3512
-1375.63 1025.57 3527
-1367.2 1025.57 3527
-1361.46 1027.6 3534
-1353.01 1027.6 3534
-1344.56 1027.6 3534
-1336.11 1027.6 3534
-1327.66 1027.6 3534
-1319.21 1027.6 3534
-1310.76 1027.6 3534
-1302.3 1027.6 3534
-1293.85 1027.6 3534
-1285.4 1027.6 3534
-1274.42 1025.57 3527
-1265.99 1025.57 3527
-1249.71 1019.17 3505
-1241.33 1019.17 3505
-1227.67 1014.81 3490
-1219.33 1014.81 3490
-1206.12 1010.74 3476
-1197.81 1010.74 3476
-1189.5 1010.74 3476
-1181.19 1010.74 3476
-1170.17 1008.41 3468
-1157.19 1004.34 3454
-1139.62 996.201 3426
-1131.42 996.201 3426
-1111.76 986.023 3391
-1103.65 986.023 3391
-1082.29 974.102 3350
-1074.28 974.102 3350
-577.696 527.76 1815
-573.356 527.76 1815
-569.643 528.341 1817
-565.298 528.341 1817
-560.953 528.341 1817
-555.995 527.76 1815
-551.655 527.76 1815
-547.315 527.76 1815
-542.975 527.76 1815
-538.634 527.76 1815
-533.705 527.178 1813
-528.202 526.015 1809
-523.297 525.433 1807
-518.976 525.433 1807
-513.8 524.561 1804
-506.097 521.072 1792
-500.132 519.327 1786
-495.861 519.327 1786
-487.462 514.965 1771
-479.679 511.185 1758
-473.853 509.441 1752
-469.663 509.441 1752
-463.083 506.824 1743
-456.545 504.207 1734
-451.094 502.753 1729
-446.959 502.753 1729
-441.288 501.008 1723
-435.138 498.682 1715
-429.529 496.937 1709
-424.197 495.483 1704
-420.123 495.483 1704
-415.315 494.611 1701
-409.555 492.576 1694
-404.308 491.122 1689
-400.269 491.122 1689
-395.292 489.959 1685
-390.566 489.086 1682
-385.624 487.923 1678
-381.612 487.923 1678
-377.599 487.923 1678
-372.25 486.178 1672
-367.812 485.597 1670
-363.818 485.597 1670
-358.747 484.143 1665
-354.127 483.271 1662
-350.152 483.271 1662
-346.178 483.271 1662
-342.204 483.271 1662
-338.229 483.271 1662
-334.858 484.143 1665
-331.274 484.725 1667
-327.288 484.725 1667
-323.302 484.725 1667
-319.89 485.597 1670
-316.275 486.178 1672
-312.463 486.469 1673
-308.463 486.469 1673
-304.826 487.051 1675
-301.359 487.923 1678
-297.701 488.505 1680
-293.684 488.505 1680
-290.011 489.086 1682
-286.839 490.54 1687
-283.643 491.994 1692
-279.597 491.994 1692
-276.04 492.866 1695
-272.307 493.448 1697
-268.882 494.611 1701
-264.814 494.611 1701
-261.206 495.483 1704
-258.188 497.519 1711
-254.393 498.1 1713
-250.297 498.1 1713
-246.919 499.554 1718
-243.376 500.717 1722
-239.953 502.171 1727
-235.823 502.171 1727
-232.633 504.207 1734
-229.277 505.951 1740
-225.245 506.242 1741
-221.082 506.242 1741
-217.168 506.824 1743
-213.489 507.987 1747
-209.551 508.568 1749
-205.368 508.568 1749
-201.761 510.022 1754
-198.243 511.767 1760
-194.585 513.221 1765
-190.365 513.221 1765
-186.777 514.965 1771
-183.469 517.582 1780
-179.414 518.164 1782
-175.153 518.164 1782
-172.042 521.653 1794
-168.126 522.816 1798
-163.827 522.816 1798
-159.527 522.816 1798
-262.649 1097.39 3774
-254.23 1100.01 3783
-245.183 1100.01 3783
-236.137 1100.01 3783
-227.631 1102.62 3792
-218.563 1102.62 3792
-209.495 1102.62 3792
-200.427 1102.62 3792
-191.36 1102.62 3792
-182.676 1104.95 3800
-173.589 1104.95 3800
-164.502 1104.95 3800
-156.152 1110.19 3818
-147.33 1112.51 3826
-138.181 1112.51 3826
-129.031 1112.51 3826
-119.882 1112.51 3826
-109.749 1102.62 3792
-100.681 1102.62 3792
-89.9707 1082.85 3724
-80.3471 1073.26 3691
-71.5208 1073.26 3691
-62.6945 1073.26 3691
-53.7515 1070.93 3683
-44.7491 1066.28 3667
-35.8918 1063.66 3658
-27.1444 1063.66 3658
-18.2814 1056.97 3635
-9.50459 1047.67 3603
-0.888721 1047.67 3603
7.70999 1045.34 3595
16.3067 1045.34 3595
24.9035 1045.34 3595
33.3604 1040.98 3580
41.8276 1038.65 3572
50.3693 1038.65 3572
58.9111 1038.65 3572
67.1695 1034.29 3557
75.5052 1031.97 3549
83.9919 1031.97 3549
92.2963 1029.93 3542
100.965 1031.97 3549
109.452 1031.97 3549
117.939 1031.97 3549
126.176 1029.93 3542
134.646 1029.93 3542
142.793 1027.6 3534
151.244 1027.6 3534
159.695 1027.6 3534
168.146 1027.6 3534
176.596 1027.6 3534
185.047 1027.6 3534
193.115 1025.57 3527
201.549 1025.57 3527
210.4 1027.6 3534
218.851 1027.6 3534
227.302 1027.6 3534
235.753 1027.6 3534
244.203 1027.6 3534
253.226 1029.93 3542
262.213 1031.97 3549
270.7 1031.97 3549
280.445 1036.62 3565
289.538 1038.65 3572
298.08 1038.65 3572
306.621 1038.65 3572
315.163 1038.65 3572
323.705 1038.65 3572
333.735 1043.31 3588
342.315 1043.31 3588
350.895 1043.31 3588
359.475 1043.31 3588
368.055 1043.31 3588
376.635 1043.31 3588
381.887 1034.29 3557
387.1 1025.57 3527
395.534 1025.57 3527
400.532 1016.85 3497
404.685 1006.38 3461
411.291 1002.31 3447
417.83 998.236 3433
426.039 998.236 3433
433.363 996.201 3426
440.653 994.165 3419
445.154 986.023 3391
453.262 986.023 3391
457.562 977.882 3363
462.004 970.321 3337
467.167 964.506 3317
475.099 964.506 3317
482.012 962.471 3310
488.891 960.435 3303
496.789 960.435 3303
504.688 960.435 3303
512.586 960.435 3303
520.485 960.435 3303
528.383 960.435 3303
536.281 960.435 3303
544.18 960.435 3303
552.078 960.435 3303
561.164 962.471 3310
569.079 962.471 3310
576.994 962.471 3310
583.672 960.435 3303
591.571 960.435 3303
599.469 960.435 3303
608.655 962.471 3310
616.57 962.471 3310
624.485 962.471 3310
633.738 964.506 3317
641.67 964.506 3317
649.602 964.506 3317
658.723 966.251 3323
669.478 970.321 3337
677.458 970.321 3337
685.438 970.321 3337
693.418 970.321 3337
702.659 972.066 3343
710.653 972.066 3343
720.152 974.102 3350
728.162 974.102 3350
736.173 974.102 3350
742.629 972.066 3343
750.623 972.066 3343
758.617 972.066 3343
768.217 974.102 3350
776.228 974.102 3350
784.238 974.102 3350
790.594 972.066 3343
798.588 972.066 3343
806.582 972.066 3343
814.576 972.066 3343
822.57 972.066 3343
832.304 974.102 3350
840.315 974.102 3350
848.325 974.102 3350
856.336 974.102 3350
869.507 979.917 3370
877.566 979.917 3370
889.304 983.988 3384
897.396 983.988 3384
914.854 994.165 3419
924.919 996.201 3426
936.925 1000.27 3440
945.151 1000.27 3440
961.137 1008.41 3468
975.58 1014.81 3490
992.383 1023.53 3520
1000.8 1023.53 3520
1019.83 1034.29 3557
1028.33 1034.29 3557
1043.54 1040.98 3580
1061.21 1049.99 3611
1069.85 1049.99 3611
1087.74 1059.01 3642
1106.39 1068.6 3675
1117.6 1070.93 3683
1126.41 1070.93 3683
1135.22 1070.93 3683
1144.02 1070.93 3683
1152.83 1070.93 3683
1161.64 1070.93 3683
1170.45 1070.93 3683
1179.25 1070.93 3683
1188.06 1070.93 3683
1194.27 1068.6 3675
1203.05 1068.6 3675
1211.84 1068.6 3675
1220.63 1068.6 3675
1229.42 1068.6 3675
1235.51 1066.28 3667
1244.28 1066.28 3667
1253.05 1066.28 3667
1258.72 1063.66 3658
1267.47 1063.66 3658
1273.43 1061.33 3650
1282.15 1061.33 3650
1290.88 1061.33 3650
1299.61 1061.33 3650
1308.34 1061.33 3650
1319.95 1063.66 3658
1328.7 1063.66 3658
1337.45 1063.66 3658
1343.25 1061.33 3650
1351.98 1061.33 3650
1360.71 1061.33 3650
1369.44 1061.33 3650
1375.14 1059.01 3642
1381.19 1056.97 3635
1389.89 1056.97 3635
1395.5 1054.65 3627
1397.98 1049.99 3611
1403.5 1047.67 3603
1412.11 1047.67 3603
1417.57 1045.34 3595
1423.39 1043.31 3588
1425.59 1038.65 3572
1431.32 1036.62 3565
1439.84 1036.62 3565
1445.12 1034.29 3557
1450.36 1031.97 3549
1455.97 1029.93 3542
1464.44 1029.93 3542
1463.76 1023.53 3520
1468.83 1021.21 3512
1474.28 1019.17 3505
1482.66 1019.17 3505
1491.05 1019.17 3505
1505.84 1023.53 3520
1523.73 1029.93 3542
1532.2 1029.93 3542
1540.67 1029.93 3542
1555.7 1034.29 3557
1567.72 1036.62 3565
1600.12 1052.32 3619
1608.77 1052.32 3619
1627.71 1059.01 3642
1654.84 1070.93 3683
1670.87 1075.58 3699
1691.07 1082.85 3724
1699.98 1082.85 3724
1720.35 1090.12 3749
1733.01 1092.45 3757
1761.93 1104.95 3800
1771.02 1104.95 3800
1780.11 1104.95 3800
1789.19 1104.95 3800
1798.28 1104.95 3800
1747.24 1052.32 3619
1755.89 1052.32 3619
1764.55 1052.32 3619
1765.36 1047.67 3603
1773.98 1047.67 3603
1767.26 1038.65 3572
1760.89 1029.93 3542
1746.88 1016.85 3497
1726.63 1000.27 3440
1734.85 1000.27 3440
1728.89 992.13 3412
1733.49 990.094 3405
1738.05 988.059 3398
1746.18 988.059 3398
1754.3 988.059 3398
1744.27 977.882 3363
1752.32 977.882 3363
1764.02 979.917 3370
1772.08 979.917 3370
1780.14 979.917 3370
1788.2 979.917 3370
1796.26 979.917 3370
1808.06 981.953 3377
1816.14 981.953 3377
1828 983.988 3384
1836.09 983.988 3384
1844.18 983.988 3384
2311.35 1152.35 3963
2320.82 1152.35 3963
2330.3 1152.35 3963
2339.78 1152.35 3963
2349.25 1152.35 3963
2330.76 1138.68 3916
2334.74 1136.06 3907
2344.08 1136.06 3907
2353.43 1136.06 3907
2346.44 1128.21 3880
2355.72 1128.21 3880
533.805 203.544 700
535.479 203.544 700
-2365.97 926.424 3160
-2358.41 926.424 3160
-2346.39 924.665 3154
-2329.95 921.147 3142
-2322.44 921.147 3142
-2314.93 921.147 3142
-2303.01 919.388 3136
-2295.51 919.388 3136
-2292.38 921.147 3142
-2289.23 922.906 3148
-2281.71 922.906 3148
-2291.52 929.942 3172
-2296.89 935.219 3190
-2293.57 936.978 3196
-2285.93 936.978 3196
-2286.84 940.496 3208
-2306.17 951.637 3246
-2306.9 955.155 3258
-2299.11 955.155 3258
-2305.38 961.018 3278
-2305.96 964.536 3290
-2330.92 978.315 3337
-2322.94 978.315 3337
-2328.83 984.179 3357
-2334.63 990.042 3377
-2326.56 990.042 3377
-2318.48 990.042 3377
-2310.41 990.042 3377
-2302.33 990.042 3377
-2294.26 990.042 3377
-2276.7 985.938 3363
-2259.89 982.127 3350
-2251.88 982.127 3350
-2243.87 982.127 3350
-2231.19 980.074 3343
-2223.19 980.074 3343
-2219.84 982.127 3350
-2220.41 985.938 3363
-2212.37 985.938 3363
-2204.32 985.938 3363
-2205.43 990.042 3377
-2215.57 998.251 3405
-2207.43 998.251 3405
-2212.85 1004.41 3426
-2209.16 1006.46 3433
-2214.41 1012.62 3454
-2206.15 1012.62 3454
-2202.35 1014.67 3461
-2198.51 1016.72 3468
-2195.27 1019.07 3476
-2186.96 1019.07 3476
-2196.82 1027.57 3505
-2192.81 1029.62 3512
-2189.39 1031.97 3520
-2180.97 1031.97 3520
-2176.87 1034.02 3527
-2168.44 1034.02 3527
-2169.19 1038.42 3542
-2160.72 1038.42 3542
-2161.37 1042.81 3557
-2157.7 1045.16 3565
-2149.18 1045.16 3565
-2140.65 1045.16 3565
-2136.31 1047.21 3572
-2127.77 1047.21 3572
-2119.23 1047.21 3572
-2110.69 1047.21 3572
-2102.15 1047.21 3572
-2093.61 1047.21 3572
-2085.06 1047.21 3572
-2076.52 1047.21 3572
-2072.61 1049.56 3580
-2064.05 1049.56 3580
-2060.08 1051.9 3588
-2051.5 1051.9 3588
-2042.92 1051.9 3588
-2034.34 1051.9 3588
-2025.76 1051.9 3588
-2017.18 1051.9 3588
-2008.6 1051.9 3588
-2000.02 1051.9 3588
-1991.44 1051.9 3588
-1982.86 1051.9 3588
-1974.28 1051.9 3588
-1969.54 1053.95 3595
-1965.31 1056.3 3603
-1956.69 1056.3 3603
-1948.07 1056.3 3603
-1943.76 1058.64 3611
-1947.99 1065.68 3635
-1939.3 1065.68 3635
-1938.57 1070.08 3650
-1934.07 1072.42 3658
-1934.28 1077.41 3675
-1925.49 1077.41 3675
-1920.87 1079.75 3683
-1916.22 1082.1 3691
-1915.66 1086.79 3707
-1906.79 1086.79 3707
-1906.63 1091.77 3724
-1897.73 1091.77 3724
-1892.88 1094.12 3732
-1883.96 1094.12 3732
-1875.03 1094.12 3732
-1870.11 1096.46 3740
-1861.17 1096.46 3740
-1852.22 1096.46 3740
-1843.28 1096.46 3740
-1834.33 1096.46 3740
-1825.39 1096.46 3740
-1808.68 1091.77 3724
-1787.69 1084.44 3699
-1767.3 1077.41 3675
-1758.51 1077.41 3675
-1730.68 1065.68 3635
-1714.41 1060.99 3619
-1687.37 1049.56 3580
-1671.78 1045.16 3565
-1663.25 1045.16 3565
-1640.34 1036.07 3534
-1625.42 1031.97 3520
-1589.9 1014.67 3461
-1581.63 1014.67 3461
-1551.08 1000.3 3412
-1539.75 998.251 3405
-1525.31 994.147 3391
-1517.2 994.147 3391
-1505.98 992.094 3384
-1491.69 987.99 3370
-1474.83 982.127 3350
-1466.81 982.127 3350
-1458.8 982.127 3350
-1453.82 984.179 3357
-1448.38 985.938 3363
-1446.34 990.042 3377
-1438.26 990.042 3377
-1436.11 994.147 3391
-1436.85 1000.3 3412
-1434.55 1004.41 3426
-1426.36 1004.41 3426
-1421.06 1006.46 3433
-1418.62 1010.56 3447
-1425.1 1021.12 3483
-1416.77 1021.12 3483
-1411.28 1023.17 3490
-1405.74 1025.22 3497
-1400.58 1027.57 3505
-1392.2 1027.57 3505
-1383.81 1027.57 3505
-1378.18 1029.62 3512
-1375.63 1034.02 3527
-1367.2 1034.02 3527
-1361.46 1036.07 3534
-1356.07 1038.42 3542
-1347.6 1038.42 3542
-1339.13 1038.42 3542
-1330.66 1038.42 3542
-1319.21 1036.07 3534
-1310.76 1036.07 3534
-1302.3 1036.07 3534
-1293.85 1036.07 3534
-1285.4 1036.07 3534
-1274.42 1034.02 3527
-1265.99 1034.02 3527
-1252.21 1029.62 3512
-1241.33 1027.57 3505
-1227.67 1023.17 3490
-1219.33 1023.17 3490
-1208.55 1021.12 3483
-1197.81 1019.07 3476
-1189.5 1019.07 3476
-1181.19 1019.07 3476
-1172.87 1019.07 3476
-1159.54 1014.67 3461
-1144.27 1008.51 3440
-1136.05 1008.51 3440
-1120.94 1002.36 3419
-1105.93 996.199 3398
-1095.54 994.147 3391
-1087.43 994.147 3391
-577.696 532.107 1815
-573.356 532.107 1815
-569.643 532.694 1817
-565.298 532.694 1817
-560.953 532.694 1817
-555.995 532.107 1815
-551.655 532.107 1815
-547.315 532.107 1815
-542.975 532.107 1815
-538.634 532.107 1815
-533.705 531.521 1813
-528.202 530.348 1809
-523.297 529.762 1807
-518.976 529.762 1807
-513.8 528.883 1804
-506.097 525.364 1792
-500.132 523.605 1786
-495.861 523.605 1786
-488.012 519.794 1773
-479.679 515.397 1758
-473.853 513.638 1752
-469.663 513.638 1752
-463.083 510.999 1743
-456.545 508.36 1734
-451.094 506.895 1729
-446.959 506.895 1729
-441.288 505.136 1723
-435.392 503.083 1716
-429.529 501.031 1709
-424.197 499.565 1704
-420.123 499.565 1704
-415.315 498.686 1701
-409.555 496.634 1694
-404.308 495.168 1689
-400.269 495.168 1689
-395.292 493.995 1685
-390.566 493.115 1682
-385.624 491.943 1678
-381.612 491.943 1678
-377.599 491.943 1678
-372.25 490.184 1672
-367.812 489.597 1670
-363.818 489.597 1670
-358.747 488.132 1665
-354.127 487.252 1662
-350.152 487.252 1662
-346.178 487.252 1662
-342.204 487.252 1662
-338.229 487.252 1662
-334.858 488.132 1665
-331.274 488.718 1667
-327.288 488.718 1667
-323.302 488.718 1667
-320.273 490.184 1672
-316.275 490.184 1672
-312.837 491.063 1675
-308.831 491.063 1675
-304.826 491.063 1675
-301.719 492.529 1680
-298.056 493.115 1682
-294.033 493.115 1682
-290.011 493.115 1682
-287.179 495.168 1689
-283.979 496.634 1694
-279.928 496.634 1694
-276.365 497.513 1697
-272.628 498.099 1699
-269.04 498.979 1702
-264.97 498.979 1702
-261.819 500.738 1708
-258.49 502.204 1713
-254.839 503.083 1716
-250.735 503.083 1716
-247.207 504.256 1720
-243.518 505.136 1723
-240.509 507.481 1731
-236.37 507.481 1731
-232.901 508.947 1736
-229.672 510.999 1743
-225.504 510.999 1743
-221.336 510.999 1743
-217.417 511.585 1745
-213.489 512.172 1747
-209.79 513.344 1751
-205.603 513.344 1751
-201.991 514.81 1756
-198.243 515.983 1760
-194.585 517.449 1765
-190.365 517.449 1765
-186.777 519.208 1771
-183.469 521.846 1780
-179.414 522.433 1782
-175.153 522.433 1782
-172.042 525.951 1794
-168.126 527.123 1798
-163.827 527.123 1798
-159.527 527.123 1798
-252.482 1101.45 3757
-244.6 1106.43 3774
-235.575 1106.43 3774
-227.091 1109.07 3783
-218.044 1109.07 3783
-208.998 1109.07 3783
-199.952 1109.07 3783
-137.567 1116.69 3809
-128.458 1116.69 3809
-119.35 1116.69 3809
-107.781 1091.77 3724
-98.8759 1091.77 3724
-89.1734 1082.1 3691
-80.3471 1082.1 3691
-71.3658 1079.75 3683
-62.5586 1079.75 3683
-53.518 1075.06 3667
-44.7491 1075.06 3667
-35.7348 1067.73 3642
-27.0257 1067.73 3642
-18.2814 1065.68 3635
-9.50459 1056.3 3603
-0.888721 1056.3 3603
7.70999 1053.95 3595
16.3067 1053.95 3595
24.9035 1053.95 3595
33.3604 1049.56 3580
41.9213 1049.56 3580
50.4821 1049.56 3580
58.9111 1047.21 3572
67.3206 1045.16 3565
75.6754 1042.81 3557
84.1813 1042.81 3557
92.4787 1040.47 3549
100.965 1040.47 3549
109.452 1040.47 3549
117.939 1040.47 3549
126.176 1038.42 3542
134.646 1038.42 3542
142.793 1036.07 3534
151.244 1036.07 3534
159.695 1036.07 3534
168.526 1038.42 3542
176.996 1038.42 3542
185.466 1038.42 3542
194.319 1040.47 3549
202.806 1040.47 3549
211.293 1040.47 3549
219.346 1038.42 3542
227.816 1038.42 3542
235.753 1036.07 3534
244.203 1036.07 3534
253.226 1038.42 3542
262.213 1040.47 3549
270.7 1040.47 3549
280.445 1045.16 3565
289.538 1047.21 3572
298.747 1049.56 3580
307.308 1049.56 3580
315.869 1049.56 3580
323.705 1047.21 3572
333.735 1051.9 3588
342.315 1051.9 3588
351.579 1053.95 3595
360.176 1053.95 3595
368.773 1053.95 3595
376.635 1051.9 3588
381.887 1042.81 3557
387.1 1034.02 3527
395.534 1034.02 3527
400.532 1025.22 3497
404.685 1014.67 3461
409.62 1006.46 3433
417.83 1006.46 3433
426.039 1006.46 3433
432.478 1002.36 3419
438.849 998.251 3405
445.154 994.147 3391
453.262 994.147 3391
457.562 985.938 3363
462.004 978.315 3337
467.167 972.452 3317
475.099 972.452 3317
482.012 970.4 3310
488.891 968.347 3303
495.887 966.588 3297
503.771 966.588 3297
511.655 966.588 3297
519.539 966.588 3297
527.423 966.588 3297
535.307 966.588 3297
544.18 968.347 3303
552.078 968.347 3303
559.977 968.347 3303
567.875 968.347 3303
575.774 968.347 3303
582.612 966.588 3297
590.496 966.588 3297
598.38 966.588 3297
607.368 968.347 3303
615.266 968.347 3303
623.165 968.347 3303
632.401 970.4 3310
640.316 970.4 3310
648.231 970.4 3310
657.534 972.452 3317
668.074 976.263 3330
676.037 976.263 3330
684 976.263 3330
693.418 978.315 3337
702.659 980.074 3343
710.653 980.074 3343
718.647 980.074 3343
726.641 980.074 3343
734.635 980.074 3343
744.184 982.127 3350
752.195 982.127 3350
760.206 982.127 3350
768.217 982.127 3350
776.228 982.127 3350
784.238 982.127 3350
792.249 982.127 3350
800.26 982.127 3350
809.96 984.179 3357
817.988 984.179 3357
826.015 984.179 3357
834.043 984.179 3357
842.07 984.179 3357
850.098 984.179 3357
858.126 984.179 3357
869.507 987.99 3370
879.389 990.042 3377
887.464 990.042 3377
895.54 990.042 3377
914.854 1002.36 3419
926.809 1006.46 3433
936.925 1008.51 3440
945.151 1008.51 3440
961.137 1016.72 3468
975.58 1023.17 3490
994.357 1034.02 3527
1002.79 1034.02 3527
1019.83 1042.81 3557
1030.65 1045.16 3565
1043.54 1049.56 3580
1061.21 1058.64 3611
1069.85 1058.64 3611
1085.65 1065.68 3635
1106.39 1077.41 3675
1122.46 1084.44 3699
1131.3 1084.44 3699
1140.15 1084.44 3699
1148.99 1084.44 3699
1157.84 1084.44 3699
1164.16 1082.1 3691
1170.45 1079.75 3683
1179.25 1079.75 3683
1188.06 1079.75 3683
1194.27 1077.41 3675
1203.05 1077.41 3675
1211.84 1077.41 3675
1220.63 1077.41 3675
1229.42 1077.41 3675
1235.51 1075.06 3667
1244.28 1075.06 3667
1253.05 1075.06 3667
1258.72 1072.42 3658
1267.47 1072.42 3658
1273.43 1070.08 3650
1282.15 1070.08 3650
1288.05 1067.73 3642
1296.76 1067.73 3642
1311.21 1072.42 3658
1319.95 1072.42 3658
1328.7 1072.42 3658
1337.45 1072.42 3658
1343.25 1070.08 3650
1351.98 1070.08 3650
1363.69 1072.42 3658
1372.44 1072.42 3658
1381.18 1072.42 3658
1383.85 1067.73 3642
1392.56 1067.73 3642
1398.58 1065.68 3635
1401.08 1060.99 3619
1403.5 1056.3 3603
1412.11 1056.3 3603
1417.57 1053.95 3595
1420.22 1049.56 3580
1425.59 1047.21 3572
1431.32 1045.16 3565
1439.84 1045.16 3565
1445.12 1042.81 3557
1450.36 1040.47 3549
1455.97 1038.42 3542
1464.44 1038.42 3542
1463.76 1031.97 3520
1468.83 1029.62 3512
1477.23 1029.62 3512
1485.63 1029.62 3512
1494.02 1029.62 3512
1505.84 1031.97 3520
1517.27 1034.02 3527
1528.73 1036.07 3534
1537.19 1036.07 3534
1549.14 1038.42 3542
1564.2 1042.81 3557
1600.12 1060.99 3619
1608.77 1060.99 3619
1624.58 1065.68 3635
1647.65 1075.06 3667
1663.65 1079.75 3683
1679.72 1084.44 3699
1688.56 1084.44 3699
1701.08 1086.79 3707
1709.95 1086.79 3707
1718.81 1086.79 3707
1700.58 1027.57 3505
1738.22 1045.16 3565
1746.74 1045.16 3565
1755.27 1045.16 3565
1752.42 1038.42 3542
1738.51 1025.22 3497
1718.4 1008.51 3440
1712.57 1000.3 3412
1720.73 1000.3 3412
1707.61 987.99 3370
1715.67 987.99 3370
1720.15 985.938 3363
1728.19 985.938 3363
1736.23 985.938 3363
1730.79 978.315 3337
1738.77 978.315 3337
1749.89 980.074 3343
1757.88 980.074 3343
1765.88 980.074 3343
1773.87 980.074 3343
1781.87 980.074 3343
1797.36 984.179 3357
1805.38 984.179 3357
1813.41 984.179 3357
1821.44 984.179 3357
1829.47 984.179 3357
2300.26 1156.27 3944
2309.7 1156.27 3944
2319.13 1156.27 3944
2328.56 1156.27 3944
2337.99 1156.27 3944
2318.61 1137.51 3880
2327.89 1137.51 3880
2337.16 1137.51 3880
2335.56 1132.23 3862
-2365.97 933.994 3160
-2358.41 933.994 3160
-2346.39 932.22 3154
-2334.4 930.447 3148
-2322.44 928.673 3142
-2314.93 928.673 3142
-2307.41 928.673 3142
-2299.9 928.673 3142
-2296.76 930.447 3148
-2293.6 932.22 3154
-2286.06 932.22 3154
-2291.52 937.54 3172
-2301.21 944.634 3196
-2293.57 944.634 3196
-2285.93 944.634 3196
-2296.11 952.023 3221
-2310.43 961.186 3252
-2311.86 965.028 3265
-2304.05 965.028 3265
-2305.38 968.871 3278
-2310.86 974.486 3297
-2326.03 984.24 3330
-2318.07 984.24 3330
-2328.83 992.22 3357
-2334.63 998.132 3377
-2326.56 998.132 3377
-2318.48 998.132 3377
-2310.41 998.132 3377
-2302.33 998.132 3377
-2294.26 998.132 3377
-2276.7 993.994 3363
-2255.17 988.083 3343
-2247.17 988.083 3343
-2239.18 988.083 3343
-2231.19 988.083 3343
-2223.19 988.083 3343
-2219.84 990.151 3350
-2220.41 993.994 3363
-2212.37 993.994 3363
-2208.91 996.063 3370
-2200.85 996.063 3370
-2224.68 1010.55 3419
-2216.5 1010.55 3419
-2217.37 1014.68 3433
-2218.17 1018.82 3447
-2214.41 1020.89 3454
-2206.15 1020.89 3454
-2202.35 1022.96 3461
-2194.07 1022.96 3461
-2190.22 1025.03 3468
-2181.92 1025.03 3468
-2187.42 1031.53 3490
-2188.44 1035.96 3505
-2184.41 1038.03 3512
-2176.01 1038.03 3512
-2172.55 1040.4 3520
-2168.44 1042.47 3527
-2169.19 1046.9 3542
-2160.72 1046.9 3542
-2152.25 1046.9 3542
-2152.86 1051.33 3557
-2149.18 1053.7 3565
-2140.65 1053.7 3565
-2132.13 1053.7 3565
-2127.77 1055.77 3572
-2119.23 1055.77 3572
-2110.69 1055.77 3572
-2102.15 1055.77 3572
-2093.61 1055.77 3572
-2085.06 1055.77 3572
-2076.52 1055.77 3572
-2067.98 1055.77 3572
-2064.05 1058.13 3580
-2055.49 1058.13 3580
-2046.93 1058.13 3580
-2038.37 1058.13 3580
-2034.34 1060.5 3588
-2025.76 1060.5 3588
-2017.18 1060.5 3588
-2008.6 1060.5 3588
-1995.56 1058.13 3580
-1987 1058.13 3580
-1978.44 1058.13 3580
-1969.88 1058.13 3580
-1965.7 1060.5 3588
-1960.94 1062.57 3595
-1952.35 1062.57 3595
-1948.07 1064.93 3603
-1943.76 1067.29 3611
-1947.99 1074.39 3635
-1939.3 1074.39 3635
-1934.32 1076.46 3642
-1934.07 1081.19 3658
-1930.06 1083.85 3667
-1921.3 1083.85 3667
-1916.7 1086.21 3675
-1916.22 1090.94 3691
-1915.66 1095.67 3707
-1906.79 1095.67 3707
-1906.63 1100.69 3724
-1897.73 1100.69 3724
-1892.88 1103.06 3732
-1883.96 1103.06 3732
-1875.03 1103.06 3732
-1870.11 1105.42 3740
-1861.17 1105.42 3740
-1852.22 1105.42 3740
-1843.28 1105.42 3740
-1834.33 1105.42 3740
-1825.39 1105.42 3740
-1808.68 1100.69 3724
-1787.69 1093.3 3699
-1767.3 1086.21 3675
-1758.51 1086.21 3675
-1730.68 1074.39 3635
-1714.41 1069.66 3619
-1687.37 1058.13 3580
-1671.78 1053.7 3565
-1663.25 1053.7 3565
-1640.34 1044.54 3534
-1625.42 1040.4 3520
-1589.9 1022.96 3461
-1581.63 1022.96 3461
-1551.08 1008.48 3412
-1539.75 1006.41 3405
-1525.31 1002.27 3391
-1517.2 1002.27 3391
-1502.86 998.132 3377
-1488.59 993.994 3363
-1469.1 986.309 3337
-1463.75 988.083 3343
-1455.76 988.083 3343
-1450.79 990.151 3350
-1445.8 992.22 3357
-1443.34 996.063 3370
-1435.28 996.063 3370
-1436.11 1002.27 3391
-1433.9 1006.41 3405
-1428.69 1008.48 3412
-1420.53 1008.48 3412
-1415.27 1010.55 3419
-1415.73 1016.75 3440
-1418.97 1025.03 3468
-1410.67 1025.03 3468
-1405.61 1027.39 3476
-1402.93 1031.53 3490
-1394.58 1031.53 3490
-1386.24 1031.53 3490
-1380.66 1033.6 3497
-1375.43 1035.96 3505
-1369.78 1038.03 3512
-1361.38 1038.03 3512
-1361.46 1044.54 3534
-1356.07 1046.9 3542
-1347.6 1046.9 3542
-1339.13 1046.9 3542
-1330.66 1046.9 3542
-1319.21 1044.54 3534
-1310.76 1044.54 3534
-1302.3 1044.54 3534
-1293.85 1044.54 3534
-1285.4 1044.54 3534
-1274.42 1042.47 3527
-1265.99 1042.47 3527
-1252.21 1038.03 3512
-1241.33 1035.96 3505
-1227.67 1031.53 3490
-1219.33 1031.53 3490
-1208.55 1029.46 3483
-1197.81 1027.39 3476
-1189.5 1027.39 3476
-1181.19 1027.39 3476
-1172.87 1027.39 3476
-1159.54 1022.96 3461
-1144.27 1016.75 3440
-1136.05 1016.75 3440
-1120.94 1010.55 3419
-1105.93 1004.34 3398
-1095.54 1002.27 3391
-1087.43 1002.27 3391
-577.696 536.455 1815
-573.356 536.455 1815
-569.643 537.046 1817
-565.298 537.046 1817
-560.953 537.046 1817
-555.995 536.455 1815
-551.655 536.455 1815
-546.712 535.864 1813
-542.376 535.864 1813
-538.041 535.864 1813
-533.117 535.273 1811
-527.618 534.091 1807
-522.718 533.5 1805
-518.401 533.5 1805
-513.231 532.613 1802
-506.097 529.657 1792
-500.132 527.884 1786
-495.861 527.884 1786
-488.012 524.041 1773
-479.679 519.608 1758
-473.853 517.834 1752
-469.663 517.834 1752
-463.083 515.174 1743
-456.545 512.514 1734
-451.094 511.036 1729
-446.959 511.036 1729
-441.288 509.263 1723
-435.392 507.194 1716
-429.529 505.125 1709
-424.197 503.647 1704
-420.123 503.647 1704
-415.315 502.76 1701
-409.555 500.692 1694
-404.308 499.214 1689
-400.269 499.214 1689
-395.292 498.031 1685
-390.566 497.145 1682
-385.624 495.962 1678
-381.612 495.962 1678
-376.924 495.076 1675
-372.25 494.189 1672
-367.812 493.598 1670
-363.818 493.598 1670
-358.747 492.12 1665
-354.127 491.233 1662
-350.152 491.233 1662
-346.178 491.233 1662
-342.204 491.233 1662
-338.229 491.233 1662
-335.261 492.711 1667
-331.274 492.711 1667
-327.484 493.007 1668
-323.496 493.007 1668
-320.273 494.189 1672
-316.275 494.189 1672
-312.837 495.076 1675
-308.831 495.076 1675
-305.19 495.667 1677
-301.719 496.554 1680
-298.056 497.145 1682
-294.033 497.145 1682
-290.184 497.44 1683
-287.349 499.509 1690
-284.146 500.987 1695
-280.093 500.987 1695
-276.365 501.578 1697
-272.949 502.76 1701
-269.04 503.056 1702
-264.97 503.056 1702
-261.819 504.829 1708
-258.791 506.898 1715
-255.136 507.785 1718
-251.028 507.785 1718
-247.638 509.263 1723
-243.8 509.854 1725
-240.509 511.628 1731
-236.37 511.628 1731
-233.438 514.288 1740
-229.672 515.174 1743
-225.763 515.766 1745
-221.59 515.766 1745
-217.666 516.357 1747
-213.978 517.539 1751
-209.91 517.834 1752
-205.721 517.834 1752
-202.221 519.608 1758
-198.581 521.086 1763
-194.806 522.268 1767
-190.58 522.268 1767
-186.777 523.45 1771
-183.469 526.11 1780
-180.018 528.475 1788
-175.743 528.475 1788
-172.042 530.248 1794
-169.529 535.864 1813
-165.194 535.864 1813
-160.858 535.864 1813
-156.523 535.864 1813
-252.482 1110.45 3757
-244.6 1115.47 3774
-235.575 1115.47 3774
-227.091 1118.13 3783
-218.044 1118.13 3783
-208.998 1118.13 3783
-199.952 1118.13 3783
-137.567 1125.82 3809
-128.458 1125.82 3809
-119.35 1125.82 3809
-107.781 1100.69 3724
-98.8759 1100.69 3724
-89.1734 1090.94 3691
-80.3471 1090.94 3691
-71.3658 1088.58 3683
-62.5586 1088.58 3683
