1640.15 1223.11 2486
1646.09 1223.11 2486
1644.73 1217.7 2475
1621.97 1196.54 2432
1604.36 1179.32 2397
1610.09 1179.32 2397
1613.12 1177.35 2393
1605.32 1167.51 2373
1610.99 1167.51 2373
1607.81 1161.12 2360
1613.45 1161.12 2360
1612.23 1156.2 2350
1615.1 1154.23 2346
1623.47 1156.2 2350
1631.17 1157.67 2353
1636.8 1157.67 2353
1642.43 1157.67 2353
1645.95 1156.2 2350
1651.57 1156.2 2350
1652.25 1152.75 2343
1659.98 1154.23 2346
1672.69 1159.15 2356
1688.3 1166.04 2370
1693.96 1166.04 2370
1721.15 1180.8 2400
1739.84 1189.65 2418
1747.78 1191.13 2421
1753.57 1191.13 2421
1759.36 1191.13 2421
1747.65 1179.32 2397
1765.82 1187.69 2414
1774.53 1189.65 2418
1780.31 1189.65 2418
1786.09 1189.65 2418
1791.88 1189.65 2418
1821.45 1205.4 2450
1827.31 1205.4 2450
1833.17 1205.4 2450
1839.03 1205.4 2450
1844.88 1205.4 2450
1847.72 1203.43 2446
1842.96 1196.54 2432
1848.78 1196.54 2432
1854.59 1196.54 2432
1849.7 1189.65 2418
-1832.32 1249.83 2528
-1826.28 1249.83 2528
-1820.23 1249.83 2528
-1817.06 1251.81 2532
-1811 1251.81 2532
-1804.95 1251.81 2532
-1798.89 1251.81 2532
-1792.84 1251.81 2532
-1786.78 1251.81 2532
-1777.92 1249.83 2528
-1771.87 1249.83 2528
-1738.89 1247.85 2524
-1735.6 1249.83 2528
-1729.55 1249.83 2528
-1723.51 1249.83 2528
-1717.46 1249.83 2528
-1703.3 1243.9 2516
-1697.28 1243.9 2516
-1686.56 1240.44 2509
-1670.51 1233.02 2494
-1661.88 1231.04 2490
-1655.92 1231.04 2490
-1649.97 1231.04 2490
-1644.01 1231.04 2490
-1633.45 1227.58 2483
-1627.52 1227.58 2483
-1611.78 1220.17 2468
-1596.12 1212.75 2453
-1585.72 1209.29 2446
-1579.87 1209.29 2446
-1566.94 1203.85 2435
-1554.71 1198.91 2425
-1546.35 1196.93 2421
-1540.56 1196.93 2421
-1530.34 1193.47 2414
-1513.83 1185.06 2397
-1480.41 1163.31 2353
-1474.79 1163.31 2353
-1462.91 1158.37 2343
-1505.65 1280.48 2590
-1499.46 1280.48 2590
-1493.27 1280.48 2590
-1482.48 1276.53 2582
-1460.87 1263.18 2555
-1454.76 1263.18 2555
-1441.84 1257.25 2543
-1435.76 1257.25 2543
-1429.68 1257.25 2543
-1423.6 1257.25 2543
-1415.29 1255.27 2539
-1398.67 1245.88 2520
-1390.44 1243.9 2516
-1384.42 1243.9 2516
-1266.85 1229.07 2486
-1299.96 1267.13 2563
-1293.83 1267.13 2563
-1287.7 1267.13 2563
-1281.57 1267.13 2563
-1273.45 1265.16 2559
-1246.04 1243.9 2516
-1240.02 1243.9 2516
-1251.17 1261.2 2551
-1245.07 1261.2 2551
-1242.86 1265.16 2559
-1236.74 1265.16 2559
-1230.62 1265.16 2559
-1224.5 1265.16 2559
-1214.57 1261.2 2551
-1212.26 1265.16 2559
-1206.14 1265.16 2559
-1200.02 1265.16 2559
-1192.04 1263.18 2555
-1182.21 1259.22 2547
-1176.12 1259.22 2547
-1168.2 1257.25 2543
-1160.29 1255.27 2539
-1154.21 1255.27 2539
-1148.14 1255.27 2539
-1142.07 1255.27 2539
-1127.5 1245.88 2520
-1106.34 1229.07 2486
-1100.4 1229.07 2486
-1018.26 1195.45 2418
-1012.48 1195.45 2418
-1010.86 1200.39 2428
-1005.05 1200.39 2428
-999.245 1200.39 2428
-993.439 1200.39 2428
-996.582 1211.27 2450
-996.385 1218.19 2464
-998.13 1227.58 2483
-992.193 1227.58 2483
-1000.95 1245.88 2520
-998.084 1249.83 2528
-992.039 1249.83 2528
-987.554 1251.81 2532
-982.662 1253.29 2535
-978.141 1255.27 2539
-972.069 1255.27 2539
-965.998 1255.27 2539
-961.438 1257.25 2543
-958.363 1261.2 2551
-953.756 1263.18 2555
-947.646 1263.18 2555
-943.01 1265.16 2559
-936.891 1265.16 2559
-930.772 1265.16 2559
-923.207 1263.18 2555
-915.661 1261.2 2551
-906.709 1257.25 2543
-900.628 1257.25 2543
-891.732 1253.29 2535
-885.67 1253.29 2535
-879.609 1253.29 2535
-873.547 1253.29 2535
-863.72 1247.85 2524
-857.685 1247.85 2524
-846.588 1240.44 2509
-840.588 1240.44 2509
-829.599 1233.02 2494
-823.635 1233.02 2494
-814.064 1227.58 2483
-808.127 1227.58 2483
-798.312 1221.65 2471
-792.403 1221.65 2471
-556.898 884.967 1790
-552.617 884.967 1790
-548.337 884.967 1790
-542.233 882 1784
-535.253 877.551 1775
-527.418 871.618 1763
-523.202 871.618 1763
-516.337 867.169 1754
-509.515 862.719 1745
-503.315 859.258 1738
-499.159 859.258 1738
-493.864 857.281 1734
-489.152 856.292 1732
-483.61 853.82 1727
-479.481 853.82 1727
-475.351 853.82 1727
-470.13 851.842 1723
-465.198 850.359 1720
-461.085 850.359 1720
-455.112 846.898 1713
-449.963 844.921 1709
-444.05 841.46 1702
-439.721 840.966 1701
-435.653 840.966 1701
-430.064 837.999 1695
-425.759 837.505 1694
-421.21 836.516 1692
-417.164 836.516 1692
-413.118 836.516 1692
-409.072 836.516 1692
-405.026 836.516 1692
-401.454 837.505 1694
-397.403 837.505 1694
-393.352 837.505 1694
-389.531 837.999 1695
-385.478 837.999 1695
-381.424 837.999 1695
-378.262 839.977 1699
-374.639 840.966 1701
-371.661 843.438 1706
-367.581 843.438 1706
-364.567 845.91 1711
-361.529 848.382 1716
-358.675 851.348 1722
-354.558 851.348 1722
-351.05 852.831 1725
-347.73 854.809 1729
-344.986 858.269 1736
-340.835 858.269 1736
-337.459 860.247 1740
-333.49 860.741 1741
-330.462 863.708 1747
-326.284 863.708 1747
-322.475 864.697 1749
-318.293 864.697 1749
-315.009 867.169 1754
-310.814 867.169 1754
-306.97 868.157 1756
-303.115 869.146 1758
-298.911 869.146 1758
-294.707 869.146 1758
-290.503 869.146 1758
-286.3 869.146 1758
-282.096 869.146 1758
-277.259 867.169 1754
-272.598 865.685 1751
-267.798 863.708 1747
-263.62 863.708 1747
-259.443 863.708 1747
-255.265 863.708 1747
-250.512 861.73 1743
-246.344 861.73 1743
-242.454 862.719 1745
-238.281 862.719 1745
-234.109 862.719 1745
-229.936 862.719 1745
-225.763 862.719 1745
-221.59 862.719 1745
-217.916 864.697 1749
-213.733 864.697 1749
-209.551 864.697 1749
-205.368 864.697 1749
-201.186 864.697 1749
-197.004 864.697 1749
-192.821 864.697 1749
-188.639 864.697 1749
-184.246 863.708 1747
-179.862 862.719 1745
-175.689 862.719 1745
-171.516 862.719 1745
-167.343 862.719 1745
-162.703 860.247 1740
-158.542 860.247 1740
-154.026 858.269 1736
-149.875 858.269 1736
-195.604 1221.65 2471
-189.695 1221.65 2471
-183.786 1221.65 2471
-177.661 1220.17 2468
-171.759 1220.17 2468
-164.849 1212.75 2453
-158.53 1209.29 2446
-152.244 1205.83 2439
-146.411 1205.83 2439
-140.579 1205.83 2439
-134.747 1205.83 2439
-129.496 1211.27 2450
-124.343 1218.19 2464
-118.451 1218.19 2464
-112.559 1218.19 2464
-107.143 1223.63 2475
-101.225 1223.63 2475
-95.4601 1225.6 2479
-89.5321 1225.6 2479
-83.7389 1227.58 2483
-77.8013 1227.58 2483
-71.8637 1227.58 2483
-65.9261 1227.58 2483
-59.8919 1225.6 2479
-53.9638 1225.6 2479
-48.1714 1229.07 2486
-42.2267 1229.07 2486
-36.4424 1234.5 2497
-30.5201 1236.48 2501
-24.5395 1236.48 2501
-18.5588 1236.48 2501
-12.5782 1236.48 2501
-6.59755 1236.48 2501
-0.6169 1236.48 2501
5.36375 1236.48 2501
11.3263 1234.5 2497
17.2973 1234.5 2497
23.2684 1234.5 2497
29.2395 1234.5 2497
35.1683 1233.02 2494
41.0662 1231.04 2490
47.0206 1231.04 2490
52.9749 1231.04 2490
58.9293 1231.04 2490
64.8836 1231.04 2490
70.9517 1233.02 2494
76.9157 1233.02 2494
82.8796 1233.02 2494
88.8435 1233.02 2494
94.5033 1229.07 2486
100.448 1229.07 2486
105.622 1220.17 2468
111.343 1218.19 2464
116.712 1212.75 2453
123.128 1218.19 2464
129.02 1218.19 2464
134.912 1218.19 2464
140.804 1218.19 2464
146.697 1218.19 2464
152.589 1218.19 2464
158.031 1214.73 2457
163.439 1211.27 2450
169.298 1211.27 2450
174.37 1205.83 2439
179.39 1200.39 2428
185.196 1200.39 2428
191.867 1205.83 2439
197.7 1205.83 2439
203.532 1205.83 2439
209.364 1205.83 2439
215.197 1205.83 2439
221.029 1205.83 2439
226.862 1205.83 2439
234.03 1212.75 2453
240.287 1214.73 2457
246.863 1218.19 2464
252.756 1218.19 2464
258.648 1218.19 2464
264.969 1220.17 2468
270.871 1220.17 2468
276.773 1220.17 2468
283.018 1221.65 2471
288.927 1221.65 2471
295.313 1223.63 2475
301.232 1223.63 2475
307.647 1225.6 2479
314.081 1227.58 2483
320.018 1227.58 2483
325.956 1227.58 2483
331.893 1227.58 2483
337.831 1227.58 2483
343.769 1227.58 2483
348.58 1223.63 2475
355.644 1227.58 2483
363.183 1233.02 2494
369.147 1233.02 2494
375.111 1233.02 2494
381.075 1233.02 2494
383.004 1220.17 2468
388.906 1220.17 2468
394.808 1220.17 2468
400.709 1220.17 2468
408.423 1225.6 2479
415.521 1229.07 2486
422.144 1231.04 2490
428.099 1231.04 2490
434.75 1233.02 2494
442.658 1238.46 2505
448.648 1238.46 2505
454.638 1238.46 2505
461.364 1240.44 2509
467.364 1240.44 2509
473.364 1240.44 2509
479.363 1240.44 2509
487.491 1245.88 2520
493.517 1245.88 2520
502.517 1253.29 2535
508.579 1253.29 2535
515.453 1255.27 2539
522.346 1257.25 2543
528.427 1257.25 2543
534.508 1257.25 2543
541.44 1259.22 2547
547.53 1259.22 2547
553.621 1259.22 2547
558.832 1257.25 2543
563.136 1253.29 2535
567.627 1249.83 2528
572.764 1247.85 2524
578.8 1247.85 2524
584.835 1247.85 2524
588.998 1243.9 2516
591.467 1236.48 2501
599.359 1240.44 2509
605.359 1240.44 2509
611.359 1240.44 2509
619.081 1243.9 2516
626.091 1245.88 2520
632.117 1245.88 2520
638.143 1245.88 2520
644.169 1245.88 2520
650.195 1245.88 2520
652.315 1238.46 2505
658.306 1238.46 2505
663.235 1236.48 2501
669.216 1236.48 2501
667.097 1221.65 2471
672.189 1220.17 2468
678.915 1221.65 2471
688.15 1227.58 2483
694.087 1227.58 2483
700.025 1227.58 2483
707.953 1231.04 2490
718.208 1238.46 2505
724.198 1238.46 2505
730.188 1238.46 2505
733.827 1234.5 2497
739.798 1234.5 2497
745.77 1234.5 2497
748.429 1229.07 2486
754.374 1229.07 2486
760.319 1229.07 2486
766.263 1229.07 2486
770.034 1225.6 2479
772.519 1220.17 2468
774.951 1214.73 2457
780.826 1214.73 2457
785.421 1212.75 2453
791.287 1212.75 2453
799.753 1216.71 2461
810.221 1223.63 2475
818.777 1227.58 2483
824.715 1227.58 2483
830.652 1227.58 2483
831.536 1220.17 2468
837.438 1220.17 2468
827.279 1196.93 2421
830.66 1193.47 2414
834.007 1190.01 2407
839.763 1190.01 2407
845.519 1190.01 2407
861.177 1203.85 2435
867 1203.85 2435
872.823 1203.85 2435
875.037 1198.91 2425
880.836 1198.91 2425
889.194 1202.37 2432
902.738 1212.75 2453
908.604 1212.75 2453
926.772 1229.07 2486
932.717 1229.07 2486
938.662 1229.07 2486
943.467 1227.58 2483
946.346 1223.63 2475
952.264 1223.63 2475
958.182 1223.63 2475
968.386 1229.07 2486
974.331 1229.07 2486
983.43 1233.02 2494
993.758 1238.46 2505
1002.54 1241.92 2512
1008.55 1241.92 2512
1014.56 1241.92 2512
1022.19 1243.9 2516
1028.2 1243.9 2516
1034.22 1243.9 2516
1048.09 1253.29 2535
1057.48 1257.25 2543
1065.24 1259.22 2547
1071.33 1259.22 2547
1079.11 1261.2 2551
1085.21 1261.2 2551
1094.73 1265.16 2559
1100.85 1265.16 2559
1110.43 1269.11 2567
1116.57 1269.11 2567
1122.71 1269.11 2567
1131.92 1272.57 2574
1138.08 1272.57 2574
1147.79 1276.53 2582
1157.54 1280.48 2590
1171.37 1288.89 2607
1177.61 1288.89 2607
1183.84 1288.89 2607
1190.08 1288.89 2607
1196.31 1288.89 2607
1200.7 1286.91 2603
1202.75 1282.46 2594
1208.95 1282.46 2594
1215.16 1282.46 2594
1217.59 1278.51 2586
1221.88 1276.53 2582
1228.06 1276.53 2582
1234.23 1276.53 2582
1236.56 1272.57 2574
1239.34 1269.11 2567
1239.66 1263.18 2555
1243.81 1261.2 2551
1249.91 1261.2 2551
1250.11 1255.27 2539
1252.71 1251.81 2532
1252.8 1245.88 2520
1258.83 1245.88 2520
1262.85 1243.9 2516
1263.32 1238.46 2505
1265.25 1234.5 2497
1271.22 1234.5 2497
1277.2 1234.5 2497
1281.63 1233.02 2494
1287.59 1233.02 2494
1293.55 1233.02 2494
1297.43 1231.04 2490
1297.63 1225.6 2479
1295.67 1218.19 2464
1290.47 1207.81 2443
1296.31 1207.81 2443
1297.89 1203.85 2435
1299.96 1200.39 2428
1311.69 1205.83 2439
1319.68 1207.81 2443
1325.52 1207.81 2443
1331.36 1207.81 2443
1337.2 1207.81 2443
1343.05 1207.81 2443
1348.89 1207.81 2443
1342.53 1196.93 2421
1348.32 1196.93 2421
1358.02 1200.39 2428
1363.83 1200.39 2428
1369.64 1200.39 2428
1379.41 1203.85 2435
1385.23 1203.85 2435
1395.62 1207.81 2443
1401.47 1207.81 2443
1419.41 1218.19 2464
1446.7 1236.48 2501
1457.33 1240.44 2509
1463.33 1240.44 2509
1469.33 1240.44 2509
1475.33 1240.44 2509
1481.33 1240.44 2509
1484.96 1238.46 2505
1482.02 1231.04 2490
1481.4 1225.6 2479
1491.53 1229.07 2486
1497.47 1229.07 2486
1505.84 1231.04 2490
1514.22 1233.02 2494
1522.01 1234.5 2497
1535.32 1240.44 2509
1541.32 1240.44 2509
1549.17 1241.92 2512
1560.13 1245.88 2520
1566.16 1245.88 2520
1572.19 1245.88 2520
1578.21 1245.88 2520
1584.24 1245.88 2520
1590.26 1245.88 2520
1596.29 1245.88 2520
1604.86 1247.85 2524
1610.9 1247.85 2524
1616.93 1247.85 2524
1622.97 1247.85 2524
1621.26 1241.92 2512
1627.26 1241.92 2512
1633.27 1241.92 2512
1634.71 1238.46 2505
1640.7 1238.46 2505
1639.46 1233.02 2494
1635.53 1225.6 2479
1641.46 1225.6 2479
1637.42 1218.19 2464
1603.29 1188.53 2404
1601.68 1183.09 2393
1607.4 1183.09 2393
1601.66 1174.68 2376
1605.32 1173.2 2373
1610.99 1173.2 2373
1607.81 1166.77 2360
1613.45 1166.77 2360
1612.23 1161.83 2350
1615.1 1159.85 2346
1623.47 1161.83 2350
1631.17 1163.31 2353
1636.8 1163.31 2353
1642.43 1163.31 2353
1645.95 1161.83 2350
1651.57 1161.83 2350
1652.25 1158.37 2343
1659.98 1159.85 2346
1672.69 1164.79 2356
1688.3 1171.72 2370
1693.96 1171.72 2370
1721.15 1186.55 2400
1739.84 1195.45 2418
1747.78 1196.93 2421
1753.57 1196.93 2421
1759.36 1196.93 2421
1747.65 1185.06 2397
1765.82 1193.47 2414
1774.53 1195.45 2418
1780.31 1195.45 2418
1786.09 1195.45 2418
1791.88 1195.45 2418
1821.45 1211.27 2450
1827.31 1211.27 2450
1833.17 1211.27 2450
1839.03 1211.27 2450
1844.88 1211.27 2450
1847.72 1209.29 2446
1842.96 1202.37 2432
1848.78 1202.37 2432
1854.59 1202.37 2432
1849.7 1195.45 2418
-1862.55 1255.89 2528
-1864.58 1261.35 2539
-1858.51 1261.35 2539
-1852.44 1261.35 2539
-1846.37 1261.35 2539
-1840.3 1261.35 2539
-1826.28 1255.89 2528
-1820.23 1255.89 2528
-1817.06 1257.87 2532
-1811 1257.87 2532
-1804.95 1257.87 2532
-1798.89 1257.87 2532
-1792.84 1257.87 2532
-1786.78 1257.87 2532
-1777.92 1255.89 2528
-1771.87 1255.89 2528
-1763.03 1253.9 2524
-1757 1253.9 2524
-1750.96 1253.9 2524
-1739.39 1249.92 2516
-1738.89 1253.9 2524
-1735.6 1255.89 2528
-1729.55 1255.89 2528
-1723.51 1255.89 2528
-1717.46 1255.89 2528
-1703.3 1249.92 2516
-1697.28 1249.92 2516
-1686.56 1246.45 2509
-1670.51 1239 2494
-1661.88 1237.01 2490
-1655.92 1237.01 2490
-1649.97 1237.01 2490
-1644.01 1237.01 2490
-1633.45 1233.53 2483
-1627.52 1233.53 2483
-1611.78 1226.08 2468
-1596.12 1218.63 2453
-1585.72 1215.15 2446
-1579.87 1215.15 2446
-1566.94 1209.68 2435
-1554.71 1204.72 2425
-1546.35 1202.73 2421
-1540.56 1202.73 2421
-1530.34 1199.25 2414
-1513.83 1190.81 2397
-1480.41 1168.95 2353
-1474.79 1168.95 2353
-1462.91 1163.98 2343
-1451.09 1159.01 2333
-1443.65 1157.52 2330
-1438.08 1157.52 2330
-1432.51 1157.52 2330
-1489.08 1267.31 2551
-1494.61 1277.25 2571
-1488.46 1277.25 2571
-1482.31 1277.25 2571
-1469.27 1271.29 2559
-1447.72 1257.87 2532
-1441.66 1257.87 2532
-1431.07 1253.9 2524
-1433.5 1261.35 2539
-1427.43 1261.35 2539
-1421.36 1261.35 2539
-1404.7 1251.91 2520
-1394.23 1247.94 2512
-1382.15 1242.47 2501
-1376.17 1242.47 2501
-1266.85 1235.02 2486
-1260.91 1235.02 2486
-1262.53 1242.47 2501
-1264.09 1249.92 2516
-1258.07 1249.92 2516
-1252.06 1249.92 2516
-1244.06 1247.94 2512
-1238.05 1247.94 2512
-1243.33 1259.36 2535
-1237.26 1259.36 2535
-1240.92 1269.3 2555
-1234.81 1269.3 2555
-1228.7 1269.3 2555
-1222.59 1269.3 2555
-1214.57 1267.31 2551
-1210.37 1269.3 2555
-1204.26 1269.3 2555
-1198.15 1269.3 2555
-1190.17 1267.31 2551
-1182.21 1265.33 2547
-1176.12 1265.33 2547
-1164.52 1259.36 2535
-1158.46 1259.36 2535
-1152.4 1259.36 2535
-1146.33 1259.36 2535
-1137.12 1255.89 2528
-1125.71 1249.92 2516
-1106.34 1235.02 2486
-1100.4 1235.02 2486
-1009.42 1190.81 2397
-1003.68 1190.81 2397
-999.2 1192.3 2400
-993.461 1192.3 2400
-987.722 1192.3 2400
-981.983 1192.3 2400
-980.718 1197.76 2411
-987.893 1213.66 2443
-993.306 1227.57 2471
-987.397 1227.57 2471
-997.774 1247.94 2512
-996.505 1253.9 2524
-990.469 1253.9 2524
-987.554 1257.87 2532
-982.662 1259.36 2535
-978.141 1261.35 2539
-972.069 1261.35 2539
-965.998 1261.35 2539
-961.438 1263.34 2543
-958.363 1267.31 2551
-953.756 1269.3 2555
-947.646 1269.3 2555
-943.01 1271.29 2559
-936.891 1271.29 2559
-930.772 1271.29 2559
-923.207 1269.3 2555
-914.226 1265.33 2547
-905.283 1261.35 2539
-899.211 1261.35 2539
-891.732 1259.36 2535
-885.67 1259.36 2535
-879.609 1259.36 2535
-873.547 1259.36 2535
-863.72 1253.9 2524
-852.588 1246.45 2509
-841.526 1239 2494
-835.563 1239 2494
-826.938 1235.02 2486
-820.002 1233.53 2483
-807.835 1224.09 2464
-801.943 1224.09 2464
-796.051 1224.09 2464
-780.859 1209.68 2435
-558.142 891.242 1794
-553.852 891.242 1794
-549.562 891.242 1794
-544.056 889.255 1790
-535.856 882.796 1777
-529.213 878.822 1769
-524.983 878.822 1769
-517.515 873.357 1758
-510.683 868.886 1749
-503.894 864.415 1740
-499.733 864.415 1740
-495.572 864.415 1740
-490.282 862.428 1736
-485.01 860.441 1732
-480.869 860.441 1732
-476.452 859.944 1731
-471.221 857.957 1727
-466.55 856.963 1725
-462.425 856.963 1725
-455.909 852.492 1716
-451.016 851.002 1713
-444.571 846.531 1704
-439.721 845.04 1701
-435.653 845.04 1701
-430.064 842.06 1695
-425.759 841.563 1694
-421.708 841.563 1694
-417.657 841.563 1694
-413.606 841.563 1694
-409.555 841.563 1694
-405.505 841.563 1694
-401.454 841.563 1694
-397.403 841.563 1694
-393.584 842.06 1695
-389.531 842.06 1695
-385.933 843.053 1697
-381.874 843.053 1697
-378.262 844.047 1699
-374.86 845.537 1702
-372.315 849.015 1709
-368.228 849.015 1709
-365.42 851.995 1715
-362.372 854.479 1720
-358.884 855.97 1723
-354.764 855.97 1723
-351.457 857.957 1727
-348.333 860.441 1732
-345.384 863.422 1738
-341.228 863.422 1738
-337.653 864.912 1741
-333.873 865.906 1743
-330.84 868.886 1749
-326.658 868.886 1749
-322.475 868.886 1749
-318.657 869.88 1751
-315.009 871.37 1754
-310.814 871.37 1754
-306.62 871.37 1754
-303.115 873.357 1758
-298.911 873.357 1758
-294.707 873.357 1758
-290.503 873.357 1758
-286.3 873.357 1758
-282.096 873.357 1758
-276.943 870.377 1752
-272.598 869.88 1751
-267.798 867.893 1747
-263.62 867.893 1747
-259.443 867.893 1747
-254.973 866.899 1745
-250.512 865.906 1743
-246.344 865.906 1743
-242.454 866.899 1745
-238.281 866.899 1745
-234.109 866.899 1745
-229.936 866.899 1745
-225.763 866.899 1745
-221.59 866.899 1745
-217.916 868.886 1749
-213.733 868.886 1749
-209.551 868.886 1749
-205.368 868.886 1749
-201.186 868.886 1749
-197.004 868.886 1749
-192.821 868.886 1749
-188.639 868.886 1749
-184.246 867.893 1747
-179.862 866.899 1745
-175.689 866.899 1745
-171.516 866.899 1745
-167.343 866.899 1745
-162.329 862.428 1736
-158.178 862.428 1736
-154.026 862.428 1736
-149.875 862.428 1736
-195.049 1224.09 2464
-189.157 1224.09 2464
-183.265 1224.09 2464
-176.581 1218.63 2453
-170.715 1218.63 2453
-163.908 1211.67 2439
-158.076 1211.67 2439
-151.807 1208.19 2432
-145.991 1208.19 2432
-139.945 1206.21 2428
-133.973 1204.72 2425
-128.914 1211.67 2439
-123.637 1217.14 2450
-118.115 1220.61 2457
-112.239 1220.61 2457
-106.537 1222.6 2461
-101.061 1227.57 2471
-95.3061 1229.56 2475
-89.3876 1229.56 2475
-83.4691 1229.56 2475
-77.5507 1229.56 2475
-71.6322 1229.56 2475
-65.7137 1229.56 2475
-59.6986 1227.57 2471
-53.8768 1229.56 2475
-48.1133 1233.53 2483
-42.1757 1233.53 2483
-36.3403 1237.01 2490
-30.4713 1240.49 2497
-24.5002 1240.49 2497
-18.5292 1240.49 2497
-12.5782 1242.47 2501
-6.59755 1242.47 2501
-0.6169 1242.47 2501
5.35517 1240.49 2497
11.3263 1240.49 2497
17.2766 1239 2494
23.2405 1239 2494
29.2044 1239 2494
35.1119 1237.01 2490
41.0003 1235.02 2486
46.945 1235.02 2486
52.8898 1235.02 2486
58.9293 1237.01 2490
64.8836 1237.01 2490
70.838 1237.01 2490
76.7923 1237.01 2490
82.6137 1235.02 2486
88.4516 1233.53 2483
93.9331 1227.57 2471
99.842 1227.57 2471
105.323 1222.6 2461
110.395 1213.66 2443
116.236 1213.66 2443
122.228 1215.15 2446
128.077 1215.15 2446
134.146 1217.14 2450
140.176 1218.63 2453
146.042 1218.63 2453
151.907 1218.63 2453
156.873 1211.67 2439
162.238 1208.19 2432
168.054 1208.19 2432
173.584 1206.21 2428
178.873 1202.73 2421
184.433 1201.24 2418
191.002 1206.21 2428
196.808 1206.21 2428
202.614 1206.21 2428
209.021 1209.68 2435
214.844 1209.68 2435
221.029 1211.67 2439
226.862 1211.67 2439
232.694 1211.67 2439
239.895 1218.63 2453
246.162 1220.61 2457
252.038 1220.61 2457
258.333 1222.6 2461
264.54 1224.09 2464
270.432 1224.09 2464
276.324 1224.09 2464
281.873 1222.6 2461
287.758 1222.6 2461
293.643 1222.6 2461
299.528 1222.6 2461
306.282 1226.08 2468
312.563 1227.57 2471
318.472 1227.57 2471
324.381 1227.57 2471
330.289 1227.57 2471
335.79 1226.08 2468
341.692 1226.08 2468
346.608 1222.6 2461
352.493 1222.6 2461
359.834 1227.57 2471
365.743 1227.57 2471
371.652 1227.57 2471
377.561 1227.57 2471
383.004 1226.08 2468
388.906 1226.08 2468
394.808 1226.08 2468
400.709 1226.08 2468
408.423 1231.54 2479
415.521 1235.02 2486
422.144 1237.01 2490
428.099 1237.01 2490
434.75 1239 2494
442.658 1244.46 2505
448.648 1244.46 2505
454.638 1244.46 2505
461.364 1246.45 2509
467.364 1246.45 2509
473.364 1246.45 2509
479.363 1246.45 2509
487.491 1251.91 2520
494.301 1253.9 2524
502.517 1259.36 2535
508.579 1259.36 2535
516.265 1263.34 2543
522.346 1263.34 2543
528.427 1263.34 2543
534.508 1263.34 2543
541.44 1265.33 2547
547.53 1265.33 2547
553.621 1265.33 2547
558.832 1263.34 2543
563.136 1259.36 2535
567.627 1255.89 2528
572.764 1253.9 2524
578.8 1253.9 2524
584.835 1253.9 2524
588.998 1249.92 2516
591.467 1242.47 2501
599.359 1246.45 2509
605.359 1246.45 2509
611.359 1246.45 2509
619.081 1249.92 2516
626.091 1251.91 2520
632.117 1251.91 2520
638.143 1251.91 2520
644.169 1251.91 2520
650.195 1251.91 2520
652.315 1244.46 2505
658.306 1244.46 2505
663.235 1242.47 2501
669.216 1242.47 2501
667.097 1227.57 2471
672.189 1226.08 2468
678.915 1227.57 2471
688.15 1233.53 2483
694.087 1233.53 2483
700.025 1233.53 2483
707.953 1237.01 2490
718.208 1244.46 2505
724.198 1244.46 2505
730.188 1244.46 2505
733.827 1240.49 2497
739.798 1240.49 2497
745.77 1240.49 2497
748.429 1235.02 2486
754.374 1235.02 2486
760.319 1235.02 2486
766.263 1235.02 2486
770.034 1231.54 2479
772.519 1226.08 2468
774.951 1220.61 2457
780.826 1220.61 2457
785.421 1218.63 2453
791.287 1218.63 2453
799.753 1222.6 2461
810.221 1229.56 2475
818.777 1233.53 2483
824.715 1233.53 2483
830.652 1233.53 2483
831.536 1226.08 2468
837.438 1226.08 2468
827.279 1202.73 2421
830.66 1199.25 2414
834.007 1195.77 2407
839.763 1195.77 2407
845.519 1195.77 2407
861.177 1209.68 2435
867 1209.68 2435
872.823 1209.68 2435
875.037 1204.72 2425
880.836 1204.72 2425
889.194 1208.19 2432
902.738 1218.63 2453
908.604 1218.63 2453
926.772 1235.02 2486
932.717 1235.02 2486
938.662 1235.02 2486
943.467 1233.53 2483
946.346 1229.56 2475
952.264 1229.56 2475
958.182 1229.56 2475
964.101 1229.56 2475
950.423 1204.72 2425
964.503 1215.15 2446
976.302 1222.6 2461
986.178 1227.57 2471
992.087 1227.57 2471
997.996 1227.57 2471
1003.91 1227.57 2471
1009.81 1227.57 2471
1015.72 1227.57 2471
1029.49 1237.01 2490
1041.68 1244.46 2505
1053.94 1251.91 2520
1059.97 1251.91 2520
1067.69 1253.9 2524
1080.1 1261.35 2539
1091.31 1267.31 2551
1097.41 1267.31 2551
1105.24 1269.3 2555
1111.35 1269.3 2555
1117.46 1269.3 2555
1125.33 1271.29 2559
1131.45 1271.29 2559
1142.9 1277.25 2571
1153.97 1282.71 2582
1163.73 1286.69 2590
1169.93 1286.69 2590
1176.12 1286.69 2590
1182.31 1286.69 2590
1188.51 1286.69 2590
1194.7 1286.69 2590
1200.9 1286.69 2590
1207.09 1286.69 2590
1213.28 1286.69 2590
1213.83 1280.73 2578
1219.99 1280.73 2578
1224.25 1278.74 2574
1230.41 1278.74 2574
1235.12 1277.25 2571
1231.61 1267.31 2551
1235.77 1265.33 2547
1237.96 1261.35 2539
1244.04 1261.35 2539
1244.69 1255.89 2528
1246.78 1251.91 2520
1248.83 1247.94 2512
1254.83 1247.94 2512
1255.32 1242.47 2501
1255.75 1237.01 2490
1261.71 1237.01 2490
1267.66 1237.01 2490
1271.57 1235.02 2486
1275.97 1233.53 2483
1277.78 1229.56 2475
1283.7 1229.56 2475
1289.62 1229.56 2475
1289.78 1224.09 2464
1284.63 1213.66 2443
1286.24 1209.68 2435
1292.07 1209.68 2435
1288.83 1201.24 2418
1294.61 1201.24 2418
1302.01 1202.73 2421
1311.58 1206.21 2428
1317.38 1206.21 2428
1323.19 1206.21 2428
1325.16 1202.73 2421
1330.95 1202.73 2421
1336.74 1202.73 2421
1338.65 1199.25 2414
1338.85 1194.28 2404
1344.6 1194.28 2404
1350.35 1194.28 2404
1356.1 1194.28 2404
1363.55 1195.77 2407
1375.56 1201.24 2418
1389.34 1208.19 2432
1395.16 1208.19 2432
1411.34 1217.14 2450
1446.7 1242.47 2501
1457.33 1246.45 2509
1463.33 1246.45 2509
1469.33 1246.45 2509
1475.33 1246.45 2509
1481.33 1246.45 2509
1484.96 1244.46 2505
1475.47 1231.54 2479
1476.62 1227.57 2471
1487.33 1231.54 2479
1493.25 1231.54 2479
1503.42 1235.02 2486
1511.79 1237.01 2490
1517.74 1237.01 2490
1527.98 1240.49 2497
1533.95 1240.49 2497
1547.32 1246.45 2509
1557.66 1249.92 2516
1563.67 1249.92 2516
1569.69 1249.92 2516
1575.71 1249.92 2516
1577.32 1246.45 2509
1585.22 1247.94 2512
1591.22 1247.94 2512
1597.23 1247.94 2512
1603.24 1247.94 2512
1609.24 1247.94 2512
1615.25 1247.94 2512
1619.32 1246.45 2509
1622.73 1244.46 2505
1628.72 1244.46 2505
1629.49 1240.49 2497
1633.5 1239 2494
1632.23 1233.53 2483
1632.89 1229.56 2475
1638.81 1229.56 2475
1632.76 1220.61 2457
1595.96 1188.82 2393
1590.3 1180.37 2376
1595.98 1180.37 2376
1599.64 1178.88 2373
1603.29 1177.39 2370
1604.2 1173.92 2363
1601 1167.46 2350
1606.62 1167.46 2350
1612.23 1167.46 2350
1615.1 1165.47 2346
1623.47 1167.46 2350
1633.25 1170.44 2356
1638.89 1170.44 2356
1644.52 1170.44 2356
1648.05 1168.95 2353
1653.68 1168.95 2353
1659.31 1168.95 2353
1664.93 1168.95 2353
1677.66 1173.92 2363
1688.3 1177.39 2370
1693.96 1177.39 2370
1724.01 1194.28 2404
1742 1202.73 2421
1757.89 1209.68 2435
1763.71 1209.68 2435
1769.54 1209.68 2435
1775.36 1209.68 2435
1781.18 1209.68 2435
1789.94 1211.67 2439
1795.77 1211.67 2439
1801.61 1211.67 2439
1794.1 1202.73 2421
1821.45 1217.14 2450
1827.31 1217.14 2450
1833.17 1217.14 2450
1839.03 1217.14 2450
1844.88 1217.14 2450
1850.74 1217.14 2450
1853.57 1215.15 2446
1859.42 1215.15 2446
1865.27 1215.15 2446
1844.34 1197.76 2411
-1862.55 1261.94 2528
-1864.58 1267.43 2539
-1858.51 1267.43 2539
-1852.44 1267.43 2539
-1846.37 1267.43 2539
-1840.3 1267.43 2539
-1826.28 1261.94 2528
-1820.23 1261.94 2528
-1817.06 1263.94 2532
-1811 1263.94 2532
-1804.95 1263.94 2532
-1798.89 1263.94 2532
-1792.84 1263.94 2532
-1786.78 1263.94 2532
-1777.92 1261.94 2528
-1771.87 1261.94 2528
-1763.03 1259.95 2524
-1757 1259.95 2524
-1750.96 1259.95 2524
-1739.39 1255.95 2516
-1738.89 1259.95 2524
-1732.85 1259.95 2524
-1726.82 1259.95 2524
-1720.78 1259.95 2524
-1714.75 1259.95 2524
-1700.59 1253.95 2512
-1694.58 1253.95 2512
-1683.87 1250.46 2505
-1667.83 1242.97 2490
-1661.88 1242.97 2490
-1655.92 1242.97 2490
-1645.33 1239.48 2483
-1639.39 1239.48 2483
-1625.56 1233.49 2471
-1619.65 1233.49 2471
-1604.6 1226.5 2457
-1594.17 1223.01 2450
-1578.59 1215.52 2435
-1572.76 1215.52 2435
-1562.44 1212.02 2428
-1545.73 1203.54 2411
-1537.41 1201.54 2407
-1531.65 1201.54 2407
-1519.56 1196.55 2397
-1507.51 1191.56 2387
-1476.01 1171.09 2346
-1470.4 1171.09 2346
-1462.91 1169.59 2343
-1451.09 1164.6 2333
-1443.65 1163.1 2330
-1439.93 1164.6 2333
-1434.36 1164.6 2333
-1428.78 1164.6 2333
-1512.11 1277.42 2559
-1505.99 1277.42 2559
-1499.87 1277.42 2559
-1489.08 1273.42 2551
-1494.61 1283.41 2571
-1488.46 1283.41 2571
-1482.31 1283.41 2571
-1469.27 1277.42 2559
-1447.72 1263.94 2532
-1441.66 1263.94 2532
-1431.07 1259.95 2524
-1433.5 1267.43 2539
-1427.43 1267.43 2539
-1421.36 1267.43 2539
-1404.7 1257.95 2520
-1394.23 1253.95 2512
-1382.15 1248.46 2501
-1376.17 1248.46 2501
-1235.91 1161.61 2327
-1230.34 1161.61 2327
-1224.78 1161.61 2327
-1219.21 1161.61 2327
-1266.85 1240.98 2486
-1260.91 1240.98 2486
-1262.53 1248.46 2501
-1264.09 1255.95 2516
-1258.07 1255.95 2516
-1252.06 1255.95 2516
-1244.06 1253.95 2512
-1238.05 1253.95 2512
-1243.33 1265.44 2535
-1237.26 1265.44 2535
-1240.92 1275.42 2555
-1234.81 1275.42 2555
-1228.7 1275.42 2555
-1222.59 1275.42 2555
-1214.57 1273.42 2551
-1210.37 1275.42 2555
-1204.26 1275.42 2555
-1198.15 1275.42 2555
-1190.17 1273.42 2551
-1182.21 1271.43 2547
-1176.12 1271.43 2547
-1164.52 1265.44 2535
-1158.46 1265.44 2535
-1152.4 1265.44 2535
-1146.33 1265.44 2535
-1137.12 1261.94 2528
-1125.71 1255.95 2516
-1106.34 1240.98 2486
-1100.4 1240.98 2486
-1009.42 1196.55 2397
-1003.68 1196.55 2397
-999.2 1198.05 2400
-993.461 1198.05 2400
-987.722 1198.05 2400
-981.983 1198.05 2400
-980.718 1203.54 2411
-987.893 1219.51 2443
-993.306 1233.49 2471
-987.397 1233.49 2471
-997.774 1253.95 2512
-996.505 1259.95 2524
-990.469 1259.95 2524
-987.554 1263.94 2532
-982.662 1265.44 2535
-978.141 1267.43 2539
-972.069 1267.43 2539
-965.998 1267.43 2539
-961.438 1269.43 2543
-958.363 1273.42 2551
-953.756 1275.42 2555
-947.646 1275.42 2555
-943.01 1277.42 2559
-936.891 1277.42 2559
-930.772 1277.42 2559
-923.207 1275.42 2555
-914.226 1271.43 2547
-905.283 1267.43 2539
-899.211 1267.43 2539
-890.677 1263.94 2532
-884.622 1263.94 2532
-878.568 1263.94 2532
-872.513 1263.94 2532
-863.72 1259.95 2524
-849.869 1248.46 2501
-837.815 1239.48 2483
-831.877 1239.48 2483
-821.948 1233.49 2471
-813.727 1229.99 2464
-798.327 1215.52 2435
-792.505 1215.52 2435
-782.159 1208.53 2421
-769.635 1198.05 2400
-559.387 897.536 1798
-555.087 897.536 1798
-550.788 897.536 1798
-545.272 895.539 1794
-538.57 891.546 1786
-529.213 883.06 1769
-524.983 883.06 1769
-518.103 878.567 1760
-511.559 874.574 1752
-504.763 870.081 1743
-500.595 870.081 1743
-495.857 869.083 1741
-491.694 869.083 1741
-486.131 866.587 1736
-481.979 866.587 1736
-476.727 864.59 1732
-472.312 864.091 1731
-467.091 862.094 1727
-462.961 862.094 1727
-456.44 857.601 1718
-451.542 856.104 1715
-444.571 850.613 1704
-439.721 849.115 1701
-435.653 849.115 1701
-430.064 846.12 1695
-425.759 845.621 1694
-421.708 845.621 1694
-417.657 845.621 1694
-413.606 845.621 1694
-409.555 845.621 1694
-405.505 845.621 1694
-401.691 846.12 1695
-397.637 846.12 1695
-393.584 846.12 1695
-389.531 846.12 1695
-385.933 847.118 1697
-381.874 847.118 1697
-378.262 848.117 1699
-374.86 849.614 1702
-372.315 853.109 1709
-368.228 853.109 1709
-365.42 856.104 1715
-362.793 859.598 1722
-359.3 861.096 1725
-355.175 861.096 1725
-351.864 863.092 1729
-348.333 864.59 1732
-345.781 868.583 1740
-341.62 868.583 1740
-337.653 869.083 1741
-333.873 870.081 1743
-330.84 873.076 1749
-326.658 873.076 1749
-322.475 873.076 1749
-318.657 874.074 1751
-315.009 875.572 1754
-310.814 875.572 1754
-306.62 875.572 1754
-302.77 876.57 1756
-298.911 877.569 1758
-294.707 877.569 1758
-290.503 877.569 1758
-286.3 877.569 1758
-282.096 877.569 1758
-276.785 874.074 1751
-272.287 873.076 1749
-267.491 871.079 1745
-263.318 871.079 1745
-259.146 871.079 1745
-254.973 871.079 1745
-250.512 870.081 1743
-246.344 870.081 1743
-242.454 871.079 1745
-238.281 871.079 1745
-234.109 871.079 1745
-229.936 871.079 1745
-225.763 871.079 1745
-221.59 871.079 1745
-217.916 873.076 1749
-213.733 873.076 1749
-209.551 873.076 1749
-205.368 873.076 1749
-201.186 873.076 1749
-197.004 873.076 1749
-192.821 873.076 1749
-188.639 873.076 1749
-184.035 871.079 1745
-179.862 871.079 1745
-175.689 871.079 1745
-171.516 871.079 1745
-167.152 870.081 1743
-162.329 866.587 1736
-158.178 866.587 1736
-154.026 866.587 1736
-149.875 866.587 1736
-192.2 1212.02 2428
-186.394 1212.02 2428
-180.587 1212.02 2428
-174.781 1212.02 2428
-168.975 1212.02 2428
-163.169 1212.02 2428
-155.808 1200.04 2404
-149.622 1196.55 2397
-143.89 1196.55 2397
-138.331 1198.05 2400
-132.592 1198.05 2400
-127.963 1208.53 2421
-122.375 1210.53 2425
-117.249 1217.51 2439
-111.417 1217.51 2439
-105.888 1221.01 2446
-100.488 1226.5 2457
-94.767 1228.5 2461
-88.882 1228.5 2461
-82.997 1228.5 2461
-77.206 1229.99 2464
-71.3138 1229.99 2464
-65.4217 1229.99 2464
-59.6261 1231.99 2468
-53.7897 1233.49 2471
-48.1133 1239.48 2483
-42.1757 1239.48 2483
-36.3403 1242.97 2490
-30.4347 1244.97 2494
-24.5002 1246.47 2497
-18.5292 1246.47 2497
-12.5581 1246.47 2497
-6.587 1246.47 2497
-0.615914 1246.47 2497
5.35517 1246.47 2497
11.3263 1246.47 2497
17.2766 1244.97 2494
23.2405 1244.97 2494
29.1575 1242.97 2490
35.0555 1240.98 2486
41.0003 1240.98 2486
46.945 1240.98 2486
52.6558 1235.48 2475
58.5743 1235.48 2475
64.4927 1235.48 2475
70.2974 1233.49 2471
76.2063 1233.49 2471
82.1152 1233.49 2471
88.0241 1233.49 2471
93.5529 1228.5 2461
99.4379 1228.5 2461
104.553 1219.51 2443
110.033 1215.52 2435
115.523 1212.02 2428
121.529 1214.02 2432
127.344 1214.02 2432
133.324 1215.52 2435
139.147 1215.52 2435
144.97 1215.52 2435
150.793 1215.52 2435
156.423 1214.02 2432
161.771 1210.53 2425
167.57 1210.53 2425
173.083 1208.53 2421
177.838 1201.54 2407
183.594 1201.54 2407
190.215 1207.03 2418
196.565 1210.53 2425
202.364 1210.53 2425
208.42 1212.02 2428
214.226 1212.02 2428
221.029 1217.51 2439
226.862 1217.51 2439
232.694 1217.51 2439
238.526 1217.51 2439
246.162 1226.5 2457
252.038 1226.5 2457
257.913 1226.5 2457
263.359 1224.5 2453
269.225 1224.5 2453
275.091 1224.5 2453
280.957 1224.5 2453
286.822 1224.5 2453
292.688 1224.5 2453
298.554 1224.5 2453
304.916 1226.5 2457
310.792 1226.5 2457
316.667 1226.5 2457
322.543 1226.5 2457
328.418 1226.5 2457
333.749 1224.5 2453
339.615 1224.5 2453
342.946 1215.52 2435
348.769 1215.52 2435
356.193 1221.01 2446
362.635 1223.01 2450
368.945 1224.5 2453
374.81 1224.5 2453
380.676 1224.5 2453
387.172 1226.5 2457
393.048 1226.5 2457
398.923 1226.5 2457
405.458 1228.5 2461
413.683 1235.48 2475
420.958 1239.48 2483
426.895 1239.48 2483
433.356 1240.98 2486
440.714 1244.97 2494
448.648 1250.46 2505
454.638 1250.46 2505
460.629 1250.46 2505
467.364 1252.46 2509
473.364 1252.46 2509
479.363 1252.46 2509
485.363 1252.46 2509
494.301 1259.95 2524
501.129 1261.94 2528
507.174 1261.94 2528
516.265 1269.43 2543
522.346 1269.43 2543
528.427 1269.43 2543
534.508 1269.43 2543
540.589 1269.43 2543
546.67 1269.43 2543
552.751 1269.43 2543
557.953 1267.43 2539
561.581 1261.94 2528
565.83 1257.95 2520
570.949 1255.95 2516
576.965 1255.95 2516
582.055 1253.95 2512
583.848 1244.97 2494
586.265 1237.48 2479
592.193 1237.48 2479
598.121 1237.48 2479
611.359 1252.46 2509
617.358 1252.46 2509
623.358 1252.46 2509
629.358 1252.46 2509
635.358 1252.46 2509
636.501 1242.97 2490
642.455 1242.97 2490
648.409 1242.97 2490
648.582 1231.99 2468
645.733 1215.52 2435
645.936 1205.03 2414
651.709 1205.03 2414
654.758 1200.04 2404
667.101 1212.02 2428
674.847 1215.52 2435
687.938 1228.5 2461
693.823 1228.5 2461
703.688 1235.48 2475
709.607 1235.48 2475
715.525 1235.48 2475
721.443 1235.48 2475
726.186 1233.49 2471
732.095 1233.49 2471
738.004 1233.49 2471
739.698 1226.5 2457
745.574 1226.5 2457
748.085 1221.01 2446
753.934 1221.01 2446
758.851 1219.51 2443
763.441 1217.51 2439
769.274 1217.51 2439
775.106 1217.51 2439
775.175 1208.53 2421
780.964 1208.53 2421
790.328 1214.02 2432
797.126 1215.52 2435
802.949 1215.52 2435
808.772 1215.52 2435
814.595 1215.52 2435
817.048 1210.53 2425
822.847 1210.53 2425
820.103 1198.05 2400
822.401 1193.05 2390
824.652 1188.06 2380
834.878 1194.55 2393
840.601 1194.55 2393
846.323 1194.55 2393
852.046 1194.55 2393
857.768 1194.55 2393
863.49 1194.55 2393
863.038 1186.07 2376
871.279 1189.56 2383
879.553 1193.05 2390
885.269 1193.05 2390
890.984 1193.05 2390
897.825 1194.55 2393
903.547 1194.55 2393
910.789 1196.55 2397
916.521 1196.55 2397
927.64 1203.54 2411
934.567 1205.03 2414
944.624 1210.53 2425
950.423 1210.53 2425
964.503 1221.01 2446
976.302 1228.5 2461
986.178 1233.49 2471
992.087 1233.49 2471
997.996 1233.49 2471
1003.91 1233.49 2471
1009.81 1233.49 2471
1015.72 1233.49 2471
1029.49 1242.97 2490
1041.68 1250.46 2505
1053.94 1257.95 2520
1059.97 1257.95 2520
1067.69 1259.95 2524
1080.1 1267.43 2539
1091.31 1273.42 2551
1097.41 1273.42 2551
1105.24 1275.42 2555
1111.35 1275.42 2555
1117.46 1275.42 2555
1125.33 1277.42 2559
1131.45 1277.42 2559
1142.9 1283.41 2571
1153.97 1288.9 2582
1163.73 1292.89 2590
1169.93 1292.89 2590
1176.12 1292.89 2590
1182.31 1292.89 2590
1188.51 1292.89 2590
1194.7 1292.89 2590
1200.9 1292.89 2590
1207.09 1292.89 2590
1213.28 1292.89 2590
1213.83 1286.9 2578
1219.99 1286.9 2578
1224.25 1284.9 2574
1230.41 1284.9 2574
1235.12 1283.41 2571
1231.61 1273.42 2551
1235.77 1271.43 2547
1237.96 1267.43 2539
1244.04 1267.43 2539
1244.69 1261.94 2528
1246.78 1257.95 2520
1248.83 1253.95 2512
1254.83 1253.95 2512
1255.32 1248.46 2501
1255.75 1242.97 2490
1261.71 1242.97 2490
1267.66 1242.97 2490
1271.57 1240.98 2486
1275.97 1239.48 2483
1277.78 1235.48 2475
1283.7 1235.48 2475
1289.62 1235.48 2475
1289.78 1229.99 2464
1284.63 1219.51 2443
1286.24 1215.52 2435
1292.07 1215.52 2435
1288.83 1207.03 2418
1294.61 1207.03 2418
1302.01 1208.53 2421
1311.58 1212.02 2428
1317.38 1212.02 2428
1323.19 1212.02 2428
1325.16 1208.53 2421
1330.95 1208.53 2421
1336.74 1208.53 2421
1338.65 1205.03 2414
1338.85 1200.04 2404
1344.6 1200.04 2404
1350.35 1200.04 2404
1356.1 1200.04 2404
1363.55 1201.54 2407
1375.56 1207.03 2418
1389.34 1214.02 2432
1395.16 1214.02 2432
1411.34 1223.01 2450
1446.7 1248.46 2501
1457.33 1252.46 2509
1463.33 1252.46 2509
1469.33 1252.46 2509
1475.33 1252.46 2509
1481.33 1252.46 2509
1484.96 1250.46 2505
1475.47 1237.48 2479
1476.62 1233.49 2471
1487.33 1237.48 2479
1493.25 1237.48 2479
1503.42 1240.98 2486
1511.79 1242.97 2490
1517.74 1242.97 2490
1527.98 1246.47 2497
1533.95 1246.47 2497
1547.32 1252.46 2509
1557.66 1255.95 2516
1563.67 1255.95 2516
1569.69 1255.95 2516
1573.2 1253.95 2512
1572.29 1248.46 2501
1578.27 1248.46 2501
1584.26 1248.46 2501
1590.24 1248.46 2501
1593.66 1246.47 2497
1599.63 1246.47 2497
1605.61 1246.47 2497
1611.58 1246.47 2497
1613.01 1242.97 2490
1618.97 1242.97 2490
1620.35 1239.48 2483
1626.29 1239.48 2483
1626.97 1235.48 2475
1623.65 1228.5 2461
1629.54 1228.5 2461
1604.19 1205.03 2414
1591.95 1191.56 2387
1590.3 1186.07 2376
1595.98 1186.07 2376
1597.62 1183.07 2370
1598.55 1179.58 2363
1595.38 1173.09 2350
1598.27 1171.09 2346
1603.88 1171.09 2346
1609.49 1171.09 2346
1615.1 1171.09 2346
1623.47 1173.09 2350
1633.25 1176.08 2356
1638.89 1176.08 2356
1644.52 1176.08 2356
1648.05 1174.58 2353
1653.68 1174.58 2353
1659.31 1174.58 2353
1664.93 1174.58 2353
1677.66 1179.58 2363
1688.3 1183.07 2370
1693.96 1183.07 2370
1724.01 1200.04 2404
1752.07 1215.52 2435
1763.67 1219.51 2443
1769.51 1219.51 2443
1775.35 1219.51 2443
1775.36 1215.52 2435
1784.11 1217.51 2439
1789.94 1217.51 2439
1795.77 1217.51 2439
1801.61 1217.51 2439
1807.44 1217.51 2439
1821.45 1223.01 2450
1827.31 1223.01 2450
1833.17 1223.01 2450
1839.03 1223.01 2450
1844.88 1223.01 2450
1850.74 1223.01 2450
1853.57 1221.01 2446
1859.42 1221.01 2446
1865.27 1221.01 2446
1841.28 1201.54 2407
-1862.55 1268 2528
-1864.58 1273.52 2539
-1858.51 1273.52 2539
-1852.44 1273.52 2539
-1846.37 1273.52 2539
-1840.3 1273.52 2539
-1826.28 1268 2528
-1820.23 1268 2528
-1814.19 1268 2528
-1811 1270 2532
-1804.95 1270 2532
-1798.89 1270 2532
-1790.01 1268 2528
-1783.96 1268 2528
-1777.92 1268 2528
-1771.87 1268 2528
-1763.03 1265.99 2524
-1757 1265.99 2524
-1750.96 1265.99 2524
-1742.16 1263.99 2520
-1738.89 1265.99 2524
-1735.6 1268 2528
-1729.55 1268 2528
-1723.51 1268 2528
-1714.75 1265.99 2524
-1700.59 1259.97 2512
-1694.58 1259.97 2512
-1676.47 1250.94 2494
-1670.51 1250.94 2494
-1659.21 1246.93 2486
-1653.26 1246.93 2486
-1642.68 1243.42 2479
-1634.11 1241.41 2475
-1620.95 1235.9 2464
-1615.06 1235.9 2464
-1600.03 1228.87 2450
-1591.57 1226.87 2446
-1574.05 1217.84 2428
-1568.24 1217.84 2428
-1556 1212.82 2418
-1538.68 1203.8 2400
-1524.64 1197.27 2387
-1518.93 1197.27 2387
-1508.78 1193.76 2380
-1492.35 1185.24 2363
-1480.41 1180.22 2353
-1474.79 1180.22 2353
-1462.91 1175.21 2343
-1451.09 1170.19 2333
-1445.51 1170.19 2333
-1439.93 1170.19 2333
-1434.36 1170.19 2333
-1428.78 1170.19 2333
-1512.11 1283.55 2559
-1505.99 1283.55 2559
-1499.87 1283.55 2559
-1489.08 1279.53 2551
-1482.98 1279.53 2551
-1476.88 1279.53 2551
-1470.78 1279.53 2551
-1464.68 1279.53 2551
-1438.57 1261.98 2516
-1432.55 1261.98 2516
-1426.54 1261.98 2516
-1420.52 1261.98 2516
-1414.5 1261.98 2516
-1408.49 1261.98 2516
-1400.24 1259.97 2512
-1378.14 1245.43 2483
-1344.01 1219.85 2432
-1235.91 1167.18 2327
-1230.34 1167.18 2327
-1224.78 1167.18 2327
-1219.21 1167.18 2327
-1199.08 1180.22 2353
-1193.45 1180.22 2353
-1204.99 1197.27 2387
-1200.78 1198.78 2390
-1250.57 1254.45 2501
-1244.59 1254.45 2501
-1244.06 1259.97 2512
-1238.05 1259.97 2512
-1239.89 1268 2528
-1233.85 1268 2528
-1235.09 1275.52 2543
-1232.87 1279.53 2551
-1226.77 1279.53 2551
-1220.67 1279.53 2551
-1214.57 1279.53 2551
-1210.37 1281.54 2555
-1204.26 1281.54 2555
-1198.15 1281.54 2555
-1190.17 1279.53 2551
-1176.64 1271.51 2535
-1170.58 1271.51 2535
-1161.3 1268 2528
-1158.46 1271.51 2535
-1152.4 1271.51 2535
-1146.33 1271.51 2535
-1135.32 1265.99 2524
-1123.92 1259.97 2512
-1106.34 1246.93 2486
-1100.4 1246.93 2486
-1003.52 1195.27 2383
-997.821 1195.27 2383
-992.122 1195.27 2383
-986.424 1195.27 2383
-980.726 1195.27 2383
-972.163 1191.76 2376
-970.956 1197.27 2387
-969.291 1202.29 2397
-982.051 1225.36 2443
-976.209 1225.36 2443
-996.582 1258.47 2509
-994.925 1263.99 2520
-988.899 1263.99 2520
-984.433 1265.99 2524
-982.662 1271.51 2535
-976.6 1271.51 2535
-970.538 1271.51 2535
-964.476 1271.51 2535
-961.438 1275.52 2543
-956.86 1277.53 2547
-952.263 1279.53 2551
-946.162 1279.53 2551
-941.536 1281.54 2555
-935.426 1281.54 2555
-929.317 1281.54 2555
-921.762 1279.53 2551
-914.226 1277.53 2547
-902.787 1270 2532
-896.732 1270 2532
-890.677 1270 2532
-884.622 1270 2532
-878.568 1270 2532
-872.513 1270 2532
-863.72 1265.99 2524
-849.869 1254.45 2501
-837.815 1245.43 2483
-831.877 1245.43 2483
-821.948 1239.41 2471
-813.727 1235.9 2464
-798.327 1221.35 2435
-792.505 1221.35 2435
-782.159 1214.33 2421
-769.635 1203.8 2400
-559.387 901.843 1798
-555.087 901.843 1798
-550.788 901.843 1798
-545.272 899.837 1794
-538.57 895.824 1786
-529.213 887.297 1769
-524.983 887.297 1769
-518.103 882.783 1760
-511.559 878.771 1752
-505.921 876.263 1747
-501.744 876.263 1747
-496.996 875.26 1745
-492.824 875.26 1745
-486.691 871.748 1738
-482.535 871.748 1738
-477.828 870.745 1736
-472.585 868.739 1732
-467.632 867.234 1729
-463.498 867.234 1729
-456.972 862.72 1720
-451.542 860.212 1715
-445.093 855.698 1706
-439.721 853.19 1701
-435.653 853.19 1701
-430.571 851.184 1697
-426.01 850.18 1695
-421.957 850.18 1695
-417.904 850.18 1695
-413.85 850.18 1695
-409.797 850.18 1695
-405.744 850.18 1695
-401.691 850.18 1695
-397.637 850.18 1695
-393.584 850.18 1695
-389.531 850.18 1695
-385.933 851.184 1697
-381.874 851.184 1697
-378.262 852.187 1699
-374.86 853.692 1702
-372.315 857.203 1709
-368.228 857.203 1709
-365.42 860.212 1715
-362.793 863.723 1722
-359.3 865.228 1725
-355.175 865.228 1725
-351.864 867.234 1729
-348.333 868.739 1732
-345.781 872.752 1740
-341.62 872.752 1740
-337.653 873.253 1741
-333.873 874.256 1743
-330.84 877.266 1749
-326.658 877.266 1749
-322.475 877.266 1749
-318.657 878.269 1751
-315.009 879.774 1754
-310.814 879.774 1754
-306.62 879.774 1754
-302.77 880.777 1756
-298.911 881.78 1758
-294.707 881.78 1758
-290.503 881.78 1758
-286.3 881.78 1758
-282.096 881.78 1758
-276.785 878.269 1751
-272.287 877.266 1749
-267.491 875.26 1745
-263.318 875.26 1745
-259.146 875.26 1745
-254.973 875.26 1745
-250.512 874.256 1743
-246.344 874.256 1743
-242.454 875.26 1745
-238.281 875.26 1745
-234.109 875.26 1745
-229.936 875.26 1745
-225.763 875.26 1745
-221.59 875.26 1745
-217.916 877.266 1749
-213.733 877.266 1749
-209.551 877.266 1749
-205.368 877.266 1749
-201.186 877.266 1749
-197.004 877.266 1749
-192.821 877.266 1749
-188.639 877.266 1749
-184.035 875.26 1745
-179.862 875.26 1745
-175.689 875.26 1745
-171.516 875.26 1745
-167.152 874.256 1743
-162.142 869.742 1734
-157.995 869.742 1734
-153.849 869.742 1734
-149.702 869.742 1734
-191.962 1216.33 2425
-186.163 1216.33 2425
-180.364 1216.33 2425
-173.774 1210.82 2414
-168.001 1210.82 2414
-161.556 1205.8 2404
-154.9 1198.78 2390
-148.561 1193.76 2380
-142.449 1190.25 2373
-137.582 1197.27 2387
-131.874 1197.27 2387
-126.483 1200.28 2393
-120.962 1202.29 2397
-115.567 1205.8 2404
-109.818 1205.8 2404
-104.199 1207.31 2407
-99.1796 1216.33 2425
-93.6503 1219.85 2432
-87.8346 1219.85 2432
-82.1201 1221.35 2435
-76.2973 1221.35 2435
-70.7929 1226.87 2446
-64.9437 1226.87 2446
-59.2637 1230.38 2453
-53.572 1234.39 2461
-47.9583 1241.41 2475
-42.0398 1241.41 2475
-36.2381 1245.43 2483
-30.4347 1250.94 2494
-24.5002 1252.45 2497
-18.5292 1252.45 2497
-12.5782 1254.45 2501
-6.59755 1254.45 2501
-0.6169 1254.45 2501
5.36375 1254.45 2501
11.3126 1250.94 2494
17.2211 1246.93 2486
23.1659 1246.93 2486
29.0756 1245.43 2483
34.9568 1243.42 2479
40.8188 1241.41 2475
46.7373 1241.41 2475
52.5707 1239.41 2471
58.4796 1239.41 2471
64.3103 1237.9 2468
70.2121 1237.9 2468
76.1138 1237.9 2468
81.7829 1234.39 2461
87.5254 1232.39 2457
92.9827 1226.87 2446
98.8318 1226.87 2446
104.21 1221.35 2435
109.581 1216.33 2425
115.19 1214.33 2421
120.979 1214.33 2421
126.768 1214.33 2421
132.174 1210.82 2414
137.947 1210.82 2414
143.72 1210.82 2414
149.492 1210.82 2414
155.072 1209.31 2411
160.104 1203.8 2400
165.843 1203.8 2400
171.367 1202.29 2397
177.099 1202.29 2397
182.831 1202.29 2397
189.114 1205.8 2404
195.106 1207.31 2407
200.862 1207.31 2407
206.961 1209.31 2411
212.991 1210.82 2414
218.764 1210.82 2414
224.536 1210.82 2414
230.309 1210.82 2414
236.473 1212.82 2418
242.956 1216.33 2425
248.755 1216.33 2425
254.554 1216.33 2425
260.675 1217.84 2428
266.481 1217.84 2428
272.287 1217.84 2428
277.75 1216.33 2425
283.548 1216.33 2425
289.347 1216.33 2425
295.146 1216.33 2425
300.945 1216.33 2425
306.238 1214.33 2421
312.027 1214.33 2421
317.817 1214.33 2421
323.606 1214.33 2421
328.987 1212.82 2418
334.769 1212.82 2418
339.566 1209.31 2411
344.758 1207.31 2407
351.534 1210.82 2414
357.898 1212.82 2418
363.68 1212.82 2418
369.462 1212.82 2418
375.71 1214.33 2421
382.603 1217.84 2428
389.049 1219.85 2432
394.864 1219.85 2432
404.799 1232.39 2457
411.844 1235.9 2464
419.601 1241.41 2475
425.52 1241.41 2475
432.833 1245.43 2483
439.3 1246.93 2486
447.932 1254.45 2501
453.912 1254.45 2501
460.629 1256.46 2505
466.619 1256.46 2505
473.364 1258.47 2509
479.363 1258.47 2509
485.363 1258.47 2509
494.301 1265.99 2524
501.129 1268 2528
507.174 1268 2528
516.265 1275.52 2543
522.346 1275.52 2543
528.427 1275.52 2543
534.508 1275.52 2543
540.589 1275.52 2543
546.67 1275.52 2543
552.751 1275.52 2543
555.536 1268 2528
561.581 1268 2528
564.034 1259.97 2512
570.041 1259.97 2512
576.048 1259.97 2512
579.506 1254.45 2501
580.336 1243.42 2479
583.663 1237.9 2468
589.565 1237.9 2468
593.778 1234.39 2461
603.074 1241.41 2475
609.977 1243.42 2479
617.644 1246.93 2486
623.589 1246.93 2486
629.533 1246.93 2486
633.689 1243.42 2479
639.617 1243.42 2479
640.858 1234.39 2461
639.91 1221.35 2435
640.164 1210.82 2414
640.317 1200.28 2393
647.12 1202.29 2397
652.851 1202.29 2397
658.583 1202.29 2397
669.027 1210.82 2414
678.713 1217.84 2428
684.519 1217.84 2428
695.443 1226.87 2446
701.292 1226.87 2446
707.141 1226.87 2446
712.99 1226.87 2446
717.958 1225.36 2443
723.8 1225.36 2443
729.642 1225.36 2443
734.279 1223.36 2439
738.898 1221.35 2435
742.58 1217.84 2428
748.386 1217.84 2428
754.192 1217.84 2428
759.059 1216.33 2425
761.388 1210.82 2414
764.937 1207.31 2407
770.692 1207.31 2407
775.481 1205.8 2404
784.479 1210.82 2414
793.853 1216.33 2425
799.651 1216.33 2425
805.45 1216.33 2425
805.228 1207.31 2407
808.625 1203.8 2400
814.364 1203.8 2400
815.661 1197.27 2387
817.584 1191.76 2376
822.226 1190.25 2373
830.343 1193.76 2380
836.034 1193.76 2380
841.726 1193.76 2380
847.417 1193.76 2380
853.108 1193.76 2380
856.274 1190.25 2373
860.858 1188.75 2370
868.72 1191.76 2376
876.977 1195.27 2383
882.676 1195.27 2383
888.374 1195.27 2383
894.073 1195.27 2383
899.771 1195.27 2383
909.269 1200.28 2393
914.992 1200.28 2393
923.408 1203.8 2400
931.857 1207.31 2407
940.339 1210.82 2414
946.112 1210.82 2414
956.222 1216.33 2425
970.352 1226.87 2446
980.591 1232.39 2457
986.466 1232.39 2457
992.342 1232.39 2457
998.217 1232.39 2457
1004.09 1232.39 2457
1008.32 1230.38 2453
1021.63 1239.41 2471
1035.44 1248.94 2490
1047.67 1256.46 2505
1053.66 1256.46 2505
1061.34 1258.47 2509
1073.72 1265.99 2524
1084.46 1271.51 2535
1090.53 1271.51 2535
1096.59 1271.51 2535
1102.65 1271.51 2535
1108.71 1271.51 2535
1116.53 1273.52 2539
