-282.406 324.992 1709
-279.297 326.133 1715
-275.998 327.084 1720
-272.359 327.655 1723
-268.239 327.655 1723
-265.039 328.796 1729
-261.357 329.366 1732
-257.512 329.746 1734
-253.365 329.746 1734
-249.794 330.507 1738
-246.062 331.078 1741
-242.454 331.838 1745
-238.281 331.838 1745
-234.645 332.599 1749
-230.858 333.169 1752
-227.704 334.691 1760
-223.495 334.691 1760
-220.158 336.022 1767
-216.666 337.163 1773
-212.906 337.924 1777
-208.656 337.924 1777
-204.752 338.494 1780
-200.946 339.255 1784
-197.341 340.396 1790
-193.061 340.396 1790
-189.624 341.917 1798
-185.737 342.678 1802
-181.73 343.248 1805
-177.414 343.248 1805
-173.481 344.009 1809
-169.342 344.389 1811
-165.011 344.389 1811
-160.681 344.389 1811
-156.868 345.53 1817
-152.523 345.53 1817
-148.341 345.911 1819
-143.991 345.911 1819
-139.642 345.911 1819
-135.441 346.291 1821
-131.374 347.052 1825
-127.01 347.052 1825
-123.183 348.573 1833
-118.8 348.573 1833
-114.417 348.573 1833
-110.034 348.573 1833
-105.65 348.573 1833
-196.709 741.264 3898
-188.253 744.687 3916
-179.756 748.3 3935
-170.347 748.3 3935
-161.673 751.723 3953
-152.952 755.336 3972
-144.826 762.563 4010
-135.237 762.563 4010
-125.648 762.563 4010
-115.248 757.238 3982
-105.726 757.238 3982
-96.2039 757.238 3982
-86.6817 757.238 3982
-77.1596 757.238 3982
-67.6374 757.238 3982
-58.1152 757.238 3982
-48.1293 750.012 3944
-38.335 742.976 3907
-28.9922 742.976 3907
-19.6041 741.264 3898
-10.1641 732.707 3853
-0.916594 706.654 3716
7.89872 700.379 3683
16.7059 700.379 3683
25.4022 697.336 3667
34.2457 698.857 3675
43.0337 698.857 3675
51.8218 698.857 3675
60.3294 695.624 3658
68.9257 694.103 3650
77.654 694.103 3650
86.3822 694.103 3650
95.1105 694.103 3650
103.839 694.103 3650
112.567 694.103 3650
121.295 694.103 3650
130.024 694.103 3650
138.752 694.103 3650
147.48 694.103 3650
156.208 694.103 3650
164.937 694.103 3650
173.665 694.103 3650
182.393 694.103 3650
191.121 694.103 3650
199.412 692.582 3642
207.721 691.251 3635
215.937 689.729 3627
225.105 691.251 3635
233.798 691.251 3635
242.49 691.251 3635
251.183 691.251 3635
259.875 691.251 3635
268.567 691.251 3635
277.26 691.251 3635
286.503 692.582 3642
295.86 694.103 3650
304.589 694.103 3650
313.317 694.103 3650
322.751 695.624 3658
331.498 695.624 3658
340.246 695.624 3658
348.993 695.624 3658
357.741 695.624 3658
364.885 692.582 3642
373.594 692.582 3642
381.568 691.251 3635
386.825 685.165 3603
392.917 680.792 3580
401.478 680.792 3580
410.038 680.792 3580
416.845 677.939 3565
423.461 674.896 3549
429.27 670.713 3527
437.705 670.713 3527
443.356 666.529 3505
448.902 662.345 3483
454.343 658.162 3461
462.619 658.162 3461
469.943 656.831 3454
474.326 651.506 3426
481.533 650.175 3419
489.709 650.175 3419
491.768 642.188 3377
496.883 638.385 3357
504.911 638.385 3357
513.855 639.526 3363
525.156 643.519 3384
533.248 643.519 3384
544.7 647.513 3405
556.252 651.506 3426
564.445 651.506 3426
572.637 651.506 3426
583.203 654.168 3440
592.633 655.5 3447
602.096 656.831 3454
610.356 656.831 3454
621.122 659.493 3468
629.416 659.493 3468
637.709 659.493 3468
646.002 659.493 3468
654.295 659.493 3468
661.25 658.162 3461
669.527 658.162 3461
676.432 656.831 3454
684.692 656.831 3454
692.951 656.831 3454
701.211 656.831 3454
709.47 656.831 3454
717.73 656.831 3454
725.989 656.831 3454
734.249 656.831 3454
742.508 656.831 3454
750.768 656.831 3454
759.028 656.831 3454
767.287 656.831 3454
773.975 655.5 3447
780.629 654.168 3440
788.855 654.168 3440
795.46 652.837 3433
806.946 655.5 3447
815.189 655.5 3447
823.432 655.5 3447
831.675 655.5 3447
841.623 656.831 3454
849.883 656.831 3454
858.142 656.831 3454
871.92 661.014 3476
885.55 665.008 3497
893.913 665.008 3497
908.21 669.382 3520
920.273 672.044 3534
932.665 674.896 3549
941.152 674.896 3549
955.793 679.27 3572
968.654 682.313 3588
983.499 686.687 3611
992.134 686.687 3611
1007.42 691.251 3635
1016.11 691.251 3635
1026.78 692.582 3642
1035.49 692.582 3642
1044.2 692.582 3642
1060.13 697.336 3667
1068.9 697.336 3667
1077.67 697.336 3667
1086.44 697.336 3667
1097.6 698.857 3675
1108.79 700.379 3683
1120.03 701.9 3691
1128.86 701.9 3691
1137.68 701.9 3691
1146.51 701.9 3691
1155.33 701.9 3691
1161.64 700.379 3683
1170.45 700.379 3683
1176.69 698.857 3675
1185.48 698.857 3675
1191.67 697.336 3667
1200.44 697.336 3667
1203.6 694.103 3650
1212.33 694.103 3650
1218.38 692.582 3642
1227.09 692.582 3642
1235.8 692.582 3642
1244.51 692.582 3642
1250.81 691.251 3635
1259.5 691.251 3635
1268.19 691.251 3635
1274.07 689.729 3627
1282.75 689.729 3627
1291.42 689.729 3627
1294.36 686.687 3611
1302.99 686.687 3611
1311.63 686.687 3611
1320.26 686.687 3611
1328.9 686.687 3611
1337.53 686.687 3611
1349.15 688.208 3619
1357.81 688.208 3619
1369.48 689.729 3627
1378.15 689.729 3627
1386.83 689.729 3627
1395.5 689.729 3627
1404.17 689.729 3627
1415.96 691.251 3635
1427.4 692.582 3642
1436.11 692.582 3642
1447.99 694.103 3650
1456.72 694.103 3650
1465.45 694.103 3650
1470.94 692.582 3642
1476.81 691.251 3635
1485.5 691.251 3635
1497.07 692.582 3642
1505.78 692.582 3642
1514.49 692.582 3642
1526.54 694.103 3650
1535.27 694.103 3650
1544 694.103 3650
1552.73 694.103 3650
1558.04 692.582 3642
1563.73 691.251 3635
1572.43 691.251 3635
1581.12 691.251 3635
1596.37 694.103 3650
1608.62 695.624 3658
1621.34 697.336 3667
1630.11 697.336 3667
1646.03 700.379 3683
1665.62 704.943 3707
1689.39 711.218 3740
1706.06 714.451 3757
1715.04 714.451 3757
1755.69 727.572 3826
1764.84 727.572 3826
1773.99 727.572 3826
1783.14 727.572 3826
1788.54 726.051 3818
1797.67 726.051 3818
1810.58 727.572 3826
1819.73 727.572 3826
1833.18 729.284 3835
1842.35 729.284 3835
1851.52 729.284 3835
1852.45 726.051 3818
1852.8 722.628 3800
1857.97 721.107 3792
1867.04 721.107 3792
1854.83 712.929 3749
1842.91 704.943 3707
1835.79 698.857 3675
1832.03 694.103 3650
1840.76 694.103 3650
1821.62 683.644 3595
1826.65 682.313 3588
1823.47 677.939 3565
1831.99 677.939 3565
1840.52 677.939 3565
1856.82 680.792 3580
1873.2 683.644 3595
1890.17 686.687 3611
1898.81 686.687 3611
1911.67 688.208 3619
1928.81 691.251 3635
1954.56 697.336 3667
1963.33 697.336 3667
1976.4 698.857 3675
1993.83 701.9 3691
2016.22 706.654 3716
2043.09 712.929 3749
2056.44 714.451 3757
2074.77 717.684 3774
2108.09 726.051 3818
2156.59 739.553 3889
2165.89 739.553 3889
2195.32 746.398 3925
2210.33 748.3 3935
2224.81 750.012 3944
2234.25 750.012 3944
2254.49 753.625 3963
2274.82 757.238 3982
2284.34 757.238 3982
2293.86 757.238 3982
2303.38 757.238 3982
2318.13 758.949 3991
2327.68 758.949 3991
2337.22 758.949 3991
2335.59 755.336 3972
2345.09 755.336 3972
2354.59 755.336 3972
2364.09 755.336 3972
2373.58 755.336 3972
2389.08 757.238 3982
2410.05 760.851 4001
2419.62 760.851 4001
2429.18 760.851 4001
2438.75 760.851 4001
2448.32 760.851 4001
2457.89 760.851 4001
2467.45 760.851 4001
2477.02 760.851 4001
2486.59 760.851 4001
2496.16 760.851 4001
2505.73 760.851 4001
2503.35 757.238 3982
2506.56 755.336 3972
2516.06 755.336 3972
2519.83 753.625 3963
2522.93 751.723 3953
2526.62 750.012 3944
2536.05 750.012 3944
2527.41 744.687 3916
2513.45 737.841 3880
2511.03 734.418 3862
2491.55 726.051 3818
2500.68 726.051 3818
2475.62 716.162 3766
2467.48 711.218 3740
2443.97 701.9 3691
2452.8 701.9 3691
2445.62 697.336 3667
2422.26 688.208 3619
532.06 140.152 737
533.823 140.152 737
535.585 140.152 737
536.618 139.962 736
538.378 139.962 736
540.138 139.962 736
540.426 139.581 734
539.226 138.821 730
540.972 138.821 730
540.487 138.25 727
541.48 138.06 726
543.216 138.06 726
544.952 138.06 726
546.688 138.06 726
548.424 138.06 726
550.16 138.06 726
551.136 137.87 725
552.87 137.87 725
554.604 137.87 725
-2361.48 607.337 3154
-2353.94 607.337 3154
-2337.47 605.026 3142
-2325.5 603.87 3136
-2309.13 601.56 3124
-2301.66 601.56 3124
-2289.79 600.404 3118
-2282.33 600.404 3118
-2270.5 599.249 3112
-2263.06 599.249 3112
-2255.61 599.249 3112
-2256.84 601.56 3124
-2283.93 610.803 3172
-2302.18 617.735 3208
-2294.51 617.735 3208
-2313.93 625.052 3246
-2306.17 625.052 3246
-2298.4 625.052 3246
-2499.52 682.05 3542
-2528.33 692.256 3595
-2547.77 699.958 3635
-2539.07 699.958 3635
-2540.82 702.847 3650
-2549.44 707.661 3675
-2551.71 710.742 3691
-2542.88 710.742 3691
-2551.22 715.556 3716
-2542.34 715.556 3716
-2533.45 715.556 3716
-2524.56 715.556 3716
-2515.68 715.556 3716
-2500.72 713.823 3707
-2491.86 713.823 3707
-2477.63 712.282 3699
-2463.45 710.742 3691
-2454.62 710.742 3691
-2445.8 710.742 3691
-2436.97 710.742 3691
-2422.88 709.201 3683
-2414.07 709.201 3683
-2405.27 709.201 3683
-2396.46 709.201 3683
-2387.65 709.201 3683
-2384.01 710.742 3691
-2375.19 710.742 3691
-2366.36 710.742 3691
-2352.42 709.201 3683
-2338.52 707.661 3675
-2329.74 707.661 3675
-2315.9 706.12 3667
-2301.47 704.387 3658
-2282.69 701.306 3642
-2273.98 701.306 3642
-2275.22 704.387 3658
-2266.48 704.387 3658
-2263.28 706.12 3667
-2254.51 706.12 3667
-2245.75 706.12 3667
-2236.98 706.12 3667
-2203.9 698.418 3627
-2195.23 698.418 3627
-2186.56 698.418 3627
-2055.17 738.47 3835
-2046 738.47 3835
-2036.83 738.47 3835
-2009.15 731.731 3800
-2000.07 731.731 3800
-1946.97 715.556 3716
-1925.04 710.742 3691
-1899.09 704.387 3658
-1890.34 704.387 3658
-1881.59 704.387 3658
-1872.84 704.387 3658
-1864.1 704.387 3658
-1855.35 704.387 3658
-1838.52 701.306 3642
-1818.26 696.877 3619
-1756.1 676.273 3512
-1747.7 676.273 3512
-1739.31 676.273 3512
-1730.91 676.273 3512
-1722.51 676.273 3512
-1739.98 686.479 3565
-1731.45 686.479 3565
-1760.14 701.306 3642
-1755.28 702.847 3650
-1746.55 702.847 3650
-1737.82 702.847 3650
-1740.94 707.661 3675
-1739.69 710.742 3691
-1738.37 713.823 3707
-1729.5 713.823 3707
-1732.24 718.637 3732
-1734.86 723.451 3757
-1730.01 725.184 3766
-1721.01 725.184 3766
-1712 725.184 3766
-1730.13 736.737 3826
-1720.98 736.737 3826
-1711.83 736.737 3826
-1706.69 738.47 3835
-1697.52 738.47 3835
-1688.35 738.47 3835
-1679.17 738.47 3835
-1670 738.47 3835
-1656.94 736.737 3826
-1647.79 736.737 3826
-1638.64 736.737 3826
-1626.08 735.197 3818
-1598.32 726.724 3774
-1585.92 725.184 3766
-1576.92 725.184 3766
-1564.16 723.451 3757
-1555.18 723.451 3757
-1546.2 723.451 3757
-1537.21 723.451 3757
-1528.23 723.451 3757
-1519.24 723.451 3757
-1510.26 723.451 3757
-1508.07 726.724 3774
-1499.04 726.724 3774
-1493.57 728.457 3783
-1484.53 728.457 3783
-1475.48 728.457 3783
-1466.43 728.457 3783
-1450.84 725.184 3766
-1431.88 720.177 3740
-1422.93 720.177 3740
-1413.99 720.177 3740
-1405.05 720.177 3740
-1390.13 717.096 3724
-1381.23 717.096 3724
-617.189 333.323 1731
-613.05 333.323 1731
-608.911 333.323 1731
-602.675 332.167 1725
-596.815 331.204 1720
-592.702 331.204 1720
-587.905 330.819 1718
-581.418 329.471 1711
-576.651 329.086 1709
-572.565 329.086 1709
-566.815 328.124 1704
-561.089 327.161 1699
-555.387 326.198 1694
-551.336 326.198 1694
-546.639 325.813 1692
-541.951 325.428 1690
-537.592 325.235 1689
-533.553 325.235 1689
-527.633 324.08 1683
-523.297 323.887 1682
-518.04 323.117 1678
-514.028 323.117 1678
-509.103 322.539 1675
-503.59 321.576 1670
-498.101 320.614 1665
-491.745 319.073 1657
-487.783 319.073 1657
-481.776 317.725 1650
-477.251 317.34 1648
-473.023 317.148 1647
-469.085 317.148 1647
-464.582 316.762 1645
-460.648 316.762 1645
-456.437 316.57 1644
-452.505 316.57 1644
-448.574 316.57 1644
-444.643 316.57 1644
-440.979 316.762 1645
-437.046 316.762 1645
-433.112 316.762 1645
-428.917 316.57 1644
-424.986 316.57 1644
-421.055 316.57 1644
-417.124 316.57 1644
-413.192 316.57 1644
-409.261 316.57 1644
-405.576 316.762 1645
-401.643 316.762 1645
-397.709 316.762 1645
-394.254 317.148 1647
-390.552 317.34 1648
-386.612 317.34 1648
-382.671 317.34 1648
-379.189 317.725 1650
-375.699 318.11 1652
-371.973 318.303 1653
-368.02 318.303 1653
-364.508 318.688 1655
-360.986 319.073 1657
-357.239 319.266 1658
-353.274 319.266 1658
-350.152 320.036 1662
-346.386 320.229 1663
-344.263 321.962 1672
-340.264 321.962 1672
-336.467 322.154 1673
-333.262 322.924 1677
-330.233 323.887 1682
-326.211 323.887 1682
-322.763 324.465 1685
-319.112 324.85 1687
-315.638 325.428 1690
-311.597 325.428 1690
-307.92 325.813 1692
-304.772 326.776 1697
-301.6 327.738 1702
-297.53 327.738 1702
-294.494 328.894 1708
-290.92 329.471 1711
-287.667 330.434 1716
-283.563 330.434 1716
-280.111 331.204 1720
-276.8 332.167 1725
-273.624 333.323 1731
-269.484 333.323 1731
-265.498 333.515 1732
-262.262 334.671 1738
-258.106 334.671 1738
-253.95 334.671 1738
-250.225 335.248 1741
-246.91 336.404 1747
-243.288 337.174 1751
-239.101 337.174 1751
-235.584 338.137 1756
-231.912 338.907 1760
-228.868 340.64 1769
-224.638 340.64 1769
-220.906 341.41 1773
-217.155 342.18 1777
-213.265 342.758 1780
-209.009 342.758 1780
-205.212 343.528 1784
-201.622 344.684 1790
-198.003 345.839 1796
-193.708 345.839 1796
-190.046 346.994 1802
-186.046 347.572 1805
-182.334 348.727 1811
-178.003 348.727 1811
-173.673 348.727 1811
-169.716 349.498 1815
-165.558 349.883 1817
-161.213 349.883 1817
-157.041 350.268 1819
-152.691 350.268 1819
-148.667 351.038 1823
-144.308 351.038 1823
-139.949 351.038 1823
-135.589 351.038 1823
-131.806 352.579 1831
-127.427 352.579 1831
-123.318 353.349 1835
-119.189 354.119 1839
-114.791 354.119 1839
-110.394 354.119 1839
-196.709 750.602 3898
-187.387 750.602 3898
-178.888 754.068 3916
-169.524 754.068 3916
-160.937 757.727 3935
-151.527 757.727 3935
-143.129 763.118 3963
-133.652 763.118 3963
-124.175 763.118 3963
-113.599 755.801 3925
-104.213 755.801 3925
-94.8268 755.801 3925
-84.6573 748.869 3889
-75.0087 745.403 3871
-65.752 745.403 3871
-56.4952 745.403 3871
-46.6894 736.737 3826
-37.2066 730.19 3792
-28.1388 730.19 3792
-19.0257 728.457 3783
-9.91083 723.451 3757
-0.916594 715.556 3716
7.89872 709.201 3683
16.7059 709.201 3683
25.4022 706.12 3667
34.0873 704.387 3658
42.5653 699.958 3635
51.2577 699.958 3635
59.5543 695.337 3611
68.1893 695.337 3611
76.9945 696.877 3619
85.6486 696.877 3619
94.3027 696.877 3619
102.957 696.877 3619
111.611 696.877 3619
120.265 696.877 3619
128.919 696.877 3619
137.573 696.877 3619
146.227 696.877 3619
154.882 696.877 3619
163.536 696.877 3619
172.19 696.877 3619
180.844 696.877 3619
189.498 696.877 3619
198.152 696.877 3619
206.349 695.337 3611
214.508 693.796 3603
224.115 696.877 3619
233.283 698.418 3627
241.957 698.418 3627
250.63 698.418 3627
259.303 698.418 3627
267.976 698.418 3627
276.65 698.418 3627
285.952 699.958 3635
295.212 701.306 3642
303.921 701.306 3642
312.63 701.306 3642
322.045 702.847 3650
330.773 702.847 3650
339.502 702.847 3650
348.23 702.847 3650
356.958 702.847 3650
364.885 701.306 3642
373.594 701.306 3642
381.568 699.958 3635
386.825 693.796 3603
392.917 689.367 3580
401.478 689.367 3580
410.038 689.367 3580
416.845 686.479 3565
423.461 683.398 3549
429.27 679.162 3527
437.705 679.162 3527
443.356 674.925 3505
448.902 670.689 3483
454.343 666.453 3461
462.619 666.453 3461
469.943 665.105 3454
474.326 659.713 3426
481.533 658.365 3419
489.709 658.365 3419
491.768 650.278 3377
496.883 646.426 3357
504.911 646.426 3357
513.855 647.582 3363
525.156 651.626 3384
533.248 651.626 3384
542.46 652.973 3391
552.842 655.669 3405
564.445 659.713 3426
572.637 659.713 3426
580.83 659.713 3426
590.226 661.061 3433
600.876 663.757 3447
609.119 663.757 3447
617.361 663.757 3447
625.604 663.757 3447
633.847 663.757 3447
642.09 663.757 3447
650.333 663.757 3447
657.238 662.409 3440
665.464 662.409 3440
673.69 662.409 3440
680.529 661.061 3433
688.738 661.061 3433
696.947 661.061 3433
705.157 661.061 3433
711.911 659.713 3426
718.633 658.365 3419
726.809 658.365 3419
734.985 658.365 3419
743.16 658.365 3419
751.336 658.365 3419
759.512 658.365 3419
766.116 657.017 3412
772.687 655.669 3405
780.829 655.669 3405
787.35 654.321 3398
797.114 655.669 3405
805.256 655.669 3405
815.071 657.017 3412
823.23 657.017 3412
834.801 659.713 3426
842.993 659.713 3426
851.186 659.713 3426
864.646 663.757 3447
876.434 666.453 3461
884.71 666.453 3461
902.275 673.385 3497
914.544 676.273 3512
928.723 680.51 3534
937.174 680.51 3534
949.639 683.398 3549
964.335 687.827 3572
977.234 690.908 3588
985.814 690.908 3588
1000.77 695.337 3611
1013.88 698.418 3627
1024.81 699.958 3635
1033.5 699.958 3635
1044.2 701.306 3642
1052.91 701.306 3642
1068.9 706.12 3667
1077.67 706.12 3667
1086.44 706.12 3667
1095.21 706.12 3667
1106.39 707.661 3675
1120.03 710.742 3691
1128.86 710.742 3691
1137.68 710.742 3691
1146.51 710.742 3691
1155.33 710.742 3691
1161.64 709.201 3683
1170.45 709.201 3683
1176.69 707.661 3675
1185.48 707.661 3675
1191.67 706.12 3667
1197.49 704.387 3658
1203.6 702.847 3650
1212.33 702.847 3650
1218.38 701.306 3642
1227.09 701.306 3642
1235.8 701.306 3642
1244.51 701.306 3642
1250.81 699.958 3635
1259.5 699.958 3635
1268.19 699.958 3635
1274.07 698.418 3627
1282.75 698.418 3627
1291.42 698.418 3627
1294.36 695.337 3611
1302.99 695.337 3611
1311.63 695.337 3611
1317.34 693.796 3603
1325.95 693.796 3603
1337.53 695.337 3611
1349.15 696.877 3619
1357.81 696.877 3619
1369.48 698.418 3627
1378.15 698.418 3627
1386.83 698.418 3627
1395.5 698.418 3627
1401.08 696.877 3619
1412.85 698.418 3627
1424.65 699.958 3635
1433.35 699.958 3635
1442.04 699.958 3635
1450.73 699.958 3635
1459.42 699.958 3635
1464.89 698.418 3627
1470.31 696.877 3619
1478.96 696.877 3619
1487.62 696.877 3619
1499.58 698.418 3627
1508.25 698.418 3627
1520.27 699.958 3635
1528.96 699.958 3635
1537.66 699.958 3635
1546.35 699.958 3635
1551.62 698.418 3627
1560.29 698.418 3627
1568.96 698.418 3627
1577.64 698.418 3627
1589.81 699.958 3635
1605.1 702.847 3650
1617.36 704.387 3658
1626.11 704.387 3658
1638.88 706.12 3667
1662.03 712.282 3699
1678.55 715.556 3716
1706.06 723.451 3757
1715.04 723.451 3757
1755.69 736.737 3826
1764.84 736.737 3826
1773.99 736.737 3826
1783.14 736.737 3826
1788.54 735.197 3818
1797.67 735.197 3818
1810.58 736.737 3826
1819.73 736.737 3826
1833.18 738.47 3835
1842.35 738.47 3835
1851.52 738.47 3835
1852.45 735.197 3818
1852.8 731.731 3800
1857.97 730.19 3792
1867.04 730.19 3792
1850.38 720.177 3740
1842.91 713.823 3707
1831.8 706.12 3667
1828.02 701.306 3642
1836.73 701.306 3642
1821.62 692.256 3595
1826.65 690.908 3588
1823.47 686.479 3565
1831.99 686.479 3565
1840.52 686.479 3565
1856.82 689.367 3580
1873.2 692.256 3595
1885.99 693.796 3603
1894.6 693.796 3603
1911.67 696.877 3619
1928.81 699.958 3635
1954.56 706.12 3667
1963.33 706.12 3667
1976.4 707.661 3675
1993.83 710.742 3691
2016.22 715.556 3716
2038.19 720.177 3740
2056.44 723.451 3757
2070.37 725.184 3766
2103.12 733.464 3809
2151.6 747.136 3880
2160.88 747.136 3880
2180.22 750.602 3898
2194.6 752.335 3907
2219.74 757.727 3935
2229.15 757.727 3935
2238.56 757.727 3935
2258.25 761.193 3953
2273.44 763.118 3963
2282.92 763.118 3963
2292.39 763.118 3963
2307.1 764.851 3972
2316.59 764.851 3972
2326.09 764.851 3972
2324.42 761.193 3953
2333.87 761.193 3953
2349.25 763.118 3963
2358.73 763.118 3963
2368.21 763.118 3963
2377.68 763.118 3963
2398.6 766.777 3982
2408.13 766.777 3982
2417.65 766.777 3982
2432.66 768.51 3991
2442.2 768.51 3991
2457.89 770.435 4001
2467.45 770.435 4001
2477.02 770.435 4001
2486.59 770.435 4001
2496.16 770.435 4001
2499.46 768.51 3991
2497.06 764.851 3972
2500.88 763.118 3963
2510.36 763.118 3963
2519.83 763.118 3963
2522.93 761.193 3953
2526.62 759.46 3944
2536.05 759.46 3944
2527.41 754.068 3916
2513.45 747.136 3880
2511.03 743.67 3862
2491.55 735.197 3818
2500.68 735.197 3818
2475.62 725.184 3766
2467.48 720.177 3740
2443.97 710.742 3691
2452.8 710.742 3691
2445.62 706.12 3667
2422.26 696.877 3619
534.858 141.725 736
536.618 141.725 736
538.378 141.725 736
540.138 141.725 736
540.426 141.34 734
539.226 140.569 730
540.972 140.569 730
539.744 139.799 726
540.734 139.607 725
542.468 139.607 725
543.451 139.414 724
545.182 139.414 724
546.913 139.414 724
548.645 139.414 724
550.376 139.414 724
552.107 139.414 724
553.839 139.414 724
-2361.48 614.892 3154
-2353.94 614.892 3154
-2337.47 612.552 3142
-2325.5 611.383 3136
-2309.13 609.043 3124
-2301.66 609.043 3124
-2289.79 607.874 3118
-2282.33 607.874 3118
-2270.5 606.704 3112
-2263.06 606.704 3112
-2255.61 606.704 3112
-2256.84 609.043 3124
-2283.93 618.401 3172
-2302.18 625.42 3208
-2294.51 625.42 3208
-2313.93 632.828 3246
-2306.17 632.828 3246
-2298.4 632.828 3246
-2493.88 688.975 3534
-2512.15 696.384 3572
-2536.55 705.547 3619
-2527.9 705.547 3619
-2530.38 708.666 3635
-2537.64 713.15 3658
-2540.65 716.464 3675
-2531.86 716.464 3675
-2534.06 719.583 3691
-2525.23 719.583 3691
-2527.31 722.703 3707
-2518.45 722.703 3707
-2509.58 722.703 3707
-2495.32 721.143 3699
-2486.48 721.143 3699
-2472.27 719.583 3691
-2458.11 718.024 3683
-2443.98 716.464 3675
-2435.19 716.464 3675
-2426.41 716.464 3675
-2412.35 714.905 3667
-2403.59 714.905 3667
-2394.82 714.905 3667
-2386.05 714.905 3667
-2377.28 714.905 3667
-2373.68 716.464 3675
-2364.89 716.464 3675
-2356.1 716.464 3675
-2347.31 716.464 3675
-2333.43 714.905 3667
-2324.67 714.905 3667
-2315.9 714.905 3667
-2301.47 713.15 3658
-2282.69 710.031 3642
-2273.98 710.031 3642
-2275.22 713.15 3658
-2266.48 713.15 3658
-2263.28 714.905 3667
-2254.51 714.905 3667
-2245.75 714.905 3667
-2236.98 714.905 3667
-2203.9 707.106 3627
-2238.81 721.143 3699
-2249.85 727.577 3732
-2240.93 727.577 3732
-2242.17 730.891 3749
-2233.21 730.891 3749
-2224.24 730.891 3749
-2200.51 726.017 3724
-2062.87 730.891 3749
-2053.91 730.891 3749
-2044.94 730.891 3749
-2035.98 730.891 3749
-2045.4 737.519 3783
-2050.35 742.588 3809
-2055.17 747.657 3835
-2046 747.657 3835
-2036.83 747.657 3835
-2009.15 740.834 3800
-2000.07 740.834 3800
-1946.97 724.457 3716
-1925.04 719.583 3691
-1899.09 713.15 3658
-1890.34 713.15 3658
-1881.59 713.15 3658
-1872.84 713.15 3658
-1864.1 713.15 3658
-1855.35 713.15 3658
-1838.52 710.031 3642
-1818.26 705.547 3619
-1805.6 703.987 3611
-1796.97 703.987 3611
-1754.16 690.535 3542
-1734.85 686.246 3520
-1726.43 686.246 3520
-1739.98 695.019 3565
-1738.74 697.943 3580
-1760.14 710.031 3642
-1755.28 711.59 3650
-1746.55 711.59 3650
-1737.82 711.59 3650
-1740.94 716.464 3675
-1739.69 719.583 3691
-1738.37 722.703 3707
-1729.5 722.703 3707
-1732.24 727.577 3732
-1734.86 732.451 3757
-1730.01 734.205 3766
-1721.01 734.205 3766
-1712 734.205 3766
-1730.13 745.903 3826
-1720.98 745.903 3826
-1711.83 745.903 3826
-1706.69 747.657 3835
-1697.52 747.657 3835
-1688.35 747.657 3835
-1679.17 747.657 3835
-1670 747.657 3835
-1656.94 745.903 3826
-1647.79 745.903 3826
-1638.64 745.903 3826
-1626.08 744.343 3818
-1598.32 735.765 3774
-1585.92 734.205 3766
-1576.92 734.205 3766
-1564.16 732.451 3757
-1555.18 732.451 3757
-1546.2 732.451 3757
-1537.21 732.451 3757
-1528.23 732.451 3757
-1519.24 732.451 3757
-1510.26 732.451 3757
-1508.07 735.765 3774
-1499.04 735.765 3774
-1493.57 737.519 3783
-1484.53 737.519 3783
-1475.48 737.519 3783
-1466.43 737.519 3783
-1450.84 734.205 3766
-1431.88 729.136 3740
-1422.93 729.136 3740
-1413.99 729.136 3740
-1405.05 729.136 3740
-1390.13 726.017 3724
-1381.23 726.017 3724
-1372.32 726.017 3724
-617.189 337.469 1731
-613.05 337.469 1731
-608.911 337.469 1731
-602.675 336.3 1725
-596.815 335.325 1720
-592.702 335.325 1720
-587.905 334.935 1718
-581.418 333.57 1711
-576.651 333.18 1709
-572.565 333.18 1709
-566.815 332.205 1704
-561.089 331.231 1699
-555.387 330.256 1694
-551.336 330.256 1694
-546.639 329.866 1692
-541.951 329.476 1690
-537.592 329.281 1689
-533.553 329.281 1689
-527.633 328.111 1683
-523.297 327.916 1682
-518.04 327.137 1678
-514.028 327.137 1678
-509.103 326.552 1675
-503.59 325.577 1670
-498.101 324.602 1665
-491.745 323.042 1657
-487.783 323.042 1657
-481.776 321.678 1650
-477.251 321.288 1648
-473.023 321.093 1647
-469.085 321.093 1647
-464.582 320.703 1645
-460.648 320.703 1645
-456.437 320.508 1644
-452.505 320.508 1644
-448.574 320.508 1644
-444.643 320.508 1644
-440.979 320.703 1645
-437.046 320.703 1645
-433.112 320.703 1645
-428.917 320.508 1644
-424.986 320.508 1644
-421.055 320.508 1644
-417.124 320.508 1644
-413.192 320.508 1644
-409.51 320.703 1645
-406.069 321.093 1647
-402.131 321.093 1647
-398.434 321.288 1648
-394.493 321.288 1648
-391.026 321.678 1650
-387.081 321.678 1650
-383.135 321.678 1650
-379.649 322.068 1652
-375.926 322.263 1653
-371.973 322.263 1653
-368.466 322.653 1655
-364.949 323.042 1657
-362.075 324.017 1662
-358.101 324.017 1662
-354.127 324.017 1662
-350.784 324.602 1665
-347.428 325.187 1668
-344.469 326.162 1673
-340.468 326.162 1673
-336.87 326.552 1675
-333.858 327.526 1680
-330.429 328.111 1683
-326.405 328.111 1683
-323.146 328.891 1687
-319.68 329.476 1690
-316.012 329.866 1692
-311.966 329.866 1692
-308.83 330.841 1697
-305.67 331.816 1702
-302.663 332.985 1708
-298.579 332.985 1708
-295.356 333.96 1713
-291.77 334.545 1716
-288.672 335.715 1722
-284.555 335.715 1722
-280.925 336.3 1725
-277.763 337.469 1731
-274.73 338.834 1738
-270.574 338.834 1738
-267.185 339.809 1743
-263.62 340.589 1747
-259.74 340.978 1749
-255.557 340.978 1749
-251.806 341.563 1752
-248.464 342.733 1758
-244.26 342.733 1758
-240.057 342.733 1758
-236.121 343.123 1760
-232.835 344.488 1767
-229.385 345.657 1773
-225.146 345.657 1773
-221.404 346.437 1777
-217.766 347.412 1782
-213.744 347.802 1784
-209.478 347.802 1784
-205.672 348.582 1788
-202.298 350.141 1796
-198.664 351.311 1802
-194.355 351.311 1802
-190.363 351.896 1805
-186.459 352.676 1809
-182.334 353.066 1811
-178.003 353.066 1811
-174.056 353.846 1815
-169.903 354.236 1817
-165.74 354.625 1819
-161.391 354.625 1819
-157.213 355.015 1821
-153.027 355.405 1823
-148.667 355.405 1823
-144.308 355.405 1823
-139.949 355.405 1823
-135.887 356.185 1827
-132.094 357.745 1835
-127.706 357.745 1835
-123.587 358.525 1839
-119.189 358.525 1839
-114.791 358.525 1839
-110.394 358.525 1839
-196.255 758.185 3889
-187.387 759.939 3898
-178.066 759.939 3898
-168.745 759.939 3898
-160.528 765.203 3925
-151.142 765.203 3925
-142.117 767.153 3935
-132.708 767.153 3935
-123.298 767.153 3935
-113.338 763.449 3916
-103.974 763.449 3916
-93.0873 751.166 3853
-83.8736 751.166 3853
-74.6599 751.166 3853
-65.4462 751.166 3853
-55.8385 745.903 3826
-46.2744 739.274 3792
-37.1183 737.519 3783
-28.072 737.519 3783
-18.8547 730.891 3749
-9.80268 724.457 3716
-0.908454 718.024 3683
7.82794 711.59 3650
16.5562 711.59 3650
25.229 710.031 3642
33.7984 707.106 3627
42.2843 703.987 3611
50.9193 703.987 3611
59.2904 700.868 3595
68.0382 702.427 3603
76.8243 703.987 3611
85.4593 703.987 3611
94.0943 703.987 3611
102.729 703.987 3611
111.364 703.987 3611
119.999 703.987 3611
128.349 702.427 3603
136.965 702.427 3603
145.904 703.987 3611
154.539 703.987 3611
163.174 703.987 3611
171.809 703.987 3611
180.444 703.987 3611
189.079 703.987 3611
197.276 702.427 3603
205.435 700.868 3595
213.615 699.503 3588
223.124 702.427 3603
232.254 703.987 3611
240.889 703.987 3611
249.524 703.987 3611
258.159 703.987 3611
267.385 705.547 3619
276.039 705.547 3619
284.693 705.547 3619
293.996 707.106 3627
302.669 707.106 3627
311.343 707.106 3627
320.722 708.666 3635
330.048 710.031 3642
339.502 711.59 3650
348.23 711.59 3650
356.958 711.59 3650
364.184 708.666 3635
372.876 708.666 3635
380.729 707.106 3627
385.966 700.868 3595
392.917 697.943 3580
401.478 697.943 3580
409.122 696.384 3572
416.845 695.019 3565
423.461 691.9 3549
429.27 687.611 3527
437.705 687.611 3527
443.356 683.322 3505
448.902 679.033 3483
454.343 674.744 3461
462.619 674.744 3461
469.943 673.379 3454
473.357 666.555 3419
480.547 665.191 3412
488.706 665.191 3412
490.749 657.003 3370
495.847 653.103 3350
502.805 651.739 3343
512.939 654.468 3357
521.897 655.638 3363
529.939 655.638 3363
541.341 659.732 3384
550.569 661.097 3391
560.985 663.826 3405
569.127 663.826 3405
578.456 665.191 3412
586.615 665.191 3412
597.215 667.92 3426
605.408 667.92 3426
614.854 669.285 3433
623.063 669.285 3433
631.273 669.285 3433
639.482 669.285 3433
647.691 669.285 3433
651.888 665.191 3412
660.048 665.191 3412
668.207 665.191 3412
679.141 667.92 3426
687.334 667.92 3426
695.526 667.92 3426
702.281 666.555 3419
710.457 666.555 3419
718.633 666.555 3419
726.809 666.555 3419
734.985 666.555 3419
743.16 666.555 3419
748.26 663.826 3405
756.402 663.826 3405
764.544 663.826 3405
771.098 662.461 3398
779.224 662.461 3398
785.728 661.097 3391
793.837 661.097 3391
801.946 661.097 3391
811.727 662.461 3398
819.852 662.461 3398
831.389 665.191 3412
839.548 665.191 3412
847.708 665.191 3412
859.378 667.92 3426
872.889 672.014 3447
881.132 672.014 3447
894.793 676.108 3468
908.815 680.397 3490
922.942 684.686 3512
931.34 684.686 3512
945.625 688.975 3534
960.285 693.459 3557
975.056 697.943 3580
983.616 697.943 3580
998.552 702.427 3603
1009.4 703.987 3611
1022.55 707.106 3627
1031.22 707.106 3627
1042.19 708.666 3635
1052.91 710.031 3642
1063.95 711.59 3650
1077.67 714.905 3667
1086.44 714.905 3667
1095.21 714.905 3667
1106.39 716.464 3675
1115.17 716.464 3675
1123.96 716.464 3675
1135.22 718.024 3683
1144.02 718.024 3683
1152.83 718.024 3683
1161.64 718.024 3683
1167.9 716.464 3675
1174.13 714.905 3667
1182.9 714.905 3667
1191.67 714.905 3667
1194.87 711.59 3650
1200.96 710.031 3642
1209.67 710.031 3642
1218.38 710.031 3642
1227.09 710.031 3642
1233.42 708.666 3635
1242.11 708.666 3635
1250.81 708.666 3635
1259.5 708.666 3635
1265.4 707.106 3627
1274.07 707.106 3627
1282.75 707.106 3627
1291.42 707.106 3627
1294.36 703.987 3611
1302.99 703.987 3611
1311.63 703.987 3611
1317.34 702.427 3603
1325.95 702.427 3603
1337.53 703.987 3611
1346.17 703.987 3611
1354.8 703.987 3611
1366.46 705.547 3619
1375.11 705.547 3619
1383.77 705.547 3619
1392.42 705.547 3619
1401.08 705.547 3619
1409.73 705.547 3619
1418.38 705.547 3619
1427.04 705.547 3619
1435.69 705.547 3619
1444.35 705.547 3619
1453 705.547 3619
1461.65 705.547 3619
1467.06 703.987 3611
1475.69 703.987 3611
1484.33 703.987 3611
1492.96 703.987 3611
1501.6 703.987 3611
1510.23 703.987 3611
1518.87 703.987 3611
1527.5 703.987 3611
1536.14 703.987 3611
1541.35 702.427 3603
1549.97 702.427 3603
1562.04 703.987 3611
1570.68 703.987 3611
1582.81 705.547 3619
1594.98 707.106 3627
1613.83 711.59 3650
1622.56 711.59 3650
1634.86 713.15 3658
1651.24 716.464 3675
1670.87 721.143 3699
1694.7 727.577 3732
1703.63 727.577 3732
1747.89 742.588 3809
1761.15 744.343 3818
1770.28 744.343 3818
1779.41 744.343 3818
1788.54 744.343 3818
1797.67 744.343 3818
1814.84 747.657 3835
1824.01 747.657 3835
1833.18 747.657 3835
1842.35 747.657 3835
1851.52 747.657 3835
1856.33 745.903 3826
1852.8 740.834 3800
1857.97 739.274 3792
1867.04 739.274 3792
1850.38 729.136 3740
1842.91 722.703 3707
1835.79 716.464 3675
1828.02 710.031 3642
1836.73 710.031 3642
1825.67 702.427 3603
1826.65 699.503 3588
1823.47 695.019 3565
1831.99 695.019 3565
1840.52 695.019 3565
1860.97 699.503 3588
1873.2 700.868 3595
1885.99 702.427 3603
1894.6 702.427 3603
1907.44 703.987 3611
1920.32 705.547 3619
1945.5 711.59 3650
1954.23 711.59 3650
1972.1 714.905 3667
1989.51 718.024 3683
2016.22 724.457 3716
2038.19 729.136 3740
2047.13 729.136 3740
2070.37 734.205 3766
2098.15 740.834 3800
2146.61 754.676 3871
2155.86 754.676 3871
2175.19 758.185 3889
2194.6 761.694 3907
2214.1 765.203 3925
2223.48 765.203 3925
2232.87 765.203 3925
2258.25 770.662 3953
2267.7 770.662 3953
2277.15 770.662 3953
2292.39 772.612 3963
2301.87 772.612 3963
2311.35 772.612 3963
2320.82 772.612 3963
2324.42 770.662 3953
2333.87 770.662 3953
2354.59 774.366 3972
2364.09 774.366 3972
2373.58 774.366 3972
2389.08 776.316 3982
2398.6 776.316 3982
2408.13 776.316 3982
2417.65 776.316 3982
2432.66 778.07 3991
2442.2 778.07 3991
2457.89 780.02 4001
2467.45 780.02 4001
2477.02 780.02 4001
2486.59 780.02 4001
2496.16 780.02 4001
2499.46 778.07 3991
2497.06 774.366 3972
2500.88 772.612 3963
2510.36 772.612 3963
2519.83 772.612 3963
2522.93 770.662 3953
2526.62 768.907 3944
2536.05 768.907 3944
2527.41 763.449 3916
2513.45 756.43 3880
2511.03 752.921 3862
2491.55 744.343 3818
2500.68 744.343 3818
2475.62 734.205 3766
2467.48 729.136 3740
2454.57 722.703 3707
2463.43 722.703 3707
2456.29 718.024 3683
2422.26 705.547 3619
534.858 143.488 736
536.618 143.488 736
538.378 143.488 736
540.138 143.488 736
541.162 143.293 735
540.703 142.708 732
542.454 142.708 732
539.744 141.538 726
540.734 141.343 725
541.719 141.148 724
543.451 141.148 724
545.182 141.148 724
546.913 141.148 724
548.645 141.148 724
550.376 141.148 724
552.107 141.148 724
553.074 140.953 723
-2361.48 622.447 3154
-2353.94 622.447 3154
-2337.47 620.079 3142
-2325.5 618.895 3136
-2313.57 617.711 3130
-2306.08 617.711 3130
-2298.6 617.711 3130
-2286.72 616.527 3124
-2274.87 615.343 3118
-2267.42 615.343 3118
-2259.96 615.343 3118
-2265.51 618.895 3136
-2288.25 627.184 3178
-2306.49 634.289 3214
-2298.8 634.289 3214
-2313.93 640.604 3246
-2306.17 640.604 3246
-2298.4 640.604 3246
-2473.41 691.718 3505
-2491.05 699.02 3542
-2536.55 714.216 3619
-2527.9 714.216 3619
-2519.24 714.216 3619
-2521.69 717.374 3635
-2528.9 721.913 3658
-2520.15 721.913 3658
-2523.07 725.268 3675
-2525.23 728.425 3691
-2521.86 730.004 3699
-2513.01 730.004 3699
-2504.17 730.004 3699
-2489.93 728.425 3691
-2481.1 728.425 3691
-2466.92 726.846 3683
-2452.77 725.268 3675
-2443.98 725.268 3675
-2435.19 725.268 3675
-2426.41 725.268 3675
-2412.35 723.689 3667
-2397.69 721.913 3658
-2388.94 721.913 3658
-2380.19 721.913 3658
-2371.44 721.913 3658
-2368.51 723.689 3667
-2359.74 723.689 3667
-2350.97 723.689 3667
-2342.2 723.689 3667
-2333.43 723.689 3667
-2324.67 723.689 3667
-2310.21 721.913 3658
-2301.47 721.913 3658
-2282.69 718.755 3642
-2273.98 718.755 3642
-2265.27 718.755 3642
-2256.56 718.755 3642
-2247.85 718.755 3642
-2239.14 718.755 3642
-2230.43 718.755 3642
-2212.57 715.795 3627
-2203.9 715.795 3627
-2238.81 730.004 3699
-2249.85 736.517 3732
-2240.93 736.517 3732
-2242.17 739.872 3749
-2233.21 739.872 3749
-2224.24 739.872 3749
-2200.51 734.938 3724
-2062.87 739.872 3749
-2053.91 739.872 3749
-2044.94 739.872 3749
-2035.98 739.872 3749
-2045.4 746.582 3783
-2050.35 751.713 3809
-2055.17 756.844 3835
-2046 756.844 3835
-2036.83 756.844 3835
-2009.15 749.937 3800
-2000.07 749.937 3800
-1946.97 733.359 3716
-1925.04 728.425 3691
-1899.09 721.913 3658
-1890.34 721.913 3658
-1881.59 721.913 3658
-1868.75 720.334 3650
-1860.02 720.334 3650
-1851.29 720.334 3650
-1838.52 718.755 3642
-1818.26 714.216 3619
-1805.6 712.637 3611
-1796.97 712.637 3611
-1754.16 699.02 3542
-1734.85 694.678 3520
-1726.43 694.678 3520
-1739.98 703.559 3565
-1738.74 706.519 3580
-1752.89 715.795 3627
-1751.43 718.755 3642
-1746.55 720.334 3650
-1737.82 720.334 3650
-1740.94 725.268 3675
-1739.69 728.425 3691
-1738.37 731.583 3707
-1729.5 731.583 3707
-1732.24 736.517 3732
-1734.86 741.451 3757
-1730.01 743.227 3766
-1721.01 743.227 3766
-1712 743.227 3766
-1703 743.227 3766
-1693.99 743.227 3766
-1680.96 741.451 3757
-1687.55 748.358 3792
-1689.99 753.489 3818
-1680.86 753.489 3818
-1671.73 753.489 3818
-1662.6 753.489 3818
-1653.47 753.489 3818
-1644.34 753.489 3818
-1635.21 753.489 3818
-1607.34 744.806 3774
-1594.93 743.227 3766
-1582.13 741.451 3757
-1573.15 741.451 3757
-1560.83 739.872 3749
-1551.87 739.872 3749
-1542.9 739.872 3749
-1533.94 739.872 3749
-1524.97 739.872 3749
-1516.01 739.872 3749
-1503.43 738.096 3740
-1501.28 741.451 3757
-1492.29 741.451 3757
-1490.02 744.806 3774
-1480.99 744.806 3774
-1471.97 744.806 3774
-1459.84 743.227 3766
-1440.82 738.096 3740
-1422.69 733.359 3716
-1416.85 734.938 3724
-1407.94 734.938 3724
-1399.04 734.938 3724
-1390.13 734.938 3724
-1381.23 734.938 3724
-1372.32 734.938 3724
-609.154 339.445 1720
-605.041 339.445 1720
-600.928 339.445 1720
-596.815 339.445 1720
-592.702 339.445 1720
-587.22 338.656 1716
-581.418 337.669 1711
-576.314 337.077 1708
-572.23 337.077 1708
-566.815 336.287 1704
-561.089 335.301 1699
-555.387 334.314 1694
-551.336 334.314 1694
-545.993 333.524 1690
-541.631 333.327 1689
-536.955 332.932 1687
-532.921 332.932 1687
-527.633 332.143 1683
-522.675 331.551 1680
-518.04 331.156 1678
-514.028 331.156 1678
-508.495 330.169 1673
-503.59 329.577 1670
-498.101 328.591 1665
-491.745 327.012 1657
-487.783 327.012 1657
-481.776 325.63 1650
-477.251 325.236 1648
-473.023 325.038 1647
-469.085 325.038 1647
-464.582 324.644 1645
-460.648 324.644 1645
-456.437 324.446 1644
-452.505 324.446 1644
-448.574 324.446 1644
-444.643 324.446 1644
-440.711 324.446 1644
-436.78 324.446 1644
-432.849 324.446 1644
-428.917 324.446 1644
-424.986 324.446 1644
-421.055 324.446 1644
-417.124 324.446 1644
-413.192 324.446 1644
-409.51 324.644 1645
-406.069 325.038 1647
-402.131 325.038 1647
-398.434 325.236 1648
-394.493 325.236 1648
-391.026 325.63 1650
-387.081 325.63 1650
-383.135 325.63 1650
-379.649 326.025 1652
-375.926 326.222 1653
-371.973 326.222 1653
-368.466 326.617 1655
-364.949 327.012 1657
-362.075 327.999 1662
-358.101 327.999 1662
-354.127 327.999 1662
-350.784 328.591 1665
-347.428 329.183 1668
-344.469 330.169 1673
-340.468 330.169 1673
-336.87 330.564 1675
-333.858 331.551 1680
-330.429 332.143 1683
-326.405 332.143 1683
-323.146 332.932 1687
-319.68 333.524 1690
-316.012 333.919 1692
-311.966 333.919 1692
-308.83 334.906 1697
-305.67 335.893 1702
-302.663 337.077 1708
-298.579 337.077 1708
-295.356 338.064 1713
-291.77 338.656 1716
-288.672 339.84 1722
-284.555 339.84 1722
-280.925 340.432 1725
-277.763 341.616 1731
-274.73 342.997 1738
-270.574 342.997 1738
-268.104 345.168 1749
-264.375 345.76 1752
-261.076 346.944 1758
-256.872 346.944 1758
-252.668 346.944 1758
-248.747 347.339 1760
-245.233 348.326 1765
-241.012 348.326 1765
-237.06 348.721 1767
-233.362 349.51 1771
-230.162 351.089 1779
-225.908 351.089 1779
-222.027 351.681 1782
-218.499 352.865 1788
-214.224 352.865 1788
-209.948 352.865 1788
-205.902 353.26 1790
-202.298 354.444 1796
-198.664 355.628 1802
-194.355 355.628 1802
-190.363 356.22 1805
-186.459 357.009 1809
-182.535 357.799 1813
-178.2 357.799 1813
-174.056 358.193 1815
-169.903 358.588 1817
-165.923 359.378 1821
-161.568 359.378 1821
-157.213 359.378 1821
-153.027 359.772 1823
-148.994 360.562 1827
-144.625 360.562 1827
-140.256 360.562 1827
-135.887 360.562 1827
-132.094 362.14 1835
-127.706 362.14 1835
-123.587 362.93 1839
-119.189 362.93 1839
-114.791 362.93 1839
-110.394 362.93 1839
-196.255 767.501 3889
-187.387 769.277 3898
-178.066 769.277 3898
-168.745 769.277 3898
-160.528 774.606 3925
-151.142 774.606 3925
-142.117 776.579 3935
-132.708 776.579 3935
-123.298 776.579 3935
-113.338 772.829 3916
-103.974 772.829 3916
-93.0873 760.396 3853
-83.8736 760.396 3853
-74.6599 760.396 3853
-65.4462 760.396 3853
-55.8385 755.068 3826
-46.2744 748.358 3792
-37.1183 746.582 3783
-28.072 746.582 3783
-18.8547 739.872 3749
-9.80268 733.359 3716
-0.908454 726.846 3683
7.82794 720.334 3650
16.5562 720.334 3650
25.229 718.755 3642
33.7984 715.795 3627
42.2843 712.637 3611
50.9193 712.637 3611
59.2904 709.48 3595
68.0382 711.058 3603
76.8243 712.637 3611
85.4593 712.637 3611
94.0943 712.637 3611
102.729 712.637 3611
111.364 712.637 3611
119.999 712.637 3611
128.349 711.058 3603
136.965 711.058 3603
145.904 712.637 3611
154.539 712.637 3611
163.174 712.637 3611
171.809 712.637 3611
180.444 712.637 3611
189.079 712.637 3611
197.276 711.058 3603
205.435 709.48 3595
213.615 708.098 3588
223.124 711.058 3603
232.254 712.637 3611
240.889 712.637 3611
249.524 712.637 3611
258.159 712.637 3611
267.385 714.216 3619
276.039 714.216 3619
284.693 714.216 3619
293.996 715.795 3627
302.669 715.795 3627
311.343 715.795 3627
320.722 717.374 3635
330.048 718.755 3642
339.502 720.334 3650
348.23 720.334 3650
356.958 720.334 3650
364.184 717.374 3635
372.876 717.374 3635
380.729 715.795 3627
385.966 709.48 3595
392.917 706.519 3580
401.478 706.519 3580
409.122 704.94 3572
416.845 703.559 3565
423.461 700.401 3549
429.27 696.06 3527
437.705 696.06 3527
443.356 691.718 3505
448.902 687.376 3483
454.343 683.034 3461
462.619 683.034 3461
469.943 681.653 3454
473.357 674.746 3419
480.547 673.364 3412
488.706 673.364 3412
490.749 665.075 3370
495.847 661.128 3350
502.805 659.747 3343
512.939 662.51 3357
521.897 663.694 3363
529.939 663.694 3363
541.341 667.838 3384
550.569 669.22 3391
560.985 671.983 3405
569.127 671.983 3405
578.456 673.364 3412
586.615 673.364 3412
597.215 676.127 3426
605.408 676.127 3426
614.854 677.509 3433
623.063 677.509 3433
631.273 677.509 3433
639.482 677.509 3433
647.691 677.509 3433
651.888 673.364 3412
660.048 673.364 3412
668.207 673.364 3412
679.141 676.127 3426
687.334 676.127 3426
695.526 676.127 3426
702.281 674.746 3419
710.457 674.746 3419
718.633 674.746 3419
726.809 674.746 3419
734.985 674.746 3419
743.16 674.746 3419
748.26 671.983 3405
756.402 671.983 3405
764.544 671.983 3405
771.098 670.601 3398
779.224 670.601 3398
785.728 669.22 3391
793.837 669.22 3391
801.946 669.22 3391
811.727 670.601 3398
819.852 670.601 3398
831.389 673.364 3412
839.548 673.364 3412
847.708 673.364 3412
859.378 676.127 3426
872.889 680.271 3447
881.132 680.271 3447
894.793 684.416 3468
908.815 688.758 3490
922.942 693.099 3512
931.34 693.099 3512
945.625 697.441 3534
960.285 701.98 3557
975.056 706.519 3580
983.616 706.519 3580
998.552 711.058 3603
1009.4 712.637 3611
1022.55 715.795 3627
1031.22 715.795 3627
1042.19 717.374 3635
1052.91 718.755 3642
1063.95 720.334 3650
1077.67 723.689 3667
1086.44 723.689 3667
1095.21 723.689 3667
1106.39 725.268 3675
1115.17 725.268 3675
1123.96 725.268 3675
1135.22 726.846 3683
1144.02 726.846 3683
1152.83 726.846 3683
1161.64 726.846 3683
1167.9 725.268 3675
1174.13 723.689 3667
1182.9 723.689 3667
1191.67 723.689 3667
1194.87 720.334 3650
1200.96 718.755 3642
1209.67 718.755 3642
1218.38 718.755 3642
1227.09 718.755 3642
1233.42 717.374 3635
1242.11 717.374 3635
1250.81 717.374 3635
1259.5 717.374 3635
1265.4 715.795 3627
1274.07 715.795 3627
1282.75 715.795 3627
1291.42 715.795 3627
1294.36 712.637 3611
1302.99 712.637 3611
1311.63 712.637 3611
1317.34 711.058 3603
1325.95 711.058 3603
1337.53 712.637 3611
1346.17 712.637 3611
1354.8 712.637 3611
1366.46 714.216 3619
1375.11 714.216 3619
1383.77 714.216 3619
1392.42 714.216 3619
1401.08 714.216 3619
1403.5 711.058 3603
1412.11 711.058 3603
1420.73 711.058 3603
1429.34 711.058 3603
1434.77 709.48 3595
1443.36 709.48 3595
1451.96 709.48 3595
1460.56 709.48 3595
1469.15 709.48 3595
1474.87 708.098 3588
1483.45 708.098 3588
1492.03 708.098 3588
1500.61 708.098 3588
1509.19 708.098 3588
1517.77 708.098 3588
1526.35 708.098 3588
1534.93 708.098 3588
1543.51 708.098 3588
1555.12 709.48 3595
1563.72 709.48 3595
1579.31 712.637 3611
1591.47 714.216 3619
1603.66 715.795 3627
1619 718.755 3642
1631.28 720.334 3650
1651.24 725.268 3675
1670.87 730.004 3699
1694.7 736.517 3732
1703.63 736.517 3732
1747.89 751.713 3809
1764.84 755.068 3826
1773.99 755.068 3826
1783.14 755.068 3826
1792.28 755.068 3826
1797.67 753.489 3818
1814.84 756.844 3835
1824.01 756.844 3835
1833.18 756.844 3835
1842.35 756.844 3835
1851.52 756.844 3835
1856.33 755.068 3826
1852.8 749.937 3800
1853.56 746.582 3783
1862.6 746.582 3783
1850.38 738.096 3740
1842.91 731.583 3707
1835.79 725.268 3675
1828.02 718.755 3642
1836.73 718.755 3642
1825.67 711.058 3603
1826.65 708.098 3588
1823.47 703.559 3565
1831.99 703.559 3565
1840.52 703.559 3565
1860.97 708.098 3588
1873.2 709.48 3595
1885.99 711.058 3603
1894.6 711.058 3603
1903.22 711.058 3603
1924.57 715.795 3627
1945.5 720.334 3650
1954.23 720.334 3650
1972.1 723.689 3667
1985.19 725.268 3675
2011.34 731.583 3707
2038.19 738.096 3740
2047.13 738.096 3740
2065.42 741.451 3757
2108.09 753.489 3818
2151.6 765.725 3880
2160.88 765.725 3880
2180.22 769.277 3898
2194.6 771.053 3907
2214.1 774.606 3925
2223.48 774.606 3925
2238.56 776.579 3935
2258.25 780.131 3953
2267.7 780.131 3953
2277.15 780.131 3953
2292.39 782.105 3963
2301.87 782.105 3963
2311.35 782.105 3963
2320.82 782.105 3963
2330.3 782.105 3963
2345.09 783.881 3972
2354.59 783.881 3972
2364.09 783.881 3972
2373.58 783.881 3972
2389.08 785.855 3982
2404.03 787.631 3991
2413.57 787.631 3991
2423.11 787.631 3991
2432.66 787.631 3991
2448.32 789.604 4001
2457.89 789.604 4001
2467.45 789.604 4001
2477.02 789.604 4001
2480.38 787.631 3991
2489.92 787.631 3991
2493.83 785.855 3982
2497.06 783.881 3972
2500.88 782.105 3963
2510.36 782.105 3963
2519.83 782.105 3963
2529.31 782.105 3963
2526.62 778.355 3944
2536.05 778.355 3944
2527.41 772.829 3916
2519.28 767.501 3889
2511.03 762.172 3862
2496.77 755.068 3826
2505.92 755.068 3826
2509.81 753.489 3818
2478.69 741.451 3757
2476.42 738.096 3740
2485.36 738.096 3740
2461.63 728.425 3691
2427.62 715.795 3627
537.347 145.448 737
539.11 145.448 737
540.872 145.448 737
541.162 145.054 735
541.442 144.659 733
543.195 144.659 733
539.744 143.277 726
540.734 143.08 725
541.719 142.883 724
543.451 142.883 724
545.182 142.883 724
546.913 142.883 724
548.645 142.883 724
549.616 142.685 723
551.345 142.685 723
553.074 142.685 723
-2365.97 631.201 3160
-2358.41 631.201 3160
-2346.39 630.003 3154
-2329.95 627.606 3142
-2313.57 625.209 3130
-2306.08 625.209 3130
-2298.6 625.209 3130
-2291.11 625.209 3130
-2274.87 622.812 3118
-2271.78 624.01 3124
-2264.31 624.01 3124
-2274.18 628.804 3148
-2301.21 638.392 3196
-2329.45 648.38 3246
-2321.69 648.38 3246
-2359.55 661.163 3310
-2351.63 661.163 3310
-2343.72 661.163 3310
-2473.41 700.114 3505
-2491.05 707.505 3542
-2536.55 722.885 3619
-2527.9 722.885 3619
-2524.81 724.483 3627
-2521.69 726.081 3635
-2528.9 730.675 3658
-2520.15 730.675 3658
-2523.07 734.071 3675
-2525.23 737.267 3691
-2521.86 738.865 3699
-2513.01 738.865 3699
-2504.17 738.865 3699
-2489.93 737.267 3691
-2481.1 737.267 3691
-2461.56 734.071 3675
-2447.43 732.473 3667
-2438.66 732.473 3667
-2429.89 732.473 3667
-2421.12 732.473 3667
-2401.17 729.078 3650
-2392.44 729.078 3650
-2383.71 729.078 3650
-2369.78 727.48 3642
-2361.07 727.48 3642
-2362.7 730.675 3658
-2353.95 730.675 3658
-2345.2 730.675 3658
-2336.45 730.675 3658
-2322.62 729.078 3650
-2313.89 729.078 3650
-2305.16 729.078 3650
-2291.4 727.48 3642
-2278.3 726.081 3635
-2269.61 726.081 3635
-2260.92 726.081 3635
-2252.22 726.081 3635
-2243.53 726.081 3635
-2234.84 726.081 3635
-2226.15 726.081 3635
-2207.69 722.885 3619
-2203.9 724.483 3627
-2238.81 738.865 3699
-2249.85 745.457 3732
-2240.93 745.457 3732
-2242.17 748.852 3749
-2233.21 748.852 3749
-2224.24 748.852 3749
-2215.28 748.852 3749
-2206.31 748.852 3749
-2197.35 748.852 3749
-2188.38 748.852 3749
-2083.92 737.267 3691
-2075.09 737.267 3691
-2066.26 737.267 3691
-2039.04 730.675 3658
-2075.81 747.055 3740
-2066.86 747.055 3740
-2062.87 748.852 3749
-2053.91 748.852 3749
-2044.94 748.852 3749
-2035.98 748.852 3749
-2045.4 755.644 3783
-2050.35 760.837 3809
-2041.24 760.837 3809
-2032.13 760.837 3809
-2023.02 760.837 3809
-1982.19 748.852 3749
-1973.22 748.852 3749
-1946.97 742.261 3716
-1925.04 737.267 3691
-1894.93 729.078 3650
-1886.2 729.078 3650
-1877.48 729.078 3650
-1868.75 729.078 3650
-1860.02 729.078 3650
-1851.29 729.078 3650
-1838.52 727.48 3642
-1826.3 726.081 3635
-1805.6 721.287 3611
-1796.97 721.287 3611
-1757.63 708.903 3549
-1738.3 704.509 3527
-1726.43 703.11 3520
-1732.17 708.903 3549
-1738.74 715.095 3580
-1730.18 715.095 3580
-1744.22 724.483 3627
-1735.55 724.483 3627
-1726.87 724.483 3627
-1729.1 729.078 3650
-1732.15 734.071 3675
-1730.87 737.267 3691
-1722.04 737.267 3691
-1720.64 740.463 3707
-1719.62 743.859 3724
-1714.39 745.457 3732
-1705.47 745.457 3732
-1696.55 745.457 3732
-1687.62 745.457 3732
-1678.7 745.457 3732
-1677.38 748.852 3749
-1668.41 748.852 3749
-1674.5 755.644 3783
-1665.45 755.644 3783
-1656.41 755.644 3783
-1647.36 755.644 3783
-1634.42 753.846 3774
-1621.95 752.248 3766
-1612.94 752.248 3766
-1600.1 750.45 3757
-1577.14 743.859 3724
-1564.87 742.261 3716
-1555.98 742.261 3716
-1547.09 742.261 3716
-1538.21 742.261 3716
-1529.32 742.261 3716
-1520.44 742.261 3716
-1511.55 742.261 3716
-1505.9 743.859 3724
-1496.99 743.859 3724
-1494.48 747.055 3740
-1485.54 747.055 3740
-1483.31 750.45 3757
-1474.32 750.45 3757
