1671.51 308.054 3740
1699.77 311.596 3783
1716.5 312.996 3800
1725.58 312.996 3800
1738.78 313.737 3809
1747.89 313.737 3809
1757 313.737 3809
1758.22 312.337 3792
1758.9 310.854 3774
1764.18 310.195 3766
1760.94 308.054 3740
1769.89 308.054 3740
1747.91 302.7 3675
1756.7 302.7 3675
1753.48 300.641 3650
1762.21 300.641 3650
1763.66 299.405 3635
1764.55 298.087 3619
1773.2 298.087 3619
1781.86 298.087 3619
1790.51 298.087 3619
1783.75 295.534 3588
1784.34 294.216 3572
1781.34 292.322 3549
1789.83 292.322 3549
1783.62 289.933 3520
1784.4 288.697 3505
1788.69 288.039 3497
1797.05 288.039 3497
1790.44 285.65 3468
1791.47 284.497 3454
1807.03 285.65 3468
1838.35 289.274 3512
1846.75 289.274 3512
1859.37 289.933 3520
1871.51 290.51 3527
1895.93 292.981 3557
1908.72 293.64 3565
1917.24 293.64 3565
1925.77 293.64 3565
1938.09 294.216 3572
1950.99 294.875 3580
1959.56 294.875 3580
2006.6 300.641 3650
2029.13 302.7 3675
2046.79 304.018 3691
2055.62 304.018 3691
2091.85 308.054 3740
2184.49 320.327 3889
2278.4 332.682 4039
2288.06 332.682 4039
2297.72 332.682 4039
2307.38 332.682 4039
2317.04 332.682 4039
2304.81 329.552 4001
2292.39 326.422 3963
2340.79 331.94 4030
2350.42 331.94 4030
2360.06 331.94 4030
2369.7 331.94 4030
2367.52 330.293 4010
2377.11 330.293 4010
2381.35 329.552 4001
2390.91 329.552 4001
2371.68 325.598 3953
2381.14 325.598 3953
2385.15 324.857 3944
2394.58 324.857 3944
2398.52 324.115 3935
2407.93 324.115 3935
2428.4 325.598 3953
2437.85 325.598 3953
2453.5 326.422 3963
2468.57 327.163 3972
2489.92 328.728 3991
2499.46 328.728 3991
2527.24 331.117 4020
2536.85 331.117 4020
2546.46 331.117 4020
2556.08 331.117 4020
2535.05 327.163 3972
2563.13 329.552 4001
2572.7 329.552 4001
2582.27 329.552 4001
2604.14 331.117 4020
2613.75 331.117 4020
2629.89 331.94 4030
2639.53 331.94 4030
2649.17 331.94 4030
2645.61 330.293 4010
2655.2 330.293 4010
2664.79 330.293 4010
2668.37 329.552 4001
2652.51 326.422 3963
1926.25 221.239 2686
1942.03 222.309 2699
1958.59 223.463 2713
1965.08 223.463 2713
1974.47 223.792 2717
2017.42 227.91 2767
2037.21 229.393 2785
2043.87 229.393 2785
2064.51 230.958 2804
2081.56 232.111 2818
2092 232.523 2823
2098.76 232.523 2823
2105.51 232.523 2823
2116 232.935 2828
2122.76 232.935 2828
2129.52 232.935 2828
2143.08 233.676 2837
2149.87 233.676 2837
2171.86 235.323 2857
2178.69 235.323 2857
2185.52 235.323 2857
-2326.29 263.358 3107
-2318.86 263.358 3107
-2302.5 262.341 3095
-2295.1 262.341 3095
-2292.13 262.85 3101
-2289.14 263.358 3107
-2281.71 263.358 3107
-2291.11 265.308 3130
-2283.63 265.308 3130
-2276.14 265.308 3130
-2268.66 265.308 3130
-2265.51 265.816 3136
-2262.33 266.325 3142
-2254.82 266.325 3142
-2247.3 266.325 3142
-2244.07 266.833 3148
-2236.54 266.833 3148
-2229.01 266.833 3148
-2213.02 265.816 3136
-2201.3 265.308 3130
-2181.2 263.782 3112
-2190.52 265.816 3136
-2183.02 265.816 3136
-2175.52 265.816 3136
-2168.02 265.816 3136
-2160.52 265.816 3136
-2148.9 265.308 3130
-2141.42 265.308 3130
-2187.11 271.919 3208
-2209.33 275.649 3252
-2201.56 275.649 3252
-2224.14 279.463 3297
-2366.15 298.365 3520
-2362.43 298.959 3527
-2353.99 298.959 3527
-2350.21 299.552 3534
-2341.76 299.552 3534
-2333.31 299.552 3534
-2320.25 298.959 3527
-2297.4 297.094 3505
-2307.96 299.552 3534
-2304.71 300.23 3542
-2296.24 300.23 3542
-2287.77 300.23 3542
-2279.3 300.23 3542
-2275.32 300.823 3549
-2266.83 300.823 3549
-2263.44 301.501 3557
-2260 302.18 3565
-2251.48 302.18 3565
-2242.95 302.18 3565
-2248.84 304.129 3588
-2240.26 304.129 3588
-2231.68 304.129 3588
-2208.85 302.18 3565
-2195.39 301.501 3557
-2139.53 300.823 3549
-2131.05 300.823 3549
-2122.56 300.823 3549
-2114.07 300.823 3549
-2105.59 300.823 3549
-2097.1 300.823 3549
-2088.61 300.823 3549
-2063.13 298.365 3520
-2054.71 298.365 3520
-2032.92 296.416 3497
-2012.4 294.636 3476
-2016.2 296.416 3497
-2007.84 296.416 3497
-1999.47 296.416 3497
-1983.14 295.229 3483
-1974.81 295.229 3483
-1966.48 295.229 3483
-1941.85 292.771 3454
-1929.67 292.177 3447
-1921.43 292.177 3447
-1913.18 292.177 3447
-1904.94 292.177 3447
-1896.7 292.177 3447
-1888.46 292.177 3447
-1880.21 292.177 3447
-1860.57 290.397 3426
-1841.02 288.617 3405
-1864.81 298.959 3527
-1880.06 302.773 3572
-1871.52 302.773 3572
-1862.98 302.773 3572
-1854.44 302.773 3572
-1850.03 303.451 3580
-1841.47 303.451 3580
-1837 304.129 3588
-1840.14 306.079 3611
-1831.51 306.079 3611
-1822.87 306.079 3611
-1814.24 306.079 3611
-1801.6 305.401 3603
-1792.99 305.401 3603
-1784.37 305.401 3603
-1779.7 306.079 3611
-1771.06 306.079 3611
-1762.43 306.079 3611
-1753.79 306.079 3611
-1745.16 306.079 3611
-1728.83 304.722 3595
-1724.06 305.401 3603
-1723.06 306.757 3619
-1714.41 306.757 3619
-1720.37 309.384 3650
-1719.61 310.825 3667
-1718.31 312.182 3683
-1709.5 312.182 3683
-1704.39 312.86 3691
-1695.56 312.86 3691
-1686.73 312.86 3691
-1674.27 312.182 3683
-1665.46 312.182 3683
-1667.45 314.216 3707
-1662.61 314.979 3716
-1653.73 314.979 3716
-1648.38 315.657 3724
-1639.48 315.657 3724
-1630.57 315.657 3724
-1621.67 315.657 3724
-1619.69 317.013 3740
-1610.75 317.013 3740
-1601.8 317.013 3740
-1592.86 317.013 3740
-1569.94 314.216 3707
-1550.97 312.182 3683
-1542.16 312.182 3683
-1530.03 311.503 3675
-1517.93 310.825 3667
-1495.99 308.113 3635
-1487.29 308.113 3635
-1475.35 307.435 3627
-1469.91 308.113 3635
-1470.46 310.062 3658
-1461.72 310.062 3658
-1452.97 310.062 3658
-1450.93 311.503 3675
-1442.14 311.503 3675
-1433.36 311.503 3675
-1424.57 311.503 3675
-1415.78 311.503 3675
-1400.48 310.062 3658
-1391.74 310.062 3658
-1382.99 310.062 3658
-1374.24 310.062 3658
-1356.91 308.113 3635
-1350.81 308.706 3642
-1342.1 308.706 3642
-1333.39 308.706 3642
-1324.69 308.706 3642
-1315.98 308.706 3642
-1299.01 306.757 3619
-595.338 144.436 1704
-591.263 144.436 1704
-587.189 144.436 1704
-583.114 144.436 1704
-581.418 145.029 1711
-577.326 145.029 1711
-573.235 145.029 1711
-569.143 145.029 1711
-565.052 145.029 1711
-560.96 145.029 1711
-556.869 145.029 1711
-552.777 145.029 1711
-548.686 145.029 1711
-544.594 145.029 1711
-540.503 145.029 1711
-535.471 144.775 1708
-530.764 144.605 1706
-524.523 144.012 1699
-520.461 144.012 1699
-515.79 143.843 1697
-511.129 143.673 1695
-506.178 143.419 1692
-502.132 143.419 1692
-496.614 142.995 1687
-491.12 142.571 1682
-485.65 142.147 1677
-481.065 141.978 1675
-477.06 141.978 1675
-471.642 141.554 1670
-466.809 141.3 1667
-461.434 140.876 1662
-457.46 140.876 1662
-452.394 140.537 1658
-447.077 140.113 1653
-441.516 139.604 1647
-437.577 139.604 1647
-432.322 139.181 1642
-427.091 138.757 1637
-421.884 138.333 1632
-417.981 138.333 1632
-413.064 137.994 1628
-408.668 137.824 1626
-404.282 137.655 1624
-400.399 137.655 1624
-395.783 137.401 1621
-390.939 137.062 1617
-386.594 136.892 1615
-382.021 136.638 1612
-378.166 136.638 1612
-373.615 136.383 1609
-369.078 136.129 1606
-364.555 135.875 1603
-360.722 135.875 1603
-356.443 135.705 1601
-352.174 135.536 1599
-347.697 135.281 1596
-343.88 135.281 1596
-340.064 135.281 1596
-336.247 135.281 1596
-332.431 135.281 1596
-329.026 135.451 1598
-325.205 135.451 1598
-321.987 135.705 1601
-318.755 135.96 1604
-315.312 136.129 1606
-311.471 136.129 1606
-308.205 136.383 1609
-304.925 136.638 1612
-301.257 136.722 1613
-297.4 136.722 1613
-294.271 137.062 1617
-290.584 137.146 1618
-287.601 137.57 1623
-283.72 137.57 1623
-280.011 137.655 1624
-277.828 138.502 1634
-274.423 138.757 1637
-270.509 138.757 1637
-267.083 139.011 1640
-263.161 139.011 1640
-260.03 139.435 1645
-256.096 139.435 1645
-252.469 139.604 1647
-249.285 140.028 1652
-245.78 140.283 1655
-241.822 140.283 1655
-238.296 140.537 1658
-234.614 140.706 1660
-230.922 140.876 1662
-227.357 141.13 1665
-223.376 141.13 1665
-220.053 141.554 1670
-216.318 141.723 1672
-212.701 141.978 1675
-208.696 141.978 1675
-205.057 142.232 1678
-201.523 142.571 1682
-197.619 142.656 1683
-193.594 142.656 1683
-190.358 143.249 1690
-186.758 143.588 1694
-183.246 144.012 1699
-179.183 144.012 1699
-175.43 144.266 1702
-171.561 144.436 1704
-167.683 144.605 1706
-163.603 144.605 1706
-159.524 144.605 1706
-155.626 144.775 1708
-152.607 145.792 1720
-148.494 145.792 1720
-144.968 146.385 1727
-141.246 146.809 1732
-137.263 146.979 1734
-133.116 146.979 1734
-128.97 146.979 1734
-248.553 325.065 3835
-239.383 325.065 3835
-230.212 325.065 3835
-220.523 324.303 3826
-211.374 324.303 3826
-201.326 322.862 3809
-191.36 321.421 3792
-181.042 319.217 3766
-172.036 319.217 3766
-163.031 319.217 3766
-153.657 318.454 3757
-144.673 318.454 3757
-136.014 319.217 3766
-127.008 319.217 3766
-118.253 319.895 3774
-109.489 320.658 3783
-101.133 322.862 3809
-92.0243 322.862 3809
-83.1117 323.625 3818
-74.1367 324.303 3826
-64.9876 324.303 3826
-55.8385 324.303 3826
-46.7992 325.065 3835
-37.8051 326.591 3853
-28.7918 328.88 3880
-19.5136 328.88 3880
-10.3065 331.168 3907
-0.968146 332.694 3925
8.43916 333.542 3935
17.8489 333.542 3935
27.515 336.678 3972
37.0133 336.678 3972
46.5115 336.678 3972
55.8829 335.915 3963
65.673 337.526 3982
75.1951 337.526 3982
84.7173 337.526 3982
94.2395 337.526 3982
360.779 346.595 4089
370.557 346.595 4089
380.335 346.595 4089
378.092 335.915 3963
378.571 328.117 3871
386.025 326.591 3853
395.238 326.591 3853
387.447 312.86 3691
396.273 312.86 3691
398.075 307.435 3627
406.748 307.435 3627
409.122 302.773 3572
413.221 299.552 3534
414.751 294.636 3476
418.682 291.584 3440
426.908 291.584 3440
426.279 285.651 3370
427.507 281.158 3317
434.52 280.565 3310
442.435 280.565 3310
450.351 280.565 3310
458.266 280.565 3310
466.181 280.565 3310
474.096 280.565 3310
482.012 280.565 3310
493.923 282.854 3337
511.078 288.024 3398
523.482 290.397 3426
531.674 290.397 3426
567.758 305.401 3603
586.612 310.825 3667
603.337 314.979 3716
612.223 314.979 3716
639.495 324.303 3826
668.649 334.305 3944
681.347 335.915 3963
690.824 335.915 3963
701.891 336.678 3972
711.389 336.678 3972
720.888 336.678 3972
728.731 335.915 3963
732.992 333.542 3935
738.817 331.931 3916
748.182 331.931 3916
757.546 331.931 3916
765.148 331.168 3907
774.49 331.168 3907
783.833 331.168 3907
789.522 329.643 3889
798.822 329.643 3889
809.992 330.406 3898
819.313 330.406 3898
828.634 330.406 3898
830.217 327.354 3862
835.539 325.828 3844
842.754 325.065 3835
851.924 325.065 3835
861.095 325.065 3835
868.223 324.303 3826
869.576 321.421 3792
878.643 321.421 3792
887.711 321.421 3792
898.671 322.099 3800
909.908 322.862 3809
927.461 325.828 3844
936.653 325.828 3844
945.845 325.828 3844
955.037 325.828 3844
966.487 326.591 3853
975.701 326.591 3853
996.418 330.406 3898
1005.74 330.406 3898
1015.06 330.406 3898
1024.38 330.406 3898
1031.32 329.643 3889
1038.21 328.88 3880
1047.49 328.88 3880
1056.76 328.88 3880
1066.04 328.88 3880
1075.32 328.88 3880
1084.6 328.88 3880
1096.41 329.643 3889
1105.71 329.643 3889
1117.59 330.406 3898
1129.52 331.168 3907
1147.02 333.542 3935
1156.43 333.542 3935
1165.84 333.542 3935
1172.26 332.694 3925
1181.65 332.694 3925
1191.04 332.694 3925
1200.42 332.694 3925
1190.39 327.354 3862
1199.62 327.354 3862
1192.27 322.862 3809
1190.34 319.895 3774
1221.61 325.828 3844
1239.45 328.117 3871
1263.22 331.931 3916
1272.58 331.931 3916
1281.95 331.931 3916
1291.31 331.931 3916
1300.68 331.931 3916
1310.04 331.931 3916
1319.41 331.931 3916
1328.77 331.931 3916
1338.14 331.931 3916
1347.5 331.931 3916
1338.15 327.354 3862
1341.11 325.828 3844
1353.46 326.591 3853
1362.68 326.591 3853
1384.71 329.643 3889
1400.46 331.168 3907
1423.15 334.305 3944
1432.58 334.305 3944
1452.25 336.678 3972
1461.75 336.678 3972
1474.95 337.526 3982
1484.48 337.526 3982
1494 337.526 3982
1503.52 337.526 3982
1513.04 337.526 3982
1533.27 339.899 4010
1542.86 339.899 4010
1552.45 339.899 4010
1562.04 339.899 4010
1575.55 340.747 4020
1585.16 340.747 4020
1606.28 343.205 4049
1619.95 344.052 4059
1629.66 344.052 4059
1639.36 344.052 4059
1645.01 343.205 4049
1635.07 339.136 4001
1644.64 339.136 4001
1654.21 339.136 4001
1655.88 337.526 3982
1665.4 337.526 3982
1674.92 337.526 3982
1656.52 331.931 3916
1639.09 326.591 3853
1633.33 323.625 3818
1634.71 322.099 3800
1643.8 322.099 3800
1634.18 318.454 3757
1628.74 315.657 3724
1623.13 312.86 3691
1631.96 312.86 3691
1640.78 312.86 3691
1671.51 317.013 3740
1699.77 320.658 3783
1728.24 324.303 3826
1737.39 324.303 3826
1746.54 324.303 3826
1755.69 324.303 3826
1764.84 324.303 3826
1766.1 322.862 3809
1763.1 320.658 3783
1764.18 319.217 3766
1760.94 317.013 3740
1769.89 317.013 3740
1771.22 315.657 3724
1756.7 311.503 3675
1753.48 309.384 3650
1762.21 309.384 3650
1763.66 308.113 3635
1764.55 306.757 3619
1773.2 306.757 3619
1781.86 306.757 3619
1790.51 306.757 3619
1799.17 306.757 3619
1784.34 302.773 3572
1781.34 300.823 3549
1789.83 300.823 3549
1787.16 298.959 3527
1792.04 298.365 3520
1788.69 296.416 3497
1797.05 296.416 3497
1798.19 295.229 3483
1791.47 292.771 3454
1807.03 293.958 3468
1838.35 297.687 3512
1846.75 297.687 3512
1859.37 298.365 3520
1871.51 298.959 3527
1900.19 302.18 3565
1908.72 302.18 3565
1917.24 302.18 3565
1925.77 302.18 3565
1938.09 302.773 3572
1955.35 304.129 3588
1963.93 304.129 3588
2011 310.062 3658
2029.13 311.503 3675
2046.79 312.86 3691
2055.62 312.86 3691
2091.85 317.013 3740
2184.49 329.643 3889
2300.97 345.748 4079
2310.72 345.748 4079
2320.48 345.748 4079
2318.8 344.052 4059
2328.51 344.052 4059
2315.75 340.747 4020
2303.38 337.526 3982
2363.44 344.9 4069
2373.17 344.9 4069
2382.9 344.9 4069
2380.87 343.205 4049
2390.55 343.205 4049
2400.23 343.205 4049
2392.66 340.747 4020
2402.27 340.747 4020
2400.48 339.136 4001
2410.05 339.136 4001
2390.59 335.068 3953
2400.04 335.068 3953
2404.01 334.305 3944
2413.44 334.305 3944
2451.74 338.288 3991
2461.29 338.288 3991
2470.83 338.288 3991
2480.38 338.288 3991
2508.01 340.747 4020
2517.62 340.747 4020
2545.47 343.205 4049
2555.15 343.205 4049
2564.83 343.205 4049
2568.16 342.357 4039
2559.31 339.899 4010
2568.9 339.899 4010
2584.92 340.747 4020
2594.53 340.747 4020
2604.14 340.747 4020
2613.75 340.747 4020
2629.89 341.594 4030
2639.53 341.594 4030
2649.17 341.594 4030
2645.61 339.899 4010
2655.2 339.899 4010
2664.79 339.899 4010
2017.42 234.539 2767
2051.1 237.675 2804
2057.81 237.675 2804
2074.82 238.862 2818
2085.25 239.285 2823
2095.71 239.709 2828
2102.47 239.709 2828
2109.24 239.709 2828
2116 239.709 2828
2137.02 241.32 2847
2143.83 241.32 2847
2150.64 241.32 2847
2157.45 241.32 2847
2171.86 242.167 2857
2178.69 242.167 2857
2185.52 242.167 2857
-2326.29 270.801 3107
-2318.86 270.801 3107
-2302.5 269.755 3095
-2295.1 269.755 3095
-2292.13 270.278 3101
-2289.14 270.801 3107
-2281.71 270.801 3107
-2291.11 272.806 3130
-2283.63 272.806 3130
-2276.14 272.806 3130
-2268.66 272.806 3130
-2265.51 273.329 3136
-2262.33 273.852 3142
-2254.82 273.852 3142
-2247.3 273.852 3142
-2239.79 273.852 3142
-2232.28 273.852 3142
-2224.76 273.852 3142
-2213.02 273.329 3136
-2197.08 272.283 3124
-2181.2 271.237 3112
-2177.95 271.76 3118
-2170.49 271.76 3118
-2167.2 272.283 3124
-2159.73 272.283 3124
-2152.25 272.283 3124
-2179.44 279.604 3208
-2171.77 279.604 3208
-2224.14 287.361 3297
-2366.15 306.797 3520
-2362.43 307.408 3527
-2368.67 309.325 3549
-2360.19 309.325 3549
-2351.7 309.325 3549
-2343.21 309.325 3549
-2320.25 307.408 3527
-2297.4 305.49 3505
-2307.96 308.018 3534
-2304.71 308.715 3542
-2296.24 308.715 3542
-2287.77 308.715 3542
-2279.3 308.715 3542
-2275.32 309.325 3549
-2266.83 309.325 3549
-2263.44 310.022 3557
-2260 310.72 3565
-2266 312.724 3588
-2257.42 312.724 3588
-2248.84 312.724 3588
-2240.26 312.724 3588
-2231.68 312.724 3588
-2218.15 312.027 3580
-2195.39 310.022 3557
-2139.53 309.325 3549
-2131.05 309.325 3549
-2122.56 309.325 3549
-2114.07 309.325 3549
-2105.59 309.325 3549
-2097.1 309.325 3549
-2088.61 309.325 3549
-2063.13 306.797 3520
-2054.71 306.797 3520
-2032.92 304.793 3497
-2012.4 302.962 3476
-2037.53 308.018 3534
-2029.08 308.018 3534
-2020.63 308.018 3534
-1999.65 306.1 3512
-1982.75 304.793 3497
-1974.39 304.793 3497
-1941.85 301.045 3454
-1929.67 300.435 3447
-1921.43 300.435 3447
-1937.05 304.183 3490
-1928.71 304.183 3490
-1920.36 304.183 3490
-1912.01 304.183 3490
-1903.67 304.183 3490
-1860.57 298.604 3426
-1841.02 296.774 3405
-1864.81 307.408 3527
-1884.27 312.027 3580
-1875.71 312.027 3580
-1867.15 312.027 3580
-1858.59 312.027 3580
-1861.92 314.032 3603
-1853.3 314.032 3603
-1852.88 315.426 3619
-1844.22 315.426 3619
-1835.57 315.426 3619
-1826.91 315.426 3619
-1818.26 315.426 3619
-1805.6 314.729 3611
-1796.97 314.729 3611
-1784.37 314.032 3603
-1794.98 317.431 3642
-1786.27 317.431 3642
-1777.56 317.431 3642
-1765.45 316.821 3635
-1752.89 316.123 3627
-1751.43 317.431 3642
-1746.55 318.128 3650
-1741.63 318.825 3658
-1732.88 318.825 3658
-1739.69 321.701 3691
-1758.06 326.757 3749
-1749.1 326.757 3749
-1751.74 328.936 3774
-1751.02 330.504 3792
-1741.96 330.504 3792
-1732.89 330.504 3792
-1715.64 328.936 3774
-1695.31 326.757 3749
-1705.69 330.504 3792
-1700.2 331.202 3800
-1691.11 331.202 3800
-1686.01 331.986 3809
-1676.9 331.986 3809
-1667.79 331.986 3809
-1658.68 331.986 3809
-1656.94 333.468 3826
-1651.66 334.252 3835
-1642.49 334.252 3835
-1633.32 334.252 3835
-1609.33 331.202 3800
-1582.13 327.454 3757
-1573.15 327.454 3757
-1564.16 327.454 3757
-1555.18 327.454 3757
-1525.62 323.096 3707
-1516.75 323.096 3707
-1501.38 321.701 3691
-1492.56 321.701 3691
-1486.94 322.399 3699
-1478.1 322.399 3699
-1469.25 322.399 3699
-1463.57 323.096 3707
-1454.7 323.096 3707
-1445.84 323.096 3707
-1436.97 323.096 3707
-1428.11 323.096 3707
-1416.18 322.399 3699
-1407.34 322.399 3699
-1395.47 321.701 3691
-1374.24 318.825 3658
-1356.91 316.821 3635
-1350.81 317.431 3642
-1342.1 317.431 3642
-1333.39 317.431 3642
-1324.69 317.431 3642
-1315.98 317.431 3642
-1299.01 315.426 3619
-595.338 148.518 1704
-591.263 148.518 1704
-587.189 148.518 1704
-583.114 148.518 1704
-581.418 149.128 1711
-577.326 149.128 1711
-573.235 149.128 1711
-569.143 149.128 1711
-565.052 149.128 1711
-560.96 149.128 1711
-556.869 149.128 1711
-552.777 149.128 1711
-548.686 149.128 1711
-544.594 149.128 1711
-540.503 149.128 1711
-535.471 148.866 1708
-530.764 148.692 1706
-524.523 148.082 1699
-520.461 148.082 1699
-515.79 147.908 1697
-511.129 147.733 1695
-506.178 147.472 1692
-502.132 147.472 1692
-496.614 147.036 1687
-491.12 146.6 1682
-485.65 146.165 1677
-481.065 145.99 1675
-477.06 145.99 1675
-472.489 145.816 1673
-466.809 145.293 1667
-461.712 144.944 1663
-457.735 144.944 1663
-453.485 144.857 1662
-448.429 144.509 1658
-442.32 143.811 1650
-438.374 143.811 1650
-432.849 143.288 1644
-427.874 142.94 1640
-422.401 142.417 1634
-418.494 142.417 1634
-413.318 141.981 1629
-409.171 141.894 1628
-404.78 141.719 1626
-400.892 141.719 1626
-396.271 141.458 1623
-391.665 141.197 1620
-386.594 140.761 1615
-382.258 140.586 1613
-378.401 140.586 1613
-373.847 140.325 1610
-369.307 140.063 1607
-364.782 139.802 1604
-360.947 139.802 1604
-356.443 139.541 1601
-352.174 139.366 1599
-347.697 139.105 1596
-343.88 139.105 1596
-340.064 139.105 1596
-336.247 139.105 1596
-332.847 139.279 1598
-329.232 139.366 1599
-325.408 139.366 1599
-322.59 139.802 1604
-319.152 139.976 1606
-315.901 140.238 1609
-312.053 140.238 1609
-308.397 140.325 1610
-304.925 140.499 1612
-301.631 140.761 1615
-297.769 140.761 1615
-294.453 141.022 1618
-290.943 141.197 1620
-287.778 141.545 1624
-283.894 141.545 1624
-280.701 141.894 1628
-278.168 142.591 1636
-274.758 142.853 1639
-270.839 142.853 1639
-267.083 142.94 1640
-263.482 143.114 1642
-260.346 143.55 1647
-256.407 143.55 1647
-252.929 143.811 1650
-249.737 144.247 1655
-246.077 144.421 1657
-242.114 144.421 1657
-238.583 144.683 1660
-234.896 144.857 1662
-231.061 144.944 1663
-227.357 145.119 1665
-223.376 145.119 1665
-220.053 145.554 1670
-216.448 145.816 1673
-212.955 146.165 1677
-208.945 146.165 1677
-205.057 146.252 1678
-201.643 146.688 1683
-197.854 146.862 1685
-193.824 146.862 1685
-190.358 147.298 1690
-186.868 147.733 1695
-183.57 148.344 1702
-179.5 148.344 1702
-175.43 148.344 1702
-171.561 148.518 1704
-167.683 148.692 1706
-163.603 148.692 1706
-159.524 148.692 1706
-155.626 148.866 1708
-152.607 149.912 1720
-148.494 149.912 1720
-144.968 150.522 1727
-141.246 150.958 1732
-137.263 151.133 1734
-133.116 151.133 1734
-128.97 151.133 1734
-249.72 335.821 3853
-240.506 335.821 3853
-231.293 335.821 3853
-222.079 335.821 3853
-212.865 335.821 3853
-202.7 334.252 3835
-192.217 331.986 3809
-182.292 330.504 3792
-173.224 330.504 3792
-163.767 329.72 3783
-154.352 328.936 3774
-145.019 328.238 3766
-136.303 328.936 3774
-127.278 328.936 3774
-119.068 331.202 3800
-110.502 332.771 3818
-101.584 333.468 3826
-92.435 333.468 3826
-83.2859 333.468 3826
-74.3111 334.252 3835
-65.4462 335.821 3853
-56.2325 335.821 3853
-47.1287 336.606 3862
-38.335 340.528 3907
-29.2667 343.753 3944
-19.8354 343.753 3944
-10.4279 344.537 3953
-0.975053 344.537 3953
8.53996 347.065 3982
18.0621 347.065 3982
27.5843 347.065 3982
37.0133 346.193 3972
46.5115 346.193 3972
55.8829 345.409 3963
65.673 347.065 3982
75.1951 347.065 3982
84.7173 347.065 3982
94.2395 347.065 3982
360.779 356.39 4089
370.557 356.39 4089
380.335 356.39 4089
381.717 348.721 4001
386.591 344.537 3953
387.828 337.39 3871
397.085 337.39 3871
401.618 333.468 3826
400.675 325.275 3732
401.478 318.825 3658
410.225 318.825 3658
411.757 313.334 3595
414.156 308.715 3542
414.751 302.962 3476
418.682 299.825 3440
426.908 299.825 3440
426.279 293.724 3370
429.183 290.237 3330
435.439 289.104 3317
443.371 289.104 3317
451.303 289.104 3317
458.266 288.494 3310
466.181 288.494 3310
474.096 288.494 3310
482.012 288.494 3310
493.923 290.847 3337
511.078 296.164 3398
523.482 298.604 3426
531.674 298.604 3426
567.758 314.032 3603
587.892 320.307 3675
603.337 323.88 3716
612.223 323.88 3716
639.495 333.468 3826
668.649 343.753 3944
682.895 346.193 3972
692.393 346.193 3972
701.891 346.193 3972
711.389 346.193 3972
720.888 346.193 3972
730.386 346.193 3972
732.992 342.968 3935
738.817 341.312 3916
748.182 341.312 3916
757.546 341.312 3916
766.91 341.312 3916
776.275 341.312 3916
787.444 342.096 3925
796.83 342.096 3925
806.216 342.096 3925
815.602 342.096 3925
824.988 342.096 3925
834.374 342.096 3925
837.955 339.743 3898
845.32 338.959 3889
854.62 338.959 3889
863.92 338.959 3889
873.22 338.959 3889
872.308 335.037 3844
881.5 335.037 3844
892.778 335.821 3853
901.991 335.821 3853
913.333 336.606 3862
929.018 338.959 3889
938.318 338.959 3889
947.618 338.959 3889
956.918 338.959 3889
966.218 338.959 3889
975.517 338.959 3889
984.817 338.959 3889
1005.88 342.968 3935
1015.29 342.968 3935
1024.7 342.968 3935
1034.1 342.968 3935
1036.09 340.528 3907
1043.02 339.743 3898
1052.35 339.743 3898
1061.67 339.743 3898
1070.99 339.743 3898
1080.31 339.743 3898
1087.11 338.959 3889
1098.95 339.743 3898
1108.27 339.743 3898
1120.17 340.528 3907
1140.21 343.753 3944
1149.65 343.753 3944
1159.08 343.753 3944
1168.51 343.753 3944
1177.94 343.753 3944
1187.37 343.753 3944
1196.8 343.753 3944
1206.23 343.753 3944
1209.81 342.096 3925
1219.19 342.096 3925
1195.09 332.771 3818
1196.02 330.504 3792
1230.19 337.39 3871
1262.82 343.753 3944
1275.16 344.537 3953
1284.61 344.537 3953
1306.5 347.849 3991
1319.34 348.721 4001
1328.91 348.721 4001
1338.48 348.721 4001
1354.45 350.377 4020
1364.06 350.377 4020
1373.67 350.377 4020
1376.75 348.721 4001
1373.15 345.409 3963
1372.86 342.968 3935
1385.43 343.753 3944
1394.86 343.753 3944
1421.03 347.849 3991
1434.15 348.721 4001
1446.97 349.505 4010
1456.56 349.505 4010
1480.41 352.904 4049
1490.09 352.904 4049
1499.77 352.904 4049
1509.45 352.904 4049
1519.14 352.904 4049
1521.64 351.248 4030
1531.28 351.248 4030
1544.36 352.033 4039
1554.02 352.033 4039
1571.42 353.776 4059
1581.13 353.776 4059
1590.83 353.776 4059
1600.54 353.776 4059
1614.21 354.647 4069
1627.93 355.519 4079
1637.69 355.519 4079
1647.44 355.519 4079
1653.13 354.647 4069
1654.69 352.904 4049
1664.37 352.904 4049
1662.06 350.377 4020
1667.52 349.505 4010
1677.11 349.505 4010
1686.7 349.505 4010
1656.52 341.312 3916
1650.57 338.174 3880
1640.6 334.252 3835
1642.46 332.771 3818
1651.59 332.771 3818
1652.89 331.202 3800
1639.67 326.757 3749
1626.65 322.399 3699
1639.03 323.096 3707
1647.89 323.096 3707
1679.1 327.454 3757
1703.82 330.504 3792
1736.37 335.037 3844
1745.56 335.037 3844
1754.76 335.037 3844
1763.95 335.037 3844
1773.14 335.037 3844
1773.99 333.468 3826
1767.29 330.504 3792
1764.18 328.238 3766
1760.94 325.972 3740
1769.89 325.972 3740
1771.22 324.578 3724
1756.7 320.307 3675
1747.24 315.426 3619
1755.89 315.426 3619
1764.55 315.426 3619
1773.2 315.426 3619
1781.86 315.426 3619
1790.51 315.426 3619
1799.17 315.426 3619
1784.34 311.33 3572
1773.81 308.018 3534
1782.26 308.018 3534
1790.71 308.018 3534
1792.04 306.797 3520
1788.69 304.793 3497
1797.05 304.793 3497
1798.19 303.573 3483
1791.47 301.045 3454
1807.03 302.265 3468
1838.35 306.1 3512
1846.75 306.1 3512
1859.37 306.797 3520
1871.51 307.408 3527
1900.19 310.72 3565
1908.72 310.72 3565
1917.24 310.72 3565
1925.77 310.72 3565
1938.09 311.33 3572
1955.35 312.724 3588
1963.93 312.724 3588
2011 318.825 3658
2029.13 320.307 3675
2046.79 321.701 3691
2055.62 321.701 3691
2091.85 325.972 3740
2184.49 338.959 3889
2306.61 356.39 4089
2316.39 356.39 4089
2326.16 356.39 4089
2335.94 356.39 4089
2345.72 356.39 4089
2326.7 352.033 4039
2303.38 347.065 3982
2363.44 354.647 4069
2373.17 354.647 4069
2382.9 354.647 4069
2392.63 354.647 4069
2390.55 352.904 4049
2400.23 352.904 4049
2392.66 350.377 4020
2402.27 350.377 4020
2400.48 348.721 4001
2410.05 348.721 4001
2390.59 344.537 3953
2400.04 344.537 3953
2409.49 344.537 3953
2418.95 344.537 3953
2457.89 348.721 4001
2467.45 348.721 4001
2482.59 349.505 4010
2498.4 350.377 4020
2526.1 352.904 4049
2535.79 352.904 4049
2564.33 355.519 4079
2574.08 355.519 4079
2583.84 355.519 4079
2587.23 354.647 4069
2577.82 352.033 4039
2593.88 352.904 4049
2609.99 353.776 4059
2619.7 353.776 4059
2629.41 353.776 4059
2613.75 350.377 4020
2629.89 351.248 4030
2639.53 351.248 4030
2649.17 351.248 4030
2645.61 349.505 4010
2051.1 244.392 2804
2057.81 244.392 2804
2085.13 246.832 2832
2091.9 246.832 2832
2098.67 246.832 2832
2105.45 246.832 2832
2112.22 246.832 2832
2116 246.484 2828
2137.02 248.14 2847
2143.83 248.14 2847
2150.64 248.14 2847
2157.45 248.14 2847
2164.25 248.14 2847
574.985 65.7174 754
576.788 65.7174 754
-2326.29 278.244 3107
-2318.86 278.244 3107
-2302.5 277.169 3095
-2295.1 277.169 3095
-2292.13 277.707 3101
-2289.14 278.244 3107
-2281.71 278.244 3107
-2291.11 280.304 3130
-2283.63 280.304 3130
-2276.14 280.304 3130
-2268.66 280.304 3130
-2265.51 280.841 3136
-2258.01 280.841 3136
-2254.82 281.378 3142
-2247.3 281.378 3142
-2239.79 281.378 3142
-2232.28 281.378 3142
-2224.76 281.378 3142
-2208.78 280.304 3130
-2197.08 279.766 3124
-2181.2 278.692 3112
-2173.75 278.692 3112
-2366.15 315.23 3520
-2362.43 315.856 3527
-2368.67 317.827 3549
-2360.19 317.827 3549
-2351.7 317.827 3549
-2343.21 317.827 3549
-2320.25 315.856 3527
-2297.4 313.886 3505
-2307.96 316.483 3534
-2304.71 317.2 3542
-2296.24 317.2 3542
-2287.77 317.2 3542
-2274.15 316.483 3534
-2275.32 317.827 3549
-2266.83 317.827 3549
-2263.44 318.543 3557
-2260 319.259 3565
-2266 321.319 3588
-2257.42 321.319 3588
-2248.84 321.319 3588
-2240.26 321.319 3588
-2231.68 321.319 3588
-2218.15 320.603 3580
-2195.39 318.543 3557
-2114.07 317.827 3549
-2105.59 317.827 3549
-2097.1 317.827 3549
-2088.61 317.827 3549
-2063.13 315.23 3520
-2054.71 315.23 3520
-2032.92 313.17 3497
-2012.4 311.289 3476
-2037.53 316.483 3534
-2029.08 316.483 3534
-2020.63 316.483 3534
-1999.65 314.513 3512
-1982.75 313.17 3497
-1974.39 313.17 3497
-1941.85 309.319 3454
-1921.43 308.692 3447
-1937.05 312.543 3490
-1928.71 312.543 3490
-1920.36 312.543 3490
-1912.01 312.543 3490
-1903.67 312.543 3490
-1860.57 306.811 3426
-1884.27 320.603 3580
-1875.71 320.603 3580
-1867.15 320.603 3580
-1858.59 320.603 3580
-1861.92 322.663 3603
-1853.3 322.663 3603
-1852.88 324.095 3619
-1844.22 324.095 3619
-1835.57 324.095 3619
-1826.91 324.095 3619
-1818.26 324.095 3619
-1805.6 323.379 3611
-1796.97 323.379 3611
-1784.37 322.663 3603
-1794.98 326.155 3642
-1786.27 326.155 3642
-1777.56 326.155 3642
-1765.45 325.528 3635
-1752.89 324.812 3627
-1751.43 326.155 3642
-1746.55 326.872 3650
-1741.63 327.588 3658
-1732.88 327.588 3658
-1739.69 330.543 3691
-1758.06 335.737 3749
-1749.1 335.737 3749
-1751.74 337.976 3774
-1751.02 339.588 3792
-1741.96 339.588 3792
-1732.89 339.588 3792
-1715.64 337.976 3774
-1695.31 335.737 3749
-1705.69 339.588 3792
-1700.2 340.305 3800
-1691.11 340.305 3800
-1686.01 341.111 3809
-1676.9 341.111 3809
-1667.79 341.111 3809
-1658.68 341.111 3809
-1656.94 342.633 3826
-1651.66 343.439 3835
-1642.49 343.439 3835
-1633.32 343.439 3835
-1609.33 340.305 3800
-1582.13 336.454 3757
-1573.15 336.454 3757
-1564.16 336.454 3757
-1555.18 336.454 3757
-1525.62 331.976 3707
-1516.75 331.976 3707
-1501.38 330.543 3691
-1492.56 330.543 3691
-1486.94 331.26 3699
-1478.1 331.26 3699
-1469.25 331.26 3699
-1463.57 331.976 3707
-1454.7 331.976 3707
-1445.84 331.976 3707
-1436.97 331.976 3707
-1428.11 331.976 3707
-1416.18 331.26 3699
-1407.34 331.26 3699
-1395.47 330.543 3691
-1374.24 327.588 3658
-1356.91 325.528 3635
-1350.81 326.155 3642
-1342.1 326.155 3642
-1333.39 326.155 3642
-1324.69 326.155 3642
-1315.98 326.155 3642
-595.338 152.6 1704
-591.263 152.6 1704
-587.189 152.6 1704
-583.114 152.6 1704
-581.418 153.227 1711
-577.326 153.227 1711
-573.235 153.227 1711
-569.143 153.227 1711
-565.052 153.227 1711
-560.96 153.227 1711
-556.869 153.227 1711
-552.777 153.227 1711
-548.686 153.227 1711
-544.594 153.227 1711
-540.503 153.227 1711
-535.471 152.958 1708
-530.764 152.779 1706
-524.523 152.152 1699
-520.461 152.152 1699
-515.79 151.973 1697
-511.129 151.794 1695
-506.178 151.525 1692
-502.132 151.525 1692
-496.614 151.077 1687
-491.12 150.63 1682
-485.65 150.182 1677
-481.065 150.003 1675
-477.06 150.003 1675
-472.489 149.824 1673
-466.809 149.286 1667
-461.712 148.928 1663
-457.735 148.928 1663
-453.485 148.839 1662
-448.429 148.48 1658
-442.32 147.764 1650
-438.374 147.764 1650
-432.849 147.227 1644
-427.874 146.868 1640
-422.401 146.331 1634
-418.494 146.331 1634
-413.318 145.883 1629
-409.171 145.794 1628
-404.78 145.615 1626
-400.892 145.615 1626
-396.271 145.346 1623
-391.665 145.077 1620
-386.594 144.629 1615
-382.258 144.45 1613
-378.401 144.45 1613
-373.847 144.182 1610
-369.307 143.913 1607
-364.782 143.644 1604
-360.947 143.644 1604
-356.443 143.376 1601
-352.174 143.197 1599
-347.697 142.928 1596
-343.88 142.928 1596
-340.064 142.928 1596
-336.247 142.928 1596
-332.847 143.107 1598
-329.232 143.197 1599
-325.408 143.197 1599
-322.59 143.644 1604
-319.152 143.823 1606
-315.901 144.092 1609
-312.053 144.092 1609
-308.397 144.182 1610
-304.925 144.361 1612
-301.631 144.629 1615
-297.769 144.629 1615
-294.453 144.898 1618
-290.943 145.077 1620
-287.778 145.435 1624
-283.894 145.435 1624
-280.701 145.794 1628
-278.168 146.51 1636
-274.758 146.779 1639
-270.839 146.779 1639
-267.083 146.868 1640
-263.482 147.047 1642
-260.346 147.495 1647
-256.407 147.495 1647
-252.929 147.764 1650
-249.737 148.212 1655
-246.077 148.391 1657
-242.114 148.391 1657
-238.583 148.659 1660
-234.896 148.839 1662
-231.061 148.928 1663
-227.357 149.107 1665
-223.376 149.107 1665
-220.053 149.555 1670
-216.448 149.824 1673
-212.955 150.182 1677
-208.945 150.182 1677
-205.057 150.271 1678
-201.643 150.719 1683
-197.854 150.898 1685
-193.824 150.898 1685
-190.358 151.346 1690
-186.868 151.794 1695
-183.57 152.421 1702
-179.5 152.421 1702
-175.43 152.421 1702
-171.561 152.6 1704
-167.683 152.779 1706
-163.603 152.779 1706
-159.524 152.779 1706
-155.626 152.958 1708
-152.607 154.033 1720
-148.494 154.033 1720
-144.968 154.66 1727
-141.246 155.107 1732
-137.263 155.286 1734
-133.116 155.286 1734
-128.97 155.286 1734
-249.72 345.051 3853
-240.506 345.051 3853
-231.293 345.051 3853
-222.079 345.051 3853
-212.865 345.051 3853
-202.7 343.439 3835
-192.217 341.111 3809
-182.292 339.588 3792
-173.224 339.588 3792
-163.767 338.782 3783
-154.352 337.976 3774
-145.019 337.26 3766
-136.303 337.976 3774
-127.278 337.976 3774
-119.068 340.305 3800
-110.502 341.917 3818
-101.584 342.633 3826
-92.435 342.633 3826
-83.2859 342.633 3826
-74.3111 343.439 3835
-65.4462 345.051 3853
-56.2325 345.051 3853
-47.1287 345.857 3862
-38.335 349.887 3907
-29.2667 353.2 3944
-19.8354 353.2 3944
-10.4279 354.006 3953
-0.975053 354.006 3953
8.53996 356.603 3982
18.0621 356.603 3982
27.5843 356.603 3982
37.0133 355.708 3972
46.5115 355.708 3972
360.779 366.186 4089
370.557 366.186 4089
380.335 366.186 4089
381.717 358.305 4001
386.591 354.006 3953
387.828 346.663 3871
397.085 346.663 3871
401.618 342.633 3826
400.675 334.215 3732
401.478 327.588 3658
410.225 327.588 3658
411.757 321.946 3595
414.156 317.2 3542
414.751 311.289 3476
421.238 309.946 3461
429.514 309.946 3461
429.821 304.304 3398
433.436 301.17 3363
438.065 298.841 3337
446.044 298.841 3337
454.024 298.841 3337
459.235 297.05 3317
467.167 297.05 3317
475.099 297.05 3317
482.012 296.423 3310
497.772 301.17 3363
513.183 305.558 3412
523.482 306.811 3426
531.674 306.811 3426
567.758 322.663 3603
587.892 329.11 3675
603.337 332.782 3716
612.223 332.782 3716
639.495 342.633 3826
668.649 353.2 3944
682.895 355.708 3972
692.393 355.708 3972
701.891 355.708 3972
711.389 355.708 3972
720.888 355.708 3972
730.386 355.708 3972
732.992 352.394 3935
738.817 350.693 3916
748.182 350.693 3916
757.546 350.693 3916
766.91 350.693 3916
776.275 350.693 3916
789.451 352.394 3935
798.86 352.394 3935
808.27 352.394 3935
817.68 352.394 3935
827.09 352.394 3935
836.5 352.394 3935
839.89 349.887 3907
847.277 349.081 3898
854.62 348.275 3889
863.92 348.275 3889
873.22 348.275 3889
880.477 347.469 3880
885.628 345.857 3862
894.863 345.857 3862
904.098 345.857 3862
919.719 348.275 3889
931.168 349.081 3898
942.661 349.887 3907
952.004 349.887 3907
961.347 349.887 3907
970.69 349.887 3907
980.033 349.887 3907
984.817 348.275 3889
1008.18 353.2 3944
1017.61 353.2 3944
1027.04 353.2 3944
1036.47 353.2 3944
1038.48 350.693 3916
1045.43 349.887 3907
1054.78 349.887 3907
1064.12 349.887 3907
1073.46 349.887 3907
1082.8 349.887 3907
1089.63 349.081 3898
1098.95 349.081 3898
1108.27 349.081 3898
1130.78 353.2 3944
1142.82 354.006 3953
1152.27 354.006 3953
1161.72 354.006 3953
1171.17 354.006 3953
1180.63 354.006 3953
1190.08 354.006 3953
1199.53 354.006 3953
1208.99 354.006 3953
1215.66 353.2 3944
1225.1 353.2 3944
1208.86 345.857 3862
1212.42 344.245 3844
1230.19 346.663 3871
1283.95 359.111 4010
1296.77 360.007 4020
1306.38 360.007 4020
1315.99 360.007 4020
1341.77 364.395 4069
1351.5 364.395 4069
1361.23 364.395 4069
1364.22 362.604 4049
1373.9 362.604 4049
1383.58 362.604 4049
1383.29 360.007 4020
1392.9 360.007 4020
1392.39 357.409 3991
1405.45 358.305 4001
1415.02 358.305 4001
1434.91 360.902 4030
1454.94 363.499 4059
1471.87 365.29 4079
1481.62 365.29 4079
1495.03 366.186 4089
1504.81 366.186 4089
1514.59 366.186 4089
1524.37 366.186 4089
1522.89 363.499 4059
1528.82 362.604 4049
1534.7 361.708 4039
1548.18 362.604 4049
1557.87 362.604 4049
1571.42 363.499 4059
1581.13 363.499 4059
1590.83 363.499 4059
1600.54 363.499 4059
1614.21 364.395 4069
1627.93 365.29 4079
1637.69 365.29 4079
1647.44 365.29 4079
1653.13 364.395 4069
1654.69 362.604 4049
1664.37 362.604 4049
1662.06 360.007 4020
1667.52 359.111 4010
1677.11 359.111 4010
1686.7 359.111 4010
1656.52 350.693 3916
1650.57 347.469 3880
1640.6 343.439 3835
1642.46 341.917 3818
1651.59 341.917 3818
1652.89 340.305 3800
1639.67 335.737 3749
1630.16 331.976 3707
1643.01 332.782 3716
1651.89 332.782 3716
1679.1 336.454 3757
1707.41 340.305 3800
1736.37 344.245 3844
1745.56 344.245 3844
1754.76 344.245 3844
1763.95 344.245 3844
1773.14 344.245 3844
1782.33 344.245 3844
1767.29 339.588 3792
1767.93 337.976 3774
1760.94 334.931 3740
1769.89 334.931 3740
1775.02 334.215 3732
1756.7 329.11 3675
1747.24 324.095 3619
1755.89 324.095 3619
1764.55 324.095 3619
1781.04 325.528 3635
1789.74 325.528 3635
1798.43 325.528 3635
1799.17 324.095 3619
1784.34 319.886 3572
1777.83 317.2 3542
1786.3 317.2 3542
1790.71 316.483 3534
1799.16 316.483 3534
1788.69 313.17 3497
1797.05 313.17 3497
1798.19 311.916 3483
1791.47 309.319 3454
1807.03 310.573 3468
1838.35 314.513 3512
1846.75 314.513 3512
1859.37 315.23 3520
1871.51 315.856 3527
1900.19 319.259 3565
1908.72 319.259 3565
1917.24 319.259 3565
1925.77 319.259 3565
1938.09 319.886 3572
1955.35 321.319 3588
1963.93 321.319 3588
2011 327.588 3658
2029.13 329.11 3675
2046.79 330.543 3691
2055.62 330.543 3691
2091.85 334.931 3740
2184.49 348.275 3889
2306.61 366.186 4089
2316.39 366.186 4089
2326.16 366.186 4089
2335.94 366.186 4089
2345.72 366.186 4089
2326.7 361.708 4039
2303.38 356.603 3982
2363.44 364.395 4069
2373.17 364.395 4069
2382.9 364.395 4069
2392.63 364.395 4069
2390.55 362.604 4049
2400.23 362.604 4049
2398.61 360.902 4030
2408.24 360.902 4030
2400.48 358.305 4001
2410.05 358.305 4001
2396.64 354.902 3963
2406.11 354.902 3963
2415.59 354.902 3963
2425.07 354.902 3963
2463.42 359.111 4010
2473.01 359.111 4010
2494.98 360.902 4030
2516.42 362.604 4049
2544.82 365.29 4079
2554.57 365.29 4079
2564.33 365.29 4079
2580.39 366.186 4089
2590.17 366.186 4089
2599.95 366.186 4089
2584.2 362.604 4049
2606.69 364.395 4069
2616.42 364.395 4069
2626.15 364.395 4069
2629.41 363.499 4059
2613.75 360.007 4020
2629.89 360.902 4030
2639.53 360.902 4030
2649.17 360.902 4030
2645.61 359.111 4010
2051.1 251.109 2804
2057.81 251.109 2804
2085.13 253.617 2832
2091.9 253.617 2832
2098.67 253.617 2832
2105.45 253.617 2832
2112.22 253.617 2832
2116 253.258 2828
2137.02 254.96 2847
2143.83 254.96 2847
2150.64 254.96 2847
2157.45 254.96 2847
2164.25 254.96 2847
574.985 67.5236 754
576.788 67.5236 754
-2326.29 285.687 3107
-2318.86 285.687 3107
-2306.96 285.135 3101
-2299.55 285.135 3101
-2296.57 285.687 3107
-2292.82 286.146 3112
-2285.38 286.146 3112
-2291.11 287.802 3130
-2283.63 287.802 3130
-2276.14 287.802 3130
-2268.66 287.802 3130
-2261.18 287.802 3130
-2258.01 288.353 3136
-2250.51 288.353 3136
-2243.01 288.353 3136
-2235.51 288.353 3136
-2223.75 287.802 3130
-2216.27 287.802 3130
-2204.55 287.25 3124
-2180.9 285.135 3101
-2379.35 327.799 3565
-2370.83 327.799 3565
-2362.3 327.799 3565
-2353.78 327.799 3565
-2339.99 327.064 3557
-2301.99 322.926 3512
-2307.96 324.949 3534
-2299.51 324.949 3534
-2291.06 324.949 3534
-2282.61 324.949 3534
-2265.15 323.662 3520
-2261.22 324.305 3527
-2252.78 324.305 3527
-2258.35 326.328 3549
-2260 327.799 3565
-2266 329.914 3588
-2257.42 329.914 3588
-2248.84 329.914 3588
-2240.26 329.914 3588
-2231.68 329.914 3588
-2223.1 329.914 3588
-2037.53 324.949 3534
-2029.08 324.949 3534
-2020.63 324.949 3534
-1999.65 322.926 3512
-1982.75 321.547 3497
-1974.39 321.547 3497
-1937.05 320.903 3490
-1928.71 320.903 3490
-1920.36 320.903 3490
-1912.01 320.903 3490
-1903.67 320.903 3490
-1884.27 329.179 3580
-1875.71 329.179 3580
-1867.15 329.179 3580
-1858.59 329.179 3580
-1870.18 332.765 3619
-1861.53 332.765 3619
-1852.88 332.765 3619
-1852.38 334.236 3635
-1843.68 334.236 3635
-1834.99 334.236 3635
-1826.3 334.236 3635
-1817.61 334.236 3635
-1812.4 334.88 3642
-1803.69 334.88 3642
-1802.86 336.351 3658
-1794.12 336.351 3658
-1785.37 336.351 3658
-1772.74 335.615 3650
-1760.14 334.88 3642
-1755.28 335.615 3650
-1758.51 337.914 3675
-1749.73 337.914 3675
-1748.52 339.385 3691
-1767.03 344.718 3749
-1778.23 348.672 3792
-1769.16 348.672 3792
-1772.16 351.063 3818
-1775.04 353.453 3844
-1765.84 353.453 3844
-1756.65 353.453 3844
-1739.28 351.798 3826
-1726.51 351.063 3818
-1733.12 354.281 3853
-1723.91 354.281 3853
-1714.7 354.281 3853
-1709.47 355.108 3862
-1700.23 355.108 3862
-1691 355.108 3862
-1681.76 355.108 3862
-1688.12 358.419 3898
-1678.8 358.419 3898
-1669.47 358.419 3898
-1660.15 358.419 3898
-1643.21 356.764 3880
-1582.13 345.454 3757
-1573.15 345.454 3757
-1564.16 345.454 3757
-1555.18 345.454 3757
-1546.2 345.454 3757
-1537.21 345.454 3757
-1528.23 345.454 3757
-1522.88 346.281 3766
-1520.71 347.844 3783
-1511.67 347.844 3783
-1502.62 347.844 3783
-1497.13 348.672 3792
-1488.06 348.672 3792
-1478.99 348.672 3792
-1466.43 347.844 3783
-1457.39 347.844 3783
-1441.83 346.281 3766
-1432.83 346.281 3766
-1420.42 345.454 3757
-1405.05 343.891 3740
-1371.84 337.914 3675
-1363.05 337.914 3675
-1339.52 334.236 3635
-595.338 156.682 1704
-591.263 156.682 1704
-587.189 156.682 1704
-583.114 156.682 1704
-579.719 156.866 1706
-576.651 157.141 1709
-573.235 157.325 1711
-569.143 157.325 1711
-565.052 157.325 1711
-561.616 157.509 1713
-557.52 157.509 1713
-553.423 157.509 1713
-549.327 157.509 1713
-544.594 157.325 1711
-540.503 157.325 1711
-535.471 157.05 1708
-530.764 156.866 1706
-524.523 156.222 1699
-520.461 156.222 1699
-515.79 156.038 1697
-511.129 155.854 1695
-506.178 155.578 1692
-502.132 155.578 1692
-496.614 155.119 1687
-491.12 154.659 1682
-485.65 154.199 1677
-481.065 154.015 1675
-477.06 154.015 1675
-472.489 153.831 1673
-466.809 153.28 1667
-462.822 153.28 1667
-458.836 153.28 1667
-453.485 152.82 1662
-448.429 152.452 1658
-442.32 151.716 1650
-438.374 151.716 1650
-432.849 151.165 1644
-427.874 150.797 1640
-422.401 150.245 1634
-418.494 150.245 1634
-413.318 149.786 1629
-409.171 149.694 1628
-404.78 149.51 1626
-400.892 149.51 1626
-396.515 149.326 1624
-391.665 148.958 1620
-386.594 148.498 1615
-382.258 148.314 1613
-378.401 148.314 1613
-373.847 148.038 1610
-369.307 147.763 1607
-364.782 147.487 1604
-360.947 147.487 1604
-356.443 147.211 1601
-352.174 147.027 1599
-348.133 146.935 1598
-344.311 146.935 1598
-340.49 146.935 1598
-336.669 146.935 1598
-333.056 147.027 1599
-330.056 147.395 1603
-326.222 147.395 1603
-322.992 147.671 1606
-319.351 147.763 1607
-316.097 148.038 1610
-312.247 148.038 1610
-308.78 148.222 1612
-305.493 148.498 1615
-302.191 148.774 1618
-298.322 148.774 1618
-294.817 148.958 1620
-291.482 149.234 1623
-288.132 149.51 1626
-284.244 149.51 1626
-281.218 149.969 1631
-278.338 150.521 1637
-274.926 150.797 1640
-271.004 150.797 1640
-267.408 150.981 1642
-263.963 151.257 1645
-260.504 151.533 1648
-256.563 151.533 1648
-253.235 151.9 1652
-250.039 152.36 1657
-246.522 152.636 1660
-242.553 152.636 1660
-238.871 152.82 1662
-235.038 152.912 1663
-231.339 153.096 1665
-227.357 153.096 1665
-223.644 153.28 1667
-220.053 153.555 1670
-216.448 153.831 1673
-212.955 154.199 1677
-208.945 154.199 1677
-205.301 154.475 1680
-201.883 154.935 1685
-198.088 155.119 1687
-194.054 155.119 1687
-190.809 155.762 1694
-187.309 156.222 1699
-183.57 156.498 1702
-179.5 156.498 1702
-175.43 156.498 1702
-171.561 156.682 1704
-167.683 156.866 1706
-163.603 156.866 1706
-159.524 156.866 1706
-155.718 157.141 1709
-152.607 158.153 1720
-148.494 158.153 1720
-144.8 158.613 1725
-141.165 159.164 1731
-137.105 159.256 1732
-132.963 159.256 1732
-128.821 159.256 1732
-249.72 354.281 3853
-242.753 357.591 3889
-233.454 357.591 3889
-224.154 357.591 3889
-213.86 355.936 3871
-204.603 355.936 3871
-193.53 352.626 3835
-183.109 350.235 3809
-174.001 350.235 3809
-164.892 350.235 3809
-155.088 348.672 3792
-146.02 348.672 3792
-137.242 349.408 3800
-128.155 349.408 3800
-119.632 351.063 3818
-111.254 353.453 3844
-102.301 354.281 3853
-93.0873 354.281 3853
-84.2654 355.936 3871
-75.1831 356.764 3880
-66.3635 359.246 3907
-57.0206 359.246 3907
-47.8975 360.901 3925
-38.9728 365.223 3972
-29.4745 365.223 3972
-19.9763 365.223 3972
-10.4279 363.476 3953
-0.975053 363.476 3953
8.53996 366.142 3982
18.0621 366.142 3982
27.5843 366.142 3982
360.779 375.981 4089
370.557 375.981 4089
380.335 375.981 4089
381.717 367.889 4001
386.591 363.476 3953
393.238 360.901 3925
402.624 360.901 3925
404.452 354.281 3853
400.675 343.155 3732
404.221 338.65 3683
413.029 338.65 3683
414.505 332.765 3619
416.845 327.799 3565
417.257 321.547 3497
421.238 318.237 3461
429.514 318.237 3461
429.821 312.444 3398
433.436 309.226 3363
438.065 306.835 3337
446.044 306.835 3337
454.024 306.835 3337
459.235 304.996 3317
467.167 304.996 3317
475.099 304.996 3317
482.012 304.352 3310
497.772 309.226 3363
513.183 313.731 3412
523.482 315.019 3426
531.674 315.019 3426
564.134 329.179 3580
587.892 337.914 3675
603.337 341.684 3716
612.223 341.684 3716
639.495 351.798 3826
668.649 362.648 3944
682.895 365.223 3972
692.393 365.223 3972
701.891 365.223 3972
711.389 365.223 3972
720.888 365.223 3972
730.386 365.223 3972
732.992 361.821 3935
738.817 360.074 3916
748.182 360.074 3916
757.546 360.074 3916
766.91 360.074 3916
776.275 360.074 3916
789.451 361.821 3935
798.86 361.821 3935
808.27 361.821 3935
817.68 361.821 3935
827.09 361.821 3935
836.5 361.821 3935
839.89 359.246 3907
847.277 358.419 3898
854.62 357.591 3889
863.92 357.591 3889
873.22 357.591 3889
880.477 356.764 3880
885.628 355.108 3862
894.863 355.108 3862
904.098 355.108 3862
919.719 357.591 3889
931.168 358.419 3898
942.661 359.246 3907
952.004 359.246 3907
961.347 359.246 3907
970.69 359.246 3907
980.033 359.246 3907
984.817 357.591 3889
1008.18 362.648 3944
1017.61 362.648 3944
1027.04 362.648 3944
1036.47 362.648 3944
1038.48 360.074 3916
1045.43 359.246 3907
1054.78 359.246 3907
1064.12 359.246 3907
1073.46 359.246 3907
1082.8 359.246 3907
1089.63 358.419 3898
1098.95 358.419 3898
1108.27 358.419 3898
1130.78 362.648 3944
1142.82 363.476 3953
1152.27 363.476 3953
1161.72 363.476 3953
1171.17 363.476 3953
1180.63 363.476 3953
1190.08 363.476 3953
1199.53 363.476 3953
1208.99 363.476 3953
1215.66 362.648 3944
1225.1 362.648 3944
1208.86 355.108 3862
1212.42 353.453 3844
1230.19 355.936 3871
1283.95 368.717 4010
1296.77 369.636 4020
1306.38 369.636 4020
1315.99 369.636 4020
1341.77 374.142 4069
1351.5 374.142 4069
1361.23 374.142 4069
1364.22 372.303 4049
1373.9 372.303 4049
1383.58 372.303 4049
1383.29 369.636 4020
1392.9 369.636 4020
1392.39 366.97 3991
1405.45 367.889 4001
1415.02 367.889 4001
1434.91 370.556 4030
1454.94 373.222 4059
1471.87 375.061 4079
1481.62 375.061 4079
1495.03 375.981 4089
1504.81 375.981 4089
1514.59 375.981 4089
1524.37 375.981 4089
1522.89 373.222 4059
1528.82 372.303 4049
1534.7 371.383 4039
1548.18 372.303 4049
1557.87 372.303 4049
1571.42 373.222 4059
1581.13 373.222 4059
1590.83 373.222 4059
1600.54 373.222 4059
1614.21 374.142 4069
1627.93 375.061 4079
1637.69 375.061 4079
1647.44 375.061 4079
1653.13 374.142 4069
1654.69 372.303 4049
1664.37 372.303 4049
1662.06 369.636 4020
1667.52 368.717 4010
1677.11 368.717 4010
1686.7 368.717 4010
1656.52 360.074 3916
1650.57 356.764 3880
1640.6 352.626 3835
1642.46 351.063 3818
1651.59 351.063 3818
1652.89 349.408 3800
1639.67 344.718 3749
1630.16 340.856 3707
1643.01 341.684 3716
1651.89 341.684 3716
1679.1 345.454 3757
1707.41 349.408 3800
1736.37 353.453 3844
1745.56 353.453 3844
1754.76 353.453 3844
1763.95 353.453 3844
1773.14 353.453 3844
1782.33 353.453 3844
1767.29 348.672 3792
1767.93 347.017 3774
1760.94 343.891 3740
1769.89 343.891 3740
1775.02 343.155 3732
1764.55 332.765 3619
1781.04 334.236 3635
1789.74 334.236 3635
1798.43 334.236 3635
1799.17 332.765 3619
1780.84 327.799 3565
1777.83 325.685 3542
1786.3 325.685 3542
1790.71 324.949 3534
1799.16 324.949 3534
1788.69 321.547 3497
1797.05 321.547 3497
1798.19 320.26 3483
1791.47 317.593 3454
1807.03 318.88 3468
1830.5 321.547 3497
1838.86 321.547 3497
1855.15 322.926 3512
1871.51 324.305 3527
1887.94 325.685 3542
1908.72 327.799 3565
1917.24 327.799 3565
1925.77 327.799 3565
1934.29 327.799 3565
1955.35 329.914 3588
1963.93 329.914 3588
1989.56 332.765 3619
2029.13 337.914 3675
2037.92 337.914 3675
2046.71 337.914 3675
2082.9 342.419 3724
2091.81 342.419 3724
2306.61 375.981 4089
2316.39 375.981 4089
2326.16 375.981 4089
2335.94 375.981 4089
2345.72 375.981 4089
2326.7 371.383 4039
2303.38 366.142 3982
2363.44 374.142 4069
2373.17 374.142 4069
2382.9 374.142 4069
2392.63 374.142 4069
