1360.42 944.096 3603
1365.99 942 3595
1374.59 942 3595
1377.42 938.069 3580
1382.88 935.973 3572
1388.69 934.139 3565
1397.22 934.139 3565
1396.68 928.112 3542
1405.15 928.112 3542
1410.42 926.016 3534
1416.06 924.182 3527
1424.5 924.182 3527
1420.74 916.321 3497
1426.24 914.486 3490
1431.71 912.652 3483
1440.04 912.652 3483
1445.46 910.818 3476
1447.5 906.888 3461
1449.89 903.219 3447
1458.13 903.219 3447
1466.37 903.219 3447
1480.6 906.888 3461
1507.81 918.417 3505
1519.22 920.251 3512
1527.62 920.251 3512
1545.64 926.016 3534
1567.72 934.139 3565
1596.58 946.192 3611
1605.22 946.192 3611
1634.86 958.508 3658
1654.84 965.058 3683
1724.63 1000.43 3818
1733.76 1000.43 3818
1758.86 1009.6 3853
1792.86 1023.75 3907
1819.27 1033.45 3944
1828.7 1033.45 3944
1860.04 1045.76 3991
1874.26 1048.38 4001
1883.83 1048.38 4001
1893.4 1048.38 4001
1902.97 1048.38 4001
1912.53 1048.38 4001
1912.97 1043.41 3982
1922.5 1043.41 3982
1909.21 1031.09 3935
1909.36 1026.11 3916
1892.27 1011.96 3862
1901.5 1011.96 3862
1888.97 1000.43 3818
1867.77 984.449 3757
1847.78 969.251 3699
1856.63 969.251 3699
1849.34 960.866 3667
1841.89 952.481 3635
1834.29 944.096 3603
1831.14 938.069 3580
1839.7 938.069 3580
1848.26 938.069 3580
1852.68 935.973 3572
1861.22 935.973 3572
1869.76 935.973 3572
1874.62 934.139 3565
1891.07 938.069 3580
1903.87 940.165 3588
1933.24 950.385 3627
1941.91 950.385 3627
1958.66 954.315 3642
1980.87 960.866 3667
2002.66 967.155 3691
2029.47 975.802 3724
2052.06 982.352 3749
2123.15 1011.96 3862
2142.32 1016.68 3880
2151.6 1016.68 3880
2185.94 1028.47 3925
2227.21 1043.41 3982
2236.73 1043.41 3982
2246.25 1043.41 3982
2255.77 1043.41 3982
2259.61 1040.79 3972
2274.82 1043.41 3982
2284.34 1043.41 3982
2293.86 1043.41 3982
2303.38 1043.41 3982
2312.9 1043.41 3982
2338.76 1050.74 4010
2348.35 1050.74 4010
2357.94 1050.74 4010
2367.52 1050.74 4010
2377.11 1050.74 4010
2386.7 1050.74 4010
2396.29 1050.74 4010
2423.28 1058.34 4039
2432.94 1058.34 4039
2442.6 1058.34 4039
2464.4 1063.58 4059
2474.11 1063.58 4059
2483.81 1063.58 4059
2493.52 1063.58 4059
2497.06 1060.96 4049
2500.55 1058.34 4039
2504.61 1055.98 4030
2514.25 1055.98 4030
2517.62 1053.36 4020
2527.24 1053.36 4020
2536.85 1053.36 4020
2546.46 1053.36 4020
2556.08 1053.36 4020
2565.69 1053.36 4020
2568.9 1050.74 4010
2578.49 1050.74 4010
2582.27 1048.38 4001
2579.53 1043.41 3982
2582.55 1040.79 3972
2592.04 1040.79 3972
2589.1 1035.81 3953
2592.63 1033.45 3944
2583.59 1026.11 3916
2581.04 1021.39 3898
2590.36 1021.39 3898
2599.68 1021.39 3898
2596.95 1016.68 3880
2624.37 1023.75 3907
2639.78 1026.11 3916
2649.14 1026.11 3916
2696.52 1040.79 3972
2725.78 1048.38 4001
2735.35 1048.38 4001
2744.92 1048.38 4001
2754.48 1048.38 4001
2757.14 1045.76 3991
2766.69 1045.76 3991
2776.23 1045.76 3991
2785.77 1045.76 3991
2795.32 1045.76 3991
2798.54 1043.41 3982
2808.06 1043.41 3982
537.23 188.138 718
538.947 188.138 718
540.664 188.138 718
541.625 187.876 717
543.34 187.876 717
543.534 187.352 715
545.244 187.352 715
546.954 187.352 715
-2356.98 832.413 3148
-2349.46 832.413 3148
-2337.47 830.826 3142
-2325.5 829.24 3136
-2318 829.24 3136
-2310.5 829.24 3136
-2303.01 829.24 3136
-2286.72 826.067 3124
-2283.63 827.653 3130
-2284.87 830.826 3142
-2277.36 830.826 3142
-2278.51 834 3154
-2279.61 837.173 3166
-2272.04 837.173 3166
-2264.47 837.173 3166
-2269.73 841.932 3184
-2283.43 849.865 3214
-2289.2 854.889 3233
-2281.47 854.889 3233
-2287.1 859.913 3252
-2305.96 869.962 3290
-2321.14 878.688 3323
-2313.19 878.688 3323
-2323.98 885.827 3350
-2315.97 885.827 3350
-2307.96 885.827 3350
-2299.94 885.827 3350
-2315.2 894.818 3384
-2307.1 894.818 3384
-2308.52 898.52 3398
-2300.4 898.52 3398
-2306.44 904.073 3419
-2307.67 907.774 3433
-2308.84 911.476 3447
-2300.6 911.476 3447
-2297.01 913.327 3454
-2288.75 913.327 3454
-2285.11 915.178 3461
-2276.84 915.178 3461
-2273.15 917.029 3468
-2264.86 917.029 3468
-2256.56 917.029 3468
-2248.27 917.029 3468
-2239.98 917.029 3468
-2236.83 919.145 3476
-2241.98 924.698 3497
-2233.62 924.698 3497
-2230.35 926.813 3505
-2235.91 932.63 3527
-2231.9 934.482 3534
-2223.45 934.482 3534
-2224.4 938.448 3549
-2220.91 940.563 3557
-2217.38 942.679 3565
-2208.85 942.679 3565
-2209.59 946.645 3580
-2201.03 946.645 3580
-2197.36 948.76 3588
-2188.78 948.76 3588
-2184.46 950.611 3595
-2175.86 950.611 3595
-2172.09 952.727 3603
-2163.47 952.727 3603
-2159.64 954.842 3611
-2155.77 956.958 3619
-2147.12 956.958 3619
-2138.46 956.958 3619
-2134.52 959.073 3627
-2125.84 959.073 3627
-2117.17 959.073 3627
-2108.5 959.073 3627
-2095.19 956.958 3619
-2086.54 956.958 3619
-2077.88 956.958 3619
-2069.23 956.958 3619
-2051.46 952.727 3603
-2042.85 952.727 3603
-2034.23 952.727 3603
-2021.12 950.611 3595
-2012.52 950.611 3595
-2000.02 948.76 3588
-1995.33 950.611 3595
-1986.73 950.611 3595
-1978.14 950.611 3595
-1969.54 950.611 3595
-1965.31 952.727 3603
-1956.69 952.727 3603
-1948.07 952.727 3603
-1943.76 954.842 3611
-1935.13 954.842 3611
-1926.49 954.842 3611
-1922.11 956.958 3619
-1921.91 961.189 3635
-1913.22 961.189 3635
-1904.53 961.189 3635
-1903.66 965.155 3650
-1894.93 965.155 3650
-1886.2 965.155 3650
-1877.48 965.155 3650
-1868.75 965.155 3650
-1868.68 969.65 3667
-1868.03 973.881 3683
-1859.22 973.881 3683
-1850.41 973.881 3683
-1833.61 969.65 3667
-1824.84 969.65 3667
-1816.07 969.65 3667
-1807.3 969.65 3667
-1798.53 969.65 3667
-1789.76 969.65 3667
-1776.62 967.27 3658
-1760.14 963.039 3642
-1740.37 956.958 3619
-1731.72 956.958 3619
-1723.06 956.958 3619
-1706.83 952.727 3603
-1683.6 944.53 3572
-1668.03 940.563 3557
-1659.52 940.563 3557
-1644.05 936.597 3542
-1631.89 934.482 3534
-1620.22 932.63 3527
-1611.79 932.63 3527
-1603.35 932.63 3527
-1591.75 930.78 3520
-1583.34 930.78 3520
-1574.92 930.78 3520
-1566.5 930.78 3520
-1558.08 930.78 3520
-1549.67 930.78 3520
-1541.25 930.78 3520
-1529.35 928.664 3512
-1517.92 926.813 3505
-1509.54 926.813 3505
-1501.16 926.813 3505
-1492.77 926.813 3505
-1484.39 926.813 3505
-1478.96 928.664 3512
-1473.91 930.78 3520
-1465.49 930.78 3520
-1462.87 934.482 3534
-1454.42 934.482 3534
-1445.97 934.482 3534
-1437.52 934.482 3534
-1432.3 936.597 3542
-1423.83 936.597 3542
-1415.36 936.597 3542
-1406.89 936.597 3542
-1398.42 936.597 3542
-1392.7 938.448 3549
-1387.33 940.563 3557
-1378.83 940.563 3557
-1370.32 940.563 3557
-1361.82 940.563 3557
-1362.06 946.645 3580
-1353.5 946.645 3580
-1347.94 948.76 3588
-1339.36 948.76 3588
-1330.78 948.76 3588
-1319.26 946.645 3580
-1302.27 940.563 3557
-1282.86 932.63 3527
-1269 928.664 3512
-1260.6 928.664 3512
-1252.21 928.664 3512
-1243.81 928.664 3512
-1230.13 924.698 3497
-1221.77 924.698 3497
-1203.35 917.029 3468
-578.001 452.962 1713
-574.91 453.755 1716
-570.806 453.755 1716
-566.703 453.755 1716
-562.599 453.755 1716
-558.496 453.755 1716
-554.393 453.755 1716
-548.686 452.433 1711
-544.594 452.433 1711
-540.503 452.433 1711
-536.411 452.433 1711
-531.697 451.904 1709
-527.302 451.64 1708
-523.218 451.64 1708
-519.133 451.64 1708
-515.049 451.64 1708
-509.768 450.582 1704
-505.693 450.582 1704
-500.735 449.789 1701
-496.084 449.26 1699
-490.573 447.938 1694
-486.522 447.938 1694
-482.471 447.938 1694
-478.42 447.938 1694
-472.969 446.616 1689
-468.375 446.087 1687
-464.341 446.087 1687
-460.307 446.087 1687
-455.732 445.558 1685
-451.166 445.029 1683
-447.142 445.029 1683
-442.854 444.765 1682
-438.832 444.765 1682
-434.292 444.236 1680
-430.275 444.236 1680
-426.258 444.236 1680
-421.486 443.442 1677
-417.725 443.707 1678
-413.712 443.707 1678
-409.7 443.707 1678
-405.687 443.707 1678
-402.153 444.236 1680
-398.61 444.765 1682
-394.588 444.765 1682
-390.566 444.765 1682
-386.773 445.029 1683
-382.749 445.029 1683
-378.724 445.029 1683
-375.59 446.087 1687
-372.217 446.88 1690
-368.611 447.409 1692
-364.565 447.409 1692
-361.584 448.731 1697
-357.948 449.26 1699
-354.301 449.789 1701
-350.234 449.789 1701
-347.184 451.111 1706
-344.512 452.962 1713
-341.409 454.284 1718
-337.301 454.284 1718
-333.968 455.342 1722
-330.808 456.664 1727
-327.624 457.986 1732
-323.483 457.986 1732
-320.078 459.044 1736
-316.837 460.366 1741
-313.033 460.895 1743
-308.865 460.895 1743
-305.396 461.952 1747
-301.219 461.952 1747
-297.891 463.274 1752
-293.702 463.274 1752
-290.173 464.332 1756
-286.3 464.861 1758
-282.096 464.861 1758
-278.524 465.919 1762
-274.311 465.919 1762
-270.097 465.919 1762
-266.035 466.183 1763
-261.819 466.183 1763
-257.603 466.183 1763
-253.387 466.183 1763
-249.454 466.712 1765
-245.789 467.77 1769
-241.559 467.77 1769
-237.597 468.298 1771
-233.889 469.356 1775
-229.903 469.885 1777
-225.654 469.885 1777
-221.778 470.678 1780
-217.766 471.207 1782
-213.984 472.265 1786
-209.713 472.265 1786
-205.902 473.323 1790
-202.748 475.967 1800
-198.885 477.025 1804
-194.571 477.025 1804
-190.363 477.289 1805
-186.665 478.875 1811
-182.737 479.933 1815
-178.397 479.933 1815
-174.44 480.991 1819
-170.277 481.52 1821
-166.105 482.049 1823
-161.745 482.049 1823
-157.904 483.635 1829
-153.698 484.164 1831
-149.972 486.279 1839
-145.575 486.279 1839
-141.331 486.808 1841
-137.077 487.337 1843
-132.67 487.337 1843
-128.263 487.337 1843
-123.99 487.866 1845
-119.578 487.866 1845
-115.166 487.866 1845
-228.419 1047.92 3963
-218.942 1047.92 3963
-210.47 1052.94 3982
-200.948 1052.94 3982
-191.426 1052.94 3982
-181.035 1047.92 3963
-169.914 1037.87 3925
-159.055 1028.35 3889
-147.676 1014.07 3835
-138.506 1014.07 3835
-129.335 1014.07 3835
-119.882 1011.69 3826
-109.749 1002.7 3792
-100.681 1002.7 3792
-90.768 993.448 3757
-81.2396 986.838 3732
-72.0052 982.607 3716
-63.1192 982.607 3716
-53.8682 975.996 3691
-44.6392 967.27 3658
-35.8133 965.155 3650
-27.0851 965.155 3650
-18.2814 961.189 3635
-9.50459 952.727 3603
-0.885022 948.76 3588
7.69497 948.76 3588
16.275 948.76 3588
24.7441 944.53 3572
33.2206 942.679 3565
41.7456 942.679 3565
50.2706 942.679 3565
58.5317 938.448 3549
66.8863 936.597 3542
75.1861 934.482 3534
83.6369 934.482 3534
91.9054 932.63 3527
100.34 932.63 3527
108.99 934.482 3534
117.44 934.482 3534
125.891 934.482 3534
134.646 936.597 3542
143.116 936.597 3542
151.586 936.597 3542
159.695 934.482 3534
168.146 934.482 3534
176.247 932.63 3527
184.681 932.63 3527
193.115 932.63 3527
201.549 932.63 3527
209.566 930.78 3520
217.984 930.78 3520
226.401 930.78 3520
234.285 928.664 3512
243.236 930.78 3520
251.653 930.78 3520
260.071 930.78 3520
268.488 930.78 3520
278.007 934.482 3534
287.106 936.597 3542
296.16 938.448 3549
304.647 938.448 3549
313.134 938.448 3549
321.621 938.448 3549
330.107 938.448 3549
338.594 938.448 3549
347.081 938.448 3549
356.369 940.563 3557
364.875 940.563 3557
373.381 940.563 3557
381.028 938.448 3549
387.1 932.63 3527
395.534 932.63 3527
399.73 922.847 3490
408.076 922.847 3490
414.751 919.145 3476
421.238 915.178 3461
429.514 915.178 3461
436.019 911.476 3447
442.458 907.774 3433
448.829 904.073 3419
457.005 904.073 3419
459.467 892.967 3377
463.804 885.827 3350
468.998 880.539 3330
476.961 880.539 3330
483.905 878.688 3323
490.963 877.101 3317
498.895 877.101 3317
507.744 878.688 3323
515.69 878.688 3323
523.636 878.688 3323
531.582 878.688 3323
539.529 878.688 3323
548.628 880.539 3330
556.591 880.539 3330
564.554 880.539 3330
572.517 880.539 3330
580.48 880.539 3330
587.207 878.688 3323
596.407 880.539 3330
604.37 880.539 3330
612.333 880.539 3330
620.296 880.539 3330
628.259 880.539 3330
636.222 880.539 3330
644.185 880.539 3330
650.777 878.688 3323
658.723 878.688 3323
666.67 878.688 3323
674.616 878.688 3323
682.562 878.688 3323
690.508 878.688 3323
698.455 878.688 3323
706.401 878.688 3323
713.058 877.101 3317
720.99 877.101 3317
728.921 877.101 3317
736.853 877.101 3317
744.785 877.101 3317
752.717 877.101 3317
760.649 877.101 3317
768.581 877.101 3317
776.513 877.101 3317
784.445 877.101 3317
789.033 873.399 3303
798.62 875.25 3310
811.409 880.539 3330
819.372 880.539 3330
827.335 880.539 3330
837.054 882.39 3337
845.033 882.39 3337
853.013 882.39 3337
869.507 891.116 3370
881.212 894.818 3384
894.823 900.371 3405
902.965 900.371 3405
918.6 907.774 3433
934.368 915.178 3461
946.73 919.145 3476
955.042 919.145 3476
973.331 928.664 3512
987.88 934.482 3534
1002.81 940.563 3557
1011.32 940.563 3557
1024.13 944.53 3572
1039.32 950.611 3595
1052.58 954.842 3611
1065.92 959.073 3627
1074.59 959.073 3627
1092.52 967.27 3658
1103.98 969.65 3667
1115.17 971.766 3675
1123.96 971.766 3675
1132.75 971.766 3675
1141.54 971.766 3675
1152.83 973.881 3683
1161.64 973.881 3683
1170.45 973.881 3683
1179.25 973.881 3683
1188.06 973.881 3683
1196.87 973.881 3683
1200.44 969.65 3667
1209.2 969.65 3667
1217.97 969.65 3667
1223.73 967.27 3658
1232.48 967.27 3658
1241.23 967.27 3658
1249.97 967.27 3658
1258.72 967.27 3658
1264.7 965.155 3650
1270.63 963.039 3642
1279.34 963.039 3642
1288.05 963.039 3642
1294.27 961.189 3635
1302.96 961.189 3635
1311.65 961.189 3635
1320.35 961.189 3635
1329.04 961.189 3635
1331.84 956.958 3619
1340.5 956.958 3619
1349.15 956.958 3619
1357.81 956.958 3619
1360.42 952.727 3603
1365.99 950.611 3595
1374.59 950.611 3595
1377.42 946.645 3580
1382.88 944.53 3572
1388.69 942.679 3565
1397.22 942.679 3565
1396.68 936.597 3542
1401.97 934.482 3534
1407.63 932.63 3527
1413.25 930.78 3520
1421.67 930.78 3520
1420.74 924.698 3497
1423.38 920.996 3483
1431.71 920.996 3483
1440.04 920.996 3483
1442.13 917.029 3468
1447.5 915.178 3461
1449.89 911.476 3447
1458.13 911.476 3447
1463.39 909.625 3440
1477.61 913.327 3454
1501.36 922.847 3490
1519.22 928.664 3512
1527.62 928.664 3512
1545.64 934.482 3534
1557.61 936.597 3542
1589.51 950.611 3595
1598.11 950.611 3595
1631.28 965.155 3650
1651.24 971.766 3675
1736.37 1016.45 3844
1745.56 1016.45 3844
1779.41 1030.73 3898
1809.84 1042.9 3944
1832.18 1050.3 3972
1841.68 1050.3 3972
1864.7 1057.97 4001
1887.85 1065.64 4030
1897.49 1065.64 4030
1907.12 1065.64 4030
1916.76 1065.64 4030
1921.62 1062.99 4020
1926.43 1060.35 4010
1936.01 1060.35 4010
1932.02 1052.94 3982
1918.62 1040.52 3935
1909.9 1030.73 3898
1919.23 1030.73 3898
1910.74 1021.21 3862
1893.62 1007.2 3809
1864.27 986.838 3732
1873.19 986.838 3732
1849.34 969.65 3667
1849.49 965.155 3650
1838.36 954.842 3611
1835.23 948.76 3588
1843.81 948.76 3588
1848.26 946.645 3580
1856.82 946.645 3580
1861.22 944.53 3572
1869.76 944.53 3572
1874.62 942.679 3565
1891.07 946.645 3580
1899.63 946.645 3580
1933.24 959.073 3627
1941.91 959.073 3627
1958.66 963.039 3642
1980.87 969.65 3667
1998.32 973.881 3683
2029.47 984.722 3724
2038.38 984.722 3724
2103.36 1011.69 3826
2137.35 1023.59 3871
2146.61 1023.59 3871
2185.94 1037.87 3925
2227.21 1052.94 3982
2247.4 1057.97 4001
2256.97 1057.97 4001
2266.54 1057.97 4001
2276.1 1057.97 4001
2296.52 1062.99 4020
2306.14 1062.99 4020
2315.75 1062.99 4020
2325.36 1062.99 4020
2329.17 1060.35 4010
2344.59 1062.99 4020
2354.2 1062.99 4020
2363.82 1062.99 4020
2367.52 1060.35 4010
2377.11 1060.35 4010
2386.7 1060.35 4010
2402.27 1062.99 4020
2423.28 1068.02 4039
2432.94 1068.02 4039
2442.6 1068.02 4039
2464.4 1073.31 4059
2474.11 1073.31 4059
2483.81 1073.31 4059
2493.52 1073.31 4059
2490.89 1068.02 4039
2494.98 1065.64 4030
2498.4 1062.99 4020
2508.01 1062.99 4020
2517.62 1062.99 4020
2527.24 1062.99 4020
2536.85 1062.99 4020
2546.46 1062.99 4020
2556.08 1062.99 4020
2565.69 1062.99 4020
2568.9 1060.35 4010
2578.49 1060.35 4010
2575.81 1055.32 3991
2579.53 1052.94 3982
2576.69 1047.92 3963
2579.65 1045.28 3953
2589.1 1045.28 3953
2592.63 1042.9 3944
2583.59 1035.49 3916
2587 1033.11 3907
2596.34 1033.11 3907
2599.68 1030.73 3898
2602.98 1028.35 3889
2630.41 1035.49 3916
2671.46 1047.92 3963
2680.94 1047.92 3963
2703.31 1052.94 3982
2738.72 1062.99 4020
2748.34 1062.99 4020
2757.95 1062.99 4020
2754.48 1057.97 4001
2757.14 1055.32 3991
2766.69 1055.32 3991
2776.23 1055.32 3991
2779.49 1052.94 3982
2789.01 1052.94 3982
541.824 189.065 715
543.534 189.065 715
545.244 189.065 715
546.954 189.065 715
-2374.95 846.358 3172
-2367.37 846.358 3172
-2355.32 844.757 3166
-2343.3 843.156 3160
-2326.87 839.954 3148
-2319.35 839.954 3148
-2307.41 838.353 3142
-2295.51 836.752 3136
-2283.63 835.151 3130
-2284.87 838.353 3142
-2277.36 838.353 3142
-2278.51 841.555 3154
-2279.61 844.757 3166
-2276.35 846.358 3172
-2268.76 846.358 3172
-2274.01 851.161 3190
-2288.4 859.432 3221
-2289.2 862.634 3233
-2281.47 862.634 3233
-2300.46 872.773 3271
-2324.88 885.047 3317
-2353.97 899.188 3370
-2345.91 899.188 3370
-2337.85 899.188 3370
-2349.15 906.659 3398
-2341.02 906.659 3398
-2332.9 906.659 3398
-2324.77 906.659 3398
-2321.42 908.527 3405
-2327.54 914.13 3426
-2319.35 914.13 3426
-2315.88 915.998 3433
-2312.38 917.866 3440
-2308.84 919.734 3447
-2300.6 919.734 3447
-2297.01 921.602 3454
-2288.75 921.602 3454
-2285.11 923.469 3461
-2276.84 923.469 3461
-2273.15 925.337 3468
-2264.86 925.337 3468
-2256.56 925.337 3468
-2243.73 923.469 3461
-2235.45 923.469 3461
-2231.68 925.337 3468
-2228.52 927.472 3476
-2220.21 927.472 3476
-2225.26 933.075 3497
-2221.97 935.209 3505
-2223.06 939.212 3520
-2214.64 939.212 3520
-2215 942.947 3534
-2206.55 942.947 3534
-2212.4 949.084 3557
-2203.9 949.084 3557
-2195.39 949.084 3557
-2186.88 949.084 3557
-2192.46 955.221 3580
-2183.9 955.221 3580
-2180.2 957.356 3588
-2175.86 959.223 3595
-2167.26 959.223 3595
-2158.67 959.223 3595
-2154.85 961.358 3603
-2151 963.492 3611
-2147.12 965.627 3619
-2138.46 965.627 3619
-2129.81 965.627 3619
-2121.15 965.627 3619
-2112.5 965.627 3619
-2103.85 965.627 3619
-2095.19 965.627 3619
-2086.54 965.627 3619
-2077.88 965.627 3619
-2064.65 963.492 3611
-2051.46 961.358 3603
-2042.85 961.358 3603
-2034.23 961.358 3603
-2025.62 961.358 3603
-2008.6 957.356 3588
-1995.56 955.221 3580
-1991.44 957.356 3588
-1982.86 957.356 3588
-1974.28 957.356 3588
-1965.7 957.356 3588
-1957.12 957.356 3588
-1948.54 957.356 3588
-1943.75 959.223 3595
-1939.46 961.358 3603
-1930.84 961.358 3603
-1922.23 961.358 3603
-1917.86 963.492 3611
-1909.22 963.492 3611
-1913.22 969.896 3635
-1904.53 969.896 3635
-1903.66 973.898 3650
-1894.93 973.898 3650
-1886.2 973.898 3650
-1877.48 973.898 3650
-1868.75 973.898 3650
-1868.68 978.434 3667
-1868.03 982.704 3683
-1859.22 982.704 3683
-1850.41 982.704 3683
-1833.61 978.434 3667
-1824.84 978.434 3667
-1816.07 978.434 3667
-1807.3 978.434 3667
-1798.53 978.434 3667
-1789.76 978.434 3667
-1776.62 976.033 3658
-1760.14 971.764 3642
-1740.37 965.627 3619
-1731.72 965.627 3619
-1723.06 965.627 3619
-1706.83 961.358 3603
-1683.6 953.086 3572
-1668.03 949.084 3557
-1659.52 949.084 3557
-1644.05 945.082 3542
-1631.89 942.947 3534
-1620.22 941.079 3527
-1611.79 941.079 3527
-1600.17 939.212 3520
-1588.14 937.077 3512
-1579.74 937.077 3512
-1571.34 937.077 3512
-1562.94 937.077 3512
-1554.54 937.077 3512
-1546.15 937.077 3512
-1537.75 937.077 3512
-1526.3 935.209 3505
-1514.45 933.075 3497
-1503.08 931.207 3490
-1494.73 931.207 3490
-1486.39 931.207 3490
-1478.04 931.207 3490
-1478.96 937.077 3512
-1473.91 939.212 3520
-1465.49 939.212 3520
-1457.08 939.212 3520
-1451.54 941.079 3527
-1443.11 941.079 3527
-1434.67 941.079 3527
-1429.07 942.947 3534
-1420.62 942.947 3534
-1412.17 942.947 3534
-1403.72 942.947 3534
-1395.26 942.947 3534
-1389.95 945.082 3542
-1387.33 949.084 3557
-1378.83 949.084 3557
-1370.32 949.084 3557
-1361.82 949.084 3557
-1359.02 953.086 3572
-1350.48 953.086 3572
-1344.94 955.221 3580
-1336.38 955.221 3580
-1327.82 955.221 3580
-1316.31 953.086 3572
-1302.27 949.084 3557
-1282.86 941.079 3527
-1269 937.077 3512
-1260.6 937.077 3512
-1252.21 937.077 3512
-1243.81 937.077 3512
-1230.13 933.075 3497
-1221.77 933.075 3497
-1203.35 925.337 3468
-574.91 457.866 1716
-570.806 457.866 1716
-566.703 457.866 1716
-562.599 457.866 1716
-558.496 457.866 1716
-554.393 457.866 1716
-548.686 456.532 1711
-544.594 456.532 1711
-540.503 456.532 1711
-536.411 456.532 1711
-531.697 455.998 1709
-527.302 455.731 1708
-523.218 455.731 1708
-519.133 455.731 1708
-515.049 455.731 1708
-509.768 454.664 1704
-505.693 454.664 1704
-500.735 453.863 1701
-496.084 453.33 1699
-490.573 451.996 1694
-486.522 451.996 1694
-482.471 451.996 1694
-478.42 451.996 1694
-472.969 450.662 1689
-468.375 450.128 1687
-464.341 450.128 1687
-460.307 450.128 1687
-455.732 449.594 1685
-451.166 449.061 1683
-447.142 449.061 1683
-442.854 448.794 1682
-438.832 448.794 1682
-434.292 448.26 1680
-430.275 448.26 1680
-426.258 448.26 1680
-421.486 447.46 1677
-417.725 447.727 1678
-413.712 447.727 1678
-409.7 447.727 1678
-405.687 447.727 1678
-402.153 448.26 1680
-398.136 448.26 1680
-394.119 448.26 1680
-390.566 448.794 1682
-386.773 449.061 1683
-382.749 449.061 1683
-378.724 449.061 1683
-375.59 450.128 1687
-372.217 450.928 1690
-368.611 451.462 1692
-364.565 451.462 1692
-361.584 452.796 1697
-357.948 453.33 1699
-354.301 453.863 1701
-350.234 453.863 1701
-347.184 455.197 1706
-344.512 457.065 1713
-341.409 458.399 1718
-337.301 458.399 1718
-333.968 459.467 1722
-330.808 460.801 1727
-327.624 462.135 1732
-323.483 462.135 1732
-320.078 463.202 1736
-316.655 464.269 1740
-312.674 464.536 1741
-308.511 464.536 1741
-305.047 465.604 1745
-301.219 466.137 1747
-297.891 467.471 1752
-293.702 467.471 1752
-289.842 468.005 1754
-285.974 468.539 1756
-282.096 469.072 1758
-278.208 469.606 1760
-273.999 469.606 1760
-270.097 470.139 1762
-266.035 470.406 1763
-261.819 470.406 1763
-257.603 470.406 1763
-253.387 470.406 1763
-249.454 470.94 1765
-245.511 471.474 1767
-241.286 471.474 1767
-237.597 472.541 1771
-233.889 473.608 1775
-229.903 474.142 1777
-225.654 474.142 1777
-221.778 474.942 1780
-217.766 475.476 1782
-213.984 476.543 1786
-209.713 476.543 1786
-205.902 477.611 1790
-202.748 480.279 1800
-198.885 481.346 1804
-194.571 481.346 1804
-190.363 481.613 1805
-186.665 483.214 1811
-182.737 484.281 1815
-178.397 484.281 1815
-174.44 485.348 1819
-170.277 485.882 1821
-166.105 486.416 1823
-161.745 486.416 1823
-157.904 488.017 1829
-153.698 488.55 1831
-149.972 490.685 1839
-145.575 490.685 1839
-141.331 491.218 1841
-137.077 491.752 1843
-132.67 491.752 1843
-128.263 491.752 1843
-123.99 492.286 1845
-119.578 492.286 1845
-115.166 492.286 1845
-228.419 1057.41 3963
-218.942 1057.41 3963
-210.47 1062.48 3982
-200.948 1062.48 3982
-191.426 1062.48 3982
-181.035 1057.41 3963
-169.914 1047.27 3925
-159.055 1037.67 3889
-148.369 1028.06 3853
-139.156 1028.06 3853
-129.942 1028.06 3853
-120.164 1023.26 3835
-109.749 1011.79 3792
-100.681 1011.79 3792
-90.768 1002.45 3757
-81.2396 995.778 3732
-72.0052 991.509 3716
-63.1192 991.509 3716
-53.8682 984.838 3691
-44.6392 976.033 3658
-35.8133 973.898 3650
-27.0851 973.898 3650
-18.2814 969.896 3635
-9.50459 961.358 3603
-0.886748 959.223 3595
7.69497 957.356 3588
16.275 957.356 3588
24.7995 955.221 3580
33.2206 951.219 3565
41.7456 951.219 3565
50.2706 951.219 3565
58.5317 946.95 3549
66.8863 945.082 3542
75.1861 942.947 3534
83.6369 942.947 3534
92.0878 942.947 3534
100.34 941.079 3527
108.99 942.947 3534
117.44 942.947 3534
125.891 942.947 3534
134.646 945.082 3542
143.116 945.082 3542
151.586 945.082 3542
160.056 945.082 3542
168.146 942.947 3534
176.596 942.947 3534
184.681 941.079 3527
193.115 941.079 3527
201.549 941.079 3527
209.566 939.212 3520
217.984 939.212 3520
226.401 939.212 3520
234.819 939.212 3520
243.236 939.212 3520
251.653 939.212 3520
260.588 941.079 3527
269.022 941.079 3527
278.636 945.082 3542
287.674 946.95 3549
296.828 949.084 3557
305.334 949.084 3557
313.84 949.084 3557
322.345 949.084 3557
330.851 949.084 3557
339.357 949.084 3557
347.863 949.084 3557
356.369 949.084 3557
364.875 949.084 3557
373.381 949.084 3557
381.887 949.084 3557
388.746 945.082 3542
397.216 945.082 3542
400.532 933.075 3497
408.076 931.207 3490
416.422 931.207 3490
422.09 925.337 3468
430.383 925.337 3468
436.905 921.602 3454
443.36 917.866 3440
449.748 914.13 3426
457.941 914.13 3426
459.467 901.056 3377
465.604 897.321 3363
468.998 888.516 3330
476.961 888.516 3330
483.905 886.648 3323
491.851 886.648 3323
499.797 886.648 3323
507.744 886.648 3323
515.69 886.648 3323
523.636 886.648 3323
531.582 886.648 3323
540.665 888.516 3330
548.628 888.516 3330
556.591 888.516 3330
564.554 888.516 3330
572.517 888.516 3330
580.48 888.516 3330
588.444 888.516 3330
596.407 888.516 3330
605.64 890.383 3337
613.62 890.383 3337
621.6 890.383 3337
628.259 888.516 3330
636.222 888.516 3330
644.185 888.516 3330
650.777 886.648 3323
658.723 886.648 3323
666.67 886.648 3323
674.616 886.648 3323
682.562 886.648 3323
690.508 886.648 3323
698.455 886.648 3323
706.401 886.648 3323
713.058 885.047 3317
720.99 885.047 3317
728.921 885.047 3317
736.853 885.047 3317
744.785 885.047 3317
752.717 885.047 3317
760.649 885.047 3317
768.581 885.047 3317
776.513 885.047 3317
784.445 885.047 3317
790.705 883.179 3310
798.62 883.179 3310
811.409 888.516 3330
819.372 888.516 3330
827.335 888.516 3330
837.054 890.383 3337
845.033 890.383 3337
853.013 890.383 3337
869.507 899.188 3370
881.212 902.924 3384
894.823 908.527 3405
902.965 908.527 3405
918.6 915.998 3433
934.368 923.469 3461
946.73 927.472 3476
955.042 927.472 3476
973.331 937.077 3512
987.88 942.947 3534
1002.81 949.084 3557
1011.32 949.084 3557
1024.13 953.086 3572
1039.32 959.223 3595
1052.58 963.492 3611
1065.92 967.762 3627
1074.59 967.762 3627
1092.52 976.033 3658
1103.98 978.434 3667
1115.17 980.569 3675
1123.96 980.569 3675
1132.75 980.569 3675
1141.54 980.569 3675
1152.83 982.704 3683
1161.64 982.704 3683
1170.45 982.704 3683
1179.25 982.704 3683
1188.06 982.704 3683
1194.27 980.569 3675
1197.49 976.033 3658
1206.24 976.033 3658
1214.98 976.033 3658
1223.73 976.033 3658
1232.48 976.033 3658
1241.23 976.033 3658
1249.97 976.033 3658
1258.72 976.033 3658
1264.7 973.898 3650
1270.63 971.764 3642
1279.34 971.764 3642
1288.05 971.764 3642
1294.27 969.896 3635
1302.96 969.896 3635
1308.77 967.762 3627
1317.44 967.762 3627
1326.11 967.762 3627
1334.79 967.762 3627
1340.5 965.627 3619
1349.15 965.627 3619
1357.81 965.627 3619
1360.42 961.358 3603
1365.99 959.223 3595
1374.59 959.223 3595
1377.42 955.221 3580
1382.88 953.086 3572
1391.42 953.086 3572
1399.96 953.086 3572
1399.44 946.95 3549
1405.15 945.082 3542
1410.42 942.947 3534
1416.06 941.079 3527
1424.5 941.079 3527
1420.74 933.075 3497
1426.24 931.207 3490
1431.71 929.339 3483
1440.04 929.339 3483
1445.46 927.472 3476
1447.5 923.469 3461
1452.83 921.602 3454
1461.09 921.602 3454
1463.39 917.866 3440
1471.62 917.866 3440
1501.36 931.207 3490
1519.22 937.077 3512
1527.62 937.077 3512
1539.51 939.212 3520
1557.61 945.082 3542
1586.41 957.356 3588
1594.99 957.356 3588
1631.28 973.898 3650
1647.65 978.434 3667
1736.37 1025.66 3844
1745.56 1025.66 3844
1779.41 1040.07 3898
1809.84 1052.34 3944
1832.18 1059.82 3972
1841.68 1059.82 3972
1873.55 1072.62 4020
1896.75 1080.36 4049
1906.43 1080.36 4049
1916.11 1080.36 4049
1925.8 1080.36 4049
1930.7 1077.69 4039
1931.23 1072.62 4020
1940.84 1072.62 4020
1945.6 1069.95 4010
1927.4 1054.75 3953
1918.72 1044.87 3916
1928.09 1044.87 3916
1915.19 1032.87 3871
1898.1 1018.72 3818
1864.27 995.778 3732
1873.19 995.778 3732
1849.34 978.434 3667
1849.49 973.898 3650
1838.36 963.492 3611
1835.23 957.356 3588
1843.81 957.356 3588
1848.26 955.221 3580
1856.82 955.221 3580
1861.22 953.086 3572
1869.76 953.086 3572
1874.62 951.219 3565
1891.07 955.221 3580
1899.63 955.221 3580
1933.24 967.762 3627
1941.91 967.762 3627
1958.66 971.764 3642
1980.87 978.434 3667
1998.32 982.704 3683
2029.47 993.643 3724
2038.38 993.643 3724
2103.36 1020.86 3826
2152.26 1040.07 3898
2161.58 1040.07 3898
2212.11 1059.82 3972
2237.83 1067.55 4001
2263.69 1075.29 4030
2273.33 1075.29 4030
2282.96 1075.29 4030
2286.91 1072.62 4020
2318.8 1083.03 4059
2328.51 1083.03 4059
2338.22 1083.03 4059
2353.71 1085.7 4069
2363.44 1085.7 4069
2373.17 1085.7 4069
2382.9 1085.7 4069
2392.63 1085.7 4069
2390.55 1080.36 4049
2400.23 1080.36 4049
2398.61 1075.29 4030
2408.24 1075.29 4030
2423.28 1077.69 4039
2432.94 1077.69 4039
2442.6 1077.69 4039
2470.47 1085.7 4069
2480.2 1085.7 4069
2489.93 1085.7 4069
2499.66 1085.7 4069
2490.89 1077.69 4039
2494.98 1075.29 4030
2504.61 1075.29 4030
2514.25 1075.29 4030
2505.73 1067.55 4001
2515.29 1067.55 4001
2524.86 1067.55 4001
2540.13 1069.95 4010
2549.72 1069.95 4010
2559.31 1069.95 4010
2550.96 1062.48 3982
2560.48 1062.48 3982
2570 1062.48 3982
2567.22 1057.41 3963
2570.19 1054.75 3953
2573.77 1052.34 3944
2583.2 1052.34 3944
2574.23 1044.87 3916
2583.59 1044.87 3916
2587 1042.47 3907
2596.34 1042.47 3907
2599.68 1040.07 3898
2621.05 1044.87 3916
2661.98 1057.41 3963
2684.27 1062.48 3982
2693.79 1062.48 3982
2729.11 1072.62 4020
2738.72 1072.62 4020
2748.34 1072.62 4020
2757.95 1072.62 4020
2763.01 1059.82 3972
2772.51 1059.82 3972
2782.01 1059.82 3972
542.774 190.511 714
544.481 190.511 714
546.189 190.511 714
-2379.45 855.572 3178
-2371.85 855.572 3178
-2355.32 852.341 3166
-2347.75 852.341 3166
-2335.74 850.726 3160
-2328.19 850.726 3160
-2307.41 845.88 3142
-2295.51 844.265 3136
-2283.63 842.649 3130
-2284.87 845.88 3142
-2277.36 845.88 3142
-2278.51 849.11 3154
-2279.61 852.341 3166
-2276.35 853.956 3172
-2268.76 853.956 3172
-2274.01 858.802 3190
-2296.93 870.379 3233
-2293.45 871.994 3239
-2285.7 871.994 3239
-2305.38 882.493 3278
-2333.99 896.493 3330
-2353.97 907.261 3370
-2345.91 907.261 3370
-2366.99 918.568 3412
-2358.83 918.568 3412
-2350.67 918.568 3412
-2342.51 918.568 3412
-2339.14 920.453 3419
-2335.74 922.338 3426
-2332.3 924.222 3433
-2324.09 924.222 3433
-2320.6 926.107 3440
-2312.38 926.107 3440
-2308.84 927.991 3447
-2300.6 927.991 3447
-2297.01 929.876 3454
-2288.75 929.876 3454
-2280.49 929.876 3454
-2263.02 926.107 3440
-2254.8 926.107 3440
-2246.57 926.107 3440
-2238.34 926.107 3440
-2230.12 926.107 3440
-2221.89 926.107 3440
-2213.66 926.107 3440
-2209.93 927.991 3447
-2201.68 927.991 3447
-2202.35 931.76 3461
-2198.51 933.645 3468
-2195.27 935.798 3476
-2186.96 935.798 3476
-2183.03 937.683 3483
-2197.81 947.644 3520
-2193.74 949.528 3527
-2185.31 949.528 3527
-2176.87 949.528 3527
-2186.88 957.605 3557
-2183.28 959.759 3565
-2174.75 959.759 3565
-2175.34 963.797 3580
-2171.62 965.951 3588
-2167.26 967.835 3595
-2158.67 967.835 3595
-2154.85 969.989 3603
-2151 972.143 3611
-2147.12 974.296 3619
-2138.46 974.296 3619
-2129.81 974.296 3619
-2121.15 974.296 3619
-2112.5 974.296 3619
-2103.85 974.296 3619
-2095.19 974.296 3619
-2086.54 974.296 3619
-2077.88 974.296 3619
-2064.65 972.143 3611
-2056.02 972.143 3611
-2042.85 969.989 3603
-2034.23 969.989 3603
-2025.62 969.989 3603
-2008.6 965.951 3588
-1995.56 963.797 3580
-1987 963.797 3580
-1978.44 963.797 3580
-1974.28 965.951 3588
-1965.7 965.951 3588
-1957.12 965.951 3588
-1948.54 965.951 3588
-1943.75 967.835 3595
-1935.15 967.835 3595
-1926.56 967.835 3595
-1917.96 967.835 3595
-1913.61 969.989 3603
-1909.22 972.143 3611
-1904.8 974.296 3619
-1896.15 974.296 3619
-1899.49 980.488 3642
-1894.93 982.642 3650
-1886.2 982.642 3650
-1877.48 982.642 3650
-1868.75 982.642 3650
-1876.84 991.526 3683
-1868.03 991.526 3683
-1859.22 991.526 3683
-1850.41 991.526 3683
-1841.61 991.526 3683
-1832.8 991.526 3683
-1823.99 991.526 3683
-1815.19 991.526 3683
-1806.38 991.526 3683
-1797.57 991.526 3683
-1780.99 987.219 3667
-1767.87 984.796 3658
-1751.43 980.488 3642
-1742.72 980.488 3642
-1726.87 976.45 3627
-1714.41 974.296 3619
-1683.6 961.643 3572
-1671.78 959.759 3565
-1663.25 959.759 3565
-1644.05 953.567 3542
-1631.89 951.413 3534
-1623.44 951.413 3534
-1614.99 951.413 3534
-1600.17 947.644 3520
-1588.14 945.49 3512
-1579.74 945.49 3512
-1571.34 945.49 3512
-1562.94 945.49 3512
-1551.45 943.606 3505
-1543.06 943.606 3505
-1534.68 943.606 3505
-1519.77 939.567 3490
-1511.42 939.567 3490
-1500.06 937.683 3483
-1491.73 937.683 3483
-1483.4 937.683 3483
-1475.08 937.683 3483
-1476.01 943.606 3505
-1470.56 945.49 3512
-1462.16 945.49 3512
-1453.76 945.49 3512
-1448.66 947.644 3520
-1440.24 947.644 3520
-1431.82 947.644 3520
-1426.24 949.528 3527
-1417.8 949.528 3527
-1409.37 949.528 3527
-1400.93 949.528 3527
-1392.5 949.528 3527
-1389.95 953.567 3542
-1384.21 955.451 3549
-1375.73 955.451 3549
-1370.32 957.605 3557
-1361.82 957.605 3557
-1359.02 961.643 3572
-1350.48 961.643 3572
-1341.93 961.643 3572
-1333.39 961.643 3572
-1324.85 961.643 3572
-1313.73 959.759 3565
-1299.35 955.451 3549
-1277.4 945.49 3512
-1269 945.49 3512
-1260.6 945.49 3512
-1252.21 945.49 3512
-1243.81 945.49 3512
-1230.13 941.452 3497
-1221.77 941.452 3497
-1203.35 933.645 3468
-1195.05 933.645 3468
-576.25 463.053 1720
-572.137 463.053 1720
-568.024 463.053 1720
-563.255 462.515 1718
-559.147 462.515 1718
-554.393 461.976 1716
-549.968 461.707 1715
-545.231 461.169 1713
-541.134 461.169 1713
-536.411 460.63 1711
-531.697 460.092 1709
-527.302 459.823 1708
-523.218 459.823 1708
-519.133 459.823 1708
-515.049 459.823 1708
-509.768 458.746 1704
-505.693 458.746 1704
-500.735 457.938 1701
-496.084 457.4 1699
-490.573 456.054 1694
-486.522 456.054 1694
-482.471 456.054 1694
-478.42 456.054 1694
-472.969 454.708 1689
-468.375 454.169 1687
-464.341 454.169 1687
-460.307 454.169 1687
-455.732 453.631 1685
-451.166 453.092 1683
-447.142 453.092 1683
-442.854 452.823 1682
-438.832 452.823 1682
-434.292 452.285 1680
-430.275 452.285 1680
-426.258 452.285 1680
-421.486 451.477 1677
-417.725 451.746 1678
-413.712 451.746 1678
-409.7 451.746 1678
-405.687 451.746 1678
-401.675 451.746 1678
-398.136 452.285 1680
-394.119 452.285 1680
-390.101 452.285 1680
-386.543 452.823 1682
-383.203 453.631 1685
-379.174 453.631 1685
-375.59 454.169 1687
-372.217 454.977 1690
-368.611 455.515 1692
-364.565 455.515 1692
-361.584 456.861 1697
-357.948 457.4 1699
-354.51 458.207 1702
-350.44 458.207 1702
-347.184 459.284 1706
-344.512 461.169 1713
-341.409 462.515 1718
-337.301 462.515 1718
-333.968 463.592 1722
-330.042 463.861 1723
-327.057 465.476 1729
-322.922 465.476 1729
-319.71 466.822 1734
-316.291 467.899 1738
-312.674 468.707 1741
-308.511 468.707 1741
-304.347 468.707 1741
-301.219 470.322 1747
-297.381 470.861 1749
-293.199 470.861 1749
-289.842 472.207 1754
-285.974 472.745 1756
-282.096 473.284 1758
-278.208 473.822 1760
-273.999 473.822 1760
-270.097 474.36 1762
-265.884 474.36 1762
-261.819 474.63 1763
-257.603 474.63 1763
-253.387 474.63 1763
-249.454 475.168 1765
-245.511 475.706 1767
-241.286 475.706 1767
-237.597 476.783 1771
-233.889 477.86 1775
-229.903 478.399 1777
-225.654 478.399 1777
-221.778 479.206 1780
-217.766 479.745 1782
-213.984 480.822 1786
-209.713 480.822 1786
-205.902 481.898 1790
-202.748 484.591 1800
-198.885 485.668 1804
-194.571 485.668 1804
-190.363 485.937 1805
-186.665 487.552 1811
-182.737 488.629 1815
-178.397 488.629 1815
-174.44 489.706 1819
-170.277 490.244 1821
-166.105 490.783 1823
-161.745 490.783 1823
-157.904 492.398 1829
-153.698 492.936 1831
-149.972 495.09 1839
-145.575 495.09 1839
-141.331 495.629 1841
-136.928 495.629 1841
-132.67 496.167 1843
-128.263 496.167 1843
-123.99 496.705 1845
-119.578 496.705 1845
-115.166 496.705 1845
-210.47 1072.02 3982
-200.948 1072.02 3982
-191.426 1072.02 3982
-181.035 1066.91 3963
-169.914 1056.68 3925
-159.055 1046.98 3889
-148.369 1037.29 3853
-139.156 1037.29 3853
-129.942 1037.29 3853
-120.164 1032.45 3835
-109.749 1020.87 3792
-100.681 1020.87 3792
-90.768 1011.45 3757
-81.2396 1004.72 3732
-72.0052 1000.41 3716
-63.1192 1000.41 3716
-53.8682 993.68 3691
-44.6392 984.796 3658
-35.8133 982.642 3650
-27.0851 982.642 3650
-18.2814 978.604 3635
-9.50459 969.989 3603
-0.886748 967.835 3595
7.69497 965.951 3588
16.275 965.951 3588
24.7995 963.797 3580
33.2206 959.759 3565
41.7456 959.759 3565
50.2706 959.759 3565
58.5317 955.451 3549
66.8863 953.567 3542
75.1861 951.413 3534
83.6369 951.413 3534
92.0878 951.413 3534
100.34 949.528 3527
108.99 951.413 3534
117.44 951.413 3534
125.891 951.413 3534
134.646 953.567 3542
143.116 953.567 3542
151.586 953.567 3542
160.056 953.567 3542
168.146 951.413 3534
176.596 951.413 3534
184.681 949.528 3527
193.115 949.528 3527
201.549 949.528 3527
209.566 947.644 3520
217.984 947.644 3520
226.401 947.644 3520
234.819 947.644 3520
243.236 947.644 3520
251.653 947.644 3520
260.588 949.528 3527
269.022 949.528 3527
278.636 953.567 3542
287.674 955.451 3549
296.828 957.605 3557
305.334 957.605 3557
313.84 957.605 3557
322.345 957.605 3557
330.851 957.605 3557
339.357 957.605 3557
347.863 957.605 3557
356.369 957.605 3557
364.875 957.605 3557
373.381 957.605 3557
381.887 957.605 3557
388.746 953.567 3542
397.216 953.567 3542
400.532 941.452 3497
408.076 939.567 3490
416.422 939.567 3490
422.09 933.645 3468
430.383 933.645 3468
436.905 929.876 3454
443.36 926.107 3440
449.748 922.338 3426
457.941 922.338 3426
459.467 909.146 3377
465.604 905.377 3363
468.998 896.493 3330
476.961 896.493 3330
483.905 894.608 3323
491.851 894.608 3323
499.797 894.608 3323
507.744 894.608 3323
515.69 894.608 3323
523.636 894.608 3323
531.582 894.608 3323
540.665 896.493 3330
548.628 896.493 3330
556.591 896.493 3330
564.554 896.493 3330
572.517 896.493 3330
580.48 896.493 3330
588.444 896.493 3330
596.407 896.493 3330
605.64 898.377 3337
613.62 898.377 3337
621.6 898.377 3337
628.259 896.493 3330
636.222 896.493 3330
644.185 896.493 3330
650.777 894.608 3323
658.723 894.608 3323
666.67 894.608 3323
674.616 894.608 3323
682.562 894.608 3323
690.508 894.608 3323
697.194 892.993 3317
705.126 892.993 3317
713.058 892.993 3317
720.99 892.993 3317
728.921 892.993 3317
736.853 892.993 3317
744.785 892.993 3317
752.717 892.993 3317
760.649 892.993 3317
768.581 892.993 3317
776.513 892.993 3317
784.445 892.993 3317
790.705 891.108 3310
798.62 891.108 3310
809.703 894.608 3323
817.649 894.608 3323
827.335 896.493 3330
837.054 898.377 3337
845.033 898.377 3337
853.013 898.377 3337
869.507 907.261 3370
881.212 911.03 3384
894.823 916.684 3405
902.965 916.684 3405
918.6 924.222 3433
934.368 931.76 3461
946.73 935.798 3476
955.042 935.798 3476
973.331 945.49 3512
987.88 951.413 3534
1002.81 957.605 3557
1011.32 957.605 3557
1024.13 961.643 3572
1039.32 967.835 3595
1052.58 972.143 3611
1065.92 976.45 3627
1074.59 976.45 3627
1092.52 984.796 3658
1103.98 987.219 3667
1115.17 989.373 3675
1123.96 989.373 3675
1132.75 989.373 3675
1141.54 989.373 3675
1150.33 989.373 3675
1159.11 989.373 3675
1170.45 991.526 3683
1179.25 991.526 3683
1188.06 991.526 3683
1194.27 989.373 3675
1197.49 984.796 3658
1206.24 984.796 3658
1214.98 984.796 3658
1223.73 984.796 3658
1232.48 984.796 3658
1241.23 984.796 3658
1249.97 984.796 3658
1258.72 984.796 3658
1264.7 982.642 3650
1270.63 980.488 3642
1279.34 980.488 3642
1288.05 980.488 3642
1294.27 978.604 3635
1302.96 978.604 3635
1308.77 976.45 3627
1317.44 976.45 3627
1326.11 976.45 3627
1334.79 976.45 3627
1340.5 974.296 3619
1349.15 974.296 3619
1357.81 974.296 3619
1360.42 969.989 3603
1365.99 967.835 3595
1374.59 967.835 3595
1380.49 965.951 3588
1385.98 963.797 3580
1391.42 961.643 3572
1399.96 961.643 3572
1399.44 955.451 3549
1407.92 955.451 3549
1410.42 951.413 3534
1416.06 949.528 3527
1424.5 949.528 3527
1420.74 941.452 3497
1429.11 941.452 3497
1434.59 939.567 3490
1442.94 939.567 3490
1448.37 937.683 3483
1447.5 931.76 3461
1452.83 929.876 3454
1461.09 929.876 3454
1463.39 926.107 3440
1474.61 927.991 3447
1501.36 939.567 3490
1519.22 945.49 3512
1527.62 945.49 3512
1539.51 947.644 3520
1557.61 953.567 3542
1586.41 965.951 3588
1594.99 965.951 3588
1631.28 982.642 3650
1647.65 987.219 3667
1736.37 1034.87 3844
1745.56 1034.87 3844
1779.41 1049.41 3898
1809.84 1061.79 3944
1832.18 1069.33 3972
1841.68 1069.33 3972
1873.55 1082.25 4020
1901.43 1092.75 4059
1911.14 1092.75 4059
1920.85 1092.75 4059
1930.55 1092.75 4059
1935.48 1090.06 4049
1931.23 1082.25 4020
1940.84 1082.25 4020
1945.6 1079.56 4010
1927.4 1064.21 3953
1918.72 1054.25 3916
1928.09 1054.25 3916
1915.19 1042.14 3871
1898.1 1027.87 3818
1864.27 1004.72 3732
1873.19 1004.72 3732
1849.34 987.219 3667
1849.49 982.642 3650
1838.36 972.143 3611
1835.23 965.951 3588
1843.81 965.951 3588
1848.26 963.797 3580
1856.82 963.797 3580
1861.22 961.643 3572
1869.76 961.643 3572
1874.62 959.759 3565
1891.07 963.797 3580
1899.63 963.797 3580
1933.24 976.45 3627
1941.91 976.45 3627
1958.66 980.488 3642
1980.87 987.219 3667
1998.32 991.526 3683
2029.47 1002.56 3724
2038.38 1002.56 3724
2103.36 1030.02 3826
2152.26 1049.41 3898
2161.58 1049.41 3898
2212.11 1069.33 3972
2237.83 1077.14 4001
2263.69 1084.94 4030
2278.4 1087.37 4039
2288.06 1087.37 4039
2303.41 1090.06 4049
2324.52 1095.44 4069
2334.25 1095.44 4069
2343.98 1095.44 4069
2353.71 1095.44 4069
2363.44 1095.44 4069
2373.17 1095.44 4069
2382.9 1095.44 4069
2398.51 1098.14 4079
2408.26 1098.14 4079
2418.02 1098.14 4079
2409.92 1090.06 4049
2419.6 1090.06 4049
2429.28 1090.06 4049
2438.96 1090.06 4049
2442.6 1087.37 4039
2470.47 1095.44 4069
2480.2 1095.44 4069
2489.93 1095.44 4069
2499.66 1095.44 4069
2503.22 1092.75 4059
2500.55 1087.37 4039
2504.61 1084.94 4030
2514.25 1084.94 4030
2511.36 1079.56 4010
2515.29 1077.14 4001
2524.86 1077.14 4001
2540.13 1079.56 4010
2549.72 1079.56 4010
2559.31 1079.56 4010
2550.96 1072.02 3982
2560.48 1072.02 3982
2570 1072.02 3982
2567.22 1066.91 3963
2570.19 1064.21 3953
2573.77 1061.79 3944
2583.2 1061.79 3944
2574.23 1054.25 3916
2583.59 1054.25 3916
2587 1051.83 3907
2596.34 1051.83 3907
2605.68 1051.83 3907
2621.05 1054.25 3916
2668.03 1069.33 3972
2697.08 1077.14 4001
2706.65 1077.14 4001
2735.9 1084.94 4030
2745.54 1084.94 4030
2755.17 1084.94 4030
2757.95 1082.25 4020
2763.01 1069.33 3972
2772.51 1069.33 3972
2782.01 1069.33 3972
542.774 192.221 714
544.481 192.221 714
546.189 192.221 714
-2379.45 863.185 3178
-2371.85 863.185 3178
-2355.32 859.925 3166
-2347.75 859.925 3166
-2335.74 858.296 3160
-2328.19 858.296 3160
-2307.41 853.407 3142
-2295.51 851.777 3136
-2283.63 850.147 3130
-2284.87 853.407 3142
-2277.36 853.407 3142
-2282.85 858.296 3160
-2283.93 861.555 3172
-2280.65 863.185 3178
-2273.05 863.185 3178
-2274.01 866.444 3190
-2296.93 878.123 3233
-2298.4 881.654 3246
-2290.64 881.654 3246
-2305.38 890.346 3278
-2333.99 904.47 3330
-2353.97 915.334 3370
-2345.91 915.334 3370
-2366.99 926.742 3412
-2358.83 926.742 3412
-2350.67 926.742 3412
-2342.51 926.742 3412
-2339.14 928.643 3419
-2340.51 932.446 3433
-2337.06 934.347 3440
-2328.83 934.347 3440
-2320.6 934.347 3440
-2312.38 934.347 3440
-2308.84 936.248 3447
-2300.6 936.248 3447
-2297.01 938.15 3454
-2288.75 938.15 3454
-2280.49 938.15 3454
-2263.02 934.347 3440
-2254.8 934.347 3440
-2246.57 934.347 3440
-2238.34 934.347 3440
-2230.12 934.347 3440
-2221.89 934.347 3440
-2213.66 934.347 3440
-2214.41 938.15 3454
-2206.15 938.15 3454
-2206.8 941.952 3468
-2203.58 944.125 3476
-2204.11 947.928 3490
-2195.77 947.928 3490
-2191.81 949.829 3497
-2197.81 956.076 3520
-2193.74 957.977 3527
-2185.31 957.977 3527
-2190.45 963.953 3549
-2191.8 968.299 3565
-2187.57 970.2 3572
-2179.02 970.2 3572
-2180.2 974.546 3588
-2175.86 976.447 3595
-2172.09 978.62 3603
-2163.47 978.62 3603
-2154.85 978.62 3603
-2155.77 982.966 3619
-2147.12 982.966 3619
-2138.46 982.966 3619
-2129.81 982.966 3619
-2121.15 982.966 3619
-2112.5 982.966 3619
-2103.85 982.966 3619
-2095.19 982.966 3619
-2086.54 982.966 3619
-2077.88 982.966 3619
-2064.65 980.793 3611
-2056.02 980.793 3611
-2042.85 978.62 3603
-2034.23 978.62 3603
-2025.62 978.62 3603
-2008.6 974.546 3588
-1995.56 972.373 3580
-1987 972.373 3580
-1978.44 972.373 3580
-1974.28 974.546 3588
-1965.7 974.546 3588
-1957.12 974.546 3588
-1948.54 974.546 3588
-1943.75 976.447 3595
-1935.15 976.447 3595
-1926.56 976.447 3595
-1917.96 976.447 3595
-1913.61 978.62 3603
-1909.22 980.793 3611
-1904.8 982.966 3619
-1896.15 982.966 3619
-1899.49 989.213 3642
-1894.93 991.386 3650
-1886.2 991.386 3650
-1877.48 991.386 3650
-1872.84 993.559 3658
-1876.84 1000.35 3683
-1868.03 1000.35 3683
-1859.22 1000.35 3683
-1850.41 1000.35 3683
-1841.61 1000.35 3683
-1832.8 1000.35 3683
-1823.99 1000.35 3683
-1819.13 1002.52 3691
-1810.3 1002.52 3691
-1801.48 1002.52 3691
-1792.65 1002.52 3691
-1767.87 993.559 3658
-1751.43 989.213 3642
-1742.72 989.213 3642
-1734.01 989.213 3642
-1718.2 985.139 3627
-1687.37 972.373 3580
-1675.06 970.2 3572
-1666.52 970.2 3572
-1644.05 962.052 3542
-1631.89 959.879 3534
-1623.44 959.879 3534
-1614.99 959.879 3534
-1600.17 956.076 3520
-1584.97 952.002 3505
-1576.59 952.002 3505
-1568.21 952.002 3505
-1559.83 952.002 3505
-1547.9 949.829 3497
-1539.54 949.829 3497
-1531.18 949.829 3497
-1513.67 944.125 3476
-1505.36 944.125 3476
-1493.6 941.952 3468
-1485.31 941.952 3468
-1477.02 941.952 3468
-1468.72 941.952 3468
-1472.64 949.829 3497
-1467.63 952.002 3505
-1459.25 952.002 3505
-1453.76 953.903 3512
-1448.66 956.076 3520
-1440.24 956.076 3520
-1431.82 956.076 3520
-1426.24 957.977 3527
-1417.8 957.977 3527
-1412.17 959.879 3534
-1403.72 959.879 3534
-1395.26 959.879 3534
-1389.95 962.052 3542
-1384.21 963.953 3549
-1375.73 963.953 3549
-1370.32 966.126 3557
-1361.82 966.126 3557
-1359.02 970.2 3572
-1350.48 970.2 3572
-1341.93 970.2 3572
-1333.39 970.2 3572
-1324.85 970.2 3572
-1310.78 966.126 3557
-1299.35 963.953 3549
-1277.4 953.903 3512
-1269 953.903 3512
-1260.6 953.903 3512
-1249.71 952.002 3505
-1238.5 949.829 3497
-1230.13 949.829 3497
-1221.77 949.829 3497
-1203.35 941.952 3468
-1195.05 941.952 3468
-1172.39 930.544 3426
-1164.19 930.544 3426
-576.25 467.174 1720
-572.137 467.174 1720
-568.024 467.174 1720
-563.255 466.63 1718
-559.147 466.63 1718
-555.039 466.63 1718
-549.968 465.815 1715
-545.867 465.815 1715
-541.766 465.815 1715
-537.038 465.272 1713
-531.697 464.186 1709
-527.302 463.914 1708
-523.218 463.914 1708
-519.133 463.914 1708
-514.446 463.371 1706
-509.768 462.828 1704
-505.693 462.828 1704
-501.03 462.285 1702
-496.084 461.47 1699
-490.862 460.383 1695
-486.809 460.383 1695
-482.471 460.112 1694
-478.42 460.112 1694
-473.249 459.025 1690
-468.93 458.754 1689
-464.891 458.754 1689
-460.307 458.21 1687
-455.732 457.667 1685
-451.166 457.124 1683
-447.142 457.124 1683
-443.117 457.124 1683
-438.832 456.852 1682
-434.809 456.852 1682
-430.787 456.852 1682
-426.258 456.309 1680
-421.486 455.494 1677
-417.476 455.494 1677
-413.712 455.766 1678
-409.7 455.766 1678
-405.687 455.766 1678
-401.675 455.766 1678
-398.136 456.309 1680
-394.119 456.309 1680
-390.101 456.309 1680
-386.543 456.852 1682
-383.203 457.667 1685
-379.174 457.667 1685
-375.59 458.21 1687
-371.996 458.754 1689
-368.611 459.568 1692
-364.565 459.568 1692
-361.584 460.926 1697
-357.948 461.47 1699
-354.51 462.285 1702
-350.44 462.285 1702
-347.184 463.371 1706
-344.512 465.272 1713
-341.012 466.087 1716
-336.908 466.087 1716
-333.581 467.174 1720
-330.042 467.988 1723
-327.057 469.618 1729
-322.922 469.618 1729
-319.71 470.976 1734
-316.291 472.063 1738
-312.674 472.877 1741
-308.511 472.877 1741
-304.697 473.421 1743
-301.219 474.507 1747
-297.381 475.05 1749
-293.199 475.05 1749
-289.842 476.408 1754
-285.974 476.952 1756
-282.096 477.495 1758
-278.208 478.038 1760
-273.999 478.038 1760
-270.097 478.581 1762
-266.035 478.853 1763
-261.819 478.853 1763
-257.603 478.853 1763
-253.387 478.853 1763
-249.454 479.396 1765
-245.511 479.939 1767
-241.286 479.939 1767
-237.597 481.026 1771
-233.889 482.112 1775
-229.903 482.655 1777
-225.654 482.655 1777
-221.653 483.199 1779
-217.766 484.014 1782
-213.984 485.1 1786
-209.713 485.1 1786
-205.902 486.186 1790
-202.748 488.903 1800
-198.885 489.989 1804
-194.571 489.989 1804
-190.363 490.261 1805
-186.665 491.89 1811
-182.737 492.977 1815
-178.397 492.977 1815
-174.44 494.063 1819
-170.277 494.606 1821
-166.105 495.15 1823
-161.745 495.15 1823
-157.904 496.779 1829
-153.698 497.323 1831
-149.972 499.495 1839
-145.575 499.495 1839
-141.331 500.039 1841
-136.928 500.039 1841
-132.526 500.039 1841
-128.123 500.039 1841
-123.855 500.582 1843
-119.448 500.582 1843
-115.041 500.582 1843
-210.47 1081.56 3982
-200.948 1081.56 3982
-191.426 1081.56 3982
-181.035 1076.4 3963
-169.914 1066.08 3925
-159.424 1058.75 3898
-149.409 1053.86 3880
-140.131 1053.86 3880
-130.853 1053.86 3880
