2570 700.004 3982
2579.53 700.004 3982
2594.9 701.587 3991
2604.44 701.587 3991
2620.54 703.344 4001
2630.1 703.344 4001
2652.21 706.685 4020
2674.4 710.025 4039
2684.06 710.025 4039
2693.72 710.025 4039
2723.46 715.298 4069
2733.19 715.298 4069
2742.92 715.298 4069
528.139 129.031 734
529.894 129.031 734
531.65 129.031 734
533.405 129.031 734
535.16 129.031 734
536.915 129.031 734
538.67 129.031 734
538.953 128.68 732
539.226 128.328 730
540.972 128.328 730
542.717 128.328 730
544.463 128.328 730
545.461 128.152 729
547.204 128.152 729
548.947 128.152 729
550.69 128.152 729
551.676 127.977 728
553.417 127.977 728
555.158 127.977 728
556.898 127.977 728
-2356.98 560.935 3148
-2349.46 560.935 3148
-2341.93 560.935 3148
-2329.95 559.866 3142
-2322.44 559.866 3142
-2323.77 562.004 3154
-2316.22 562.004 3154
-2308.68 562.004 3154
-2301.14 562.004 3154
-2297.96 563.073 3160
-2290.4 563.073 3160
-2304.52 568.419 3190
-2314.17 572.695 3214
-2338.06 580.535 3258
-2330.27 580.535 3258
-2331.75 582.852 3271
-2453.94 615.46 3454
-2445.68 615.46 3454
-2493.88 629.715 3534
-2556.46 647.712 3635
-2587.02 657.691 3691
-2578.19 657.691 3691
-2592.34 663.571 3724
-2600.77 668.026 3749
-2591.81 668.026 3749
-2582.84 668.026 3749
-2573.88 668.026 3749
-2558.76 666.422 3740
-2549.81 666.422 3740
-2530 663.571 3724
-2509.58 660.542 3707
-2500.72 660.542 3707
-2491.86 660.542 3707
-2482.99 660.542 3707
-2463.45 657.691 3691
-2432.68 651.811 3658
-2423.93 651.811 3658
-2415.18 651.811 3658
-2406.43 651.811 3658
-2387.2 648.96 3642
-2378.49 648.96 3642
-2360.02 646.287 3627
-2335.79 642.01 3603
-2327.17 642.01 3603
-2318.56 642.01 3603
-2309.94 642.01 3603
-2301.32 642.01 3603
-2297.8 643.436 3611
-2299.31 646.287 3627
-2290.63 646.287 3627
-2307.13 653.414 3667
-2303.37 654.84 3675
-2294.58 654.84 3675
-2285.8 654.84 3675
-2203.42 659.116 3699
-2194.58 659.116 3699
-2185.73 659.116 3699
-2148.05 650.385 3650
-2134.63 648.96 3642
-2125.93 648.96 3642
-2095.76 647.712 3635
-2095.68 650.385 3650
-2086.95 650.385 3650
-2110.68 660.542 3707
-2106.92 662.145 3716
-2098.03 662.145 3716
-2089.15 662.145 3716
-1862.64 707.761 3972
-1853.14 707.761 3972
-1843.64 707.761 3972
-1829.99 706.158 3963
-1820.51 706.158 3963
-1802.35 702.772 3944
-1792.92 702.772 3944
-1779.42 701.169 3935
-1770.01 701.169 3935
-1744.04 694.576 3898
-1730.72 692.972 3889
-1709.47 688.161 3862
-1700.23 688.161 3862
-1691 688.161 3862
-1681.76 688.161 3862
-1668.63 686.557 3853
-1663.29 688.161 3862
-1654.06 688.161 3862
-1644.82 688.161 3862
-1647.02 692.972 3889
-1657.09 701.169 3935
-1647.68 701.169 3935
-1638.27 701.169 3935
-1644.18 707.761 3972
-1638.8 709.543 3982
-1629.27 709.543 3982
-1619.75 709.543 3982
-1610.23 709.543 3982
-1593.07 706.158 3963
-1610.36 718.096 4030
-1600.73 718.096 4030
-1594.64 719.7 4039
-1584.99 719.7 4039
-1575.33 719.7 4039
-1562.18 718.096 4030
-1541.37 712.929 4001
-1539.08 716.314 4020
-1529.46 716.314 4020
-1519.85 716.314 4020
-1510.24 716.314 4020
-1475.62 704.376 3953
-1466.16 704.376 3953
-1436.44 694.576 3898
-1427.12 694.576 3898
-1434.53 702.772 3944
-1428.35 704.376 3953
-1418.9 704.376 3953
-1409.45 704.376 3953
-1390.08 699.387 3925
-1380.69 699.387 3925
-1371.3 699.387 3925
-627.697 322.342 1809
-623.371 322.342 1809
-619.045 322.342 1809
-613.02 321.451 1804
-608.706 321.451 1804
-602.382 320.381 1798
-592.761 317.53 1782
-587.508 316.996 1779
-582.599 316.639 1777
-578.349 316.639 1777
-572.808 315.927 1773
-567.927 315.57 1771
-561.145 314.145 1763
-556.929 314.145 1763
-551.773 313.61 1760
-546.942 313.254 1758
-542.121 312.898 1756
-537.922 312.898 1756
-531.595 311.65 1749
-526.809 311.294 1747
-521.435 310.581 1743
-517.267 310.581 1743
-513.099 310.581 1743
-508.347 310.225 1741
-503.894 310.047 1740
-499.733 310.047 1740
-495.572 310.047 1740
-491.412 310.047 1740
-487.531 310.225 1741
-483.367 310.225 1741
-479.204 310.225 1741
-474.768 310.047 1740
-470.607 310.047 1740
-466.446 310.047 1740
-462.285 310.047 1740
-458.125 310.047 1740
-454.225 310.225 1741
-450.578 310.581 1743
-446.923 310.938 1745
-442.75 310.938 1745
-438.577 310.938 1745
-434.902 311.294 1747
-431.217 311.65 1749
-427.035 311.65 1749
-422.853 311.65 1749
-418.67 311.65 1749
-414.488 311.65 1749
-410.306 311.65 1749
-406.123 311.65 1749
-401.481 311.294 1747
-397.304 311.294 1747
-391.101 309.69 1738
-386.499 309.334 1736
-381.467 308.621 1732
-377.325 308.621 1732
-372.537 308.086 1729
-367.55 307.374 1725
-363.004 307.017 1723
-358.884 307.017 1723
-354.146 306.483 1720
-349.626 306.126 1718
-344.914 305.592 1715
-340.813 305.592 1715
-335.534 304.523 1709
-331.253 304.345 1708
-326.786 303.988 1706
-322.706 303.988 1706
-317.693 303.097 1701
-312.888 302.384 1697
-308.83 302.384 1697
-304.413 302.028 1695
-300.359 302.028 1695
-296.306 302.028 1695
-292.253 302.028 1695
-288.199 302.028 1695
-284.481 302.384 1697
-280.423 302.384 1697
-276.365 302.384 1697
-272.307 302.384 1697
-268.249 302.384 1697
-264.191 302.384 1697
-260.44 302.741 1699
-256.377 302.741 1699
-252.314 302.741 1699
-248.251 302.741 1699
-244.189 302.741 1699
-240.126 302.741 1699
-236.341 303.097 1701
-232.273 303.097 1701
-228.34 303.275 1702
-224.27 303.275 1702
-220.458 303.632 1704
-216.384 303.632 1704
-212.309 303.632 1704
-208.723 304.345 1708
-204.758 304.523 1709
-200.672 304.523 1709
-196.815 304.879 1711
-193.174 305.592 1715
-189.073 305.592 1715
-184.972 305.592 1715
-181.398 306.483 1720
-177.594 307.017 1723
-174.38 308.621 1732
-170.238 308.621 1732
-166.097 308.621 1732
-162.142 308.977 1734
-158.36 309.69 1738
-155.002 311.294 1747
-150.997 311.65 1749
-147.067 312.185 1752
-143.367 313.254 1758
-139.321 313.61 1760
-135.112 313.61 1760
-131.276 314.501 1765
-127.199 314.858 1767
-124.017 317.53 1782
-119.756 317.53 1782
-115.884 318.6 1788
-112.232 320.381 1798
-107.933 320.381 1798
-103.633 320.381 1798
-99.4439 320.738 1800
-95.1396 320.738 1800
-90.8353 320.738 1800
-86.5309 320.738 1800
-154.069 712.929 4001
-144.501 712.929 4001
-134.933 712.929 4001
-125.648 714.533 4010
-116.059 714.533 4010
-106.469 714.533 4010
-96.8804 714.533 4010
-87.2912 714.533 4010
-78.4578 721.482 4049
-68.9453 723.264 4059
-59.239 723.264 4059
-49.5327 723.264 4059
-39.8264 723.264 4059
-30.2685 726.828 4079
-20.5144 726.828 4079
-10.7603 726.828 4079
-0.991579 716.314 4020
8.68365 721.482 4049
18.366 721.482 4049
28.0484 721.482 4049
37.7308 721.482 4049
47.4132 721.482 4049
56.5456 714.533 4010
63.2486 683.35 3835
72.0982 680.321 3818
86.781 726.828 4079
96.5351 726.828 4079
106.289 726.828 4079
115.474 723.264 4059
125.181 723.264 4059
133.591 716.314 4020
140.817 704.376 3953
149.206 699.387 3925
157.864 696.179 3907
167.207 696.179 3907
175.737 692.972 3889
183.323 686.557 3853
190.338 678.717 3809
199.447 678.717 3809
207.625 675.688 3792
216.178 674.084 3783
224.689 672.48 3774
233.713 672.48 3774
242.738 672.48 3774
250.629 669.451 3757
258.438 666.422 3740
266.81 664.996 3732
275.734 664.996 3732
284.658 664.996 3732
294.212 666.422 3740
303.156 666.422 3740
312.099 666.422 3740
321.043 666.422 3740
329.28 664.996 3732
338.204 664.996 3732
347.129 664.996 3732
355.29 663.571 3724
364.195 663.571 3724
372.299 662.145 3716
381.185 662.145 3716
389.126 660.542 3707
393.696 653.414 3667
398.075 646.287 3627
406.748 646.287 3627
410.955 639.337 3588
418.599 637.912 3580
423.461 632.388 3549
430.122 629.715 3534
438.573 629.715 3534
441.458 621.875 3490
448 619.38 3476
452.505 614.213 3447
460.748 614.213 3447
465.181 609.224 3419
472.388 607.976 3412
479.561 606.729 3405
487.703 606.729 3405
493.807 604.234 3391
499.844 601.74 3377
508.972 602.987 3384
519.203 605.482 3398
527.329 605.482 3398
538.764 609.224 3419
551.419 614.213 3447
563.071 617.955 3468
573.836 620.628 3483
582.164 620.628 3483
592.867 623.122 3497
602.605 624.548 3505
616.041 629.715 3534
624.492 629.715 3534
635.63 632.388 3549
644.116 632.388 3549
652.603 632.388 3549
661.09 632.388 3549
669.577 632.388 3549
678.063 632.388 3549
686.55 632.388 3549
695.037 632.388 3549
705.109 633.814 3557
713.615 633.814 3557
722.121 633.814 3557
730.627 633.814 3557
737.471 632.388 3549
745.957 632.388 3549
754.444 632.388 3549
759.706 629.715 3534
768.157 629.715 3534
773.531 627.221 3520
781.949 627.221 3520
786.998 624.548 3505
795.38 624.548 3505
803.761 624.548 3505
812.143 624.548 3505
820.524 624.548 3505
828.906 624.548 3505
840.87 627.221 3520
849.288 627.221 3520
863.066 631.141 3542
871.536 631.141 3542
880.006 631.141 3542
890.232 632.388 3549
900.744 633.814 3557
909.25 633.814 3557
921.626 636.486 3572
936.157 640.585 3595
946.856 642.01 3603
955.472 642.01 3603
968.369 644.861 3619
981.343 647.712 3635
994.121 650.385 3650
1002.85 650.385 3650
1018.51 654.84 3675
1029.53 656.265 3683
1040.59 657.691 3691
1049.42 657.691 3691
1058.25 657.691 3691
1067.07 657.691 3691
1075.9 657.691 3691
1084.72 657.691 3691
1095.92 659.116 3699
1104.77 659.116 3699
1116.02 660.542 3707
1124.88 660.542 3707
1133.75 660.542 3707
1142.61 660.542 3707
1151.48 660.542 3707
1160.34 660.542 3707
1169.21 660.542 3707
1178.07 660.542 3707
1189.82 662.145 3716
1198.7 662.145 3716
1207.59 662.145 3716
1219.1 663.571 3724
1228 663.571 3724
1236.91 663.571 3724
1243.13 662.145 3716
1252.02 662.145 3716
1257.85 660.542 3707
1266.72 660.542 3707
1275.58 660.542 3707
1281.67 659.116 3699
1290.52 659.116 3699
1299.37 659.116 3699
1308.21 659.116 3699
1317.06 659.116 3699
1317.3 654.84 3675
1326.09 654.84 3675
1334.88 654.84 3675
1343.66 654.84 3675
1352.45 654.84 3675
1358.28 653.414 3667
1367.05 653.414 3667
1375.81 653.414 3667
1381.18 651.811 3658
1389.93 651.811 3658
1398.68 651.811 3658
1407.43 651.811 3658
1409.98 648.96 3642
1424.92 651.811 3658
1437.2 653.414 3667
1445.97 653.414 3667
1461.08 656.265 3683
1476.27 659.116 3699
1488.33 660.542 3707
1497.2 660.542 3707
1506.06 660.542 3707
1514.93 660.542 3707
1527.49 662.145 3716
1536.38 662.145 3716
1545.26 662.145 3716
1554.15 662.145 3716
1566.4 663.571 3724
1578.69 664.996 3732
1587.61 664.996 3732
1596.54 664.996 3732
1605.46 664.996 3732
1617.85 666.422 3740
1626.79 666.422 3740
1643.17 669.451 3757
1659.63 672.48 3774
1668.65 672.48 3774
1677.68 672.48 3774
1686.7 672.48 3774
1699.77 674.084 3783
1716.5 677.113 3800
1725.58 677.113 3800
1750.65 683.35 3835
1780.47 691.368 3880
1798.05 694.576 3898
1811.54 696.179 3907
1820.89 696.179 3907
1843.35 701.169 3935
1865.94 706.158 3963
1884.41 709.543 3982
1893.93 709.543 3982
1907.75 711.147 3991
1917.3 711.147 3991
1926.84 711.147 3991
1932.02 709.543 3982
1927.4 704.376 3953
1923.13 699.387 3925
1932.52 699.387 3925
1906.28 686.557 3853
1885.17 675.688 3792
1872.76 668.026 3749
1881.72 668.026 3749
1869.51 660.542 3707
1853.54 651.811 3658
1858.22 650.385 3650
1851.09 644.861 3619
1863.86 646.287 3627
1872.53 646.287 3627
1885.35 647.712 3635
1901.86 650.385 3650
1910.59 650.385 3650
1919.32 650.385 3650
1928.04 650.385 3650
1936.77 650.385 3650
1949.76 651.811 3658
1958.51 651.811 3658
1980.7 656.265 3683
1998.15 659.116 3699
2016.22 662.145 3716
2038.19 666.422 3740
2047.13 666.422 3740
2079.72 674.084 3783
2122.44 684.953 3844
2166.57 696.179 3907
2191.51 701.169 3935
2216.58 706.158 3963
2231.11 707.761 3972
2251.33 711.147 3991
2260.87 711.147 3991
2270.41 711.147 3991
2285.67 712.929 4001
2300.4 714.533 4010
2309.99 714.533 4010
2319.58 714.533 4010
2329.17 714.533 4010
2338.76 714.533 4010
2348.35 714.533 4010
2363.82 716.314 4020
2373.43 716.314 4020
2383.04 716.314 4020
2386.7 714.533 4010
2396.29 714.533 4010
2405.88 714.533 4010
2415.47 714.533 4010
2425.06 714.533 4010
2434.65 714.533 4010
2438.75 712.929 4001
2442.2 711.147 3991
2451.74 711.147 3991
2455.74 709.543 3982
2465.26 709.543 3982
2468.57 707.761 3972
2478.06 707.761 3972
2481.93 706.158 3963
2491.4 706.158 3963
2494.57 704.376 3953
2504.02 704.376 3953
2513.48 704.376 3953
2511.44 701.169 3935
2520.85 701.169 3935
2536.05 702.772 3944
2570 709.543 3982
2579.53 709.543 3982
2594.9 711.147 3991
2604.44 711.147 3991
2613.99 711.147 3991
2623.53 711.147 3991
2652.21 716.314 4020
2674.4 719.7 4039
2690.7 721.482 4049
2700.39 721.482 4049
2723.46 725.046 4069
2733.19 725.046 4069
2742.92 725.046 4069
529.172 130.612 733
530.925 130.612 733
532.678 130.612 733
534.431 130.612 733
536.184 130.612 733
537.203 130.433 732
537.481 130.077 730
539.226 130.077 730
540.972 130.077 730
541.231 129.721 728
542.226 129.542 727
543.964 129.542 727
545.703 129.542 727
547.441 129.542 727
549.18 129.542 727
550.918 129.542 727
552.656 129.542 727
554.395 129.542 727
556.133 129.542 727
-2356.98 568.476 3148
-2349.46 568.476 3148
-2341.93 568.476 3148
-2334.4 568.476 3148
-2326.87 568.476 3148
-2323.77 569.559 3154
-2316.22 569.559 3154
-2308.68 569.559 3154
-2296.76 568.476 3148
-2289.23 568.476 3148
-2281.71 568.476 3148
-2295.85 573.893 3178
-2301.21 577.144 3196
-2315.82 582.742 3227
-2308.1 582.742 3227
-2331.75 590.688 3271
-2323.93 590.688 3271
-2316.1 590.688 3271
-2556.46 656.42 3635
-2581.41 665.088 3683
-2572.6 665.088 3683
-2580.5 669.422 3707
-2583.43 672.492 3724
-2585.59 675.381 3740
-2576.64 675.381 3740
-2573.88 677.006 3749
-2564.91 677.006 3749
-2555.95 677.006 3749
-2546.98 677.006 3749
-2538.02 677.006 3749
-2517.59 673.936 3732
-2508.66 673.936 3732
-2482.99 669.422 3707
-2458.11 665.088 3683
-2432.68 660.573 3658
-2423.93 660.573 3658
-2415.18 660.573 3658
-2406.43 660.573 3658
-2387.2 657.684 3642
-2378.49 657.684 3642
-2354.81 653.531 3619
-2335.79 650.641 3603
-2327.17 650.641 3603
-2328.85 653.531 3619
-2320.2 653.531 3619
-2311.54 653.531 3619
-2292.71 650.641 3603
-2299.31 654.975 3627
-2290.63 654.975 3627
-2296.43 659.129 3650
-2303.37 663.643 3675
-2294.58 663.643 3675
-2285.8 663.643 3675
-2207.49 666.533 3691
-2198.66 666.533 3691
-2189.83 666.533 3691
-2176.28 665.088 3683
-2158.06 662.199 3667
-2149.29 662.199 3667
-2140.52 662.199 3667
-2131.75 662.199 3667
-2136.88 666.533 3691
-2128.05 666.533 3691
-2119.22 666.533 3691
-2096.67 662.199 3667
-2106.12 667.977 3699
-2106.92 671.047 3716
-2098.03 671.047 3716
-2089.15 671.047 3716
-2080.26 671.047 3716
-1836.38 707.164 3916
-1827.01 707.164 3916
-1817.65 707.164 3916
-1804.13 705.539 3907
-1807.65 710.595 3935
-1798.24 710.595 3935
-1788.83 710.595 3935
-1779.42 710.595 3935
-1770.01 710.595 3935
-1740.02 702.288 3889
-1718.7 697.412 3862
-1709.47 697.412 3862
-1700.23 697.412 3862
-1691 697.412 3862
-1681.76 697.412 3862
-1668.63 695.787 3853
-1663.29 697.412 3862
-1654.06 697.412 3862
-1644.82 697.412 3862
-1647.02 702.288 3889
-1641.51 703.913 3898
-1643.49 708.789 3925
-1634.11 708.789 3925
-1628.86 710.595 3935
-1638.8 719.082 3982
-1629.27 719.082 3982
-1619.75 719.082 3982
-1610.23 719.082 3982
-1604.32 720.708 3991
-1602.37 724.139 4010
-1592.78 724.139 4010
-1591.09 727.75 4030
-1581.45 727.75 4030
-1571.82 727.75 4030
-1558.3 725.944 4020
-1537.52 720.708 3991
-1531.8 722.513 4001
-1522.24 722.513 4001
-1512.67 722.513 4001
-1503.1 722.513 4001
-1458.44 705.539 3907
-1449.1 705.539 3907
-1423.18 697.412 3862
-1410.65 695.787 3853
-1398.16 694.162 3844
-1388.97 694.162 3844
-1370.44 689.467 3818
-1399.46 708.789 3925
-1390.08 708.789 3925
-1380.69 708.789 3925
-1371.3 708.789 3925
-629.779 327.758 1815
-624.749 327.397 1813
-619.045 326.675 1809
-613.36 325.953 1805
-609.044 325.953 1805
-602.382 324.689 1798
-593.426 322.16 1784
-587.839 321.438 1780
-582.599 320.896 1777
-578.349 320.896 1777
-572.808 320.174 1773
-567.927 319.813 1771
-561.145 318.368 1763
-556.929 318.368 1763
-551.773 317.826 1760
-547.564 317.826 1760
-542.121 317.104 1756
-537.922 317.104 1756
-532.203 316.201 1751
-527.412 315.84 1749
-522.033 315.118 1745
-517.861 315.118 1745
-513.099 314.757 1743
-508.347 314.395 1741
-503.894 314.215 1740
-499.733 314.215 1740
-495.572 314.215 1740
-491.412 314.215 1740
-487.531 314.395 1741
-483.367 314.395 1741
-479.204 314.395 1741
-475.041 314.395 1741
-470.878 314.395 1741
-466.714 314.395 1741
-462.285 314.215 1740
-458.125 314.215 1740
-454.225 314.395 1741
-450.578 314.757 1743
-446.923 315.118 1745
-442.75 315.118 1745
-439.08 315.479 1747
-435.4 315.84 1749
-431.217 315.84 1749
-427.035 315.84 1749
-423.336 316.201 1751
-419.149 316.201 1751
-414.962 316.201 1751
-410.775 316.201 1751
-406.123 315.84 1749
-401.941 315.84 1749
-397.758 315.84 1749
-391.551 314.215 1740
-386.945 313.854 1738
-381.467 312.77 1732
-377.325 312.77 1732
-372.968 312.59 1731
-368.403 312.228 1729
-363.425 311.506 1725
-359.3 311.506 1725
-354.558 310.964 1722
-349.626 310.242 1718
-345.115 309.881 1716
-341.012 309.881 1716
-335.927 308.978 1711
-331.447 308.617 1709
-326.786 308.075 1706
-322.706 308.075 1706
-317.693 307.172 1701
-313.257 306.811 1699
-308.83 306.45 1697
-304.413 306.089 1695
-300.359 306.089 1695
-296.306 306.089 1695
-292.253 306.089 1695
-288.54 306.45 1697
-284.481 306.45 1697
-280.423 306.45 1697
-276.365 306.45 1697
-272.628 306.811 1699
-268.565 306.811 1699
-264.503 306.811 1699
-260.746 307.172 1701
-256.679 307.172 1701
-252.611 307.172 1701
-248.544 307.172 1701
-244.476 307.172 1701
-240.408 307.172 1701
-236.48 307.353 1702
-232.41 307.353 1702
-228.34 307.353 1702
-224.533 307.714 1704
-220.458 307.714 1704
-216.384 307.714 1704
-212.807 308.436 1708
-208.845 308.617 1709
-204.998 308.978 1711
-200.906 308.978 1711
-197.045 309.339 1713
-193.174 309.7 1715
-189.404 310.242 1718
-185.295 310.242 1718
-181.398 310.603 1720
-177.594 311.145 1723
-174.38 312.77 1732
-170.238 312.77 1732
-166.288 313.131 1734
-162.516 313.854 1738
-158.816 314.757 1743
-154.647 314.757 1743
-150.997 315.84 1749
-147.235 316.743 1754
-143.53 317.826 1760
-139.717 318.729 1765
-135.496 318.729 1765
-131.424 319.09 1767
-127.343 319.452 1769
-124.157 322.16 1784
-119.89 322.16 1784
-116.013 323.244 1790
-112.232 324.689 1798
-108.053 325.05 1800
-103.748 325.05 1800
-99.4439 325.05 1800
-95.2453 325.411 1802
-90.9362 325.411 1802
-86.627 325.411 1802
-82.3179 325.411 1802
-151.142 708.789 3925
-141.756 708.789 3925
-132.37 708.789 3925
-122.984 708.789 3925
-113.599 708.789 3925
-105.461 717.276 3972
-95.9623 717.276 3972
-87.2912 724.139 4010
-77.7021 724.139 4010
-68.2829 725.944 4020
-58.6698 725.944 4020
-49.0568 725.944 4020
-39.4437 725.944 4020
-29.8307 725.944 4020
-20.1674 724.139 4010
-10.5545 722.513 4001
-0.991579 725.944 4020
8.68365 731.181 4049
18.366 731.181 4049
28.0484 731.181 4049
37.7308 731.181 4049
47.4132 731.181 4049
56.5456 724.139 4010
63.2486 692.537 3835
72.0982 689.467 3818
81.0367 687.841 3809
90.1452 687.841 3809
99.2537 687.841 3809
107.366 681.521 3774
116.946 684.771 3792
126.014 684.771 3792
135.082 684.771 3792
142.515 677.006 3749
151.48 677.006 3749
160.445 677.006 3749
168.642 673.936 3732
176.805 671.047 3716
185.241 669.422 3707
194.106 669.422 3707
202.532 667.977 3699
211.378 667.977 3699
220.223 667.977 3699
229.069 667.977 3699
237.914 667.977 3699
246.76 667.977 3699
255.605 667.977 3699
263.879 666.533 3691
273.296 667.977 3699
282.141 667.977 3699
290.987 667.977 3699
299.832 667.977 3699
308.678 667.977 3699
317.523 667.977 3699
326.368 667.977 3699
335.939 669.422 3707
344.803 669.422 3707
353.668 669.422 3707
362.533 669.422 3707
371.397 669.422 3707
380.262 669.422 3707
385.767 663.643 3675
392.73 660.573 3658
398.075 654.975 3627
406.748 654.975 3627
410.955 647.932 3588
417.664 645.043 3572
423.461 640.89 3549
428.418 635.653 3520
436.836 635.653 3520
441.458 630.235 3490
446.969 626.263 3468
452.505 622.47 3447
460.748 622.47 3447
465.181 617.414 3419
471.419 614.886 3405
478.575 613.622 3398
486.701 613.622 3398
490.749 608.565 3370
497.772 607.301 3363
507.919 609.829 3377
517.064 611.094 3384
526.243 612.358 3391
537.661 616.15 3412
548.059 618.678 3426
559.662 622.47 3447
572.682 627.707 3476
580.994 627.707 3476
590.493 628.971 3483
601.229 631.499 3497
612.206 634.208 3512
620.605 634.208 3512
630.436 635.653 3520
638.853 635.653 3520
647.271 635.653 3520
655.688 635.653 3520
664.105 635.653 3520
672.523 635.653 3520
680.94 635.653 3520
689.357 635.653 3520
699.162 636.917 3527
707.597 636.917 3527
716.031 636.917 3527
724.465 636.917 3527
731.444 635.653 3520
738.18 634.208 3512
746.579 634.208 3512
754.977 634.208 3512
761.854 632.944 3505
768.477 631.499 3497
776.839 631.499 3497
782.058 628.971 3483
790.387 628.971 3483
798.716 628.971 3483
807.045 628.971 3483
815.374 628.971 3483
823.703 628.971 3483
835.376 631.499 3497
843.739 631.499 3497
855.756 634.208 3512
864.154 634.208 3512
872.552 634.208 3512
884.713 636.917 3527
894.92 638.181 3534
903.371 638.181 3534
917.756 642.334 3557
932.251 646.488 3580
944.754 649.197 3595
953.351 649.197 3595
964.088 650.641 3603
977.024 653.531 3619
990.035 656.42 3635
998.728 656.42 3635
1016.29 662.199 3667
1027.29 663.643 3675
1038.34 665.088 3683
1047.14 665.088 3683
1058.25 666.533 3691
1067.07 666.533 3691
1075.9 666.533 3691
1084.72 666.533 3691
1093.55 666.533 3691
1102.38 666.533 3691
1113.61 667.977 3699
1122.46 667.977 3699
1131.3 667.977 3699
1140.15 667.977 3699
1148.99 667.977 3699
1157.84 667.977 3699
1166.68 667.977 3699
1175.53 667.977 3699
1186.94 669.422 3707
1195.8 669.422 3707
1204.67 669.422 3707
1213.53 669.422 3707
1222.4 669.422 3707
1231.26 669.422 3707
1240.12 669.422 3707
1248.99 669.422 3707
1257.85 669.422 3707
1266.72 669.422 3707
1270.08 666.533 3691
1278.9 666.533 3691
1290.52 667.977 3699
1299.37 667.977 3699
1308.21 667.977 3699
1317.06 667.977 3699
1317.3 663.643 3675
1326.09 663.643 3675
1334.88 663.643 3675
1343.66 663.643 3675
1349.51 662.199 3667
1354.94 660.573 3658
1363.69 660.573 3658
1372.44 660.573 3658
1381.18 660.573 3658
1389.93 660.573 3658
1398.68 660.573 3658
1407.43 660.573 3658
1409.98 657.684 3642
1424.92 660.573 3658
1437.2 662.199 3667
1445.97 662.199 3667
1457.91 663.643 3675
1469.89 665.088 3683
1481.91 666.533 3691
1490.73 666.533 3691
1499.56 666.533 3691
1511.66 667.977 3699
1520.5 667.977 3699
1529.35 667.977 3699
1538.19 667.977 3699
1547.04 667.977 3699
1559.25 669.422 3707
1568.11 669.422 3707
1576.98 669.422 3707
1589.69 671.047 3716
1598.58 671.047 3716
1614.39 673.936 3732
1623.31 673.936 3732
1639.67 677.006 3749
1656.11 680.076 3766
1665.12 680.076 3766
1674.12 680.076 3766
1686.7 681.521 3774
1699.77 683.146 3783
1716.5 686.216 3800
1725.58 686.216 3800
1750.65 692.537 3835
1780.47 700.663 3880
1798.05 703.913 3898
1811.54 705.539 3907
1820.89 705.539 3907
1843.35 710.595 3935
1865.94 715.651 3963
1884.41 719.082 3982
1893.93 719.082 3982
1907.75 720.708 3991
1917.3 720.708 3991
1926.84 720.708 3991
1932.02 719.082 3982
1927.4 713.845 3953
1923.13 708.789 3925
1932.52 708.789 3925
1901.83 694.162 3844
1876.22 681.521 3774
1864.27 673.936 3732
1873.19 673.936 3732
1869.51 669.422 3707
1853.54 660.573 3658
1850.58 656.42 3635
1851.09 653.531 3619
1859.74 653.531 3619
1868.4 653.531 3619
1881.2 654.975 3627
1894.04 656.42 3635
1906.4 657.684 3642
1915.11 657.684 3642
1923.82 657.684 3642
1932.53 657.684 3642
1949.76 660.573 3658
1958.51 660.573 3658
1976.4 663.643 3675
1993.83 666.533 3691
2016.22 671.047 3716
2033.83 673.936 3732
2042.75 673.936 3732
2074.77 681.521 3774
2122.44 694.162 3844
2166.57 705.539 3907
2175.91 705.539 3907
2200.92 710.595 3935
2231.11 717.276 3972
2251.33 720.708 3991
2260.87 720.708 3991
2270.41 720.708 3991
2285.67 722.513 4001
2300.4 724.139 4010
2309.99 724.139 4010
2319.58 724.139 4010
2329.17 724.139 4010
2338.76 724.139 4010
2348.35 724.139 4010
2363.82 725.944 4020
2373.43 725.944 4020
2383.04 725.944 4020
2386.7 724.139 4010
2396.29 724.139 4010
2405.88 724.139 4010
2415.47 724.139 4010
2425.06 724.139 4010
2434.65 724.139 4010
2438.75 722.513 4001
2442.2 720.708 3991
2451.74 720.708 3991
2455.74 719.082 3982
2465.26 719.082 3982
2468.57 717.276 3972
2478.06 717.276 3972
2481.93 715.651 3963
2491.4 715.651 3963
2494.57 713.845 3953
2504.02 713.845 3953
2513.48 713.845 3953
2517.18 712.22 3944
2520.85 710.595 3935
2536.05 712.22 3944
2570 719.082 3982
2579.53 719.082 3982
2601.4 722.513 4001
2610.97 722.513 4001
2620.54 722.513 4001
2623.53 720.708 3991
2652.21 725.944 4020
2681.02 731.181 4049
2710.64 736.599 4079
2720.39 736.599 4079
2736.84 738.405 4089
2746.62 738.405 4089
2756.4 738.405 4089
2766.18 738.405 4089
529.894 132.548 734
531.65 132.548 734
533.405 132.548 734
534.431 132.367 733
536.184 132.367 733
537.937 132.367 733
538.217 132.006 731
539.226 131.826 730
540.972 131.826 730
541.231 131.465 728
542.226 131.284 727
543.964 131.284 727
545.703 131.284 727
547.441 131.284 727
549.18 131.284 727
550.918 131.284 727
552.656 131.284 727
554.395 131.284 727
556.133 131.284 727
-2356.98 576.017 3148
-2349.46 576.017 3148
-2341.93 576.017 3148
-2334.4 576.017 3148
-2326.87 576.017 3148
-2323.77 577.115 3154
-2316.22 577.115 3154
-2308.68 577.115 3154
-2296.76 576.017 3148
-2289.23 576.017 3148
-2281.71 576.017 3148
-2295.85 581.506 3178
-2309.85 586.996 3208
-2315.82 590.472 3227
-2308.1 590.472 3227
-2331.75 598.523 3271
-2323.93 598.523 3271
-2316.1 598.523 3271
-2556.46 665.128 3635
-2581.41 673.911 3683
-2572.6 673.911 3683
-2580.5 678.302 3707
-2583.43 681.413 3724
-2585.59 684.34 3740
-2576.64 684.34 3740
-2573.88 685.987 3749
-2564.91 685.987 3749
-2555.95 685.987 3749
-2546.98 685.987 3749
-2538.02 685.987 3749
-2522.98 684.34 3740
-2514.04 684.34 3740
-2489.02 679.949 3716
-2458.11 673.911 3683
-2438.66 670.983 3667
-2429.89 670.983 3667
-2421.12 670.983 3667
-2412.35 670.983 3667
-2387.2 666.408 3642
-2378.49 666.408 3642
-2354.81 662.2 3619
-2335.79 659.272 3603
-2337.51 662.2 3619
-2328.85 662.2 3619
-2320.2 662.2 3619
-2311.54 662.2 3619
-2292.71 659.272 3603
-2299.31 663.664 3627
-2290.63 663.664 3627
-2296.43 667.872 3650
-2303.37 672.447 3675
-2294.58 672.447 3675
-2285.8 672.447 3675
-2218.15 655.064 3580
-2218.84 657.808 3595
-2215.17 659.272 3603
-2206.55 659.272 3603
-2197.93 659.272 3603
-2213.02 666.408 3642
-2219.44 670.983 3667
-2215.49 672.447 3675
-2206.7 672.447 3675
-2207.49 675.374 3691
-2198.66 675.374 3691
-2189.83 675.374 3691
-2176.28 673.911 3683
-2158.06 670.983 3667
-2149.29 670.983 3667
-2140.52 670.983 3667
-2131.75 670.983 3667
-2136.88 675.374 3691
-2128.05 675.374 3691
-2119.22 675.374 3691
-2110.4 675.374 3691
-2106.12 676.838 3699
-2106.92 679.949 3716
-2098.03 679.949 3716
-2089.15 679.949 3716
-2080.26 679.949 3716
-2040.21 681.413 3724
-2031.31 681.413 3724
-2022.4 681.413 3724
-2013.5 681.413 3724
-2036.83 701.723 3835
-2027.66 701.723 3835
-2018.49 701.723 3835
-2009.32 701.723 3835
-1986.59 696.966 3809
-1827.94 713.251 3898
-1818.61 713.251 3898
-1809.29 713.251 3898
-1804.13 714.898 3907
-1807.65 720.021 3935
-1798.24 720.021 3935
-1788.83 720.021 3935
-1779.42 720.021 3935
-1770.01 720.021 3935
-1740.02 711.604 3889
-1718.7 706.664 3862
-1705.48 705.017 3853
-1696.27 705.017 3853
-1687.06 705.017 3853
-1677.84 705.017 3853
-1668.63 705.017 3853
-1663.29 706.664 3862
-1654.06 706.664 3862
-1644.82 706.664 3862
-1647.02 711.604 3889
-1641.51 713.251 3898
-1635.96 714.898 3907
-1626.61 714.898 3907
-1628.86 720.021 3935
-1634.68 726.791 3972
-1625.18 726.791 3972
-1615.68 726.791 3972
-1606.18 726.791 3972
-1604.32 730.268 3991
-1602.37 733.745 4010
-1592.78 733.745 4010
-1587.14 735.574 4020
-1577.53 735.574 4020
-1567.92 735.574 4020
-1558.3 735.574 4020
-1537.52 730.268 3991
-1527.97 730.268 3991
-1518.43 730.268 3991
-1508.89 730.268 3991
-1499.34 730.268 3991
-1458.44 714.898 3907
-1449.1 714.898 3907
-1429.81 709.957 3880
-1420.53 709.957 3880
-1398.16 703.37 3844
-1388.97 703.37 3844
-1376.54 701.723 3835
-1361.31 698.613 3818
-1352.18 698.613 3818
-1343.05 698.613 3818
-634.119 332.106 1815
-629.779 332.106 1815
-625.439 332.106 1815
-621.098 332.106 1815
-614.719 331.008 1809
-610.393 331.008 1809
-603.052 329.362 1800
-593.426 326.434 1784
-587.839 325.702 1780
-583.254 325.519 1779
-579 325.519 1779
-572.808 324.421 1773
-567.927 324.055 1771
-561.145 322.591 1763
-556.929 322.591 1763
-551.773 322.043 1760
-547.564 322.043 1760
-542.121 321.311 1756
-537.922 321.311 1756
-532.203 320.396 1751
-527.412 320.03 1749
-522.033 319.298 1745
-517.861 319.298 1745
-513.099 318.932 1743
-508.347 318.566 1741
-503.894 318.383 1740
-499.733 318.383 1740
-495.572 318.383 1740
-491.412 318.383 1740
-487.531 318.566 1741
-483.367 318.566 1741
-479.204 318.566 1741
-475.041 318.566 1741
-470.878 318.566 1741
-466.714 318.566 1741
-462.551 318.566 1741
-458.125 318.383 1740
-454.225 318.566 1741
-450.578 318.932 1743
-447.435 319.664 1747
-443.257 319.664 1747
-439.582 320.03 1749
-435.898 320.396 1751
-431.711 320.396 1751
-427.523 320.396 1751
-423.336 320.396 1751
-419.149 320.396 1751
-414.962 320.396 1751
-410.775 320.396 1751
-406.588 320.396 1751
-401.941 320.03 1749
-397.758 320.03 1749
-391.776 318.566 1741
-386.945 318.017 1738
-381.908 317.285 1734
-377.761 317.285 1734
-373.184 316.919 1732
-368.403 316.37 1729
-363.425 315.638 1725
-359.3 315.638 1725
-354.558 315.089 1722
-350.033 314.723 1720
-345.115 313.991 1716
-341.012 313.991 1716
-336.319 313.443 1713
-331.447 312.711 1709
-326.786 312.162 1706
-322.706 312.162 1706
-317.693 311.247 1701
-313.625 311.247 1701
-309.194 310.881 1699
-304.772 310.515 1697
-300.714 310.515 1697
-296.656 310.515 1697
-292.598 310.515 1697
-288.54 310.515 1697
-284.817 310.881 1699
-280.754 310.881 1699
-277.017 311.247 1701
-272.949 311.247 1701
-268.882 311.247 1701
-264.814 311.247 1701
-260.746 311.247 1701
-256.83 311.43 1702
-252.76 311.43 1702
-248.69 311.43 1702
-244.62 311.43 1702
-240.55 311.43 1702
-236.758 311.796 1704
-232.683 311.796 1704
-228.608 311.796 1704
-224.797 312.162 1706
-220.976 312.528 1708
-216.892 312.528 1708
-212.932 312.711 1709
-209.09 313.077 1711
-205.238 313.443 1713
-201.141 313.443 1713
-197.275 313.808 1715
-193.287 313.991 1716
-189.404 314.357 1718
-185.295 314.357 1718
-181.714 315.272 1723
-178.213 316.37 1729
-174.582 317.285 1734
-170.435 317.285 1734
-166.672 318.017 1738
-162.703 318.383 1740
-158.998 319.298 1745
-154.825 319.298 1745
-151.256 320.579 1752
-147.738 322.043 1760
-143.774 322.591 1763
-139.717 322.957 1765
-135.65 323.323 1767
-131.424 323.323 1767
-127.631 324.421 1773
-124.157 326.434 1784
-120.159 327.166 1788
-116.143 327.898 1792
-112.232 328.996 1798
-108.053 329.362 1800
-103.748 329.362 1800
-99.4439 329.362 1800
-95.2453 329.728 1802
-90.9362 329.728 1802
-86.627 329.728 1802
-82.3179 329.728 1802
-140.781 713.251 3898
-131.46 713.251 3898
-122.702 716.545 3916
-113.338 716.545 3916
-103.974 716.545 3916
-94.6094 716.545 3916
-86.0504 723.315 3953
-76.7914 725.145 3963
-67.3147 725.145 3963
-57.8379 725.145 3963
-48.3612 725.145 3963
-38.8845 725.145 3963
-29.4077 725.145 3963
-19.8807 723.315 3953
-10.4041 721.668 3944
-0.970613 720.021 3935
8.43916 720.021 3935
17.8489 720.021 3935
27.2587 720.021 3935
36.6685 720.021 3935
46.0783 720.021 3935
54.9663 713.251 3898
63.2486 701.723 3835
72.0982 698.613 3818
81.0367 696.966 3809
90.1452 696.966 3809
99.2537 696.966 3809
107.366 690.562 3774
116.391 690.562 3774
125.416 690.562 3774
133.23 684.34 3740
140.919 678.302 3707
149.46 676.838 3699
158.305 676.838 3699
166.789 675.374 3691
174.854 672.447 3675
183.642 672.447 3675
192.43 672.447 3675
200.288 669.336 3658
209.549 670.983 3667
218.318 670.983 3667
227.583 672.447 3675
236.371 672.447 3675
245.159 672.447 3675
253.947 672.447 3675
262.163 670.983 3667
271.523 672.447 3675
280.311 672.447 3675
289.099 672.447 3675
298.535 673.911 3683
307.342 673.911 3683
316.15 673.911 3683
324.957 673.911 3683
333.764 673.911 3683
342.571 673.911 3683
350.615 672.447 3675
359.403 672.447 3675
367.39 670.983 3667
376.159 670.983 3667
383.983 669.336 3658
390.261 665.128 3635
395.441 659.272 3603
404.057 659.272 3603
410.038 655.064 3580
414.975 649.391 3549
421.672 646.647 3534
425.619 639.877 3497
433.982 639.877 3497
439.688 636.034 3476
445.164 632.008 3454
449.748 626.885 3426
457.941 626.885 3426
463.276 623.042 3405
470.449 621.762 3398
475.617 617.919 3377
483.693 617.919 3377
488.856 614.26 3357
495.847 612.979 3350
505.813 615.357 3363
515.995 617.919 3377
526.243 620.481 3391
534.352 620.481 3391
545.82 624.323 3412
557.389 628.166 3433
567.904 630.728 3447
576.147 630.728 3447
587.95 634.57 3468
597.619 636.034 3476
607.151 637.315 3483
615.48 637.315 3483
629.003 642.621 3512
637.401 642.621 3512
645.799 642.621 3512
654.198 642.621 3512
662.596 642.621 3512
668.128 639.877 3497
676.491 639.877 3497
684.853 639.877 3497
693.216 639.877 3497
701.578 639.877 3497
709.94 639.877 3497
718.303 639.877 3497
725.211 638.596 3490
732.085 637.315 3483
740.414 637.315 3483
748.743 637.315 3483
755.55 636.034 3476
763.862 636.034 3476
772.174 636.034 3476
777.119 633.289 3461
783.806 632.008 3454
792.066 632.008 3454
800.325 632.008 3454
811.862 634.57 3468
820.155 634.57 3468
828.448 634.57 3468
838.672 636.034 3476
852.101 639.877 3497
860.463 639.877 3497
868.826 639.877 3497
880.951 642.621 3512
891.375 644.085 3520
899.792 644.085 3520
913.886 648.111 3542
926.262 650.855 3557
942.914 656.528 3588
951.495 656.528 3588
961.948 657.808 3595
977.024 662.2 3619
990.035 665.128 3635
998.728 665.128 3635
1013.79 669.336 3658
1025.06 670.983 3667
1036.08 672.447 3675
1044.87 672.447 3675
1053.66 672.447 3675
1064.76 673.911 3683
1073.57 673.911 3683
1082.37 673.911 3683
1091.18 673.911 3683
1099.99 673.911 3683
1111.2 675.374 3691
1122.46 676.838 3699
1131.3 676.838 3699
1140.15 676.838 3699
1148.99 676.838 3699
1157.84 676.838 3699
1166.68 676.838 3699
1175.53 676.838 3699
1184.38 676.838 3699
1193.22 676.838 3699
1202.07 676.838 3699
1213.53 678.302 3707
1222.4 678.302 3707
1231.26 678.302 3707
1237.45 676.838 3699
1246.29 676.838 3699
1252.42 675.374 3691
1261.25 675.374 3691
1267.32 673.911 3683
1276.13 673.911 3683
1284.94 673.911 3683
1293.75 673.911 3683
1302.55 673.911 3683
1311.36 673.911 3683
1314.43 670.983 3667
1323.2 670.983 3667
1331.97 670.983 3667
1340.74 670.983 3667
1346.2 669.336 3658
1354.94 669.336 3658
1363.69 669.336 3658
1372.44 669.336 3658
1381.18 669.336 3658
1389.93 669.336 3658
1398.68 669.336 3658
1407.43 669.336 3658
1409.98 666.408 3642
1424.92 669.336 3658
1437.2 670.983 3667
1445.97 670.983 3667
1457.91 672.447 3675
1466.7 672.447 3675
1478.7 673.911 3683
1487.5 673.911 3683
1496.31 673.911 3683
1505.12 673.911 3683
1517.21 675.374 3691
1526.04 675.374 3691
1534.87 675.374 3691
1547.04 676.838 3699
1555.88 676.838 3699
1564.73 676.838 3699
1573.57 676.838 3699
1582.42 676.838 3699
1591.27 676.838 3699
1603.57 678.302 3707
1612.44 678.302 3707
1635.73 684.34 3740
1652.15 687.451 3757
1661.14 687.451 3757
1670.12 687.451 3757
1683.13 689.098 3766
1699.77 692.208 3783
1716.5 695.319 3800
1725.58 695.319 3800
1750.65 701.723 3835
1780.47 709.957 3880
1798.05 713.251 3898
1811.54 714.898 3907
1820.89 714.898 3907
1843.35 720.021 3935
1865.94 725.145 3963
1884.41 728.621 3982
1893.93 728.621 3982
1907.75 730.268 3991
1917.3 730.268 3991
1926.84 730.268 3991
1932.02 728.621 3982
1927.4 723.315 3953
1923.13 718.191 3925
1932.52 718.191 3925
1901.83 703.37 3844
1872.25 689.098 3766
1864.27 682.877 3732
1873.19 682.877 3732
1869.51 678.302 3707
1849.49 667.872 3650
1850.58 665.128 3635
1851.09 662.2 3619
1859.74 662.2 3619
1868.4 662.2 3619
1877.05 662.2 3619
1894.04 665.128 3635
1906.4 666.408 3642
1915.11 666.408 3642
1923.82 666.408 3642
1932.53 666.408 3642
1949.76 669.336 3658
1958.51 669.336 3658
1972.1 670.983 3667
1989.51 673.911 3683
2007 676.838 3699
2033.83 682.877 3732
2042.75 682.877 3732
2074.77 690.562 3774
2108.09 698.613 3818
2166.57 714.898 3907
2175.91 714.898 3907
2195.32 718.191 3925
2231.11 726.791 3972
2246.25 728.621 3982
2255.77 728.621 3982
2270.41 730.268 3991
2279.96 730.268 3991
2289.5 730.268 3991
2299.04 730.268 3991
2308.59 730.268 3991
2323.94 732.098 4001
2333.51 732.098 4001
2343.08 732.098 4001
2363.82 735.574 4020
2373.43 735.574 4020
2383.04 735.574 4020
2386.7 733.745 4010
2396.29 733.745 4010
2405.88 733.745 4010
2415.47 733.745 4010
2425.06 733.745 4010
2434.65 733.745 4010
2438.75 732.098 4001
2442.2 730.268 3991
2451.74 730.268 3991
2455.74 728.621 3982
2465.26 728.621 3982
2468.57 726.791 3972
2478.06 726.791 3972
2481.93 725.145 3963
2491.4 725.145 3963
2494.57 723.315 3953
2504.02 723.315 3953
2513.48 723.315 3953
2517.18 721.668 3944
2520.85 720.021 3935
2536.05 721.668 3944
2563.55 726.791 3972
2573.05 726.791 3972
2601.4 732.098 4001
2610.97 732.098 4001
2620.54 732.098 4001
2623.53 730.268 3991
2639.67 732.098 4001
2681.02 740.881 4049
2710.64 746.37 4079
2720.39 746.37 4079
2736.84 748.2 4089
2746.62 748.2 4089
2756.4 748.2 4089
2766.18 748.2 4089
529.894 134.306 734
531.65 134.306 734
533.405 134.306 734
534.431 134.123 733
536.184 134.123 733
537.937 134.123 733
538.217 133.757 731
537.749 133.208 728
539.49 133.208 728
540.487 133.026 727
541.48 132.843 726
543.216 132.843 726
544.952 132.843 726
546.688 132.843 726
548.424 132.843 726
550.16 132.843 726
551.896 132.843 726
553.632 132.843 726
555.368 132.843 726
-2356.98 583.558 3148
-2349.46 583.558 3148
-2341.93 583.558 3148
-2334.4 583.558 3148
-2326.87 583.558 3148
-2323.77 584.67 3154
-2316.22 584.67 3154
-2308.68 584.67 3154
-2292.38 582.446 3142
-2284.87 582.446 3142
-2277.36 582.446 3142
-2295.85 589.119 3178
-2309.85 594.68 3208
-2315.82 598.203 3227
-2308.1 598.203 3227
-2318.2 602.837 3252
-2310.43 602.837 3252
-2302.65 602.837 3252
-2556.46 673.835 3635
-2581.41 682.733 3683
-2572.6 682.733 3683
-2569.36 684.216 3691
-2583.43 690.334 3724
-2580.06 691.817 3732
-2571.13 691.817 3732
-2573.88 694.968 3749
-2564.91 694.968 3749
-2555.95 694.968 3749
-2546.98 694.968 3749
-2538.02 694.968 3749
-2522.98 693.3 3740
-2514.04 693.3 3740
-2489.02 688.851 3716
-2458.11 682.733 3683
-2438.66 679.767 3667
-2429.89 679.767 3667
-2421.12 679.767 3667
-2412.35 679.767 3667
-2387.2 675.133 3642
-2378.49 675.133 3642
-2354.81 670.869 3619
-2335.79 667.903 3603
-2337.51 670.869 3619
-2328.85 670.869 3619
-2320.2 670.869 3619
-2311.54 670.869 3619
-2292.71 667.903 3603
-2289.16 669.386 3611
-2290.63 672.352 3627
-2281.96 672.352 3627
-2273.29 672.352 3627
-2264.61 672.352 3627
-2255.94 672.352 3627
-2218.15 663.64 3580
-2218.84 666.42 3595
-2215.17 667.903 3603
-2206.55 667.903 3603
-2197.93 667.903 3603
-2213.02 675.133 3642
-2219.44 679.767 3667
-2215.49 681.25 3675
-2206.7 681.25 3675
-2207.49 684.216 3691
-2198.66 684.216 3691
-2189.83 684.216 3691
-2176.28 682.733 3683
-2158.06 679.767 3667
-2149.29 679.767 3667
-2140.52 679.767 3667
-2131.75 679.767 3667
-2136.88 684.216 3691
-2128.05 684.216 3691
-2138.17 690.334 3724
-2129.26 690.334 3724
-2134.59 694.968 3749
-2125.63 694.968 3749
-2116.66 694.968 3749
-2107.7 694.968 3749
-2098.73 694.968 3749
-2071.37 688.851 3716
-2062.49 688.851 3716
-2040.21 690.334 3724
-2068.4 702.939 3792
-2059.33 702.939 3792
-2050.26 702.939 3792
-2041.2 702.939 3792
-2098.58 725.925 3916
-2089.21 725.925 3916
-2079.85 725.925 3916
-2051.45 719.252 3880
-2042.17 719.252 3880
-2032.9 719.252 3880
-2014.23 715.915 3862
-1827.94 722.589 3898
-1818.61 722.589 3898
-1809.29 722.589 3898
-1804.13 724.257 3907
-1807.65 729.448 3935
-1798.24 729.448 3935
-1788.83 729.448 3935
-1779.42 729.448 3935
-1770.01 729.448 3935
-1740.02 720.92 3889
-1718.7 715.915 3862
-1705.48 714.247 3853
-1696.27 714.247 3853
-1687.06 714.247 3853
-1677.84 714.247 3853
-1668.63 714.247 3853
-1663.29 715.915 3862
-1654.06 715.915 3862
-1644.82 715.915 3862
-1647.02 720.92 3889
-1641.51 722.589 3898
-1635.96 724.257 3907
-1626.61 724.257 3907
-1628.86 729.448 3935
-1634.68 736.306 3972
-1625.18 736.306 3972
-1615.68 736.306 3972
-1606.18 736.306 3972
-1604.32 739.828 3991
-1606.37 745.204 4020
-1596.76 745.204 4020
-1591.09 747.058 4030
-1581.45 747.058 4030
-1571.82 747.058 4030
-1562.18 747.058 4030
-1541.37 741.682 4001
-1535.25 743.351 4010
-1525.66 743.351 4010
-1516.07 743.351 4010
-1499.34 739.828 3991
-1465.16 727.594 3925
-1455.78 727.594 3925
-1443.07 725.925 3916
-1433.71 725.925 3916
-1424.35 725.925 3916
-1414.98 725.925 3916
-1379.77 712.578 3844
-1367.37 710.91 3835
-1352.18 707.759 3818
-1343.05 707.759 3818
-634.119 336.454 1815
-629.779 336.454 1815
-625.439 336.454 1815
-621.098 336.454 1815
-615.399 335.713 1811
-611.068 335.713 1811
-604.393 334.415 1804
-594.756 331.449 1788
-589.16 330.708 1784
-584.894 330.708 1784
-579 329.781 1779
-572.808 328.668 1773
-567.927 328.298 1771
-561.145 326.815 1763
-556.929 326.815 1763
-551.773 326.259 1760
-547.564 326.259 1760
-542.121 325.517 1756
-537.922 325.517 1756
-532.203 324.59 1751
-527.412 324.219 1749
-522.033 323.478 1745
-517.861 323.478 1745
-513.099 323.107 1743
-508.347 322.737 1741
-503.894 322.551 1740
-499.733 322.551 1740
-495.572 322.551 1740
-491.412 322.551 1740
-487.531 322.737 1741
-483.367 322.737 1741
-479.204 322.737 1741
-475.041 322.737 1741
-470.878 322.737 1741
-466.714 322.737 1741
-462.551 322.737 1741
-458.388 322.737 1741
-454.746 323.107 1743
-451.095 323.478 1745
-447.435 323.849 1747
-443.257 323.849 1747
-440.085 324.59 1751
-435.898 324.59 1751
-431.957 324.776 1752
-427.768 324.776 1752
-424.062 325.146 1754
-419.867 325.146 1754
-415.673 325.146 1754
-411.479 325.146 1754
-407.284 325.146 1754
-402.4 324.59 1751
-398.213 324.59 1751
-392.226 323.107 1743
-387.612 322.737 1741
-382.788 322.18 1738
-378.632 322.18 1738
-373.614 321.439 1734
-368.829 320.883 1731
-364.268 320.512 1729
-360.133 320.512 1729
-355.175 319.771 1725
-350.033 318.844 1720
-345.517 318.473 1718
-341.409 318.473 1718
-336.319 317.546 1713
-331.447 316.805 1709
-326.786 316.248 1706
-322.706 316.248 1706
-317.88 315.507 1702
-313.625 315.322 1701
-309.194 314.951 1699
-305.131 314.951 1699
-301.068 314.951 1699
-297.005 314.951 1699
-292.942 314.951 1699
-289.22 315.322 1701
-285.152 315.322 1701
-281.084 315.322 1701
-277.017 315.322 1701
-273.11 315.507 1702
-269.04 315.507 1702
-264.97 315.507 1702
-260.9 315.507 1702
-257.131 315.878 1704
-253.354 316.248 1706
-249.274 316.248 1706
-245.195 316.248 1706
-241.115 316.248 1706
-237.035 316.248 1706
-232.956 316.248 1706
-229.145 316.619 1708
-225.06 316.619 1708
-221.105 316.805 1709
-217.019 316.805 1709
-212.932 316.805 1709
-209.334 317.546 1713
-205.238 317.546 1713
-201.141 317.546 1713
-197.275 317.917 1715
-193.512 318.473 1718
-189.845 319.214 1722
-185.727 319.214 1722
-182.136 320.141 1727
-178.522 321.068 1732
-174.984 322.18 1738
-170.828 322.18 1738
-166.864 322.551 1740
-162.984 323.107 1743
-158.998 323.478 1745
-154.825 323.478 1745
-151.602 325.517 1756
-147.738 326.259 1760
-143.937 327.185 1765
-139.717 327.185 1765
-135.65 327.556 1767
-131.573 327.927 1769
-127.631 328.668 1773
-124.157 330.708 1784
-120.159 331.449 1788
-116.143 332.191 1792
-112.232 333.303 1798
-108.053 333.674 1800
-103.748 333.674 1800
-99.4439 333.674 1800
-95.2453 334.044 1802
-90.9362 334.044 1802
-86.627 334.044 1802
-82.3179 334.044 1802
-140.781 722.589 3898
-131.46 722.589 3898
-122.138 722.589 3898
-112.817 722.589 3898
-103.496 722.589 3898
-93.0873 714.247 3853
-83.8736 714.247 3853
-76.4232 731.116 3944
-66.9919 731.116 3944
-57.5606 731.116 3944
-48.1293 731.116 3944
-38.698 731.116 3944
-29.2667 731.116 3944
-19.7902 729.448 3935
-10.3303 725.925 3916
-0.963707 724.257 3907
8.37912 724.257 3907
17.7219 724.257 3907
27.0024 722.589 3898
36.0721 717.584 3871
45.3288 717.584 3871
53.8382 707.759 3818
62.5394 702.939 3792
71.1162 698.119 3766
79.7602 694.968 3749
88.7252 694.968 3749
97.4557 693.3 3740
105.944 690.334 3724
114.602 688.851 3716
123.489 688.851 3716
131.769 685.699 3699
139.702 681.25 3675
148.49 681.25 3675
157.278 681.25 3675
165.705 679.767 3667
173.665 676.616 3650
182.393 676.616 3650
191.121 676.616 3650
199.028 673.835 3635
207.721 673.835 3635
216.413 673.835 3635
225.539 675.133 3642
234.763 676.616 3650
243.491 676.616 3650
252.219 676.616 3650
261.519 678.099 3658
270.267 678.099 3658
279.014 678.099 3658
288.469 679.767 3667
297.238 679.767 3667
306.007 679.767 3667
314.776 679.767 3667
323.545 679.767 3667
332.314 679.767 3667
341.083 679.767 3667
349.852 679.767 3667
358.621 679.767 3667
365.686 676.616 3650
374.415 676.616 3650
381.568 673.835 3635
386.825 667.903 3603
392.917 663.64 3580
401.478 663.64 3580
408.32 660.859 3565
414.156 656.595 3542
419.047 651.034 3512
424.767 646.956 3490
433.113 646.956 3490
439.688 644.361 3476
445.164 640.283 3454
449.748 635.092 3426
457.941 635.092 3426
464.229 632.497 3412
470.449 629.902 3398
475.617 626.009 3377
483.693 626.009 3377
487.836 621.004 3350
494.811 619.706 3343
504.911 622.301 3357
513.855 623.413 3363
524.07 626.009 3377
532.145 626.009 3377
543.58 629.902 3398
555.115 633.794 3419
566.751 637.687 3440
574.977 637.687 3440
584.39 638.985 3447
593.836 640.283 3454
605.931 644.361 3476
614.243 644.361 3476
623.809 645.658 3483
632.138 645.658 3483
640.467 645.658 3483
648.796 645.658 3483
657.125 645.658 3483
665.454 645.658 3483
673.782 645.658 3483
682.111 645.658 3483
690.44 645.658 3483
698.769 645.658 3483
707.098 645.658 3483
713.989 644.361 3476
722.301 644.361 3476
728.932 642.878 3468
737.225 642.878 3468
745.518 642.878 3468
752.29 641.58 3461
757.489 638.985 3447
765.732 638.985 3447
772.403 637.687 3440
780.629 637.687 3440
788.855 637.687 3440
797.081 637.687 3440
805.308 637.687 3440
813.534 637.687 3440
823.432 638.985 3447
836.742 642.878 3468
846.984 644.361 3476
855.296 644.361 3476
865.347 645.658 3483
877.188 648.254 3497
885.55 648.254 3497
893.913 648.254 3497
908.21 652.517 3520
922.356 656.595 3542
934.768 659.376 3557
943.274 659.376 3557
960.074 665.123 3588
970.544 666.42 3595
985.678 670.869 3619
994.332 670.869 3619
1007.42 673.835 3635
1022.54 678.099 3658
1031.29 678.099 3658
1040.04 678.099 3658
1053.66 681.25 3675
1062.45 681.25 3675
1071.23 681.25 3675
1080.02 681.25 3675
1088.81 681.25 3675
1097.6 681.25 3675
1108.79 682.733 3683
1120.03 684.216 3691
1128.86 684.216 3691
1140.15 685.699 3699
1148.99 685.699 3699
1157.84 685.699 3699
1166.68 685.699 3699
1175.53 685.699 3699
1181.81 684.216 3691
1193.22 685.699 3699
1202.07 685.699 3699
1210.91 685.699 3699
1219.76 685.699 3699
1228.6 685.699 3699
1232.1 682.733 3683
1240.9 682.733 3683
1249.71 682.733 3683
1258.52 682.733 3683
1264.57 681.25 3675
1273.36 681.25 3675
1282.15 681.25 3675
1290.94 681.25 3675
1299.72 681.25 3675
1308.51 681.25 3675
1311.21 678.099 3658
1319.95 678.099 3658
1328.7 678.099 3658
1337.45 678.099 3658
1343.25 676.616 3650
1351.98 676.616 3650
1360.71 676.616 3650
1369.44 676.616 3650
1381.18 678.099 3658
1389.93 678.099 3658
1398.68 678.099 3658
1407.43 678.099 3658
1409.98 675.133 3642
1424.92 678.099 3658
1437.2 679.767 3667
1445.97 679.767 3667
1457.91 681.25 3675
1466.7 681.25 3675
1475.48 681.25 3675
1484.27 681.25 3675
1493.06 681.25 3675
1501.85 681.25 3675
1513.92 682.733 3683
1522.73 682.733 3683
1531.54 682.733 3683
1540.35 682.733 3683
1552.52 684.216 3691
1564.73 685.699 3699
1573.57 685.699 3699
1582.42 685.699 3699
1587.82 684.216 3691
1596.65 684.216 3691
1605.48 684.216 3691
1632.23 691.817 3732
1644.68 693.3 3740
1661.14 696.451 3757
1670.12 696.451 3757
1679.1 696.451 3757
1695.73 699.602 3774
1712.88 702.939 3792
1721.95 702.939 3792
1742.89 707.759 3818
1784.6 720.92 3889
1806.35 725.925 3916
1815.72 725.925 3916
1825.08 725.925 3916
1843.35 729.448 3935
1865.94 734.638 3963
1875.42 734.638 3963
1884.89 734.638 3963
1903.45 738.16 3982
1912.97 738.16 3982
1922.5 738.16 3982
1927.17 736.306 3972
1927.4 732.784 3953
1923.13 727.594 3925
1932.52 727.594 3925
1901.83 712.578 3844
1872.25 698.119 3766
1864.27 691.817 3732
1873.19 691.817 3732
1869.51 687.182 3707
1849.49 676.616 3650
1850.58 673.835 3635
1851.09 670.869 3619
1859.74 670.869 3619
1868.4 670.869 3619
1877.05 670.869 3619
1894.04 673.835 3635
1906.4 675.133 3642
1915.11 675.133 3642
1923.82 675.133 3642
1932.53 675.133 3642
1949.76 678.099 3658
1958.51 678.099 3658
1976.4 681.25 3675
1989.51 682.733 3683
2007 685.699 3699
