-1020.73 1187.06 2717
-1014.23 1187.06 2717
-1007.73 1187.06 2717
-1001.23 1187.06 2717
-994.737 1187.06 2717
-988.24 1187.06 2717
-977.046 1181.38 2704
-970.58 1181.38 2704
-964.113 1181.38 2704
-957.647 1181.38 2704
-951.181 1181.38 2704
-949.257 1187.06 2717
-942.76 1187.06 2717
-936.263 1187.06 2717
-932.845 1191 2726
-926.327 1191 2726
-924.194 1196.68 2739
-917.645 1196.68 2739
-911.095 1196.68 2739
-898.601 1188.81 2721
-892.094 1188.81 2721
-885.587 1188.81 2721
-870.681 1177.45 2695
-855.898 1166.09 2669
-849.516 1166.09 2669
-843.134 1166.09 2669
-573.405 799.095 1829
-567.787 797.347 1825
-563.423 797.347 1825
-558.446 796.474 1823
-553.479 795.6 1821
-549.124 795.6 1821
-544.77 795.6 1821
-537.447 791.231 1811
-531.35 788.609 1805
-525.574 786.425 1800
-520.111 784.677 1796
-515.817 784.677 1796
-510.383 782.93 1792
-505.533 782.056 1790
-501.252 782.056 1790
-496.972 782.056 1790
-492.691 782.056 1790
-487.865 781.182 1788
-484.13 782.056 1790
-480.922 783.803 1794
-476.632 783.803 1794
-473.395 785.551 1798
-469.618 786.425 1800
-466.347 788.172 1804
-462.033 788.172 1804
-457.973 788.609 1805
-455.165 791.231 1811
-451.83 792.978 1815
-447.49 792.978 1815
-444.126 794.726 1819
-440.26 795.6 1821
-436.863 797.347 1825
-432.499 797.347 1825
-429.073 799.095 1829
-424.699 799.095 1829
-420.785 799.969 1831
-416.407 799.969 1831
-412.478 800.843 1833
-408.095 800.843 1833
-403.712 800.843 1833
-399.329 800.843 1833
-394.514 799.969 1831
-390.136 799.969 1831
-385.758 799.969 1831
-381.379 799.969 1831
-376.589 799.095 1829
-370.994 796.474 1823
-366.635 796.474 1823
-361.083 793.852 1817
-356.345 792.978 1815
-351.229 791.231 1811
-345.558 788.172 1804
-341.244 788.172 1804
-335.809 785.551 1798
-330.035 782.056 1790
-324.662 779.434 1784
-320.396 779.434 1784
-314.89 776.376 1777
-309.242 772.881 1769
-303.115 768.075 1758
-298.911 768.075 1758
-294.037 766.327 1754
-289.347 765.017 1751
-284.834 764.143 1749
-280.651 764.143 1749
-276.153 763.269 1747
-271.975 763.269 1747
-268.104 764.143 1749
-264.224 765.017 1751
-260.482 766.327 1754
-256.288 766.327 1754
-252.956 768.949 1760
-249.171 770.259 1763
-245.789 772.881 1769
-241.559 772.881 1769
-237.865 774.628 1773
-233.889 775.502 1775
-229.903 776.376 1777
-225.654 776.376 1777
-222.526 780.308 1786
-218.744 782.056 1790
-214.703 782.93 1792
-210.418 782.93 1792
-206.362 783.803 1794
-202.298 784.677 1796
-198.664 787.299 1802
-194.355 787.299 1802
-190.257 788.172 1804
-186.459 790.357 1809
-182.133 790.357 1809
-177.807 790.357 1809
-233.779 1216.77 2785
-227.527 1218.96 2790
-220.855 1218.96 2790
-214.491 1220.71 2794
-207.809 1220.71 2794
-201.128 1220.71 2794
-194.169 1218.96 2790
-187.497 1218.96 2790
-180.825 1218.96 2790
-174.153 1218.96 2790
-167.482 1218.96 2790
-160.81 1218.96 2790
-154.138 1218.96 2790
-147.466 1218.96 2790
-140.088 1212.84 2776
-133.21 1210.66 2771
-126.4 1208.91 2767
-119.784 1208.91 2767
-113.903 1216.77 2785
-107.243 1216.77 2785
-101.45 1227.26 2809
-94.7333 1227.26 2809
-88.0161 1227.26 2809
-81.1542 1225.07 2804
-74.1835 1220.71 2794
-67.2847 1216.77 2785
-60.625 1216.77 2785
-53.9652 1216.77 2785
-47.2205 1214.59 2780
-40.8499 1222.89 2799
-34.2177 1225.07 2804
-27.5125 1225.07 2804
-20.8073 1225.07 2804
-14.1021 1225.07 2804
-7.39685 1225.07 2804
-0.688186 1218.96 2790
5.98355 1218.96 2790
12.6553 1218.96 2790
19.327 1218.96 2790
25.9988 1218.96 2790
32.6705 1218.96 2790
39.2012 1214.59 2780
45.849 1214.59 2780
52.2514 1208.91 2767
58.6554 1204.54 2757
65.5795 1210.66 2771
72.3361 1212.84 2776
79.2304 1216.77 2785
85.8902 1216.77 2785
93.0152 1222.89 2799
99.7085 1222.89 2799
106.402 1222.89 2799
113.095 1222.89 2799
119.189 1216.77 2785
125.442 1212.84 2776
132.08 1212.84 2776
138.719 1212.84 2776
145.828 1216.77 2785
152.762 1218.96 2790
159.948 1222.89 2799
166.641 1222.89 2799
173.334 1222.89 2799
180.028 1222.89 2799
186.721 1222.89 2799
193.069 1220.71 2794
199.464 1218.96 2790
206.136 1218.96 2790
212.807 1218.96 2790
219.479 1218.96 2790
226.151 1218.96 2790
231.988 1214.59 2780
238.293 1212.84 2776
244.931 1212.84 2776
250.753 1208.91 2767
256.905 1206.73 2762
263.987 1208.91 2767
270.604 1208.91 2767
277.22 1208.91 2767
284.247 1210.66 2771
290.874 1210.66 2771
297.5 1210.66 2771
304.126 1210.66 2771
309.743 1206.73 2762
315.317 1202.79 2753
321.901 1202.79 2753
328.484 1202.79 2753
335.554 1204.54 2757
342.147 1204.54 2757
348.74 1204.54 2757
355.332 1204.54 2757
360.744 1200.61 2748
367.315 1200.61 2748
373.886 1200.61 2748
380.458 1200.61 2748
387.029 1200.61 2748
393.6 1200.61 2748
398.861 1196.68 2739
405.411 1196.68 2739
411.359 1194.93 2735
419.274 1198.86 2744
425.836 1198.86 2744
433.028 1200.61 2748
439.599 1200.61 2748
446.171 1200.61 2748
452.742 1200.61 2748
459.313 1200.61 2748
465.885 1200.61 2748
471.768 1198.86 2744
479.027 1200.61 2748
485.598 1200.61 2748
492.17 1200.61 2748
498.741 1200.61 2748
503.657 1196.68 2739
510.207 1196.68 2739
516.002 1194.93 2735
525.026 1200.61 2748
537.014 1212.84 2776
545.415 1216.77 2785
552.075 1216.77 2785
561.543 1222.89 2799
572.094 1231.19 2818
581.708 1237.31 2832
588.48 1237.31 2832
595.252 1237.31 2832
601.174 1235.56 2828
603.852 1227.26 2809
610.57 1227.26 2809
612.013 1216.77 2785
620.672 1220.71 2794
627.353 1220.71 2794
635.169 1222.89 2799
641.862 1222.89 2799
648.556 1222.89 2799
655.249 1222.89 2799
661.942 1222.89 2799
668.635 1222.89 2799
673.157 1218.96 2790
675.199 1210.66 2771
681.826 1210.66 2771
680.501 1196.68 2739
683.79 1191 2726
692.588 1194.93 2735
699.128 1194.93 2735
705.669 1194.93 2735
710.907 1192.74 2730
717.435 1192.74 2730
722.902 1191 2726
729.421 1191 2726
731.08 1183.13 2708
726.934 1166.09 2669
732.217 1164.35 2665
738.59 1164.35 2665
744.963 1164.35 2665
751.336 1164.35 2665
793.248 1218.96 2790
799.92 1218.96 2790
806.592 1218.96 2790
811.806 1216.77 2785
818.466 1216.77 2785
825.126 1216.77 2785
831.785 1216.77 2785
838.445 1216.77 2785
843.588 1214.59 2780
850.236 1214.59 2780
856.883 1214.59 2780
863.531 1214.59 2780
871.744 1216.77 2785
878.404 1216.77 2785
885.064 1216.77 2785
891.723 1216.77 2785
904.512 1225.07 2804
911.217 1225.07 2804
919.559 1227.26 2809
926.277 1227.26 2809
939.305 1235.56 2828
950.751 1241.68 2842
959.231 1243.86 2847
966.039 1243.86 2847
972.847 1243.86 2847
979.656 1243.86 2847
986.464 1243.86 2847
988.038 1237.31 2832
989.893 1231.19 2818
983.192 1214.59 2780
989.84 1214.59 2780
990.036 1206.73 2762
991.589 1200.61 2748
1001.43 1204.54 2757
1008.02 1204.54 2757
1014.61 1204.54 2757
1021.21 1204.54 2757
1027.8 1204.54 2757
1034.39 1204.54 2757
1040.99 1204.54 2757
1047.58 1204.54 2757
1052.64 1202.79 2753
1059.23 1202.79 2753
1065.81 1202.79 2753
1061.87 1191 2726
1052.72 1173.52 2686
1057.56 1171.77 2682
1076.27 1185.32 2713
1082.76 1185.32 2713
1092.46 1188.81 2721
1106.24 1196.68 2739
1125.79 1210.66 2771
1132.41 1210.66 2771
1139.04 1210.66 2771
1145.67 1210.66 2771
1152.29 1210.66 2771
1164.77 1216.77 2785
1171.43 1216.77 2785
1186.13 1225.07 2804
1192.84 1225.07 2804
1199.54 1225.07 2804
1204.1 1222.89 2799
1202.57 1214.59 2780
1207.48 1212.84 2776
1214.12 1212.84 2776
1216.8 1208.91 2767
1223.41 1208.91 2767
1231.81 1210.66 2771
1242.46 1214.59 2780
1249.1 1214.59 2780
1262.08 1220.71 2794
1268.76 1220.71 2794
1275.44 1220.71 2794
1282.12 1220.71 2794
1288.8 1220.71 2794
1284.82 1210.66 2771
1291.45 1210.66 2771
1291.51 1204.54 2757
1298.11 1204.54 2757
1294.29 1194.93 2735
1292.27 1187.06 2717
1298.76 1187.06 2717
1299.02 1181.38 2704
1313.69 1188.81 2721
1320.2 1188.81 2721
1335.48 1196.68 2739
1342.03 1196.68 2739
1357.44 1204.54 2757
1364.03 1204.54 2757
1370.63 1204.54 2757
1375.22 1202.79 2753
1374.78 1196.68 2739
1372.25 1188.81 2721
1378.76 1188.81 2721
1392.39 1194.93 2735
1398.93 1194.93 2735
1405.47 1194.93 2735
1412.01 1194.93 2735
1418.55 1194.93 2735
1425.09 1194.93 2735
1429.02 1192.74 2730
1435.54 1192.74 2730
1442.07 1192.74 2730
1446.48 1191 2726
1457.79 1194.93 2735
1464.33 1194.93 2735
1473.02 1196.68 2739
1479.57 1196.68 2739
1493.72 1202.79 2753
1505.21 1206.73 2762
1519.48 1212.84 2776
1526.11 1212.84 2776
1540.48 1218.96 2790
1547.15 1218.96 2790
1553.83 1218.96 2790
1560.5 1218.96 2790
1567.17 1218.96 2790
1573.84 1218.96 2790
1574.85 1214.59 2780
1581.5 1214.59 2780
1585.86 1212.84 2776
1594.79 1214.59 2780
1601.44 1214.59 2780
1608.09 1214.59 2780
1614.74 1214.59 2780
1621.38 1214.59 2780
1628.03 1214.59 2780
1637.62 1216.77 2785
1644.28 1216.77 2785
1653.9 1218.96 2790
1662.95 1220.71 2794
1669.64 1220.71 2794
1676.32 1220.71 2794
1669.14 1210.66 2771
1664.89 1202.79 2753
1662.97 1196.68 2739
1669.52 1196.68 2739
1673.62 1194.93 2735
1680.16 1194.93 2735
1686.7 1194.93 2735
1698.81 1198.86 2744
1705.37 1198.86 2744
1720.05 1204.54 2757
1732.9 1208.91 2767
1739.52 1208.91 2767
1746.14 1208.91 2767
1752.75 1208.91 2767
1759.37 1208.91 2767
1765.99 1208.91 2767
1769.4 1206.73 2762
1776 1206.73 2762
1779.38 1204.54 2757
1785.97 1204.54 2757
1792.57 1204.54 2757
1778.93 1191 2726
1785.45 1191 2726
1794.6 1192.74 2730
1801.13 1192.74 2730
1807.65 1192.74 2730
1814.18 1192.74 2730
1812.04 1187.06 2717
1818.54 1187.06 2717
1801.52 1171.77 2682
1776.26 1151.24 2635
1782.56 1151.24 2635
1788.86 1151.24 2635
1798.57 1153.42 2640
1804.88 1153.42 2640
1822.17 1160.41 2656
1834.72 1164.35 2665
1841.09 1164.35 2665
1847.46 1164.35 2665
1844.79 1158.67 2652
1842.76 1153.42 2640
1849.07 1153.42 2640
1835 1140.75 2611
1835.6 1137.26 2603
1841.83 1137.26 2603
1848.05 1137.26 2603
1854.28 1137.26 2603
1860.5 1137.26 2603
1866.73 1137.26 2603
1872.95 1137.26 2603
1879.18 1137.26 2603
1885.4 1137.26 2603
1891.62 1137.26 2603
1894.93 1135.51 2599
1901.15 1135.51 2599
-1850.76 1103.52 2512
-1856.5 1110.55 2528
-1850.46 1110.55 2528
-1861.19 1120.65 2551
-1871.82 1130.75 2574
-1865.66 1130.75 2574
-1859.51 1130.75 2574
-1853.35 1130.75 2574
-1847.2 1130.75 2574
-1846.77 1134.27 2582
-1840.59 1134.27 2582
-1837.26 1136.03 2586
-1831.08 1136.03 2586
-1824.89 1136.03 2586
-1818.71 1136.03 2586
-1812.52 1136.03 2586
-1806.34 1136.03 2586
-1800.16 1136.03 2586
-1791.2 1134.27 2582
-1785.02 1134.27 2582
-1773.34 1130.75 2574
-1767.18 1130.75 2574
-1758.97 1129.44 2571
-1754.87 1130.75 2574
-1756.87 1136.03 2586
-1753.39 1137.78 2590
-1747.2 1137.78 2590
-1755.12 1147.01 2611
-1776.34 1165.02 2652
-1784.01 1174.24 2673
-1777.62 1174.24 2673
-1788.46 1185.67 2699
-1787.95 1189.62 2708
-1784.76 1191.82 2713
-1778.27 1191.82 2713
-1771.79 1191.82 2713
-1762.04 1189.62 2708
-1755.57 1189.62 2708
-1740.7 1183.91 2695
-1717.52 1172.49 2669
-1711.14 1172.49 2669
-1704.76 1172.49 2669
-1695.83 1170.73 2665
-1708.47 1183.91 2695
-1721.61 1197.53 2726
-1723.27 1203.24 2739
-1716.72 1203.24 2739
-1710.17 1203.24 2739
-1703.62 1203.24 2739
-1697.07 1203.24 2739
-1690.52 1203.24 2739
-1681.51 1201.48 2735
-1674.97 1201.48 2735
-1668.43 1201.48 2735
-1640.01 1185.67 2699
-1631.14 1183.91 2695
-1611.43 1174.24 2673
-1577.42 1154.04 2627
-1571.14 1154.04 2627
-1533.28 1130.75 2574
-1492.82 1191.82 2713
-1486.33 1191.82 2713
-1479.84 1191.82 2713
-1473.36 1191.82 2713
-1466.87 1191.82 2713
-1253.16 1179.95 2686
-1250.91 1183.91 2695
-1244.47 1183.91 2695
-1266.5 1211.15 2757
-1259.91 1211.15 2757
-1253.32 1211.15 2757
-1246.72 1211.15 2757
-1240.13 1211.15 2757
-1227.72 1205.43 2744
-1221.16 1205.43 2744
-1214.6 1205.43 2744
-1208.04 1205.43 2744
-1201.47 1205.43 2744
-1194.91 1205.43 2744
-1184.45 1201.48 2735
-1175.76 1199.28 2730
-1165.38 1195.33 2721
-1158.87 1195.33 2721
-1156.17 1199.28 2730
-1149.65 1199.28 2730
-1143.12 1199.28 2730
-1136.59 1199.28 2730
-1130.06 1199.28 2730
-1027.22 1193.57 2717
-1020.73 1193.57 2717
-1014.23 1193.57 2717
-1007.73 1193.57 2717
-999.76 1191.82 2713
-993.273 1191.82 2713
-986.785 1191.82 2713
-970.542 1179.95 2686
-961.247 1176.44 2678
-954.843 1176.44 2678
-942.418 1168.97 2661
-938.869 1172.49 2669
-940.173 1182.15 2691
-936.514 1185.67 2699
-930.06 1185.67 2699
-925.317 1187.86 2704
-920.21 1189.62 2708
-919.808 1197.53 2726
-913.289 1197.53 2726
-906.771 1197.53 2726
-898.601 1195.33 2721
-892.094 1195.33 2721
-885.587 1195.33 2721
-870.681 1183.91 2695
-855.898 1172.49 2669
-849.516 1172.49 2669
-843.134 1172.49 2669
-570.897 799.962 1821
-566.542 799.962 1821
-562.188 799.962 1821
-557.833 799.962 1821
-553.479 799.962 1821
-548.521 799.083 1819
-544.171 799.083 1819
-537.447 795.569 1811
-531.056 792.494 1804
-525.574 790.737 1800
-520.111 788.979 1796
-515.817 788.979 1796
-509.813 786.344 1790
-505.533 786.344 1790
-501.252 786.344 1790
-496.972 786.344 1790
-492.691 786.344 1790
-488.411 786.344 1790
-484.671 787.222 1792
-480.922 788.101 1794
-476.632 788.101 1794
-473.395 789.858 1798
-469.618 790.737 1800
-466.606 792.933 1805
-462.29 792.933 1805
-458.481 793.812 1807
-455.165 795.569 1811
-451.83 797.326 1815
-447.49 797.326 1815
-444.126 799.083 1819
-440.26 799.962 1821
-437.342 802.598 1827
-432.973 802.598 1827
-429.073 803.476 1829
-425.164 804.355 1831
-420.785 804.355 1831
-416.407 804.355 1831
-412.478 805.234 1833
-408.095 805.234 1833
-403.712 805.234 1833
-399.329 805.234 1833
-394.945 805.234 1833
-390.136 804.355 1831
-385.758 804.355 1831
-380.962 803.476 1829
-376.589 803.476 1829
-370.994 800.841 1823
-366.635 800.841 1823
-361.48 799.083 1819
-356.345 797.326 1815
-351.229 795.569 1811
-345.558 792.494 1804
-341.244 792.494 1804
-335.809 789.858 1798
-330.035 786.344 1790
-324.299 782.829 1782
-320.037 782.829 1782
-314.89 780.633 1777
-309.242 777.118 1769
-303.115 772.286 1758
-298.911 772.286 1758
-294.037 770.529 1754
-289.347 769.211 1751
-284.834 768.332 1749
-280.651 768.332 1749
-276.153 767.454 1747
-271.975 767.454 1747
-268.104 768.332 1749
-264.224 769.211 1751
-260.185 769.65 1752
-255.995 769.65 1752
-252.668 772.286 1758
-249.03 774.043 1762
-245.789 777.118 1769
-241.559 777.118 1769
-237.865 778.876 1773
-233.889 779.754 1775
-229.903 780.633 1777
-225.654 780.633 1777
-222.526 784.586 1786
-218.744 786.344 1790
-214.703 787.222 1792
-210.418 787.222 1792
-206.362 788.101 1794
-202.072 788.101 1794
-198.444 790.737 1800
-194.14 790.737 1800
-190.257 792.494 1804
-186.252 793.812 1807
-181.931 793.812 1807
-177.61 793.812 1807
-233.779 1223.45 2785
-227.527 1225.64 2790
-220.855 1225.64 2790
-214.184 1225.64 2790
-207.512 1225.64 2790
-200.84 1225.64 2790
-194.169 1225.64 2790
-187.161 1223.45 2785
-180.177 1221.25 2780
-173.529 1221.25 2780
-166.881 1221.25 2780
-160.233 1221.25 2780
-153.365 1219.49 2776
-146.726 1219.49 2776
-139.382 1213.34 2762
-132.104 1207.19 2748
-124.939 1201.48 2735
-118.398 1201.48 2735
-112.758 1211.15 2757
-106.165 1211.15 2757
-99.9335 1215.54 2767
-93.3168 1215.54 2767
-86.7001 1215.54 2767
-80.0833 1215.54 2767
-73.0949 1209.39 2753
-66.1734 1203.24 2739
-59.6236 1203.24 2739
-53.0738 1203.24 2739
-46.609 1205.43 2744
-40.4413 1217.3 2771
-33.9858 1223.45 2785
-27.3261 1223.45 2785
-20.6663 1223.45 2785
-13.9814 1221.25 2780
-7.33354 1221.25 2780
-0.685719 1221.25 2780
5.9428 1217.3 2771
12.5691 1217.3 2771
19.23 1219.49 2776
25.8683 1219.49 2776
32.5066 1219.49 2776
39.0179 1215.54 2767
45.6346 1215.54 2767
51.987 1209.39 2753
58.1873 1201.48 2735
65.2482 1211.15 2757
71.841 1211.15 2757
78.5761 1213.34 2762
85.1808 1213.34 2762
92.2509 1219.49 2776
98.8891 1219.49 2776
105.527 1219.49 2776
112.166 1219.49 2776
118.205 1213.34 2762
124.403 1209.39 2753
131.414 1213.34 2762
138.019 1213.34 2762
144.886 1215.54 2767
151.721 1217.3 2771
158.862 1221.25 2780
165.51 1221.25 2780
172.777 1225.64 2790
179.449 1225.64 2790
186.12 1225.64 2790
192.101 1221.25 2780
198.749 1221.25 2780
206.136 1225.64 2790
212.807 1225.64 2790
219.479 1225.64 2790
225.34 1221.25 2780
231.654 1219.49 2776
237.52 1215.54 2767
244.137 1215.54 2767
249.847 1211.15 2757
256.44 1211.15 2757
262.174 1207.19 2748
268.746 1207.19 2748
275.317 1207.19 2748
282.811 1211.15 2757
289.404 1211.15 2757
295.997 1211.15 2757
302.59 1211.15 2757
308.173 1207.19 2748
313.714 1203.24 2739
320.264 1203.24 2739
324.666 1195.33 2721
331.781 1197.53 2726
338.3 1197.53 2726
344.818 1197.53 2726
351.337 1197.53 2726
357.199 1195.33 2721
364.909 1199.28 2730
371.437 1199.28 2730
377.966 1199.28 2730
384.494 1199.28 2730
391.022 1199.28 2730
396.968 1197.53 2726
404.079 1199.28 2730
410.607 1199.28 2730
417.135 1199.28 2730
423.663 1199.28 2730
430.192 1199.28 2730
436.72 1199.28 2730
444.709 1203.24 2739
451.259 1203.24 2739
457.809 1203.24 2739
464.359 1203.24 2739
468.673 1197.53 2726
475.192 1197.53 2726
481.711 1197.53 2726
488.23 1197.53 2726
494.748 1197.53 2726
500.347 1195.33 2721
506.854 1195.33 2721
513.361 1195.33 2721
519.868 1195.33 2721
529.083 1201.48 2735
541.89 1215.54 2767
548.507 1215.54 2767
555.123 1215.54 2767
565.394 1223.45 2785
574.93 1229.6 2799
581.623 1229.6 2799
588.316 1229.6 2799
590.12 1219.49 2776
592.674 1211.15 2757
599.267 1211.15 2757
603.882 1207.19 2748
611.564 1209.39 2753
618.147 1209.39 2753
624.73 1209.39 2753
631.314 1209.39 2753
646.47 1225.64 2790
653.142 1225.64 2790
659.814 1225.64 2790
661.947 1217.3 2771
668.573 1217.3 2771
668.62 1205.43 2744
675.182 1205.43 2744
677.272 1197.53 2726
682.536 1195.33 2721
689.043 1195.33 2721
695.55 1195.33 2721
702.056 1195.33 2721
708.563 1195.33 2721
715.07 1195.33 2721
719.455 1191.82 2713
725.943 1191.82 2713
731.08 1189.62 2708
726.934 1172.49 2669
732.217 1170.73 2665
738.59 1170.73 2665
744.963 1170.73 2665
751.336 1170.73 2665
757.709 1170.73 2665
764.081 1170.73 2665
770.454 1170.73 2665
810.349 1221.25 2780
816.996 1221.25 2780
823.644 1221.25 2780
830.292 1221.25 2780
836.94 1221.25 2780
843.588 1221.25 2780
850.236 1221.25 2780
849.794 1211.15 2757
853.591 1207.19 2748
860.163 1207.19 2748
863.895 1203.24 2739
870.445 1203.24 2739
876.995 1203.24 2739
890.964 1213.34 2762
903.418 1221.25 2780
911.703 1223.45 2785
918.363 1223.45 2785
932.994 1233.99 2809
949.078 1246.29 2837
959.231 1250.68 2847
966.039 1250.68 2847
972.847 1250.68 2847
979.656 1250.68 2847
986.464 1250.68 2847
984.898 1240.14 2823
986.731 1233.99 2809
978.594 1215.54 2767
985.211 1215.54 2767
983.583 1205.43 2744
985.094 1199.28 2730
993.438 1201.48 2735
999.978 1201.48 2735
1006.52 1201.48 2735
1013.06 1201.48 2735
1019.6 1201.48 2735
1026.14 1201.48 2735
1032.68 1201.48 2735
1039.22 1201.48 2735
1042.32 1197.53 2726
1048.84 1197.53 2726
1055.36 1197.53 2726
1053.3 1187.86 2704
1052.72 1179.95 2686
1057.56 1178.2 2682
1076.27 1191.82 2713
1082.76 1191.82 2713
1092.46 1195.33 2721
1106.24 1203.24 2739
1125.79 1217.3 2771
1132.41 1217.3 2771
1139.04 1217.3 2771
1145.67 1217.3 2771
1152.29 1217.3 2771
1164.77 1223.45 2785
1171.43 1223.45 2785
1186.13 1231.79 2804
1192.84 1231.79 2804
1199.54 1231.79 2804
1204.1 1229.6 2799
1202.57 1221.25 2780
1207.48 1219.49 2776
1214.12 1219.49 2776
1216.8 1215.54 2767
1223.41 1215.54 2767
1231.81 1217.3 2771
1244.69 1223.45 2785
1251.35 1223.45 2785
1264.34 1229.6 2799
1271.03 1229.6 2799
1277.72 1229.6 2799
1284.42 1229.6 2799
1288.8 1227.4 2794
1291.31 1223.45 2785
1297.97 1223.45 2785
1298.07 1217.3 2771
1298.11 1211.15 2757
1296.18 1203.24 2739
1292.27 1193.57 2717
1298.76 1193.57 2717
1300.94 1189.62 2708
1313.69 1195.33 2721
1320.2 1195.33 2721
1335.48 1203.24 2739
1342.03 1203.24 2739
1359.9 1213.34 2762
1366.51 1213.34 2762
1373.11 1213.34 2762
1375.22 1209.39 2753
1374.78 1203.24 2739
1374.77 1197.53 2726
1381.29 1197.53 2726
1392.39 1201.48 2735
1398.93 1201.48 2735
1405.47 1201.48 2735
1412.01 1201.48 2735
1418.55 1201.48 2735
1425.09 1201.48 2735
1429.02 1199.28 2730
1435.54 1199.28 2730
1442.07 1199.28 2730
1446.48 1197.53 2726
1457.79 1201.48 2735
1464.33 1201.48 2735
1473.02 1203.24 2739
1479.57 1203.24 2739
1493.72 1209.39 2753
1505.21 1213.34 2762
1519.48 1219.49 2776
1526.11 1219.49 2776
1540.48 1225.64 2790
1547.15 1225.64 2790
1553.83 1225.64 2790
1560.5 1225.64 2790
1567.17 1225.64 2790
1573.84 1225.64 2790
1574.85 1221.25 2780
1581.5 1221.25 2780
1585.86 1219.49 2776
1594.79 1221.25 2780
1601.44 1221.25 2780
1608.09 1221.25 2780
1614.74 1221.25 2780
1621.38 1221.25 2780
1628.03 1221.25 2780
1637.62 1223.45 2785
1644.28 1223.45 2785
1653.9 1225.64 2790
1662.95 1227.4 2794
1669.64 1227.4 2794
1676.32 1227.4 2794
1669.14 1217.3 2771
1664.89 1209.39 2753
1662.97 1203.24 2739
1669.52 1203.24 2739
1673.62 1201.48 2735
1680.16 1201.48 2735
1686.7 1201.48 2735
1698.81 1205.43 2744
1705.37 1205.43 2744
1720.05 1211.15 2757
1732.9 1215.54 2767
1739.52 1215.54 2767
1746.14 1215.54 2767
1752.75 1215.54 2767
1759.37 1215.54 2767
1765.99 1215.54 2767
1769.4 1213.34 2762
1776 1213.34 2762
1779.38 1211.15 2757
1785.97 1211.15 2757
1792.57 1211.15 2757
1778.93 1197.53 2726
1785.45 1197.53 2726
1794.6 1199.28 2730
1801.13 1199.28 2730
1807.65 1199.28 2730
1814.18 1199.28 2730
1812.04 1193.57 2717
1818.54 1193.57 2717
1816.3 1187.86 2704
1790.41 1166.78 2656
1782.56 1157.55 2635
1788.86 1157.55 2635
1798.57 1159.75 2640
1804.88 1159.75 2640
1846.18 1182.15 2691
1861.57 1187.86 2704
1868.03 1187.86 2704
1874.5 1187.86 2704
1853.83 1170.73 2665
1851.13 1165.02 2652
1857.47 1165.02 2652
1846.25 1154.04 2627
1841.25 1147.01 2611
1844.66 1145.25 2607
1850.89 1145.25 2607
1857.13 1145.25 2607
1860.5 1143.49 2603
1866.73 1143.49 2603
1872.95 1143.49 2603
1879.18 1143.49 2603
1885.4 1143.49 2603
1891.62 1143.49 2603
1897.85 1143.49 2603
1904.07 1143.49 2603
-1874.79 1109.53 2512
-1868.78 1109.53 2512
-1862.78 1109.53 2512
-1856.77 1109.53 2512
-1850.76 1109.53 2512
-1856.5 1116.6 2528
-1850.46 1116.6 2528
-1861.19 1126.76 2551
-1855.09 1126.76 2551
-1857.69 1132.06 2563
-1851.56 1132.06 2563
-1845.43 1132.06 2563
-1839.31 1132.06 2563
-1833.18 1132.06 2563
-1827.05 1132.06 2563
-1837.26 1142.22 2586
-1831.08 1142.22 2586
-1824.89 1142.22 2586
-1818.71 1142.22 2586
-1812.52 1142.22 2586
-1803.55 1140.45 2582
-1797.37 1140.45 2582
-1791.2 1140.45 2582
-1779.49 1136.92 2574
-1771.27 1135.59 2571
-1765.12 1135.59 2571
-1753.5 1132.06 2563
-1747.37 1132.06 2563
-1751.43 1138.69 2578
-1745.27 1138.69 2578
-1739.1 1138.69 2578
-1743.69 1145.75 2594
-1768.3 1166.07 2640
-1770 1171.37 2652
-1763.66 1171.37 2652
-1777.19 1184.62 2682
-1779.36 1190.36 2695
-1781.47 1196.11 2708
-1775 1196.11 2708
-1768.52 1196.11 2708
-1742.52 1182.86 2678
-1736.12 1182.86 2678
-1721.32 1177.11 2665
-1714.95 1177.11 2665
-1692.55 1166.07 2640
-1686.23 1166.07 2640
-1679.92 1166.07 2640
-1689.46 1177.11 2665
-1710.24 1196.11 2708
-1715.09 1204.06 2726
-1708.57 1204.06 2726
-1704.55 1205.82 2730
-1698.02 1205.82 2730
-1691.49 1205.82 2730
-1684.96 1205.82 2730
-1667.98 1198.31 2713
-1650.47 1190.36 2695
-1644.03 1190.36 2695
-1613.89 1173.14 2656
-1607.53 1173.14 2656
-1586.11 1162.1 2631
-1577.42 1160.33 2627
-1571.14 1160.33 2627
-1533.28 1136.92 2574
-1492.82 1198.31 2713
-1486.33 1198.31 2713
-1479.84 1198.31 2713
-1473.36 1198.31 2713
-1466.87 1198.31 2713
-1253.16 1186.39 2686
-1250.91 1190.36 2695
-1244.47 1190.36 2695
-1256.4 1208.03 2735
-1253.97 1212.01 2744
-1253.32 1217.75 2757
-1246.72 1217.75 2757
-1240.13 1217.75 2757
-1227.72 1212.01 2744
-1221.16 1212.01 2744
-1214.6 1212.01 2744
-1208.04 1212.01 2744
-1201.47 1212.01 2744
-1194.91 1212.01 2744
-1184.45 1208.03 2735
-1175.76 1205.82 2730
-1165.38 1201.85 2721
-1158.87 1201.85 2721
-1156.17 1205.82 2730
-1149.65 1205.82 2730
-1143.12 1205.82 2730
-1136.59 1205.82 2730
-1130.06 1205.82 2730
-1118.18 1200.08 2717
-1037.43 1212.01 2744
-1030.87 1212.01 2744
-1024.31 1212.01 2744
-1015.89 1209.8 2739
-1009.34 1209.8 2739
-1002.79 1209.8 2739
-989.695 1201.85 2721
-973.794 1190.36 2695
-961.247 1182.86 2678
-954.843 1182.86 2678
-942.418 1175.35 2661
-938.869 1178.88 2669
-940.173 1188.6 2691
-936.514 1192.13 2699
-930.06 1192.13 2699
-925.317 1194.34 2704
-920.21 1196.11 2708
-919.808 1204.06 2726
-913.289 1204.06 2726
-906.771 1204.06 2726
-898.601 1201.85 2721
-892.094 1201.85 2721
-885.587 1201.85 2721
-870.681 1190.36 2695
-855.898 1178.88 2669
-849.516 1178.88 2669
-843.134 1178.88 2669
-572.151 806.091 1825
-567.165 805.208 1823
-562.805 805.208 1823
-557.833 804.324 1821
-553.479 804.324 1821
-548.521 803.441 1819
-544.171 803.441 1819
-538.041 800.791 1813
-531.939 798.14 1807
-525.574 795.049 1800
-520.111 793.282 1796
-515.817 793.282 1796
-511.522 793.282 1796
-507.227 793.282 1796
-502.372 792.398 1794
-498.082 792.398 1794
-493.792 792.398 1794
-489.502 792.398 1794
-485.212 792.398 1794
-481.458 793.282 1796
-477.164 793.282 1796
-473.395 794.165 1798
-469.618 795.049 1800
-466.606 797.257 1805
-462.29 797.257 1805
-458.988 799.024 1809
-455.165 799.907 1811
-451.83 801.674 1815
-447.49 801.674 1815
-444.126 803.441 1819
-440.744 805.208 1823
-437.342 806.974 1827
-432.973 806.974 1827
-429.073 807.858 1829
-425.164 808.741 1831
-420.785 808.741 1831
-416.407 808.741 1831
-412.478 809.624 1833
-408.095 809.624 1833
-403.712 809.624 1833
-399.329 809.624 1833
-394.945 809.624 1833
-390.136 808.741 1831
-385.758 808.741 1831
-381.379 808.741 1831
-376.589 807.858 1829
-371.808 806.974 1827
-367.439 806.974 1827
-361.878 804.324 1821
-357.131 803.441 1819
-351.617 800.791 1813
-346.133 798.14 1807
-341.811 798.14 1807
-336.183 795.049 1800
-330.404 791.515 1792
-324.662 787.982 1784
-320.396 787.982 1784
-315.422 786.215 1780
-309.941 783.123 1773
-303.805 778.264 1762
-299.591 778.264 1762
-294.372 775.614 1756
-289.842 774.731 1754
-285.16 773.406 1751
-280.972 773.406 1751
-276.469 772.522 1749
-272.287 772.522 1749
-268.411 773.406 1751
-264.375 773.847 1752
-260.482 774.731 1754
-256.288 774.731 1754
-252.668 776.497 1758
-249.03 778.264 1762
-245.511 780.473 1767
-241.286 780.473 1767
-237.865 783.123 1773
-233.625 783.123 1773
-229.903 784.89 1777
-225.654 784.89 1777
-222.526 788.865 1786
-218.499 789.748 1788
-214.463 790.632 1790
-210.183 790.632 1790
-206.132 791.515 1792
-202.072 792.398 1794
-198.444 795.049 1800
-194.14 795.049 1800
-189.835 795.049 1800
-185.943 796.815 1804
-181.629 796.815 1804
-177.315 796.815 1804
-233.779 1230.12 2785
-227.119 1230.12 2785
-220.46 1230.12 2785
-213.8 1230.12 2785
-207.14 1230.12 2785
-200.48 1230.12 2785
-193.821 1230.12 2785
-186.556 1226.14 2776
-179.594 1223.93 2771
-172.967 1223.93 2771
-166.341 1223.93 2771
-159.715 1223.93 2771
-152.315 1217.75 2757
-145.035 1212.01 2744
-138.473 1212.01 2744
-130.614 1200.08 2717
-123.934 1198.31 2713
-116.104 1184.62 2682
-110.222 1190.36 2695
-103.778 1190.36 2695
-97.4776 1192.13 2699
-91.0235 1192.13 2699
-84.5694 1192.13 2699
-78.1153 1192.13 2699
-71.1036 1182.86 2678
-64.4822 1178.88 2669
-58.0998 1178.88 2669
-51.7174 1178.88 2669
-45.4879 1182.86 2678
-39.3321 1190.36 2695
-33.2659 1204.06 2726
-26.7472 1204.06 2726
-20.2285 1204.06 2726
-13.7098 1204.06 2726
-7.20164 1205.82 2730
-0.673386 1205.82 2730
5.85487 1205.82 2730
12.424 1209.8 2739
18.9737 1209.8 2739
25.5235 1209.8 2739
32.0733 1209.8 2739
38.4962 1205.82 2730
44.9584 1204.06 2726
51.4771 1204.06 2726
57.7193 1198.31 2713
64.6092 1205.82 2730
71.1374 1205.82 2730
77.6657 1205.82 2730
84.194 1205.82 2730
91.3204 1213.77 2748
97.8917 1213.77 2748
104.463 1213.77 2748
111.034 1213.77 2748
117.22 1209.8 2739
123.77 1209.8 2739
130.748 1213.77 2748
137.319 1213.77 2748
144.624 1219.96 2762
151.229 1219.96 2762
158.348 1223.93 2771
164.974 1223.93 2771
171.6 1223.93 2771
178.227 1223.93 2771
184.853 1223.93 2771
191.479 1223.93 2771
197.82 1222.17 2767
204.436 1222.17 2767
211.053 1222.17 2767
217.67 1222.17 2767
224.286 1222.17 2767
230.486 1219.96 2762
236.662 1217.75 2757
243.254 1217.75 2757
248.669 1212.01 2744
255.231 1212.01 2744
260.934 1208.03 2735
267.474 1208.03 2735
274.014 1208.03 2735
280.965 1209.8 2739
287.515 1209.8 2739
294.064 1209.8 2739
300.614 1209.8 2739
305.706 1204.06 2726
311.194 1200.08 2717
317.691 1200.08 2717
324.188 1200.08 2717
331.172 1201.85 2721
337.679 1201.85 2721
344.186 1201.85 2721
350.693 1201.85 2721
357.199 1201.85 2721
363.706 1201.85 2721
370.213 1201.85 2721
377.412 1204.06 2726
383.93 1204.06 2726
390.449 1204.06 2726
396.24 1201.85 2721
402.746 1201.85 2721
409.253 1201.85 2721
415.76 1201.85 2721
422.267 1201.85 2721
428.773 1201.85 2721
435.28 1201.85 2721
441.787 1201.85 2721
447.635 1200.08 2717
454.132 1200.08 2717
460.629 1200.08 2717
465.579 1196.11 2708
472.926 1198.31 2713
479.414 1198.31 2713
485.901 1198.31 2713
492.389 1198.31 2713
494.831 1188.6 2691
501.266 1188.6 2691
503.55 1178.88 2669
507.449 1173.14 2656
513.8 1173.14 2656
521.914 1177.11 2665
528.287 1177.11 2665
534.66 1177.11 2665
540.221 1175.35 2661
546.584 1175.35 2661
552.947 1175.35 2661
557.419 1171.37 2652
562.06 1167.84 2644
574.616 1180.65 2673
589.703 1198.31 2713
596.19 1198.31 2713
605.566 1204.06 2726
612.983 1205.82 2730
621.553 1209.8 2739
628.103 1209.8 2739
635.812 1212.01 2744
642.373 1212.01 2744
648.935 1212.01 2744
655.497 1212.01 2744
662.058 1212.01 2744
664.234 1204.06 2726
670.753 1204.06 2726
674.042 1198.31 2713
680.529 1198.31 2713
689.043 1201.85 2721
695.55 1201.85 2721
702.056 1201.85 2721
708.563 1201.85 2721
715.07 1201.85 2721
718.129 1196.11 2708
724.605 1196.11 2708
730 1194.34 2704
726.934 1178.88 2669
732.217 1177.11 2665
738.59 1177.11 2665
744.963 1177.11 2665
751.336 1177.11 2665
757.709 1177.11 2665
764.081 1177.11 2665
770.454 1177.11 2665
776.827 1177.11 2665
816.996 1227.91 2780
823.644 1227.91 2780
830.292 1227.91 2780
830.016 1217.75 2757
832.664 1212.01 2744
839.225 1212.01 2744
845.787 1212.01 2744
849.553 1208.03 2735
856.093 1208.03 2735
858.218 1201.85 2721
864.725 1201.85 2721
871.231 1201.85 2721
880.641 1205.82 2730
887.17 1205.82 2730
904.173 1219.96 2762
910.778 1219.96 2762
923.362 1227.91 2780
941.049 1242.48 2813
951.145 1246.9 2823
957.896 1246.9 2823
964.646 1246.9 2823
971.397 1246.9 2823
978.148 1246.9 2823
980.014 1240.72 2809
980.057 1232.33 2790
970.46 1212.01 2744
977.022 1212.01 2744
977.131 1204.06 2726
972.464 1190.36 2695
982.178 1194.34 2704
988.644 1194.34 2704
996.582 1196.11 2708
1003.06 1196.11 2708
1012.89 1200.08 2717
1019.39 1200.08 2717
1025.88 1200.08 2717
1032.38 1200.08 2717
1033.91 1194.34 2704
1040.37 1194.34 2704
1046.84 1194.34 2704
1041.23 1180.65 2673
1046.05 1178.88 2669
1050.86 1177.11 2665
1057.23 1177.11 2665
1063.6 1177.11 2665
1083.63 1192.13 2699
1098.97 1201.85 2721
1120.1 1217.75 2757
1126.69 1217.75 2757
1137.4 1222.17 2767
1144.01 1222.17 2767
1150.63 1222.17 2767
1157.25 1222.17 2767
1163.86 1222.17 2767
1175.98 1227.91 2780
1182.63 1227.91 2780
1189.27 1227.91 2780
1195.92 1227.91 2780
1198.68 1223.93 2771
1203.56 1222.17 2767
1210.18 1222.17 2767
1214.6 1219.96 2762
1221.2 1219.96 2762
1230.03 1222.17 2767
1244.69 1230.12 2785
1251.35 1230.12 2785
1264.34 1236.3 2799
1271.03 1236.3 2799
1277.72 1236.3 2799
1284.42 1236.3 2799
1288.8 1234.09 2794
1291.31 1230.12 2785
1297.97 1230.12 2785
1298.07 1223.93 2771
1298.11 1217.75 2757
1296.18 1209.8 2739
1292.27 1200.08 2717
1298.76 1200.08 2717
1300.94 1196.11 2708
1311.76 1200.08 2717
1320.2 1201.85 2721
1335.48 1209.8 2739
1342.03 1209.8 2739
1359.9 1219.96 2762
1366.51 1219.96 2762
1373.11 1219.96 2762
1375.22 1215.98 2753
1374.78 1209.8 2739
1374.77 1204.06 2726
1381.29 1204.06 2726
1392.39 1208.03 2735
1398.93 1208.03 2735
1405.47 1208.03 2735
1412.01 1208.03 2735
1418.55 1208.03 2735
1422.49 1205.82 2730
1426.92 1204.06 2726
1433.44 1204.06 2726
1439.96 1204.06 2726
1443.82 1201.85 2721
1450.33 1201.85 2721
1456.84 1201.85 2721
1466.03 1204.06 2726
1472.55 1204.06 2726
1483.95 1208.03 2735
1500.3 1215.98 2753
1516.74 1223.93 2771
1523.37 1223.93 2771
1532.75 1226.14 2776
1544.38 1230.12 2785
1553.83 1232.33 2790
1560.5 1232.33 2790
1567.17 1232.33 2790
1568.2 1227.91 2780
1569.75 1223.93 2771
1576.38 1223.93 2771
1583 1223.93 2771
1587.33 1222.17 2767
1593.95 1222.17 2767
1600.57 1222.17 2767
1607.18 1222.17 2767
1616.13 1223.93 2771
1622.76 1223.93 2771
1634.68 1227.91 2780
1641.33 1227.91 2780
1647.97 1227.91 2780
1652.24 1226.14 2776
1658.88 1226.14 2776
1662.52 1223.93 2771
1658.3 1215.98 2753
1650.98 1205.82 2730
1641.72 1194.34 2704
1658.55 1201.85 2721
1665.05 1201.85 2721
1677.09 1205.82 2730
1686.7 1208.03 2735
1695.72 1209.8 2739
1702.27 1209.8 2739
1720.05 1217.75 2757
1732.9 1222.17 2767
1739.52 1222.17 2767
1746.14 1222.17 2767
1749.59 1219.96 2762
1756.19 1219.96 2762
1762.79 1219.96 2762
1766.2 1217.75 2757
1772.79 1217.75 2757
1779.38 1217.75 2757
1785.97 1217.75 2757
1792.57 1217.75 2757
1778.93 1204.06 2726
1785.45 1204.06 2726
1794.6 1205.82 2730
1801.13 1205.82 2730
1807.65 1205.82 2730
1814.18 1205.82 2730
1812.04 1200.08 2717
1818.54 1200.08 2717
1816.3 1194.34 2704
1790.41 1173.14 2656
1782.56 1163.86 2635
1788.86 1163.86 2635
1798.57 1166.07 2640
1804.88 1166.07 2640
1846.18 1188.6 2691
1861.57 1194.34 2704
1868.03 1194.34 2704
1874.5 1194.34 2704
1853.83 1177.11 2665
1851.13 1171.37 2652
1857.47 1171.37 2652
1861.01 1169.6 2648
1846.89 1156.8 2619
1844.66 1151.5 2607
1850.89 1151.5 2607
1857.13 1151.5 2607
1860.5 1149.73 2603
1866.73 1149.73 2603
1872.95 1149.73 2603
1879.18 1149.73 2603
1885.4 1149.73 2603
1891.62 1149.73 2603
1897.85 1149.73 2603
1904.07 1149.73 2603
-1874.79 1115.55 2512
-1871.76 1117.33 2516
-1865.74 1117.33 2516
-1859.72 1117.33 2516
-1859.6 1120.88 2524
-1861.65 1125.77 2535
-1855.58 1125.77 2535
-1852.44 1127.54 2539
-1855.09 1132.87 2551
-1848.99 1132.87 2551
-1842.89 1132.87 2551
-1839.67 1134.65 2555
-1839.31 1138.2 2563
-1833.18 1138.2 2563
-1827.05 1138.2 2563
-1828.73 1143.09 2574
-1831.08 1148.41 2586
-1824.89 1148.41 2586
-1818.71 1148.41 2586
-1809.72 1146.64 2582
-1797.96 1143.09 2574
-1791.8 1143.09 2574
-1785.65 1143.09 2574
-1779.49 1143.09 2574
-1773.34 1143.09 2574
-1767.18 1143.09 2574
-1750.76 1136.42 2559
-1744.64 1136.42 2559
-1751.43 1144.86 2578
-1745.27 1144.86 2578
-1739.1 1144.86 2578
-1738.32 1148.41 2586
-1754.24 1163.07 2619
-1761.99 1172.4 2640
-1755.68 1172.4 2640
-1759.97 1179.5 2656
-1762.2 1185.27 2669
-1767 1192.82 2686
-1760.58 1192.82 2686
-1754.15 1192.82 2686
-1731.46 1181.72 2661
-1725.1 1181.72 2661
-1707.76 1174.17 2644
-1695.64 1170.17 2635
-1689.34 1170.17 2635
-1683.04 1170.17 2635
-1676.74 1170.17 2635
-1683.75 1179.5 2656
-1693.82 1191.05 2682
-1703.76 1202.59 2708
-1697.29 1202.59 2708
-1693.93 1204.81 2713
-1687.45 1204.81 2713
-1680.96 1204.81 2713
-1674.47 1204.81 2713
-1654.46 1195.04 2691
-1626.59 1179.5 2656
-1612.92 1174.17 2644
-1606.59 1174.17 2644
-1592.4 1168.4 2631
-1578.88 1163.07 2619
-1570.21 1161.29 2615
-1563.96 1161.29 2615
-1533.28 1143.09 2574
-1492.82 1204.81 2713
-1486.33 1204.81 2713
-1479.84 1204.81 2713
-1473.36 1204.81 2713
-1466.87 1204.81 2713
-1253.16 1192.82 2686
-1246.73 1192.82 2686
-1240.31 1192.82 2686
-1243.99 1202.59 2708
-1249.86 1214.58 2735
-1249.22 1220.36 2748
-1242.65 1220.36 2748
-1236.08 1220.36 2748
-1227.72 1218.58 2744
-1221.16 1218.58 2744
-1214.6 1218.58 2744
-1208.04 1218.58 2744
-1197.53 1214.58 2735
-1190.99 1214.58 2735
-1182.29 1212.36 2730
-1175.76 1212.36 2730
-1165.38 1208.37 2721
-1158.87 1208.37 2721
-1156.17 1212.36 2730
-1149.65 1212.36 2730
-1143.12 1212.36 2730
-1134.92 1210.59 2726
-1128.41 1210.59 2726
-1118.18 1206.59 2717
-1037.43 1218.58 2744
-1030.87 1218.58 2744
-1024.31 1218.58 2744
-1015.89 1216.36 2739
-1009.34 1216.36 2739
-1002.79 1216.36 2739
-989.695 1208.37 2721
-973.794 1196.82 2695
-959.452 1187.05 2673
-953.06 1187.05 2673
-940.648 1179.5 2656
-931.482 1175.95 2648
-927.945 1179.5 2656
-927.493 1187.05 2673
-921.101 1187.05 2673
-916.42 1189.27 2678
-910.016 1189.27 2678
-912.385 1200.82 2704
-905.919 1200.82 2704
-899.453 1200.82 2704
-892.987 1200.82 2704
-883.57 1196.82 2695
-877.125 1196.82 2695
-870.681 1196.82 2695
-855.898 1185.27 2669
-849.516 1185.27 2669
-843.134 1185.27 2669
-572.151 810.463 1825
-567.165 809.575 1823
-562.805 809.575 1823
-557.833 808.686 1821
-553.479 808.686 1821
-548.521 807.798 1819
-544.171 807.798 1819
-538.041 805.134 1813
-531.939 802.469 1807
-525.574 799.36 1800
-520.111 797.584 1796
-515.817 797.584 1796
-511.522 797.584 1796
-507.227 797.584 1796
-502.372 796.696 1794
-498.082 796.696 1794
-493.792 796.696 1794
-489.502 796.696 1794
-485.212 796.696 1794
-481.458 797.584 1796
-477.164 797.584 1796
-473.395 798.472 1798
-469.618 799.36 1800
-466.606 801.581 1805
-462.29 801.581 1805
-458.988 803.357 1809
-455.165 804.245 1811
-451.83 806.022 1815
-447.49 806.022 1815
-444.126 807.798 1819
-440.744 809.575 1823
-437.342 811.351 1827
-432.973 811.351 1827
-429.073 812.239 1829
-425.164 813.127 1831
-420.785 813.127 1831
-416.407 813.127 1831
-412.478 814.015 1833
-408.095 814.015 1833
-403.712 814.015 1833
-399.329 814.015 1833
-394.945 814.015 1833
-390.136 813.127 1831
-385.758 813.127 1831
-381.379 813.127 1831
-376.589 812.239 1829
-371.808 811.351 1827
-367.439 811.351 1827
-361.878 808.686 1821
-357.131 807.798 1819
-352.781 807.798 1819
-346.899 804.245 1811
-342.568 804.245 1811
-336.93 801.137 1804
-331.141 797.584 1796
-325.754 794.92 1790
-321.474 794.92 1790
-316.13 792.255 1784
-310.641 789.146 1777
-303.977 782.929 1763
-299.761 782.929 1763
-295.043 781.597 1760
-290.173 779.821 1756
-285.322 778.044 1752
-281.133 778.044 1752
-276.943 778.044 1752
-272.598 777.6 1751
-268.564 778.044 1752
-264.676 778.932 1754
-260.779 779.821 1756
-256.58 779.821 1756
-252.956 781.597 1760
-249.171 782.929 1763
-245.511 784.706 1767
-241.286 784.706 1767
-237.865 787.37 1773
-233.625 787.37 1773
-229.903 789.146 1777
-225.654 789.146 1777
-222.526 793.143 1786
-218.499 794.031 1788
-214.463 794.92 1790
-210.183 794.92 1790
-206.132 795.808 1792
-202.072 796.696 1794
-198.444 799.36 1800
-194.14 799.36 1800
-189.835 799.36 1800
-185.943 801.137 1804
-181.629 801.137 1804
-177.315 801.137 1804
-233.779 1236.79 2785
-227.119 1236.79 2785
-220.46 1236.79 2785
-213.8 1236.79 2785
-207.14 1236.79 2785
-200.48 1236.79 2785
-193.821 1236.79 2785
-186.556 1232.79 2776
-179.594 1230.57 2771
-172.967 1230.57 2771
-166.341 1230.57 2771
-159.715 1230.57 2771
-152.315 1224.35 2757
-145.035 1218.58 2744
-138.473 1218.58 2744
-130.614 1206.59 2717
-123.934 1204.81 2713
-116.104 1191.05 2682
-110.222 1196.82 2695
-103.778 1196.82 2695
-97.4776 1198.6 2699
-91.0235 1198.6 2699
-84.5694 1198.6 2699
-78.1153 1198.6 2699
-71.1036 1189.27 2678
-64.4822 1185.27 2669
-58.0998 1185.27 2669
-51.7174 1185.27 2669
-45.4879 1189.27 2678
-39.3321 1196.82 2695
-33.2659 1210.59 2726
-26.7472 1210.59 2726
-20.2285 1210.59 2726
-13.7098 1210.59 2726
-7.20164 1212.36 2730
-0.673386 1212.36 2730
5.85487 1212.36 2730
12.424 1216.36 2739
18.9737 1216.36 2739
25.5235 1216.36 2739
32.0733 1216.36 2739
38.4962 1212.36 2730
44.9584 1210.59 2726
51.4771 1210.59 2726
57.7193 1204.81 2713
64.6092 1212.36 2730
71.1374 1212.36 2730
77.6657 1212.36 2730
84.194 1212.36 2730
91.3204 1220.36 2748
97.8917 1220.36 2748
104.463 1220.36 2748
111.034 1220.36 2748
117.22 1216.36 2739
123.77 1216.36 2739
130.748 1220.36 2748
137.319 1220.36 2748
144.624 1226.57 2762
151.229 1226.57 2762
158.348 1230.57 2771
164.974 1230.57 2771
171.6 1230.57 2771
178.227 1230.57 2771
184.853 1230.57 2771
191.479 1230.57 2771
197.82 1228.79 2767
204.436 1228.79 2767
211.053 1228.79 2767
217.67 1228.79 2767
224.286 1228.79 2767
230.486 1226.57 2762
235.546 1218.58 2744
242.107 1218.58 2744
247.4 1212.36 2730
253.929 1212.36 2730
259.598 1208.37 2721
266.105 1208.37 2721
272.612 1208.37 2721
279.631 1210.59 2726
286.15 1210.59 2726
292.669 1210.59 2726
299.187 1210.59 2726
304.248 1204.81 2713
310.163 1202.59 2708
317.223 1204.81 2713
323.711 1204.81 2713
330.686 1206.59 2717
337.183 1206.59 2717
343.68 1206.59 2717
348.502 1200.82 2704
355.493 1202.59 2708
363.706 1208.37 2721
370.213 1208.37 2721
377.412 1210.59 2726
383.93 1210.59 2726
390.449 1210.59 2726
396.24 1208.37 2721
402.746 1208.37 2721
409.253 1208.37 2721
415.76 1208.37 2721
422.267 1208.37 2721
428.773 1208.37 2721
434 1204.81 2713
440.488 1204.81 2713
446.152 1202.59 2708
452.627 1202.59 2708
459.103 1202.59 2708
464.891 1200.82 2704
471.357 1200.82 2704
477.823 1200.82 2704
484.289 1200.82 2704
488.396 1195.04 2691
493.176 1191.05 2682
499.59 1191.05 2682
500.343 1177.72 2652
505.921 1175.95 2648
512.253 1175.95 2648
517.801 1174.17 2644
524.124 1174.17 2644
530.447 1174.17 2644
532.506 1164.85 2623
536.314 1159.52 2611
542.557 1159.52 2611
548.801 1159.52 2611
556.745 1163.07 2619
565.588 1168.4 2631
578.4 1181.72 2661
584.763 1181.72 2661
601.567 1202.59 2708
608.043 1202.59 2708
618.603 1210.59 2726
625.122 1210.59 2726
632.568 1212.36 2730
639.096 1212.36 2730
645.624 1212.36 2730
652.152 1212.36 2730
654.579 1204.81 2713
661.067 1204.81 2713
667.554 1204.81 2713
665.346 1189.27 2678
671.75 1189.27 2678
687.017 1204.81 2713
693.505 1204.81 2713
699.992 1204.81 2713
705.178 1202.59 2708
711.653 1202.59 2708
717.068 1200.82 2704
723.534 1200.82 2704
724.061 1191.05 2682
725.844 1183.5 2665
729.745 1179.5 2656
736.096 1179.5 2656
742.447 1179.5 2656
748.798 1179.5 2656
754.012 1177.72 2652
760.354 1177.72 2652
763.227 1172.4 2640
770.706 1174.17 2644
792.016 1196.82 2695
802.312 1202.59 2708
808.788 1202.59 2708
815.264 1202.59 2708
821.739 1202.59 2708
828.215 1202.59 2708
834.691 1202.59 2708
837.128 1196.82 2695
840.756 1192.82 2686
841.817 1185.27 2669
848.199 1185.27 2669
854.582 1185.27 2669
865.158 1191.05 2682
878.72 1200.82 2704
893.698 1212.36 2730
900.226 1212.36 2730
911.404 1218.58 2744
933.355 1239.01 2790
944.744 1245.23 2804
951.449 1245.23 2804
958.154 1245.23 2804
964.859 1245.23 2804
971.564 1245.23 2804
973.385 1239.01 2790
965.303 1220.36 2748
962.326 1208.37 2721
968.832 1208.37 2721
964.586 1195.04 2691
961.639 1183.5 2665
966.559 1181.72 2661
975.847 1185.27 2669
982.229 1185.27 2669
988.612 1185.27 2669
998.349 1189.27 2678
1004.75 1189.27 2678
1011.16 1189.27 2678
1017.56 1189.27 2678
1022.05 1187.05 2673
1023.83 1181.72 2661
1030.19 1181.72 2661
1033.05 1177.72 2652
1037.82 1175.95 2648
1034.3 1164.85 2623
1040.57 1164.85 2623
1056.82 1175.95 2648
1063.15 1175.95 2648
1077.97 1185.27 2669
1096.54 1198.6 2699
1110.35 1206.59 2717
1116.84 1206.59 2717
1127.06 1210.59 2726
1141.07 1218.58 2744
1155.16 1226.57 2762
1161.76 1226.57 2762
1170.48 1228.79 2767
1177.1 1228.79 2767
1183.71 1228.79 2767
1190.33 1228.79 2767
1196.95 1228.79 2767
1201.39 1226.57 2762
1207.99 1226.57 2762
1214.6 1226.57 2762
1221.2 1226.57 2762
1230.03 1228.79 2767
1246.93 1239.01 2790
1253.6 1239.01 2790
1266.59 1245.23 2804
1273.3 1245.23 2804
1280 1245.23 2804
1286.71 1245.23 2804
1288.8 1240.79 2794
1293.63 1239.01 2790
1300.3 1239.01 2790
1302.29 1234.57 2780
1298.11 1224.35 2757
1296.18 1216.36 2739
1292.27 1206.59 2717
1298.76 1206.59 2717
1300.94 1202.59 2708
1311.76 1206.59 2717
1318.26 1206.59 2717
1324.75 1206.59 2717
1331.25 1206.59 2717
1359.9 1226.57 2762
1366.51 1226.57 2762
1373.11 1226.57 2762
1372.72 1220.36 2748
1374.78 1216.36 2739
1374.77 1210.59 2726
1381.29 1210.59 2726
1387.81 1210.59 2726
1394.33 1210.59 2726
1400.85 1210.59 2726
1407.37 1210.59 2726
1413.88 1210.59 2726
1420.4 1210.59 2726
1426.92 1210.59 2726
1430.81 1208.37 2721
1437.32 1208.37 2721
1441.7 1206.59 2717
1443.4 1202.59 2708
1449.88 1202.59 2708
1461.19 1206.59 2717
1467.69 1206.59 2717
1476.36 1208.37 2721
1490.49 1214.58 2735
1504.15 1220.36 2748
1510.72 1220.36 2748
1529.99 1230.57 2771
1536.62 1230.57 2771
1543.24 1230.57 2771
1549.87 1230.57 2771
1554.25 1228.79 2767
1555.23 1224.35 2757
1561.82 1224.35 2757
1568.41 1224.35 2757
1569.86 1220.36 2748
1576.43 1220.36 2748
1588.19 1224.35 2757
1594.78 1224.35 2757
1601.38 1224.35 2757
1607.97 1224.35 2757
1604.02 1216.36 2739
1610.57 1216.36 2739
1617.12 1216.36 2739
1623.67 1216.36 2739
1622.48 1210.59 2726
1629 1210.59 2726
1630.12 1206.59 2717
1620.96 1195.04 2691
1603.81 1177.72 2652
1592.54 1164.85 2623
1621.97 1181.72 2661
1628.34 1181.72 2661
1642.07 1187.05 2673
1667.58 1200.82 2704
1693.24 1214.58 2735
1699.78 1214.58 2735
1714.43 1220.36 2748
1726.64 1224.35 2757
1733.23 1224.35 2757
1739.83 1224.35 2757
1743.88 1222.58 2753
1750.47 1222.58 2753
1757.05 1222.58 2753
1763.63 1222.58 2753
1770.22 1222.58 2753
1750.98 1204.81 2713
1757.47 1204.81 2713
1766.56 1206.59 2717
1773.06 1206.59 2717
1779.55 1206.59 2717
1786.05 1206.59 2717
1792.55 1206.59 2717
1799.05 1206.59 2717
1805.54 1206.59 2717
1812.04 1206.59 2717
1818.54 1206.59 2717
1816.3 1200.82 2704
1790.41 1179.5 2656
1782.56 1170.17 2635
1788.86 1170.17 2635
1798.57 1172.4 2640
1804.88 1172.4 2640
1846.18 1195.04 2691
1861.57 1200.82 2704
1868.03 1200.82 2704
1874.5 1200.82 2704
1853.83 1183.5 2665
1851.13 1177.72 2652
1857.47 1177.72 2652
1861.01 1175.95 2648
1846.89 1163.07 2619
1844.66 1157.74 2607
1850.89 1157.74 2607
1857.13 1157.74 2607
1857.64 1154.19 2599
1866.73 1155.96 2603
1872.95 1155.96 2603
1879.18 1155.96 2603
1885.4 1155.96 2603
1891.62 1155.96 2603
1897.85 1155.96 2603
1904.07 1155.96 2603
-1874.79 1121.57 2512
-1871.76 1123.36 2516
-1865.74 1123.36 2516
-1859.72 1123.36 2516
-1859.6 1126.93 2524
-1861.65 1131.84 2535
-1855.58 1131.84 2535
-1852.44 1133.62 2539
-1849.28 1135.41 2543
-1848.99 1138.98 2551
-1842.89 1138.98 2551
-1839.67 1140.77 2555
-1839.31 1144.34 2563
-1833.18 1144.34 2563
-1827.05 1144.34 2563
-1828.73 1149.25 2574
-1831.08 1154.61 2586
-1824.89 1154.61 2586
-1818.71 1154.61 2586
-1806.92 1151.04 2578
-1797.96 1149.25 2574
-1791.8 1149.25 2574
-1785.65 1149.25 2574
-1779.49 1149.25 2574
-1773.34 1149.25 2574
-1767.18 1149.25 2574
-1753.5 1144.34 2563
-1747.37 1144.34 2563
-1748.72 1149.25 2574
-1747.98 1152.82 2582
-1741.8 1152.82 2582
-1741.01 1156.4 2590
-1754.24 1169.34 2619
-1761.99 1178.72 2640
-1755.68 1178.72 2640
-1771.23 1193.45 2673
-1764.84 1193.45 2673
-1758.45 1193.45 2673
-1744.19 1188.1 2661
-1737.83 1188.1 2661
-1720.4 1180.51 2644
-1714.08 1180.51 2644
-1701.94 1176.49 2635
-1695.64 1176.49 2635
-1686.78 1174.7 2631
-1680.48 1174.7 2631
-1674.19 1174.7 2631
-1667.9 1174.7 2631
-1677.4 1185.86 2656
-1687.41 1197.47 2682
-1680.99 1197.47 2682
-1680.2 1201.49 2691
-1673.76 1201.49 2691
-1667.33 1201.49 2691
-1660.89 1201.49 2691
-1632.94 1185.86 2656
-1613.73 1176.49 2635
-1587.91 1162.2 2603
-1581.68 1162.2 2603
-1575.46 1162.2 2603
-1556.57 1152.82 2582
-1545.59 1149.25 2574
-1539.44 1149.25 2574
-1531.5 1147.91 2571
-1485.11 1205.06 2699
-1478.66 1205.06 2699
-1472.21 1205.06 2699
-1465.75 1205.06 2699
-1459.3 1205.06 2699
-1253.16 1199.26 2686
-1246.73 1199.26 2686
-1240.31 1199.26 2686
-1232.05 1197.47 2682
-1239.8 1211.31 2713
-1243.32 1221.14 2735
-1236.78 1221.14 2735
-1234.28 1225.15 2744
-1227.72 1225.15 2744
-1221.16 1225.15 2744
-1202.65 1213.1 2717
-1196.15 1213.1 2717
-1191.4 1214.88 2721
-1184.9 1214.88 2721
-1178.39 1214.88 2721
-1170.16 1213.1 2717
-1159.81 1209.08 2708
-1151.63 1207.29 2704
-1152.36 1214.88 2721
-1145.86 1214.88 2721
-1139.35 1214.88 2721
-1132.84 1214.88 2721
-1126.34 1214.88 2721
-1118.18 1213.1 2717
-1092.05 1191.67 2669
-1043.99 1225.15 2744
-1037.43 1225.15 2744
-1030.87 1225.15 2744
-1024.31 1225.15 2744
-1017.75 1225.15 2744
-1011.18 1225.15 2744
-1004.62 1225.15 2744
-992.969 1218.9 2730
-973.794 1203.28 2695
-964.119 1199.26 2686
-957.695 1199.26 2686
-942.418 1188.1 2661
-931.482 1182.29 2648
-927.945 1185.86 2656
-926.105 1191.67 2669
-921.101 1193.45 2673
-914.709 1193.45 2673
-908.317 1193.45 2673
-907.998 1201.49 2691
-901.563 1201.49 2691
-895.128 1201.49 2691
-888.693 1201.49 2691
-883.57 1203.28 2695
-877.125 1203.28 2695
-870.681 1203.28 2695
-864.236 1203.28 2695
-849.516 1191.67 2669
-843.134 1191.67 2669
-836.751 1191.67 2669
-567.165 813.942 1823
-562.805 813.942 1823
-557.833 813.049 1821
-553.479 813.049 1821
-549.124 813.049 1821
-544.77 813.049 1821
-538.634 810.37 1815
-533.117 808.584 1811
-527.034 805.905 1805
-521.27 803.672 1800
-516.965 803.672 1800
-512.091 802.779 1798
-507.792 802.779 1798
-503.492 802.779 1798
-499.193 802.779 1798
-494.343 801.886 1796
-490.048 801.886 1796
-485.753 801.886 1796
-481.995 802.779 1798
-477.695 802.779 1798
-473.395 802.779 1798
-469.618 803.672 1800
