-659.929 1.55669 1692
-655.108 1.55485 1690
-649.14 1.55025 1685
-645.111 1.55025 1685
-641.082 1.55025 1685
-637.052 1.55025 1685
-633.023 1.55025 1685
-628.994 1.55025 1685
-622.368 1.54381 1678
-617.987 1.54289 1677
-612.146 1.53829 1672
-608.148 1.53829 1672
-602.704 1.53461 1668
-598.357 1.53369 1667
-594.37 1.53369 1667
-590.384 1.53369 1667
-586.398 1.53369 1667
-582.761 1.53461 1668
-578.772 1.53461 1668
-575.472 1.53645 1670
-571.479 1.53645 1670
-567.486 1.53645 1670
-564.504 1.53921 1673
-560.504 1.53921 1673
-556.503 1.53921 1673
-553.163 1.54105 1675
-549.157 1.54105 1675
-545.152 1.54105 1675
-541.147 1.54105 1675
-537.141 1.54105 1675
-533.136 1.54105 1675
-529.13 1.54105 1675
-525.125 1.54105 1675
-521.742 1.54289 1677
-517.731 1.54289 1677
-513.721 1.54289 1677
-509.711 1.54289 1677
-505.701 1.54289 1677
-501.691 1.54289 1677
-497.68 1.54289 1677
-493.67 1.54289 1677
-489.076 1.54105 1675
-484.202 1.53829 1672
-480.203 1.53829 1672
-476.205 1.53829 1672
-471.642 1.53645 1670
-467.649 1.53645 1670
-463.655 1.53645 1670
-460.212 1.53829 1672
-456.214 1.53829 1672
-452.216 1.53829 1672
-448.217 1.53829 1672
-444.219 1.53829 1672
-440.221 1.53829 1672
-436.223 1.53829 1672
-432.224 1.53829 1672
-428.226 1.53829 1672
-424.228 1.53829 1672
-419.727 1.53645 1670
-415.733 1.53645 1670
-412.233 1.53829 1672
-408.235 1.53829 1672
-404.237 1.53829 1672
-400.478 1.53921 1673
-396.477 1.53921 1673
-392.476 1.53921 1673
-388.476 1.53921 1673
-384.935 1.54105 1675
-380.929 1.54105 1675
-376.924 1.54105 1675
-372.918 1.54105 1675
-369.353 1.54289 1677
-365.343 1.54289 1677
-361.333 1.54289 1677
-357.323 1.54289 1677
-353.523 1.54381 1678
-349.927 1.54565 1680
-346.322 1.54749 1682
-342.299 1.54749 1682
-338.478 1.54841 1683
-334.851 1.55025 1685
-330.822 1.55025 1685
-326.793 1.55025 1685
-323.146 1.55209 1687
-319.491 1.55393 1689
-315.638 1.55485 1690
-311.597 1.55485 1690
-307.556 1.55485 1690
-303.874 1.55669 1692
-300.714 1.56129 1697
-296.656 1.56129 1697
-292.598 1.56129 1697
-289.22 1.56497 1701
-285.32 1.56589 1702
-281.25 1.56589 1702
-277.505 1.56773 1704
-274.072 1.57141 1708
-270.462 1.57417 1711
-266.371 1.57417 1711
-262.279 1.57417 1711
-258.791 1.57785 1715
-254.839 1.57877 1716
-250.735 1.57877 1716
-246.632 1.57877 1716
-242.811 1.58061 1718
-238.981 1.58245 1720
-234.868 1.58245 1720
-231.157 1.58521 1723
-227.564 1.58889 1727
-223.952 1.59257 1731
-219.812 1.59257 1731
-215.673 1.59257 1731
-212.145 1.59717 1736
-207.993 1.59717 1736
-203.842 1.59717 1736
-200.151 1.60085 1740
-196.778 1.60729 1747
-193.152 1.61189 1752
-188.962 1.61189 1752
-185.828 1.62109 1762
-182.129 1.62569 1767
-179.213 1.63765 1780
-174.956 1.63765 1780
-171.083 1.64133 1784
-167.378 1.64685 1790
-164.191 1.65789 1802
-159.882 1.65789 1802
-156.523 1.66801 1813
-152.523 1.67169 1817
-148.667 1.67721 1823
-144.308 1.67721 1823
-140.256 1.68089 1827
-136.333 1.68641 1833
-132.526 1.69377 1841
-128.123 1.69377 1841
-123.855 1.69561 1843
-119.902 1.70205 1850
-115.728 1.70573 1854
-111.294 1.70573 1854
-107.091 1.70941 1858
-103.09 1.71677 1866
-98.9452 1.72229 1872
-94.4687 1.72229 1872
-90.2325 1.72689 1877
-85.9268 1.73057 1881
-81.6019 1.73425 1885
-77.0943 1.73425 1885
-72.5867 1.73425 1885
-68.079 1.73425 1885
-63.5714 1.73425 1885
-59.0012 1.73241 1883
-79.9988 3.3811 3675
-71.2108 3.3811 3675
-62.4228 3.3811 3675
-53.3866 3.36546 3658
-44.444 3.35074 3642
-35.8133 3.3581 3650
-27.1444 3.36546 3658
-18.5228 3.38846 3683
-9.71562 3.38846 3683
-0.910428 3.39582 3691
7.91587 3.39582 3691
16.9644 3.4409 3740
25.9079 3.4409 3740
35.2521 3.48047 3783
44.2984 3.48047 3783
53.3447 3.48047 3783
62.391 3.48047 3783
71.2673 3.47219 3774
80.2921 3.47219 3774
89.3169 3.47219 3774
97.8987 3.45655 3757
106.883 3.45655 3757
115.867 3.45655 3757
124.851 3.45655 3757
133.55 3.44919 3749
142.515 3.44919 3749
151.48 3.44919 3749
160.445 3.44919 3749
168.642 3.43354 3732
176.805 3.41882 3716
185.241 3.41054 3707
194.577 3.41882 3716
203.463 3.41882 3716
213.264 3.43354 3732
222.188 3.43354 3732
231.112 3.43354 3732
240.037 3.43354 3732
246.76 3.40318 3699
255.605 3.40318 3699
266.238 3.42618 3724
275.734 3.43354 3732
284.658 3.43354 3732
293.583 3.43354 3732
303.156 3.4409 3740
313.518 3.45655 3757
322.502 3.45655 3757
331.486 3.45655 3757
340.47 3.45655 3757
349.454 3.45655 3757
358.438 3.45655 3757
366.64 3.44919 3749
373.902 3.43354 3732
382.826 3.43354 3732
389.126 3.41054 3707
397.991 3.41054 3707
404.221 3.38846 3683
413.029 3.38846 3683
418.972 3.36546 3658
423.16 3.32958 3619
430.859 3.32222 3611
439.494 3.32222 3611
448.129 3.32222 3611
454.74 3.3075 3595
461.404 3.2937 3580
468.914 3.28634 3572
477.456 3.28634 3572
482.868 3.26518 3549
490.386 3.25874 3542
496.743 3.24494 3527
505.178 3.24494 3527
510.408 3.2247 3505
517.605 3.21734 3497
522.809 3.19802 3476
531.121 3.19802 3476
537.106 3.18422 3461
546.485 3.19066 3468
554.778 3.19066 3468
563.071 3.19066 3468
573.836 3.20446 3483
582.164 3.20446 3483
592.867 3.21734 3497
602.605 3.2247 3505
614.821 3.24494 3527
623.255 3.24494 3527
635.63 3.26518 3549
648.291 3.28634 3572
661.062 3.3075 3595
669.659 3.3075 3595
681.274 3.32222 3611
695.832 3.35074 3642
706.088 3.3581 3650
714.817 3.3581 3650
723.545 3.3581 3650
733.878 3.36546 3658
754.4 3.41882 3716
763.286 3.41882 3716
782.562 3.46483 3766
800.606 3.50439 3809
811.628 3.51267 3818
820.758 3.51267 3818
845.32 3.57799 3889
854.62 3.57799 3889
863.92 3.57799 3889
871.199 3.56971 3880
880.477 3.56971 3880
889.756 3.56971 3880
899.034 3.56971 3880
908.312 3.56971 3880
917.59 3.56971 3880
1171.8 3.69851 4020
1181.41 3.69851 4020
1193.99 3.70771 4030
1203.62 3.70771 4030
1213.26 3.70771 4030
1222.9 3.70771 4030
1232.54 3.70771 4030
1233.23 3.68103 4001
1242.8 3.68103 4001
1240.47 3.64607 3963
1243.96 3.62859 3944
1247.35 3.61111 3925
1268.9 3.64607 3963
1290.64 3.68103 4001
1300.21 3.68103 4001
1325.49 3.72519 4049
1338.47 3.73439 4059
1348.17 3.73439 4059
1357.88 3.73439 4059
1367.59 3.73439 4059
1373.9 3.72519 4049
1383.58 3.72519 4049
1386.73 3.70771 4030
1409.88 3.74359 4069
1419.61 3.74359 4069
1429.34 3.74359 4069
1439.07 3.74359 4069
1445.24 3.73439 4059
1454.94 3.73439 4059
1464.65 3.73439 4059
1470.72 3.72519 4049
1459.2 3.67183 3991
1475.74 3.68931 4010
1485.33 3.68931 4010
1494.91 3.68931 4010
1501.13 3.68103 4001
1503.52 3.66355 3982
1477.71 3.57799 3889
1487.01 3.57799 3889
1478.99 3.53659 3844
1478.12 3.51267 3818
1521.92 3.59455 3907
1531.26 3.59455 3907
1540.6 3.59455 3907
1549.94 3.59455 3907
1544.92 3.56143 3871
1554.18 3.56143 3871
1497.2 3.41054 3707
1493.06 3.3811 3675
1498.58 3.37374 3667
1481.04 3.31486 3603
1489.66 3.31486 3603
1482.47 3.2799 3565
1484.3 3.26518 3549
1483.54 3.24494 3527
1491.97 3.24494 3527
1500.4 3.24494 3527
1505.84 3.2385 3520
1495.33 3.19802 3476
1503.65 3.19802 3476
1508.48 3.19066 3468
1516.77 3.19066 3468
1525.06 3.19066 3468
1530.26 3.18422 3461
1541.65 3.19066 3468
1549.94 3.19066 3468
1558.24 3.19066 3468
1566.53 3.19066 3468
1574.82 3.19066 3468
1579.92 3.18422 3461
1598.29 3.20446 3483
1616.77 3.2247 3505
1628.4 3.23114 3512
1636.79 3.23114 3512
1645.19 3.23114 3512
1653.59 3.23114 3512
1661.99 3.23114 3512
1667.06 3.2247 3505
1668.27 3.2109 3490
1655.96 3.17134 3447
2363.26 3.55315 3862
2372.5 3.55315 3862
2381.73 3.55315 3862
2374.25 3.52831 3835
2383.42 3.52831 3835
2409.44 3.55315 3862
2418.67 3.55315 3862
2467.51 3.61111 3925
2476.9 3.61111 3925
2486.29 3.61111 3925
2467.06 3.56971 3880
2447.62 3.52831 3835
2440.13 3.50439 3809
2471.75 3.53659 3844
2504.17 3.56971 3880
2513.45 3.56971 3880
2522.73 3.56971 3880
1835.45 2.54112 2762
1842.05 2.54112 2762
1848.66 2.54112 2762
1833.77 2.51168 2730
1834.23 2.5034 2721
1844.12 2.508 2726
1871.68 2.53652 2757
1891.22 2.554 2776
1897.86 2.554 2776
1904.5 2.554 2776
1917.33 2.56228 2785
1933.66 2.57516 2799
1940.35 2.57516 2799
1947.05 2.57516 2799
1953.74 2.57516 2799
1963.94 2.57976 2804
1970.64 2.57976 2804
1983.69 2.58804 2813
1993.96 2.59264 2818
2004.25 2.59724 2823
2011 2.59724 2823
2021.32 2.60184 2828
2030.95 2.60552 2832
2044.92 2.61472 2842
2051.72 2.61472 2842
2062.13 2.61932 2847
2076.21 2.62852 2857
2086.69 2.63312 2862
2093.53 2.63312 2862
2100.37 2.63312 2862
2110.16 2.6368 2866
2120.71 2.6414 2871
2127.58 2.6414 2871
2134.44 2.6414 2871
2145.04 2.646 2876
2155.65 2.6506 2881
2189.57 2.68372 2917
2196.54 2.68372 2917
2226.18 2.71132 2947
2261.26 2.74536 2984
2285.12 2.7656 3006
2292.31 2.7656 3006
2299.5 2.7656 3006
-2575.61 11.4054 3440
-2567.39 11.4054 3440
-2559.16 11.4054 3440
-2545.74 11.3822 3433
-2537.53 11.3822 3433
-2529.32 11.3822 3433
-2541.68 11.4751 3461
-2544.38 11.5248 3476
-2536.07 11.5248 3476
-2527.76 11.5248 3476
-2519.44 11.5248 3476
-2521.25 11.5712 3490
-2512.9 11.5712 3490
-2504.56 11.5712 3490
-2496.21 11.5712 3490
-2482.87 11.548 3483
-2474.54 11.548 3483
-2466.22 11.548 3483
-2457.89 11.548 3483
-2454.48 11.5712 3490
-2446.14 11.5712 3490
-2437.79 11.5712 3490
-2429.44 11.5712 3490
-2416.24 11.548 3483
-2407.91 11.548 3483
-2399.58 11.548 3483
-2391.26 11.548 3483
-2382.93 11.548 3483
-2359.6 11.4751 3461
-2351.32 11.4751 3461
-2343.05 11.4751 3461
-2344.89 11.5248 3476
-2350.69 11.5944 3497
-2342.33 11.5944 3497
-2333.97 11.5944 3497
-2325.61 11.5944 3497
-2327.18 11.6442 3512
-2324.07 11.6707 3520
-2315.65 11.6707 3520
-2307.23 11.6707 3520
-2298.81 11.6707 3520
-2294.95 11.6939 3527
-2286.52 11.6939 3527
-2282.61 11.7171 3534
-2279.3 11.7436 3542
-2270.83 11.7436 3542
-2262.36 11.7436 3542
-2253.89 11.7436 3542
-2249.86 11.7668 3549
-2241.37 11.7668 3549
-2232.89 11.7668 3549
-2234.43 11.8199 3565
-2225.9 11.8199 3565
-2217.38 11.8199 3565
-2208.85 11.8199 3565
-2195.39 11.7934 3557
-2186.88 11.7934 3557
-2183.28 11.8199 3565
-2174.75 11.8199 3565
-2166.23 11.8199 3565
-2161.94 11.8431 3572
-2158.22 11.8696 3580
-2149.66 11.8696 3580
-2150.07 11.9194 3595
-2141.47 11.9194 3595
-2137.62 11.9459 3603
-2129.01 11.9459 3603
-2120.39 11.9459 3603
-2111.78 11.9459 3603
-2103.16 11.9459 3603
-2094.54 11.9459 3603
-2085.93 11.9459 3603
-2077.31 11.9459 3603
-2068.7 11.9459 3603
-2051.5 11.8961 3588
-2033.81 11.8431 3572
-2003.73 11.7171 3534
-1995.28 11.7171 3534
-1970.52 11.621 3505
-1953.74 11.5712 3490
-1921.43 11.4287 3447
-1913.18 11.4287 3447
-1877.86 11.2662 3398
-1839.47 11.0838 3343
-1824.36 11.0407 3330
-1805.49 10.9744 3310
-1797.57 10.9744 3310
-1785.87 10.9512 3303
-1774.74 10.9313 3297
-1756.68 10.8683 3278
-1748.84 10.8683 3278
-1734.09 10.8252 3265
-1722.58 10.802 3258
-1714.79 10.802 3258
-1707 10.802 3258
-1696.08 10.7821 3252
-1681.56 10.739 3239
-1673.81 10.739 3239
-1669.67 10.7622 3246
-1661.91 10.7622 3246
-1657.2 10.7821 3252
-1649.42 10.7821 3252
-1641.65 10.7821 3252
-1630.86 10.7622 3246
-1626.09 10.7821 3252
-1621.3 10.802 3258
-1616.98 10.8252 3265
-1609.17 10.8252 3265
-1607.74 10.8683 3278
-1599.9 10.8683 3278
-1597.89 10.9081 3290
-1590.02 10.9081 3290
-1582.16 10.9081 3290
-1574.29 10.9081 3290
-1566.42 10.9081 3290
-1552.87 10.8683 3278
-1545.03 10.8683 3278
-1537.19 10.8683 3278
-1532.15 10.8882 3284
-1524.3 10.8882 3284
-1516.45 10.8882 3284
-1508.59 10.8882 3284
-1509.42 10.9512 3303
-1501.52 10.9512 3303
-1496.79 10.9744 3310
-1494.72 11.0175 3323
-1489.91 11.0407 3330
-1481.95 11.0407 3330
-1473.98 11.0407 3330
-1466.02 11.0407 3330
-1458.06 11.0407 3330
-1447.05 11.0175 3323
-1439.1 11.0175 3323
-1428.57 10.9976 3317
-1420.64 10.9976 3317
-1409.72 10.9744 3310
-1398.84 10.9512 3303
-1396.84 10.9976 3317
-1391.42 11.0175 3323
-1383.48 11.0175 3323
-1375.53 11.0175 3323
-1365.11 10.9976 3317
-691.099 5.6331 1699
-687.036 5.6331 1699
-682.974 5.6331 1699
-678.112 5.62647 1697
-672.862 5.61652 1694
-667.232 5.60326 1690
-663.19 5.60326 1690
-659.149 5.60326 1690
-653.945 5.59331 1687
-648.37 5.58005 1683
-644.345 5.58005 1683
-640.321 5.58005 1683
-636.296 5.58005 1683
-631.896 5.57673 1682
-627.874 5.57673 1682
-622.368 5.56347 1678
-616.513 5.54689 1673
-611.414 5.53695 1670
-607.42 5.53695 1670
-602.343 5.527 1667
-596.921 5.51374 1663
-592.944 5.51374 1663
-588.967 5.51374 1663
-584.991 5.51374 1663
-581.713 5.52037 1665
-577.731 5.52037 1665
-574.783 5.53032 1668
-570.795 5.53032 1668
-567.486 5.53695 1670
-563.492 5.53695 1670
-560.504 5.54689 1673
-556.503 5.54689 1673
-552.502 5.54689 1673
-548.502 5.54689 1673
-544.501 5.54689 1673
-540.5 5.54689 1673
-537.141 5.55352 1675
-533.136 5.55352 1675
-529.13 5.55352 1675
-525.125 5.55352 1675
-521.742 5.56016 1677
-517.731 5.56016 1677
-513.721 5.56016 1677
-509.711 5.56016 1677
-505.701 5.56016 1677
-501.691 5.56016 1677
-497.68 5.56016 1677
-493.67 5.56016 1677
-489.076 5.55352 1675
-484.202 5.54358 1672
-480.203 5.54358 1672
-476.205 5.54358 1672
-471.642 5.53695 1670
-467.649 5.53695 1670
-463.655 5.53695 1670
-460.212 5.54358 1672
-456.214 5.54358 1672
-452.216 5.54358 1672
-448.217 5.54358 1672
-444.219 5.54358 1672
-440.221 5.54358 1672
-436.223 5.54358 1672
-432.224 5.54358 1672
-428.226 5.54358 1672
-424.228 5.54358 1672
-419.727 5.53695 1670
-415.733 5.53695 1670
-412.233 5.54358 1672
-408.235 5.54358 1672
-404.237 5.54358 1672
-400.478 5.54689 1673
-396.477 5.54689 1673
-392.476 5.54689 1673
-388.476 5.54689 1673
-384.935 5.55352 1675
-380.929 5.55352 1675
-376.924 5.55352 1675
-372.918 5.55352 1675
-369.353 5.56016 1677
-365.343 5.56016 1677
-361.333 5.56016 1677
-357.323 5.56016 1677
-353.523 5.56347 1678
-349.927 5.5701 1680
-346.322 5.57673 1682
-342.299 5.57673 1682
-338.478 5.58005 1683
-334.851 5.58668 1685
-331.215 5.59331 1687
-327.181 5.59331 1687
-323.146 5.59331 1687
-319.491 5.59994 1689
-315.638 5.60326 1690
-311.597 5.60326 1690
-307.92 5.60989 1692
-304.233 5.61652 1694
-300.714 5.62647 1697
-296.656 5.62647 1697
-292.942 5.6331 1699
-289.39 5.64304 1702
-285.655 5.64967 1704
-281.58 5.64967 1704
-277.831 5.65631 1706
-274.072 5.66294 1708
-270.462 5.67288 1711
-266.371 5.67288 1711
-262.279 5.67288 1711
-258.791 5.68615 1715
-254.839 5.68946 1716
-250.735 5.68946 1716
-246.919 5.69609 1718
-242.811 5.69609 1718
-238.981 5.70272 1720
-234.868 5.70272 1720
-231.157 5.71267 1723
-227.564 5.72593 1727
-223.952 5.73919 1731
-219.812 5.73919 1731
-215.673 5.73919 1731
-212.145 5.75577 1736
-207.993 5.75577 1736
-203.842 5.75577 1736
-200.151 5.76903 1740
-196.553 5.78561 1745
-193.042 5.80551 1751
-188.855 5.80551 1751
-185.828 5.84198 1762
-181.923 5.85192 1765
-178.911 5.89171 1777
-174.661 5.89171 1777
-170.7 5.90166 1780
-167.004 5.92155 1786
-163.645 5.9547 1796
-159.35 5.9547 1796
-156.005 5.99118 1807
-152.187 6.01107 1813
-148.341 6.03096 1819
-143.991 6.03096 1819
-140.102 6.05085 1825
-136.036 6.06412 1829
-132.382 6.09727 1839
-127.984 6.09727 1839
-123.721 6.1039 1841
-119.902 6.13374 1850
-115.728 6.14701 1854
-111.294 6.14701 1854
-107.091 6.16027 1858
-103.09 6.18679 1866
-99.0509 6.21332 1874
-94.5696 6.21332 1874
-90.2325 6.22326 1877
-86.1095 6.24979 1885
-81.6885 6.25642 1887
-77.1761 6.25642 1887
-72.6637 6.25642 1887
-68.1513 6.25642 1887
-63.6389 6.25642 1887
-59.1265 6.25642 1887
-79.6288 12.1282 3658
-70.8814 12.1282 3658
-62.134 12.1282 3658
-53.2699 12.1017 3650
-44.444 12.0752 3642
-35.7348 12.0752 3642
-27.1444 12.1282 3658
-18.5228 12.2111 3683
-9.71562 12.2111 3683
-0.910428 12.2376 3691
7.91587 12.2376 3691
16.9644 12.4001 3740
25.9079 12.4001 3740
35.2521 12.5427 3783
44.2984 12.5427 3783
53.3447 12.5427 3783
62.391 12.5427 3783
71.2673 12.5128 3774
80.2921 12.5128 3774
89.3169 12.5128 3774
97.8987 12.4565 3757
106.883 12.4565 3757
115.343 12.4001 3740
124.286 12.4001 3740
132.945 12.3736 3732
141.869 12.3736 3732
150.47 12.3471 3724
159.375 12.3471 3724
167.512 12.2907 3707
175.616 12.2376 3691
184.042 12.2111 3683
193.268 12.2376 3691
202.094 12.2376 3691
212.349 12.3205 3716
221.235 12.3205 3716
230.122 12.3205 3716
238.429 12.2907 3707
246.76 12.2642 3699
255.605 12.2642 3699
266.238 12.3471 3724
275.143 12.3471 3724
284.048 12.3471 3724
293.583 12.3736 3732
302.507 12.3736 3732
313.518 12.4565 3757
322.502 12.4565 3757
331.486 12.4565 3757
340.47 12.4565 3757
349.454 12.4565 3757
358.438 12.4565 3757
366.64 12.4299 3749
372.299 12.3205 3716
381.185 12.3205 3716
389.126 12.2907 3707
396.273 12.2376 3691
403.343 12.1846 3675
412.131 12.1846 3675
418.056 12.1017 3650
421.289 11.9459 3603
429.905 11.9459 3603
437.547 11.9194 3595
446.143 11.9194 3595
453.855 11.8961 3588
460.373 11.8431 3572
465.895 11.7668 3549
474.382 11.7668 3549
481.916 11.7436 3542
489.278 11.7171 3534
494.631 11.6442 3512
503.029 11.6442 3512
509.243 11.5944 3497
515.533 11.548 3483
520.553 11.4751 3461
528.83 11.4751 3461
536.019 11.4519 3454
545.382 11.4751 3461
553.658 11.4751 3461
561.935 11.4751 3461
573.836 11.548 3483
582.164 11.548 3483
590.493 11.548 3483
601.229 11.5944 3497
610.986 11.621 3505
619.368 11.621 3505
632.943 11.7171 3534
645.568 11.7934 3557
656.833 11.8431 3572
665.374 11.8431 3572
678.255 11.9194 3595
691.437 11.9989 3619
701.639 12.0255 3627
710.312 12.0255 3627
720.571 12.052 3635
733.878 12.1282 3658
754.4 12.3205 3716
763.286 12.3205 3716
779.03 12.4299 3749
791.568 12.4863 3766
802.274 12.5128 3774
811.299 12.5128 3774
831.627 12.6852 3826
844.731 12.7449 3844
853.924 12.7449 3844
863.116 12.7449 3844
872.308 12.7449 3844
879.436 12.7151 3835
888.607 12.7151 3835
897.777 12.7151 3835
906.948 12.7151 3835
1171.8 13.3285 4020
1181.41 13.3285 4020
1193.99 13.3616 4030
1206.31 13.3915 4039
1215.97 13.3915 4039
1225.63 13.3915 4039
1235.29 13.3915 4039
1242.17 13.3616 4030
1251.81 13.3616 4030
1243.29 13.1693 3972
1243.96 13.0765 3944
1247.35 13.0135 3925
1268.9 13.1395 3963
1290.64 13.2655 4001
1300.21 13.2655 4001
1325.49 13.4246 4049
1338.47 13.4578 4059
1348.17 13.4578 4059
1357.88 13.4578 4059
1367.59 13.4578 4059
1370.51 13.3915 4039
1380.17 13.3915 4039
1386.73 13.3616 4030
1409.88 13.4909 4069
1419.61 13.4909 4069
1432.85 13.5241 4079
1442.6 13.5241 4079
1452.36 13.5241 4079
1458.53 13.4909 4069
1468.26 13.4909 4069
1474.36 13.4578 4059
1459.2 13.2323 3991
1465.43 13.2025 3982
1481.99 13.2655 4001
1491.56 13.2655 4001
1501.13 13.2655 4001
1503.52 13.2025 3982
1477.71 12.8941 3889
1487.01 12.8941 3889
1468.99 12.6587 3818
1471.15 12.599 3800
1497.38 12.7449 3844
1517.15 12.8344 3871
1526.41 12.8344 3871
1535.66 12.8344 3871
1534.14 12.7449 3844
1543.34 12.7449 3844
1507.29 12.3736 3732
1499.56 12.2376 3691
1501.85 12.1846 3675
1481.04 11.9459 3603
1489.66 11.9459 3603
1488.71 11.8696 3580
1490.99 11.8199 3565
1496.15 11.7934 3557
1504.66 11.7934 3557
1513.17 11.7934 3557
1511.83 11.7171 3534
1498.34 11.548 3483
1506.67 11.548 3483
1518.05 11.5712 3490
1526.39 11.5712 3490
1534.74 11.5712 3490
1539.99 11.548 3483
1548.32 11.548 3483
1556.65 11.548 3483
1561.83 11.5248 3476
1570.14 11.5248 3476
1578.45 11.5248 3476
1586.77 11.5248 3476
1604.72 11.5944 3497
1616.77 11.621 3505
1628.4 11.6442 3512
1636.79 11.6442 3512
1645.19 11.6442 3512
1653.59 11.6442 3512
1665.77 11.6707 3520
1674.19 11.6707 3520
1682.61 11.6707 3520
1655.96 11.4287 3447
2363.26 12.8046 3862
2372.5 12.8046 3862
2381.73 12.8046 3862
2368.68 12.6852 3826
2367.26 12.6289 3809
2376.37 12.6289 3809
2337.26 12.3736 3732
2400.25 12.6587 3818
2409.38 12.6587 3818
2418.51 12.6587 3818
2427.64 12.6587 3818
2436.77 12.6587 3818
2429.24 12.5725 3792
2438.31 12.5725 3792
2504.17 12.8643 3880
2513.45 12.8643 3880
2522.73 12.8643 3880
1814.71 9.02158 2721
1821.21 9.02158 2721
1827.72 9.02158 2721
1825.46 8.97847 2708
1831.94 8.97847 2708
1865.57 9.1111 2748
1881.68 9.15751 2762
1888.29 9.15751 2762
1904.5 9.20393 2776
1917.33 9.23377 2785
1927.44 9.25035 2790
1934.12 9.25035 2790
1947.05 9.28019 2799
1953.74 9.28019 2799
1960.43 9.28019 2799
1967.13 9.28019 2799
1980.87 9.31334 2809
1993.96 9.34318 2818
2000.7 9.34318 2818
2007.44 9.34318 2818
2017.75 9.35976 2823
2030.95 9.3896 2832
2041.32 9.40618 2837
2048.11 9.40618 2837
2062.13 9.43933 2847
2068.94 9.43933 2847
2079.4 9.45591 2852
2086.22 9.45591 2852
2093.04 9.45591 2852
2103.54 9.47249 2857
2114.06 9.48907 2862
2123.87 9.50233 2866
2130.72 9.50233 2866
2141.31 9.51891 2871
2151.91 9.53548 2876
2170.05 9.58522 2891
2176.96 9.58522 2891
2222.4 9.75431 2942
2245.35 9.82394 2963
2285.12 9.9665 3006
2292.31 9.9665 3006
2299.5 9.9665 3006
-2508.23 19.132 3350
-2500.22 19.132 3350
-2492.21 19.132 3350
-2499.03 19.2462 3370
-2522.01 19.4861 3412
-2513.85 19.4861 3412
-2521.12 19.606 3433
-2512.91 19.606 3433
-2504.7 19.606 3433
-2496.49 19.606 3433
-2498.43 19.686 3447
-2495.24 19.726 3454
-2486.98 19.726 3454
-2478.72 19.726 3454
-2470.46 19.726 3454
-2452.22 19.646 3440
-2439.02 19.606 3433
-2430.81 19.606 3433
-2422.6 19.606 3433
-2409.47 19.566 3426
-2401.28 19.566 3426
-2393.09 19.566 3426
-2384.89 19.566 3426
-2376.7 19.566 3426
-2368.51 19.566 3426
-2365.14 19.606 3433
-2356.93 19.606 3433
-2348.72 19.606 3433
-2340.51 19.606 3433
-2332.3 19.606 3433
-2309.87 19.4861 3412
-2320.6 19.646 3440
-2317.08 19.686 3447
-2318.22 19.7659 3461
-2309.94 19.7659 3461
-2306.32 19.8059 3468
-2303.33 19.8516 3476
-2299.64 19.8916 3483
-2291.31 19.8916 3483
-2297.4 20.0172 3505
-2289.02 20.0172 3505
-2285.19 20.0572 3512
-2276.79 20.0572 3512
-2273.56 20.1029 3520
-2269.65 20.1429 3527
-2261.22 20.1429 3527
-2252.78 20.1429 3527
-2244.35 20.1429 3527
-2235.91 20.1429 3527
-2231.9 20.1828 3534
-2223.45 20.1828 3534
-2220.01 20.2285 3542
-2211.54 20.2285 3542
-2203.07 20.2285 3542
-2194.6 20.2285 3542
-2186.13 20.2285 3542
-2181.97 20.2685 3549
-2178.38 20.3142 3557
-2169.87 20.3142 3557
-2166.23 20.3599 3565
-2157.7 20.3599 3565
-2149.18 20.3599 3565
-2140.65 20.3599 3565
-2136.31 20.3999 3572
-2141.47 20.5312 3595
-2132.88 20.5312 3595
-2124.28 20.5312 3595
-2120.39 20.5769 3603
-2111.78 20.5769 3603
-2103.16 20.5769 3603
-2094.54 20.5769 3603
-2085.93 20.5769 3603
-2077.31 20.5769 3603
-2068.7 20.5769 3603
-2051.5 20.4912 3588
-2033.81 20.3999 3572
-2003.73 20.1828 3534
-1995.28 20.1828 3534
-1966.02 19.9715 3497
-1949.82 19.8916 3483
-1921.43 19.686 3447
-1913.18 19.686 3447
-1877.86 19.4061 3398
-1839.47 19.092 3343
-1824.36 19.0178 3330
-1805.49 18.9036 3310
-1797.57 18.9036 3310
-1785.87 18.8636 3303
-1767.74 18.7551 3284
-1752.92 18.6808 3271
-1745.1 18.6808 3271
-1734.09 18.6466 3265
-1719.41 18.5723 3252
-1711.64 18.5723 3252
-1703.86 18.5723 3252
-1692.95 18.5381 3246
-1681.56 18.4981 3239
-1673.81 18.4981 3239
-1669.67 18.5381 3246
-1661.91 18.5381 3246
-1657.2 18.5723 3252
-1649.42 18.5723 3252
-1641.65 18.5723 3252
-1630.86 18.5381 3246
-1623.09 18.5381 3246
-1618.32 18.5723 3252
-1616.98 18.6466 3265
-1609.17 18.6466 3265
-1604.31 18.6808 3271
-1599.9 18.7208 3278
-1597.89 18.7893 3290
-1590.02 18.7893 3290
-1582.16 18.7893 3290
-1574.29 18.7893 3290
-1566.42 18.7893 3290
-1552.87 18.7208 3278
-1545.03 18.7208 3278
-1537.19 18.7208 3278
-1532.15 18.7551 3284
-1524.3 18.7551 3284
-1516.45 18.7551 3284
-1508.59 18.7551 3284
-1503.48 18.7893 3290
-1495.62 18.7893 3290
-1496.79 18.9036 3310
-1494.72 18.9778 3323
-1489.91 19.0178 3330
-1481.95 19.0178 3330
-1473.98 19.0178 3330
-1466.02 19.0178 3330
-1458.06 19.0178 3330
-1447.05 18.9778 3323
-1439.1 18.9778 3323
-1428.57 18.9435 3317
-1420.64 18.9435 3317
-1409.72 18.9036 3310
-1398.84 18.8636 3303
-1396.84 18.9435 3317
-1391.42 18.9778 3323
-1383.48 18.9778 3323
-1375.53 18.9778 3323
-1365.11 18.9435 3317
-689.472 9.68022 1695
-685.419 9.68022 1695
-681.366 9.68022 1695
-677.312 9.68022 1695
-671.273 9.65167 1690
-666.047 9.63453 1687
-662.013 9.63453 1687
-657.979 9.63453 1687
-653.17 9.62311 1685
-647.214 9.59456 1680
-643.197 9.59456 1680
-639.179 9.59456 1680
-635.162 9.59456 1680
-630.393 9.58313 1678
-626.381 9.58313 1678
-621.255 9.566 1675
-616.144 9.54887 1672
-610.315 9.52031 1667
-606.329 9.52031 1667
-600.898 9.49747 1663
-596.562 9.49176 1662
-592.587 9.49176 1662
-588.613 9.49176 1662
-584.639 9.49176 1662
-581.014 9.49747 1663
-577.037 9.49747 1663
-573.75 9.50889 1665
-569.768 9.50889 1665
-566.806 9.52602 1668
-562.817 9.52602 1668
-559.499 9.53745 1670
-555.505 9.53745 1670
-552.172 9.54887 1672
-548.174 9.54887 1672
-544.501 9.55458 1673
-540.5 9.55458 1673
-536.5 9.55458 1673
-532.499 9.55458 1673
-529.13 9.566 1675
-525.125 9.566 1675
-521.119 9.566 1675
-517.731 9.57742 1677
-513.721 9.57742 1677
-509.711 9.57742 1677
-505.098 9.566 1675
-501.092 9.566 1675
-497.087 9.566 1675
-493.081 9.566 1675
-488.492 9.55458 1673
-484.202 9.54887 1672
-479.629 9.53745 1670
-475.636 9.53745 1670
-471.642 9.53745 1670
-467.649 9.53745 1670
-463.655 9.53745 1670
-460.212 9.54887 1672
-456.214 9.54887 1672
-452.216 9.54887 1672
-448.217 9.54887 1672
-444.219 9.54887 1672
-440.221 9.54887 1672
-436.223 9.54887 1672
-432.224 9.54887 1672
-428.226 9.54887 1672
-424.228 9.54887 1672
-419.727 9.53745 1670
-415.733 9.53745 1670
-412.233 9.54887 1672
-408.235 9.54887 1672
-404.237 9.54887 1672
-400.238 9.54887 1672
-396.477 9.55458 1673
-392.476 9.55458 1673
-388.476 9.55458 1673
-384.475 9.55458 1673
-380.474 9.55458 1673
-376.474 9.55458 1673
-372.918 9.566 1675
-368.913 9.566 1675
-365.343 9.57742 1677
-361.333 9.57742 1677
-357.323 9.57742 1677
-353.313 9.57742 1677
-349.927 9.59456 1680
-346.322 9.60598 1682
-342.299 9.60598 1682
-338.478 9.61169 1683
-334.851 9.62311 1685
-331.215 9.63453 1687
-327.181 9.63453 1687
-323.146 9.63453 1687
-319.491 9.64596 1689
-315.638 9.65167 1690
-311.597 9.65167 1690
-307.92 9.66309 1692
-304.233 9.67451 1694
-300.714 9.69164 1697
-296.656 9.69164 1697
-292.942 9.70307 1699
-289.39 9.7202 1702
-285.655 9.73162 1704
-281.58 9.73162 1704
-277.831 9.74304 1706
-274.072 9.75447 1708
-270.146 9.76018 1709
-266.059 9.76018 1709
-262.279 9.7716 1711
-258.791 9.79444 1715
-254.839 9.80015 1716
-250.735 9.80015 1716
-246.919 9.81158 1718
-242.811 9.81158 1718
-238.981 9.823 1720
-234.868 9.823 1720
-231.157 9.84013 1723
-227.564 9.86298 1727
-223.952 9.88582 1731
-219.812 9.88582 1731
-215.673 9.88582 1731
-211.9 9.90295 1734
-207.993 9.91438 1736
-203.842 9.91438 1736
-199.921 9.9258 1738
-196.553 9.96577 1745
-192.821 9.98862 1749
-188.639 9.98862 1749
-185.406 10.04 1758
-181.614 10.0629 1762
-178.508 10.1257 1773
-174.268 10.1257 1773
-170.604 10.16 1779
-166.63 10.1771 1782
-163.645 10.257 1796
-159.35 10.257 1796
-155.832 10.3084 1805
-152.187 10.3541 1813
-148.178 10.377 1817
-143.833 10.377 1817
-139.795 10.3998 1821
-135.887 10.4341 1827
-132.382 10.5026 1839
-127.984 10.5026 1839
-123.721 10.514 1841
-119.707 10.5483 1847
-115.728 10.5883 1854
-111.294 10.5883 1854
-107.091 10.6111 1858
-103.201 10.6682 1868
-99.0509 10.7025 1874
-94.5696 10.7025 1874
-90.3286 10.7311 1879
-86.2008 10.7767 1887
-81.9915 10.8167 1894
-77.4624 10.8167 1894
-72.9332 10.8167 1894
-68.2235 10.7882 1889
-63.7063 10.7882 1889
-59.1892 10.7882 1889
-79.6288 20.891 3658
-70.8814 20.891 3658
-62.134 20.891 3658
-53.1531 20.7996 3642
-44.3585 20.7597 3635
-35.7348 20.7996 3642
-27.1444 20.891 3658
-18.4423 20.9424 3667
-9.67342 20.9424 3667
-0.908454 21.0338 3683
7.91587 21.0795 3691
16.9281 21.3136 3732
25.8525 21.3136 3732
35.2521 21.6049 3783
44.2984 21.6049 3783
53.3447 21.6049 3783
62.391 21.6049 3783
70.9463 21.4564 3757
79.9304 21.4564 3757
88.9146 21.4564 3757
97.8987 21.4564 3757
106.655 21.4107 3749
114.849 21.2679 3724
123.754 21.2679 3724
132.054 21.1708 3707
140.919 21.1708 3707
149.137 21.0795 3691
157.963 21.0795 3691
166.066 20.9881 3675
174.854 20.9881 3675
183.642 20.9881 3675
193.268 21.0795 3691
202.094 21.0795 3691
211.835 21.1708 3707
220.7 21.1708 3707
229.564 21.1708 3707
238.429 21.1708 3707
246.226 21.0795 3691
255.605 21.1252 3699
266.238 21.2679 3724
275.143 21.2679 3724
284.048 21.2679 3724
293.583 21.3136 3732
302.507 21.3136 3732
314.269 21.5078 3766
323.274 21.5078 3766
332.28 21.5078 3766
341.286 21.5078 3766
350.291 21.5078 3766
359.297 21.5078 3766
367.422 21.4564 3757
372.299 21.2222 3716
381.185 21.2222 3716
389.126 21.1708 3707
395.414 21.0338 3683
402.465 20.9424 3667
411.234 20.9424 3667
416.338 20.7597 3635
421.289 20.5769 3603
428.95 20.5312 3595
437.547 20.5312 3595
446.143 20.5312 3595
452.843 20.4455 3580
459.47 20.3599 3565
464.976 20.2285 3542
473.446 20.2285 3542
480.828 20.1828 3534
488.309 20.1429 3527
494.631 20.0572 3512
503.029 20.0572 3512
508.224 19.9315 3490
515.533 19.8916 3483
519.5 19.726 3454
527.76 19.726 3454
534.933 19.686 3447
543.176 19.686 3447
551.419 19.686 3447
561.935 19.7659 3461
573.836 19.8916 3483
582.164 19.8916 3483
590.493 19.8916 3483
598.822 19.8916 3483
609.592 19.9715 3497
617.954 19.9715 3497
632.943 20.1828 3534
642.846 20.2285 3542
655.545 20.3599 3565
664.07 20.3599 3565
675.425 20.4455 3580
686.852 20.5312 3595
696.996 20.5769 3603
705.612 20.5769 3603
717.4 20.6683 3619
729.264 20.7597 3635
749.325 21.0795 3691
758.151 21.0795 3691
772.173 21.2222 3716
784.422 21.3136 3732
793.346 21.3136 3732
802.27 21.3136 3732
818.585 21.5078 3766
829.349 21.5535 3774
848.148 21.8048 3818
857.278 21.8048 3818
866.408 21.8048 3818
871.41 21.702 3800
888.607 21.9019 3835
897.777 21.9019 3835
911.205 22.0047 3853
920.419 22.0047 3853
929.632 22.0047 3853
1168.88 22.9013 4010
1178.47 22.9013 4010
1191.03 22.9584 4020
1206.31 23.0669 4039
1215.97 23.0669 4039
1225.63 23.0669 4039
1235.29 23.0669 4039
1242.17 23.0155 4030
1251.81 23.0155 4030
1243.29 22.6843 3972
1243.96 22.5244 3944
1247.35 22.4159 3925
1268.9 22.6329 3963
1290.64 22.8499 4001
1300.21 22.8499 4001
1325.49 23.124 4049
1338.47 23.1811 4059
1348.17 23.1811 4059
1357.88 23.1811 4059
1364.22 23.124 4049
1364.06 22.9584 4020
1373.67 22.9584 4020
1383.29 22.9584 4020
1392.9 22.9584 4020
1416.12 23.1811 4059
1432.85 23.2954 4079
1442.6 23.2954 4079
1452.36 23.2954 4079
1458.53 23.2382 4069
1468.26 23.2382 4069
1474.36 23.1811 4059
1452.25 22.6843 3972
1461.75 22.6843 3972
1474.95 22.7414 3982
1484.48 22.7414 3982
1494 22.7414 3982
1496.35 22.6329 3963
1474.29 22.1589 3880
1483.56 22.1589 3880
1465.52 21.7534 3809
1471.15 21.702 3800
1497.38 21.9533 3844
1510.09 22.0047 3853
1519.31 22.0047 3853
1528.52 22.0047 3853
1534.14 21.9533 3844
1543.34 21.9533 3844
1514.16 21.4107 3749
1506.06 21.1708 3707
1505.12 21.0338 3683
1490.91 20.714 3627
1499.58 20.714 3627
1498.27 20.5769 3603
1500.61 20.4912 3588
1502.46 20.3999 3572
1511.01 20.3999 3572
1513.17 20.3142 3557
1521.67 20.3142 3557
1504.37 19.9715 3497
1512.73 19.9715 3497
1518.05 19.9315 3490
1526.39 19.9315 3490
1534.74 19.9315 3490
1543.08 19.9315 3490
1551.43 19.9315 3490
1559.78 19.9315 3490
1561.83 19.8516 3476
1570.14 19.8516 3476
1578.45 19.8516 3476
1586.77 19.8516 3476
1604.72 19.9715 3497
1616.77 20.0172 3505
1628.4 20.0572 3512
1636.79 20.0572 3512
1648.94 20.1029 3520
1657.36 20.1029 3520
1665.77 20.1029 3520
1674.19 20.1029 3520
1682.61 20.1029 3520
2363.26 22.0561 3862
2372.5 22.0561 3862
2381.73 22.0561 3862
2358.16 21.7534 3809
2334.95 21.4564 3757
2343.93 21.4564 3757
2337.26 21.3136 3732
2351.21 21.3593 3740
2398.02 21.702 3800
2418.51 21.8048 3818
2427.64 21.8048 3818
2436.77 21.8048 3818
2434.37 21.702 3800
2438.31 21.6563 3792
2447.38 21.6563 3792
2428.59 21.4107 3749
2426.5 21.3136 3732
2430.2 21.2679 3724
2439.11 21.2679 3724
1797.79 15.3399 2686
1818.99 15.4655 2708
1825.46 15.4655 2708
1831.94 15.4655 2708
1856.75 15.6197 2735
1875.55 15.7225 2753
1882.13 15.7225 2753
1894.89 15.7739 2762
1911.13 15.8539 2776
1923.99 15.9053 2785
1930.65 15.9053 2785
1937.31 15.9053 2785
1947.46 15.9338 2790
1960.43 15.9852 2799
1967.13 15.9852 2799
1977.35 16.0138 2804
1990.42 16.0652 2813
2000.7 16.0937 2818
2007.44 16.0937 2818
2017.75 16.1223 2823
2028.08 16.1508 2828
2041.32 16.2022 2837
2048.11 16.2022 2837
2058.51 16.2308 2842
2068.94 16.2593 2847
2075.75 16.2593 2847
2082.56 16.2593 2847
2089.37 16.2593 2847
2099.86 16.2879 2852
2110.37 16.3165 2857
2120.91 16.345 2862
2127.75 16.345 2862
2137.58 16.3679 2866
2148.17 16.3964 2871
2170.05 16.5106 2891
2176.96 16.5106 2891
2222.4 16.8019 2942
2245.35 16.9218 2963
2272.96 17.076 2990
2280.11 17.076 2990
2287.26 17.076 2990
-2508.23 27.157 3350
-2500.22 27.157 3350
-2492.21 27.157 3350
-2499.03 27.3191 3370
-2522.01 27.6596 3412
-2513.85 27.6596 3412
-2521.12 27.8298 3433
-2512.91 27.8298 3433
-2504.7 27.8298 3433
-2496.49 27.8298 3433
-2498.43 27.9433 3447
-2495.24 28 3454
-2486.98 28 3454
-2478.72 28 3454
-2470.46 28 3454
-2452.22 27.8865 3440
-2439.02 27.8298 3433
-2430.81 27.8298 3433
-2422.6 27.8298 3433
-2409.47 27.7731 3426
-2401.28 27.7731 3426
-2393.09 27.7731 3426
-2384.89 27.7731 3426
-2376.7 27.7731 3426
-2368.51 27.7731 3426
-2365.14 27.8298 3433
-2356.93 27.8298 3433
-2348.72 27.8298 3433
-2340.51 27.8298 3433
-2332.3 27.8298 3433
-2309.87 27.6596 3412
-2320.6 27.8865 3440
-2317.08 27.9433 3447
-2318.22 28.0568 3461
-2309.94 28.0568 3461
-2306.32 28.1135 3468
-2303.33 28.1784 3476
-2299.64 28.2351 3483
-2291.31 28.2351 3483
-2297.4 28.4135 3505
-2289.02 28.4135 3505
-2285.19 28.4702 3512
-2276.79 28.4702 3512
-2273.56 28.5351 3520
-2269.65 28.5918 3527
-2261.22 28.5918 3527
-2252.78 28.5918 3527
-2244.35 28.5918 3527
-2235.91 28.5918 3527
-2231.9 28.6486 3534
-2223.45 28.6486 3534
-2220.01 28.7134 3542
-2211.54 28.7134 3542
-2203.07 28.7134 3542
-2194.6 28.7134 3542
-2186.13 28.7134 3542
-2181.97 28.7702 3549
-2178.38 28.835 3557
-2169.87 28.835 3557
-2166.23 28.8999 3565
-2157.7 28.8999 3565
-2149.18 28.8999 3565
-2140.65 28.8999 3565
-2136.31 28.9566 3572
-2141.47 29.1431 3595
-2132.88 29.1431 3595
-2124.28 29.1431 3595
-2120.39 29.2079 3603
-2111.78 29.2079 3603
-2103.16 29.2079 3603
-2094.54 29.2079 3603
-2085.93 29.2079 3603
-2077.31 29.2079 3603
-2068.7 29.2079 3603
-2051.5 29.0863 3588
-2033.81 28.9566 3572
-2003.73 28.6486 3534
-1995.28 28.6486 3534
-1966.02 28.3486 3497
-1949.82 28.2351 3483
-1921.43 27.9433 3447
-1913.18 27.9433 3447
-1877.86 27.5461 3398
-1839.47 27.1002 3343
-1824.36 26.9948 3330
-1805.49 26.8327 3310
-1797.57 26.8327 3310
-1785.87 26.7759 3303
-1767.74 26.6219 3284
-1752.92 26.5165 3271
-1745.1 26.5165 3271
-1734.09 26.4679 3265
-1719.41 26.3625 3252
-1711.64 26.3625 3252
-1703.86 26.3625 3252
-1692.95 26.3139 3246
-1681.56 26.2571 3239
-1673.81 26.2571 3239
-1669.67 26.3139 3246
-1661.91 26.3139 3246
-1657.2 26.3625 3252
-1649.42 26.3625 3252
-1641.65 26.3625 3252
-1630.86 26.3139 3246
-1623.09 26.3139 3246
-1618.32 26.3625 3252
-1616.98 26.4679 3265
-1609.17 26.4679 3265
-1604.31 26.5165 3271
-1599.9 26.5733 3278
-1597.89 26.6706 3290
-1590.02 26.6706 3290
-1582.16 26.6706 3290
-1574.29 26.6706 3290
-1566.42 26.6706 3290
-1552.87 26.5733 3278
-1545.03 26.5733 3278
-1537.19 26.5733 3278
-1532.15 26.6219 3284
-1524.3 26.6219 3284
-1516.45 26.6219 3284
-1508.59 26.6219 3284
-1503.48 26.6706 3290
-1495.62 26.6706 3290
-1496.79 26.8327 3310
-1494.72 26.9381 3323
-1489.91 26.9948 3330
-1481.95 26.9948 3330
-1473.98 26.9948 3330
-1466.02 26.9948 3330
-1458.06 26.9948 3330
-1447.05 26.9381 3323
-1439.1 26.9381 3323
-1428.57 26.8894 3317
-1420.64 26.8894 3317
-1409.72 26.8327 3310
-1398.84 26.7759 3303
-1396.84 26.8894 3317
-1391.42 26.9381 3323
-1383.48 26.9381 3323
-1375.53 26.9381 3323
-1365.11 26.8894 3317
-689.472 13.7406 1695
-685.419 13.7406 1695
-681.366 13.7406 1695
-677.312 13.7406 1695
-671.273 13.7001 1690
-666.047 13.6758 1687
-662.013 13.6758 1687
-657.979 13.6758 1687
-653.17 13.6595 1685
-647.214 13.619 1680
-643.197 13.619 1680
-639.179 13.619 1680
-635.162 13.619 1680
-630.393 13.6028 1678
-626.381 13.6028 1678
-621.255 13.5785 1675
-616.144 13.5542 1672
-610.315 13.5136 1667
-606.329 13.5136 1667
-600.898 13.4812 1663
-596.562 13.4731 1662
-592.587 13.4731 1662
-588.613 13.4731 1662
-584.639 13.4731 1662
-581.014 13.4812 1663
-577.037 13.4812 1663
-573.75 13.4974 1665
-569.768 13.4974 1665
-566.806 13.5217 1668
-562.817 13.5217 1668
-559.499 13.5379 1670
-555.505 13.5379 1670
-552.172 13.5542 1672
-548.174 13.5542 1672
-544.501 13.5623 1673
-540.5 13.5623 1673
-536.5 13.5623 1673
-532.499 13.5623 1673
-529.13 13.5785 1675
-525.125 13.5785 1675
-521.119 13.5785 1675
-517.731 13.5947 1677
-513.721 13.5947 1677
-509.711 13.5947 1677
-505.098 13.5785 1675
-501.092 13.5785 1675
-497.087 13.5785 1675
-493.081 13.5785 1675
-488.492 13.5623 1673
-484.202 13.5542 1672
-479.629 13.5379 1670
-475.636 13.5379 1670
-471.642 13.5379 1670
-467.649 13.5379 1670
-463.655 13.5379 1670
-460.212 13.5542 1672
-456.214 13.5542 1672
-452.216 13.5542 1672
-448.217 13.5542 1672
-444.219 13.5542 1672
-440.221 13.5542 1672
-436.223 13.5542 1672
-432.224 13.5542 1672
-428.226 13.5542 1672
-424.228 13.5542 1672
-419.727 13.5379 1670
-415.733 13.5379 1670
-412.233 13.5542 1672
-408.235 13.5542 1672
-404.237 13.5542 1672
-400.238 13.5542 1672
-396.477 13.5623 1673
-392.476 13.5623 1673
-388.476 13.5623 1673
-384.475 13.5623 1673
-380.474 13.5623 1673
-376.474 13.5623 1673
-372.918 13.5785 1675
-368.913 13.5785 1675
-365.343 13.5947 1677
-361.333 13.5947 1677
-357.323 13.5947 1677
-353.313 13.5947 1677
-349.927 13.619 1680
-346.322 13.6352 1682
-342.299 13.6352 1682
-338.478 13.6433 1683
-334.851 13.6595 1685
-331.215 13.6758 1687
-327.181 13.6758 1687
-323.146 13.6758 1687
-319.491 13.692 1689
-315.638 13.7001 1690
-311.597 13.7001 1690
-307.92 13.7163 1692
-304.233 13.7325 1694
-300.714 13.7568 1697
-296.656 13.7568 1697
-292.942 13.773 1699
-289.73 13.8136 1704
-285.655 13.8136 1704
-281.58 13.8136 1704
-277.831 13.8298 1706
-274.072 13.846 1708
-270.146 13.8541 1709
-266.059 13.8541 1709
-262.279 13.8703 1711
-258.791 13.9027 1715
-254.839 13.9108 1716
-250.735 13.9108 1716
-246.919 13.9271 1718
-242.811 13.9271 1718
-238.981 13.9433 1720
-234.868 13.9433 1720
-231.157 13.9676 1723
-227.564 14 1727
-223.952 14.0324 1731
-219.812 14.0324 1731
-215.673 14.0324 1731
-211.9 14.0568 1734
-207.993 14.073 1736
-203.842 14.073 1736
-199.921 14.0892 1738
-196.553 14.1459 1745
-192.821 14.1784 1749
-188.639 14.1784 1749
-185.406 14.2513 1758
-181.614 14.2837 1762
-178.508 14.3729 1773
-174.268 14.3729 1773
-170.604 14.4216 1779
-166.63 14.4459 1782
-163.645 14.5594 1796
-159.35 14.5594 1796
-155.832 14.6323 1805
-152.187 14.6972 1813
-148.178 14.7296 1817
-143.833 14.7296 1817
-139.795 14.762 1821
-135.887 14.8107 1827
-132.382 14.908 1839
-127.984 14.908 1839
-123.721 14.9242 1841
-119.707 14.9728 1847
-115.728 15.0296 1854
-111.294 15.0296 1854
-107.091 15.062 1858
-103.201 15.143 1868
-99.3152 15.2322 1879
-94.8219 15.2322 1879
-90.5209 15.2646 1883
-86.5206 15.3538 1894
-82.0781 15.37 1896
-77.5442 15.37 1896
-73.3183 15.4349 1904
-68.7653 15.4349 1904
-64.2122 15.4349 1904
-59.3458 15.3538 1894
-79.6288 29.6538 3658
-70.8814 29.6538 3658
-62.134 29.6538 3658
-53.1531 29.5241 3642
-44.3585 29.4673 3635
-35.7348 29.5241 3642
-27.1444 29.6538 3658
-18.4423 29.7267 3667
-9.67342 29.7267 3667
-0.908454 29.8564 3683
7.91587 29.9213 3691
16.9281 30.2537 3732
25.8525 30.2537 3732
35.2521 30.6671 3783
44.2984 30.6671 3783
53.3447 30.6671 3783
62.391 30.6671 3783
70.9463 30.4563 3757
79.9304 30.4563 3757
88.9146 30.4563 3757
97.8987 30.4563 3757
106.655 30.3915 3749
114.849 30.1888 3724
123.754 30.1888 3724
132.054 30.051 3707
140.919 30.051 3707
149.137 29.9213 3691
157.963 29.9213 3691
166.066 29.7916 3675
174.854 29.7916 3675
183.642 29.7916 3675
193.268 29.9213 3691
202.094 29.9213 3691
211.835 30.051 3707
220.7 30.051 3707
229.564 30.051 3707
238.429 30.051 3707
246.226 29.9213 3691
255.605 29.9861 3699
266.238 30.1888 3724
275.143 30.1888 3724
284.048 30.1888 3724
293.583 30.2537 3732
302.507 30.2537 3732
314.269 30.5293 3766
323.274 30.5293 3766
332.28 30.5293 3766
341.286 30.5293 3766
350.291 30.5293 3766
359.297 30.5293 3766
367.422 30.4563 3757
372.299 30.124 3716
381.185 30.124 3716
389.126 30.051 3707
395.414 29.8564 3683
402.465 29.7267 3667
411.234 29.7267 3667
416.338 29.4673 3635
421.289 29.2079 3603
428.95 29.1431 3595
437.547 29.1431 3595
446.143 29.1431 3595
452.843 29.0215 3580
459.47 28.8999 3565
464.976 28.7134 3542
473.446 28.7134 3542
480.828 28.6486 3534
488.309 28.5918 3527
494.631 28.4702 3512
503.029 28.4702 3512
508.224 28.2919 3490
515.533 28.2351 3483
519.5 28 3454
527.76 28 3454
534.933 27.9433 3447
543.176 27.9433 3447
551.419 27.9433 3447
561.935 28.0568 3461
573.836 28.2351 3483
582.164 28.2351 3483
590.493 28.2351 3483
598.822 28.2351 3483
609.592 28.3486 3497
617.954 28.3486 3497
632.943 28.6486 3534
642.846 28.7134 3542
655.545 28.8999 3565
664.07 28.8999 3565
675.425 29.0215 3580
686.852 29.1431 3595
696.996 29.2079 3603
705.612 29.2079 3603
717.4 29.3376 3619
729.264 29.4673 3635
749.325 29.9213 3691
758.151 29.9213 3691
772.173 30.124 3716
784.422 30.2537 3732
793.346 30.2537 3732
802.27 30.2537 3732
818.585 30.5293 3766
829.349 30.5941 3774
848.148 30.9508 3818
857.278 30.9508 3818
866.408 30.9508 3818
871.41 30.8049 3800
888.607 31.0886 3835
897.777 31.0886 3835
911.205 31.2346 3853
920.419 31.2346 3853
929.632 31.2346 3853
919.596 30.5941 3774
1168.88 32.5073 4010
1178.47 32.5073 4010
1191.03 32.5883 4020
1206.31 32.7424 4039
1215.97 32.7424 4039
1225.63 32.7424 4039
1235.29 32.7424 4039
1242.17 32.6694 4030
1251.81 32.6694 4030
1243.29 32.1992 3972
1243.96 31.9723 3944
1247.35 31.8182 3925
1268.9 32.1263 3963
1290.64 32.4343 4001
1300.21 32.4343 4001
1325.49 32.8234 4049
1338.47 32.9045 4059
1348.17 32.9045 4059
1357.88 32.9045 4059
1364.22 32.8234 4049
1364.06 32.5883 4020
1373.67 32.5883 4020
1383.29 32.5883 4020
1392.9 32.5883 4020
1416.12 32.9045 4059
1432.85 33.0666 4079
1442.6 33.0666 4079
1452.36 33.0666 4079
1458.53 32.9856 4069
1468.26 32.9856 4069
1474.36 32.9045 4059
1452.25 32.1992 3972
1461.75 32.1992 3972
1474.95 32.2803 3982
1484.48 32.2803 3982
1494 32.2803 3982
1496.35 32.1263 3963
1474.29 31.4534 3880
1483.56 31.4534 3880
1465.52 30.8779 3809
1471.15 30.8049 3800
1497.38 31.1616 3844
1510.09 31.2346 3853
1519.31 31.2346 3853
1528.52 31.2346 3853
1534.14 31.1616 3844
1543.34 31.1616 3844
1514.16 30.3915 3749
1506.06 30.051 3707
1505.12 29.8564 3683
1490.91 29.4025 3627
1499.58 29.4025 3627
1498.27 29.2079 3603
1503.54 29.1431 3595
1509.19 29.0863 3588
1517.77 29.0863 3588
1522.95 29.0215 3580
1521.67 28.835 3557
1507.81 28.4135 3505
1516.19 28.4135 3505
1521.09 28.3486 3497
1529.45 28.3486 3497
1537.82 28.3486 3497
1543.08 28.2919 3490
1551.43 28.2919 3490
1559.78 28.2919 3490
1561.83 28.1784 3476
1570.14 28.1784 3476
1578.45 28.1784 3476
1586.77 28.1784 3476
1604.72 28.3486 3497
1616.77 28.4135 3505
1649.26 28.835 3557
1657.77 28.835 3557
1670.02 28.8999 3565
1689.37 29.0863 3588
1697.95 29.0863 3588
1706.53 29.0863 3588
1682.61 28.5351 3520
2363.26 31.3075 3862
2372.5 31.3075 3862
2381.73 31.3075 3862
2358.16 30.8779 3809
2334.95 30.4563 3757
2343.93 30.4563 3757
2337.26 30.2537 3732
2351.21 30.3185 3740
2398.02 30.8049 3800
2418.51 30.9508 3818
2427.64 30.9508 3818
2436.77 30.9508 3818
2434.37 30.8049 3800
2438.31 30.7401 3792
2447.38 30.7401 3792
2428.59 30.3915 3749
2426.5 30.2537 3732
2430.2 30.1888 3724
2449.59 30.3185 3740
2458.53 30.3185 3740
2467.48 30.3185 3740
1797.79 21.7742 2686
1818.99 21.9525 2708
1825.46 21.9525 2708
1831.94 21.9525 2708
1841.81 21.9931 2713
1866.01 22.2039 2739
1872.56 22.2039 2739
1888.72 22.3173 2753
1904.94 22.4308 2767
1920.54 22.5362 2780
1927.18 22.5362 2780
1937.31 22.5768 2785
1943.97 22.5768 2785
1954.13 22.6173 2790
1960.8 22.6173 2790
1970.29 22.6497 2794
1984.05 22.7308 2804
1997.15 22.8037 2813
2003.87 22.8037 2813
2014.17 22.8443 2818
2024.5 22.8848 2823
2034.85 22.9253 2828
2041.61 22.9253 2828
2054.89 22.9983 2837
2061.67 22.9983 2837
2075.75 23.0794 2847
2082.56 23.0794 2847
2089.37 23.0794 2847
2096.17 23.0794 2847
2106.68 23.1199 2852
2117.2 23.1604 2857
2124.03 23.1604 2857
2134.59 23.201 2862
2148.17 23.2739 2871
2166.3 23.3955 2886
2173.2 23.3955 2886
2218.62 23.809 2937
2245.35 24.0197 2963
2272.96 24.2386 2990
2280.11 24.2386 2990
2287.26 24.2386 2990
-2508.23 35.1819 3350
-2500.22 35.1819 3350
-2492.21 35.1819 3350
-2484.19 35.1819 3350
-2496.14 35.4655 3377
-2488.07 35.4655 3377
-2521.12 36.0536 3433
-2512.91 36.0536 3433
-2504.7 36.0536 3433
-2496.49 36.0536 3433
-2493.35 36.1271 3440
-2490.18 36.2006 3447
-2481.94 36.2006 3447
-2473.7 36.2006 3447
-2465.45 36.2006 3447
-2442.24 35.9801 3426
-2434.05 35.9801 3426
-2425.86 35.9801 3426
-2412.72 35.9066 3419
-2389.78 35.686 3398
-2381.65 35.686 3398
-2373.53 35.686 3398
-2365.4 35.686 3398
-2357.28 35.686 3398
-2349.15 35.686 3398
-2345.85 35.7595 3405
-2337.71 35.7595 3405
-2329.56 35.7595 3405
-2316.65 35.686 3398
-2308.52 35.686 3398
-2290.92 35.539 3384
-2301.72 35.833 3412
-2302.97 35.9801 3426
-2294.77 35.9801 3426
-2286.58 35.9801 3426
-2292.35 36.2006 3447
-2284.11 36.2006 3447
-2289.73 36.4212 3468
-2281.44 36.4212 3468
-2278.39 36.5052 3476
-2283.79 36.7257 3497
-2280.64 36.8097 3505
-2272.26 36.8097 3505
-2268.4 36.8832 3512
-2265.15 36.9673 3520
-2256.73 36.9673 3520
-2248.31 36.9673 3520
-2230.35 36.8097 3505
-2221.97 36.8097 3505
-2218.01 36.8832 3512
-2209.61 36.8832 3512
-2210.61 37.0408 3527
-2202.18 37.0408 3527
-2193.74 37.0408 3527
-2185.31 37.0408 3527
-2172.55 36.9673 3520
-2172.74 37.1143 3534
-2173.48 37.2718 3549
-2164.99 37.2718 3549
-2161.37 37.3558 3557
-2152.86 37.3558 3557
-2144.36 37.3558 3557
-2131.05 37.2718 3549
-2122.56 37.2718 3549
-2123.6 37.4399 3565
-2119.23 37.5134 3572
-2110.69 37.5134 3572
-2120.39 37.8389 3603
-2111.78 37.8389 3603
-2103.16 37.8389 3603
-2094.54 37.8389 3603
-2085.93 37.8389 3603
-2072.7 37.7549 3595
-2064.1 37.7549 3595
-2051.5 37.6814 3588
-2029.83 37.4399 3565
-1991.25 36.8832 3512
-1982.85 36.8832 3512
-1966.02 36.7257 3497
-1937.51 36.3476 3461
-1905.82 35.9066 3419
-1897.64 35.9066 3419
-1862.39 35.392 3370
-1836.17 35.0454 3337
-1809.57 34.6883 3303
-1801.67 34.6883 3303
-1793.77 34.6883 3303
-1778.84 34.5518 3290
-1760.75 34.3522 3271
-1742.74 34.1527 3252
-1734.97 34.1527 3252
-1724 34.0897 3246
-1712.54 34.0162 3239
-1704.79 34.0162 3239
-1697.05 34.0162 3239
-1686.17 33.9532 3233
-1675.33 33.8902 3227
-1670.71 33.9532 3233
-1666.07 34.0162 3239
-1658.32 34.0162 3239
-1650.58 34.0162 3239
-1642.83 34.0162 3239
-1638.62 34.0897 3246
-1630.86 34.0897 3246
-1623.09 34.0897 3246
-1615.33 34.0897 3246
-1610.54 34.1527 3252
-1602.76 34.1527 3252
-1601.36 34.2892 3265
-1596.49 34.3522 3271
-1592.06 34.4258 3278
-1584.22 34.4258 3278
-1576.39 34.4258 3278
-1568.55 34.4258 3278
-1560.71 34.4258 3278
-1552.87 34.4258 3278
-1541.73 34.3522 3271
-1533.91 34.3522 3271
-1526.09 34.3522 3271
-1518.27 34.3522 3271
-1507.67 34.2892 3265
-1499.87 34.2892 3265
-1498 34.4258 3278
-1490.16 34.4258 3278
-1490.91 34.6253 3297
-1488.88 34.7618 3310
-1486.78 34.8984 3323
-1478.83 34.8984 3323
-1470.89 34.8984 3323
-1462.94 34.8984 3323
-1454.99 34.8984 3323
-1447.05 34.8984 3323
-1436.5 34.8353 3317
-1428.57 34.8353 3317
-1420.64 34.8353 3317
-1409.72 34.7618 3310
-1398.84 34.6883 3303
-1393.89 34.7618 3310
-1388.91 34.8353 3317
-1380.98 34.8353 3317
-1373.05 34.8353 3317
-689.472 17.801 1695
-685.419 17.801 1695
-681.366 17.801 1695
-676.114 17.7695 1692
-670.081 17.717 1687
-665.258 17.696 1685
-661.228 17.696 1685
-657.199 17.696 1685
-653.17 17.696 1685
-646.444 17.6225 1678
-642.431 17.6225 1678
-638.418 17.6225 1678
-634.406 17.6225 1678
-630.393 17.6225 1678
-626.381 17.6225 1678
-620.143 17.5595 1672
-616.144 17.5595 1672
-609.583 17.4859 1665
-605.602 17.4859 1665
-600.536 17.4544 1662
-595.844 17.4334 1660
-591.874 17.4334 1660
-588.613 17.4544 1662
-584.639 17.4544 1662
-580.664 17.4544 1662
-577.037 17.4649 1663
-573.75 17.4859 1665
-569.768 17.4859 1665
-566.466 17.5069 1667
-562.817 17.5174 1668
-558.829 17.5174 1668
-554.84 17.5174 1668
-551.512 17.5384 1670
-547.518 17.5384 1670
-544.176 17.5595 1672
-540.177 17.5595 1672
-536.5 17.57 1673
-532.499 17.57 1673
-528.498 17.57 1673
-524.498 17.57 1673
-520.497 17.57 1673
-517.114 17.591 1675
-513.109 17.591 1675
-509.103 17.591 1675
-504.495 17.57 1673
-500.494 17.57 1673
-496.493 17.57 1673
-492.493 17.57 1673
-488.2 17.5595 1672
-483.623 17.5384 1670
-479.055 17.5174 1668
-475.066 17.5174 1668
-471.077 17.5174 1668
-467.089 17.5174 1668
-463.655 17.5384 1670
-459.662 17.5384 1670
-455.668 17.5384 1670
