-1821.92 334.17 3542
-1809.36 333.415 3534
-1800.91 333.415 3534
-1800.06 334.83 3549
-1791.58 334.83 3549
-1783.09 334.83 3549
-1774.6 334.83 3549
-1774.08 336.339 3565
-1765.55 336.339 3565
-1768.36 338.509 3588
-1767.14 339.925 3603
-1770.24 342.189 3627
-1761.57 342.189 3627
-1752.89 342.189 3627
-1744.22 342.189 3627
-1742.72 343.604 3642
-1734.01 343.604 3642
-1737.15 345.963 3667
-1732.15 346.717 3675
-1730.87 348.227 3691
-1729.5 349.736 3707
-1720.64 349.736 3707
-1723.32 352.095 3732
-1714.39 352.095 3732
-1705.47 352.095 3732
-1696.55 352.095 3732
-1676.32 349.736 3707
-1667.45 349.736 3707
-1669.77 352.095 3732
-1660.85 352.095 3732
-1655.47 352.85 3740
-1646.52 352.85 3740
-1637.58 352.85 3740
-1628.63 352.85 3740
-1619.69 352.85 3740
-1614.62 353.699 3749
-1605.66 353.699 3749
-1596.69 353.699 3749
-1577.14 351.34 3724
-1557.71 348.982 3699
-1548.86 348.982 3699
-1536.69 348.227 3691
-1534.48 349.736 3707
-1525.62 349.736 3707
-1533.94 353.699 3749
-1524.97 353.699 3749
-1522.88 355.303 3766
-1524.33 357.756 3792
-1515.26 357.756 3792
-1506.19 357.756 3792
-1497.13 357.756 3792
-1464.51 352.095 3732
-1455.59 352.095 3732
-614.695 159.443 1690
-610.654 159.443 1690
-606.612 159.443 1690
-602.571 159.443 1690
-598.53 159.443 1690
-594.488 159.443 1690
-586.254 158.311 1678
-578.772 157.367 1668
-574.783 157.367 1668
-563.951 155.48 1648
-558.65 155.103 1644
-554.719 155.103 1644
-550.788 155.103 1644
-546.857 155.103 1644
-541.604 154.726 1640
-535.715 154.16 1634
-529.855 153.593 1628
-525.962 153.593 1628
-519.504 152.839 1620
-513.402 152.178 1613
-509.229 152.084 1612
-505.374 152.084 1612
-499.03 151.329 1604
-494.268 151.046 1601
-488.908 150.574 1596
-485.092 150.574 1596
-480.974 150.48 1595
-476.262 150.197 1592
-472.455 150.197 1592
-468.648 150.197 1592
-464.841 150.197 1592
-461.034 150.197 1592
-457.227 150.197 1592
-453.705 150.291 1593
-449.896 150.291 1593
-446.646 150.48 1595
-443.943 150.857 1599
-441.495 151.329 1604
-437.66 151.329 1604
-434.365 151.518 1606
-431.329 151.801 1609
-427.747 151.895 1610
-423.897 151.895 1610
-421.873 152.556 1617
-418.006 152.556 1617
-415.164 152.933 1621
-411.288 152.933 1621
-407.412 152.933 1621
-404.282 153.216 1624
-401.631 153.688 1629
-398.224 153.876 1631
-394.324 153.876 1631
-391.621 154.348 1636
-388.656 154.726 1640
-385.204 154.914 1642
-381.277 154.914 1642
-377.811 155.103 1644
-374.561 155.386 1647
-370.623 155.386 1647
-366.685 155.386 1647
-362.746 155.386 1647
-359.897 155.858 1652
-355.946 155.858 1652
-351.996 155.858 1652
-348.256 155.952 1653
-345.345 156.424 1658
-341.792 156.612 1660
-337.822 156.612 1660
-334.456 156.896 1663
-331.274 157.273 1667
-327.484 157.367 1668
-323.496 157.367 1668
-319.507 157.367 1668
-316.842 158.028 1675
-313.21 158.216 1677
-309.2 158.216 1677
-305.19 158.216 1677
-302.078 158.688 1682
-298.587 158.971 1685
-294.558 158.971 1685
-291.391 159.443 1690
-288.199 159.915 1695
-284.817 160.292 1699
-280.754 160.292 1699
-277.017 160.481 1701
-273.431 160.764 1704
-270.462 161.424 1711
-266.371 161.424 1711
-263.352 162.084 1718
-259.999 162.556 1723
-257.215 163.405 1732
-253.073 163.405 1732
-250.225 164.254 1741
-246.91 164.82 1747
-243.705 165.481 1754
-239.51 165.481 1754
-236.389 166.236 1762
-233.098 166.896 1769
-229.644 167.462 1775
-225.4 167.462 1775
-221.778 167.934 1780
-217.766 168.123 1782
-213.984 168.5 1786
-209.713 168.5 1786
-205.672 168.689 1788
-202.072 169.255 1794
-197.782 169.255 1794
-193.492 169.255 1794
-189.202 169.255 1794
-184.912 169.255 1794
-180.622 169.255 1794
-175.939 168.877 1790
-171.659 168.877 1790
-167.004 168.5 1786
-163.098 168.877 1790
-158.818 168.877 1790
-154.537 168.877 1790
-150.257 168.877 1790
-145.976 168.877 1790
-141.696 168.877 1790
-137.415 168.877 1790
-288.015 377.474 4001
-280.466 380.21 4030
-270.829 380.21 4030
-261.192 380.21 4030
-241.068 364.36 3862
-230.212 361.813 3835
-221.041 361.813 3835
-211.871 361.813 3835
-202.7 361.813 3835
-192.672 360.209 3818
-183.542 360.209 3818
-174.412 360.209 3818
-165.282 360.209 3818
-155.784 359.36 3809
-146.675 359.36 3809
-138.181 360.963 3826
-129.031 360.963 3826
-120.164 361.813 3835
-110.994 361.813 3835
-102.301 363.511 3853
-93.0873 363.511 3853
-83.8736 363.511 3853
-75.0087 365.209 3871
-66.2106 367.756 3898
-56.8893 367.756 3898
-48.1293 372.096 3944
-39.1592 376.53 3991
-29.6155 376.53 3991
-20.0718 376.53 3991
-10.631 380.21 4030
-0.998732 382.002 4049
8.76944 385.776 4089
18.5475 385.776 4089
28.3255 385.776 4089
329.824 383.889 4069
339.554 383.889 4069
349.284 383.889 4069
356.367 381.059 4039
366.026 381.059 4039
371.22 376.53 3991
377.138 372.945 3953
380.332 366.907 3889
387.828 365.209 3871
397.085 365.209 3871
400.778 360.209 3818
403.359 354.454 3757
405.099 348.227 3691
413.926 348.227 3691
418.056 344.359 3650
420.353 339.17 3595
421.672 333.415 3534
425.619 329.924 3497
433.982 329.924 3497
435.134 324.546 3440
437.947 320.584 3398
442.397 317.942 3370
450.455 317.942 3370
456.745 316.716 3357
462.004 314.829 3337
468.012 313.508 3323
475.958 313.508 3323
483.905 313.508 3323
491.851 313.508 3323
503.858 316.055 3350
514.925 317.942 3370
529.502 321.905 3412
537.661 321.905 3412
570.295 336.339 3565
590.186 342.944 3635
598.878 342.944 3635
607.57 342.944 3635
686.161 376.53 3991
695.705 376.53 3991
712.14 380.21 4030
721.777 380.21 4030
731.414 380.21 4030
741.051 380.21 4030
746.963 378.323 4010
752.967 376.53 3991
762.511 376.53 3991
772.055 376.53 3991
781.598 376.53 3991
794.908 378.323 4010
804.497 378.323 4010
814.087 378.323 4010
823.676 378.323 4010
835.343 379.266 4020
848.949 381.059 4039
862.859 382.946 4059
872.566 382.946 4059
884.446 383.889 4069
896.373 384.833 4079
908.349 385.776 4089
918.127 385.776 4089
927.905 385.776 4089
937.683 385.776 4089
947.461 385.776 4089
957.239 385.776 4089
1042.69 384.833 4079
1052.44 384.833 4079
1062.19 384.833 4079
1071.95 384.833 4079
1068.71 380.21 4030
1065.5 375.681 3982
1072.32 374.738 3972
1081.82 374.738 3972
1091.32 374.738 3972
1100.82 374.738 3972
1102.49 372.096 3944
1111.92 372.096 3944
1108.27 367.756 3898
1109.85 365.209 3871
1113.91 363.511 3853
1125.74 364.36 3862
1134.98 364.36 3862
1152.21 366.907 3889
1161.51 366.907 3889
1170.81 366.907 3889
1180.11 366.907 3889
1189.41 366.907 3889
1195.94 366.058 3880
1205.22 366.058 3880
1220.13 367.756 3898
1229.45 367.756 3898
1238.77 367.756 3898
1248.09 367.756 3898
1263.22 369.455 3916
1272.58 369.455 3916
1281.95 369.455 3916
1279.44 366.058 3880
1288.72 366.058 3880
1298 366.058 3880
1304.24 365.209 3871
1307.39 363.511 3853
1316.61 363.511 3853
1325.82 363.511 3853
1319.79 359.36 3809
1316.69 356.058 3774
1325.71 356.058 3774
1331.91 355.303 3766
1346.97 356.907 3783
1371.43 360.963 3826
1390.32 363.511 3853
1412.61 366.907 3889
1421.91 366.907 3889
1431.21 366.907 3889
1453.84 370.304 3925
1470.31 372.096 3944
1479.74 372.096 3944
1499.74 374.738 3972
1513.04 375.681 3982
1522.56 375.681 3982
1532.09 375.681 3982
1556.32 379.266 4020
1569.83 380.21 4030
1594.75 383.889 4069
1604.48 383.889 4069
1614.21 383.889 4069
1701.78 383.889 4069
1711.51 383.889 4069
1721.24 383.889 4069
1722.47 382.002 4049
1719.74 379.266 4020
1716.88 376.53 3991
1726.42 376.53 3991
1719.44 372.945 3953
1716.65 370.304 3925
1714.16 367.756 3898
1723.48 367.756 3898
1720.8 365.209 3871
1742.12 367.756 3898
1755.49 368.605 3907
1768.89 369.455 3916
1778.26 369.455 3916
1787.62 369.455 3916
1796.99 369.455 3916
1806.35 369.455 3916
1807.37 367.756 3898
1816.69 367.756 3898
1826.01 367.756 3898
1843.81 369.455 3916
1853.17 369.455 3916
1862.54 369.455 3916
1863.3 367.756 3898
1863.97 366.058 3880
1873.25 366.058 3880
1878.16 365.209 3871
1874.25 362.662 3844
1883.45 362.662 3844
1892.64 362.662 3844
1884.51 359.36 3809
1889.15 358.511 3800
1835.79 346.717 3675
1832.03 344.359 3650
1840.76 344.359 3650
1841.89 342.944 3635
1842.44 341.434 3619
1823.47 336.339 3565
1831.99 336.339 3565
1832.26 334.83 3549
1825.7 332.094 3520
1834.12 332.094 3520
1846.2 332.754 3527
1854.64 332.754 3527
1863.07 332.754 3527
1867.79 332.094 3520
1876.21 332.094 3520
1892.12 333.415 3534
1900.57 333.415 3534
1909.02 333.415 3534
1917.47 333.415 3534
1934.1 334.83 3549
1942.59 334.83 3549
1951.07 334.83 3549
2443.5 385.776 4089
2453.28 385.776 4089
2463.06 385.776 4089
2472.84 385.776 4089
2609.73 385.776 4089
2619.51 385.776 4089
2629.28 385.776 4089
2626.15 383.889 4069
2591.83 377.474 4001
2626.11 381.059 4039
2635.77 381.059 4039
2645.43 381.059 4039
2655.08 381.059 4039
543.909 70.3813 746
545.693 70.3813 746
547.477 70.3813 746
549.261 70.3813 746
551.045 70.3813 746
553.57 70.4756 747
555.356 70.4756 747
557.142 70.4756 747
558.929 70.4756 747
562.967 70.7587 750
564.76 70.7587 750
567.309 70.853 751
570.621 71.0417 753
573.182 71.136 754
574.985 71.136 754
576.788 71.136 754
-2370.46 306.28 3166
-2362.89 306.28 3166
-2355.32 306.28 3166
-2347.75 306.28 3166
-2344.61 306.861 3172
-2337.03 306.861 3172
-2329.44 306.861 3172
-2321.86 306.861 3172
-2309.9 306.28 3166
-2302.32 306.28 3166
-2294.75 306.28 3166
-2295.85 307.441 3178
-2305.53 309.763 3202
-2311.51 311.601 3221
-2303.81 311.601 3221
-2300.38 312.181 3227
-2314.69 315.18 3258
-2321.06 317.115 3278
-2313.22 317.115 3278
-2327.89 320.211 3310
-2391.47 330.078 3412
-2383.31 330.078 3412
-2429.44 337.624 3490
-2446.77 341.203 3527
-2448.7 342.654 3542
-2440.23 342.654 3542
-2431.76 342.654 3542
-2397.88 342.654 3542
-2399.53 344.106 3557
-2391.03 344.106 3557
-2382.52 344.106 3557
-2364 342.654 3542
-2350.21 341.88 3534
-2341.76 341.88 3534
-2333.31 341.88 3534
-2315.65 340.526 3520
-2301.99 339.752 3512
-2303.39 341.203 3527
-2304.71 342.654 3542
-2296.24 342.654 3542
-2287.77 342.654 3542
-2283.81 343.332 3549
-2275.32 343.332 3549
-2266.83 343.332 3549
-2258.35 343.332 3549
-2260 344.879 3565
-2251.48 344.879 3565
-2242.95 344.879 3565
-2234.43 344.879 3565
-2225.9 344.879 3565
-2217.38 344.879 3565
-2198.94 343.332 3549
-2025.27 344.106 3557
-2016.77 344.106 3557
-2008.26 344.106 3557
-1999.76 344.106 3557
-1999.65 345.557 3572
-1995.56 346.331 3580
-1987 346.331 3580
-1978.44 346.331 3580
-1957.23 344.106 3557
-1873.12 330.755 3419
-1864.94 330.755 3419
-1856.76 330.755 3419
-1875.08 335.496 3468
-1878.63 337.624 3490
-1878.32 339.075 3505
-1869.94 339.075 3505
-1881.21 342.654 3542
-1876.44 343.332 3549
-1872.17 344.106 3557
-1863.66 344.106 3557
-1855.16 344.106 3557
-1838.86 342.654 3542
-1830.39 342.654 3542
-1821.92 342.654 3542
-1809.36 341.88 3534
-1800.91 341.88 3534
-1800.06 343.332 3549
-1791.58 343.332 3549
-1783.09 343.332 3549
-1774.6 343.332 3549
-1777.56 345.557 3572
-1769.02 345.557 3572
-1771.81 347.782 3595
-1774.99 350.103 3619
-1770.24 350.877 3627
-1761.57 350.877 3627
-1752.89 350.877 3627
-1744.22 350.877 3627
-1742.72 352.328 3642
-1734.01 352.328 3642
-1740.94 355.521 3675
-1732.15 355.521 3675
-1738.37 358.617 3707
-1729.5 358.617 3707
-1728.53 360.261 3724
-1727.01 361.809 3740
-1718.07 361.809 3740
-1709.13 361.809 3740
-1700.18 361.809 3740
-1676.32 358.617 3707
-1675.1 360.261 3724
-1677.38 362.68 3749
-1668.41 362.68 3749
-1670.51 365.098 3774
-1661.49 365.098 3774
-1652.47 365.098 3774
-1639.96 364.324 3766
-1630.95 364.324 3766
-1621.95 364.324 3766
-1612.94 364.324 3766
-1603.93 364.324 3766
-1587.73 362.68 3749
-1574.97 361.809 3740
-1566.03 361.809 3740
-1547.09 359.487 3716
-1544.83 361.035 3732
-1542.9 362.68 3749
-1537.21 363.454 3757
-1528.23 363.454 3757
-1529.76 365.969 3783
-1531.16 368.484 3809
-1532.44 370.999 3835
-1523.27 370.999 3835
-1514.1 370.999 3835
-1464.51 361.035 3732
-1455.59 361.035 3732
-615.422 163.685 1692
-611.376 163.685 1692
-607.33 163.685 1692
-602.571 163.491 1690
-598.53 163.491 1690
-594.488 163.491 1690
-586.254 162.33 1678
-578.772 161.363 1668
-574.783 161.363 1668
-564.635 159.622 1650
-560.01 159.428 1648
-554.719 159.041 1644
-550.788 159.041 1644
-546.857 159.041 1644
-541.604 158.654 1640
-535.715 158.074 1634
-529.855 157.493 1628
-525.962 157.493 1628
-519.504 156.719 1620
-513.402 156.042 1613
-509.229 155.945 1612
-505.374 155.945 1612
-499.03 155.172 1604
-494.268 154.881 1601
-488.908 154.398 1596
-485.092 154.398 1596
-480.974 154.301 1595
-476.561 154.107 1593
-472.455 154.011 1592
-468.648 154.011 1592
-464.841 154.011 1592
-461.034 154.011 1592
-457.227 154.011 1592
-453.705 154.107 1593
-449.896 154.107 1593
-446.646 154.301 1595
-443.943 154.688 1599
-441.495 155.172 1604
-437.66 155.172 1604
-434.365 155.365 1606
-431.329 155.655 1609
-427.747 155.752 1610
-423.897 155.752 1610
-421.873 156.429 1617
-418.006 156.429 1617
-415.164 156.816 1621
-411.288 156.816 1621
-407.412 156.816 1621
-404.78 157.3 1626
-401.631 157.59 1629
-398.224 157.784 1631
-394.324 157.784 1631
-391.621 158.267 1636
-388.656 158.654 1640
-385.204 158.848 1642
-381.277 158.848 1642
-377.811 159.041 1644
-374.561 159.331 1647
-370.623 159.331 1647
-366.685 159.331 1647
-362.746 159.331 1647
-359.897 159.815 1652
-355.946 159.815 1652
-351.996 159.815 1652
-348.256 159.912 1653
-345.345 160.396 1658
-341.792 160.589 1660
-337.822 160.589 1660
-334.456 160.879 1663
-331.274 161.266 1667
-327.484 161.363 1668
-323.496 161.363 1668
-319.507 161.363 1668
-316.842 162.04 1675
-313.21 162.234 1677
-309.2 162.234 1677
-305.19 162.234 1677
-302.078 162.717 1682
-298.587 163.008 1685
-294.558 163.008 1685
-291.391 163.491 1690
-288.199 163.975 1695
-285.152 164.555 1701
-281.084 164.555 1701
-277.017 164.555 1701
-273.752 165.039 1706
-270.778 165.716 1713
-266.682 165.716 1713
-263.659 166.393 1720
-260.3 166.877 1725
-257.512 167.748 1734
-253.365 167.748 1734
-250.225 168.425 1741
-247.192 169.199 1749
-244.26 170.07 1758
-240.057 170.07 1758
-236.523 170.553 1763
-233.889 171.714 1775
-230.291 172.198 1780
-226.035 172.198 1780
-222.276 172.585 1784
-218.255 172.778 1786
-214.463 173.165 1790
-210.183 173.165 1790
-206.362 173.552 1794
-202.298 173.746 1796
-198.003 173.746 1796
-193.708 173.746 1796
-189.413 173.746 1796
-185.119 173.746 1796
-180.824 173.746 1796
-176.332 173.552 1794
-171.659 173.165 1790
-167.378 173.165 1790
-163.28 173.359 1792
-158.995 173.359 1792
-154.71 173.359 1792
-150.425 173.359 1792
-146.139 173.359 1792
-141.854 173.359 1792
-308.609 388.896 4020
-298.996 388.896 4020
-289.383 388.896 4020
-280.466 389.864 4030
-270.829 389.864 4030
-261.192 389.864 4030
-241.068 373.611 3862
-231.293 372.741 3853
-222.079 372.741 3853
-213.363 373.611 3862
-204.127 373.611 3862
-194.892 373.611 3862
-185.657 373.611 3862
-176.422 373.611 3862
-166.797 372.741 3853
-156.479 370.129 3826
-147.676 370.999 3835
-139.156 372.741 3853
-129.942 372.741 3853
-120.728 372.741 3853
-111.515 372.741 3853
-102.54 373.611 3862
-93.3047 373.611 3862
-84.4613 375.353 3880
-75.7063 377.965 3907
-67.3147 383.382 3963
-57.8379 383.382 3963
-48.7029 386.091 3991
-39.1592 386.091 3991
-29.6155 386.091 3991
-20.0718 386.091 3991
-10.631 389.864 4030
-0.998732 391.702 4049
8.76944 395.571 4089
18.5475 395.571 4089
28.3255 395.571 4089
320.88 394.604 4079
330.634 394.604 4079
340.388 394.604 4079
349.284 393.637 4069
356.367 390.734 4039
366.026 390.734 4039
371.22 386.091 3991
377.138 382.415 3953
380.332 376.223 3889
387.828 374.482 3871
397.085 374.482 3871
400.778 369.355 3818
403.359 363.454 3757
405.099 357.069 3691
413.926 357.069 3691
418.972 353.876 3658
422.224 349.33 3611
423.461 343.332 3549
426.593 339.075 3505
434.974 339.075 3505
436.905 334.141 3454
439.751 330.078 3412
446.072 328.724 3398
454.198 328.724 3398
460.419 327.369 3384
464.773 324.757 3357
469.984 322.823 3337
477.964 322.823 3337
485.943 322.823 3337
497.772 325.338 3363
507.919 326.692 3377
518.134 328.047 3391
529.502 330.078 3412
538.764 330.755 3419
571.415 345.557 3572
590.186 351.651 3635
598.878 351.651 3635
607.57 351.651 3635
686.161 386.091 3991
695.705 386.091 3991
712.14 389.864 4030
721.777 389.864 4030
731.414 389.864 4030
739.212 388.896 4020
746.963 387.929 4010
752.967 386.091 3991
762.511 386.091 3991
772.055 386.091 3991
781.598 386.091 3991
794.908 387.929 4010
808.51 389.864 4030
818.147 389.864 4030
827.784 389.864 4030
841.369 391.702 4049
853.153 392.669 4059
862.859 392.669 4059
879.015 395.571 4089
888.793 395.571 4089
898.571 395.571 4089
908.349 395.571 4089
918.127 395.571 4089
927.905 395.571 4089
937.683 395.571 4089
947.461 395.571 4089
1052.44 394.604 4079
1062.19 394.604 4079
1071.95 394.604 4079
1081.7 394.604 4079
1078.34 389.864 4030
1087.98 389.864 4030
1089.72 387.058 4001
1099.29 387.058 4001
1106.08 386.091 3991
1115.63 386.091 3991
1125.17 386.091 3991
1121.35 381.544 3944
1128.2 380.673 3935
1137.61 380.673 3935
1152.27 382.415 3953
1161.72 382.415 3953
1171.17 382.415 3953
1183.61 383.382 3963
1195.8 384.253 3972
1205.3 384.253 3972
1214.8 384.253 3972
1224.3 384.253 3972
1233.79 384.253 3972
1231.71 380.673 3935
1241.12 380.673 3935
1250.53 380.673 3935
1265.7 382.415 3953
1275.16 382.415 3953
1284.61 382.415 3953
1294.06 382.415 3953
1294.28 379.706 3925
1303.67 379.706 3925
1298 375.353 3880
1304.24 374.482 3871
1292.69 365.969 3783
1301.73 365.969 3783
1310.78 365.969 3783
1316.69 365.098 3774
1325.71 365.098 3774
1331.91 364.324 3766
1350.17 366.84 3792
1377.88 371.87 3844
1393.56 373.611 3862
1412.61 376.223 3889
1421.91 376.223 3889
1431.21 376.223 3889
1453.84 379.706 3925
1470.31 381.544 3944
1479.74 381.544 3944
1499.74 384.253 3972
1513.04 385.22 3982
1522.56 385.22 3982
1532.09 385.22 3982
1556.32 388.896 4020
1569.83 389.864 4030
1598.67 394.604 4079
1608.42 394.604 4079
1618.18 394.604 4079
1701.78 393.637 4069
1711.51 393.637 4069
1721.24 393.637 4069
1730.97 393.637 4069
1727.87 390.734 4039
1733.66 389.864 4030
1743.29 389.864 4030
1735.97 386.091 3991
1728.89 382.415 3953
1726.03 379.706 3925
1735.42 379.706 3925
1732.8 377.094 3898
1750.17 378.835 3916
1772.11 381.544 3944
1781.54 381.544 3944
1790.97 381.544 3944
1800.41 381.544 3944
1809.84 381.544 3944
1819.27 381.544 3944
1819.89 379.706 3925
1829.28 379.706 3925
1838.66 379.706 3925
1848.05 379.706 3925
1857.43 379.706 3925
1862.54 378.835 3916
1871.9 378.835 3916
1863.97 375.353 3880
1873.25 375.353 3880
1869.43 372.741 3853
1874.25 371.87 3844
1879.04 370.999 3835
1888.21 370.999 3835
1892.93 370.129 3826
1880.7 365.969 3783
1835.79 355.521 3675
1832.03 353.102 3650
1840.76 353.102 3650
1841.89 351.651 3635
1842.44 350.103 3619
1823.47 344.879 3565
1831.99 344.879 3565
1832.26 343.332 3549
1825.7 340.526 3520
1837.77 341.203 3527
1846.2 341.203 3527
1854.64 341.203 3527
1863.07 341.203 3527
1867.79 340.526 3520
1876.21 340.526 3520
1884.63 340.526 3520
1893.04 340.526 3520
1901.46 340.526 3520
1909.88 340.526 3520
1918.3 340.526 3520
1926.71 340.526 3520
1930.73 339.752 3512
2603.35 394.604 4079
2613.1 394.604 4079
2622.85 394.604 4079
2594.53 388.896 4020
2591.83 387.058 4001
2601.4 387.058 4001
2629.89 389.864 4030
2639.53 389.864 4030
2649.17 389.864 4030
532.838 71.8781 743
534.615 71.8781 743
536.392 71.8781 743
538.168 71.8781 743
540.672 71.9748 744
543.909 72.1683 746
545.693 72.1683 746
547.477 72.1683 746
549.261 72.1683 746
551.045 72.1683 746
552.829 72.1683 746
554.613 72.1683 746
556.397 72.1683 746
558.929 72.2651 747
561.466 72.3618 748
563.254 72.3618 748
566.554 72.5553 750
569.863 72.7488 752
572.421 72.8455 753
574.222 72.8455 753
576.023 72.8455 753
-2370.46 313.864 3166
-2362.89 313.864 3166
-2355.32 313.864 3166
-2347.75 313.864 3166
-2344.61 314.459 3172
-2337.03 314.459 3172
-2329.44 314.459 3172
-2321.86 314.459 3172
-2309.9 313.864 3166
-2302.32 313.864 3166
-2294.75 313.864 3166
-2295.85 315.054 3178
-2305.53 317.433 3202
-2311.51 319.317 3221
-2303.81 319.317 3221
-2300.38 319.912 3227
-2314.69 322.985 3258
-2321.06 324.967 3278
-2313.22 324.967 3278
-2327.89 328.14 3310
-2333.99 330.123 3330
-2326.03 330.123 3330
-2419.7 344.596 3476
-2441.91 348.958 3520
-2448.7 351.139 3542
-2440.23 351.139 3542
-2431.76 351.139 3542
-2399.53 352.626 3557
-2391.03 352.626 3557
-2382.52 352.626 3557
-2364 351.139 3542
-2350.21 350.346 3534
-2341.76 350.346 3534
-2333.31 350.346 3534
-2315.65 348.958 3520
-2301.99 348.165 3512
-2303.39 349.652 3527
-2304.71 351.139 3542
-2296.24 351.139 3542
-2287.77 351.139 3542
-2283.81 351.833 3549
-2275.32 351.833 3549
-2266.83 351.833 3549
-2258.35 351.833 3549
-2260 353.419 3565
-2251.48 353.419 3565
-2242.95 353.419 3565
-2234.43 353.419 3565
-2225.9 353.419 3565
-2217.38 353.419 3565
-2198.94 351.833 3549
-1848.59 338.946 3419
-1866.79 343.803 3468
-1870.29 345.984 3490
-1861.94 345.984 3490
-1861.56 347.471 3505
-1872.74 351.139 3542
-1867.96 351.833 3549
-1859.47 351.833 3549
-1850.98 351.833 3549
-1838.86 351.139 3542
-1830.39 351.139 3542
-1817.81 350.346 3534
-1809.36 350.346 3534
-1800.91 350.346 3534
-1796.51 351.139 3542
-1788.04 351.139 3542
-1783.09 351.833 3549
-1774.6 351.833 3549
-1777.56 354.113 3572
-1769.02 354.113 3572
-1771.81 356.394 3595
-1774.99 358.773 3619
-1770.24 359.566 3627
-1761.57 359.566 3627
-1752.89 359.566 3627
-1744.22 359.566 3627
-1742.72 361.053 3642
-1734.01 361.053 3642
-1740.94 364.324 3675
-1732.15 364.324 3675
-1738.37 367.497 3707
-1729.5 367.497 3707
-1728.53 369.182 3724
-1727.01 370.768 3740
-1718.07 370.768 3740
-1709.13 370.768 3740
-1700.18 370.768 3740
-1676.32 367.497 3707
-1675.1 369.182 3724
-1677.38 371.66 3749
-1668.41 371.66 3749
-1670.51 374.139 3774
-1661.49 374.139 3774
-1652.47 374.139 3774
-1639.96 373.346 3766
-1630.95 373.346 3766
-1621.95 373.346 3766
-1612.94 373.346 3766
-1603.93 373.346 3766
-1587.73 371.66 3749
-1574.97 370.768 3740
-1566.03 370.768 3740
-1547.09 368.389 3716
-1544.83 369.975 3732
-1542.9 371.66 3749
-1537.21 372.454 3757
-1528.23 372.454 3757
-1529.76 375.031 3783
-1531.16 377.609 3809
-1532.44 380.186 3835
-1523.27 380.186 3835
-1514.1 380.186 3835
-1464.51 369.975 3732
-1455.59 369.975 3732
-615.422 167.738 1692
-611.376 167.738 1692
-607.33 167.738 1692
-602.571 167.54 1690
-598.53 167.54 1690
-593.433 167.242 1687
-586.254 166.35 1678
-578.772 165.359 1668
-574.783 165.359 1668
-564.635 163.574 1650
-560.01 163.376 1648
-554.719 162.979 1644
-550.788 162.979 1644
-546.857 162.979 1644
-541.604 162.583 1640
-534.732 161.691 1631
-529.204 161.195 1626
-525.316 161.195 1626
-519.504 160.6 1620
-513.402 159.906 1613
-509.229 159.807 1612
-505.374 159.807 1612
-499.03 159.014 1604
-494.268 158.717 1601
-488.908 158.221 1596
-485.092 158.221 1596
-480.974 158.122 1595
-476.561 157.923 1593
-472.455 157.824 1592
-468.648 157.824 1592
-464.841 157.824 1592
-461.034 157.824 1592
-457.227 157.824 1592
-453.705 157.923 1593
-449.896 157.923 1593
-446.646 158.122 1595
-443.943 158.518 1599
-441.495 159.014 1604
-437.66 159.014 1604
-434.365 159.212 1606
-431.329 159.51 1609
-427.747 159.609 1610
-423.897 159.609 1610
-421.873 160.303 1617
-418.006 160.303 1617
-415.164 160.699 1621
-411.288 160.699 1621
-407.412 160.699 1621
-404.78 161.195 1626
-401.631 161.492 1629
-398.224 161.691 1631
-394.324 161.691 1631
-391.621 162.186 1636
-388.656 162.583 1640
-385.204 162.781 1642
-381.277 162.781 1642
-377.351 162.781 1642
-374.107 163.079 1645
-370.623 163.277 1647
-366.685 163.277 1647
-362.746 163.277 1647
-359.461 163.574 1650
-355.946 163.772 1652
-351.996 163.772 1652
-348.046 163.772 1652
-345.137 164.268 1657
-341.792 164.566 1660
-337.822 164.566 1660
-334.456 164.863 1663
-331.274 165.26 1667
-327.484 165.359 1668
-323.496 165.359 1668
-319.507 165.359 1668
-316.842 166.053 1675
-313.21 166.251 1677
-309.2 166.251 1677
-305.19 166.251 1677
-302.078 166.747 1682
-298.587 167.044 1685
-294.558 167.044 1685
-291.391 167.54 1690
-288.199 168.035 1695
-285.152 168.63 1701
-281.084 168.63 1701
-277.017 168.63 1701
-273.752 169.126 1706
-270.778 169.82 1713
-266.682 169.82 1713
-263.659 170.514 1720
-260.3 171.009 1725
-257.512 171.902 1734
-253.365 171.902 1734
-250.225 172.596 1741
-247.192 173.389 1749
-244.26 174.281 1758
-240.057 174.281 1758
-236.523 174.777 1763
-233.889 175.966 1775
-230.291 176.462 1780
-226.035 176.462 1780
-222.276 176.858 1784
-218.255 177.057 1786
-214.463 177.453 1790
-210.183 177.453 1790
-206.362 177.85 1794
-202.298 178.048 1796
-198.003 178.048 1796
-193.708 178.048 1796
-189.413 178.048 1796
-185.119 178.048 1796
-180.824 178.048 1796
-176.332 177.85 1794
-171.659 177.453 1790
-167.378 177.453 1790
-163.28 177.652 1792
-158.995 177.652 1792
-154.71 177.652 1792
-150.425 177.652 1792
-146.139 177.652 1792
-141.854 177.652 1792
-308.609 398.526 4020
-298.996 398.526 4020
-289.383 398.526 4020
-280.466 399.518 4030
-270.829 399.518 4030
-261.192 399.518 4030
-241.068 382.863 3862
-231.293 381.971 3853
-222.079 381.971 3853
-213.363 382.863 3862
-204.127 382.863 3862
-194.892 382.863 3862
-185.657 382.863 3862
-176.422 382.863 3862
-166.797 381.971 3853
-156.479 379.294 3826
-147.676 380.186 3835
-139.156 381.971 3853
-129.942 381.971 3853
-120.728 381.971 3853
-111.515 381.971 3853
-102.54 382.863 3862
-93.3047 382.863 3862
-84.4613 384.647 3880
-75.7063 387.324 3907
-67.3147 392.876 3963
-57.8379 392.876 3963
-48.7029 395.651 3991
-39.1592 395.651 3991
-29.6155 395.651 3991
-20.0718 395.651 3991
311.889 405.367 4089
321.667 405.367 4089
331.445 405.367 4089
340.388 404.375 4079
349.284 403.384 4069
354.691 398.526 4020
364.304 398.526 4020
370.382 394.759 3982
377.138 391.884 3953
382.092 387.324 3907
387.828 383.755 3871
397.085 383.755 3871
400.778 378.501 3818
403.359 372.454 3757
405.099 365.911 3691
413.926 365.911 3691
418.972 362.639 3658
423.16 358.773 3619
426.206 354.113 3572
429.27 349.652 3527
437.705 349.652 3527
437.79 343.109 3461
439.751 338.252 3412
446.991 337.558 3405
455.134 337.558 3405
460.419 335.476 3384
466.573 334.088 3370
470.829 331.411 3343
480.828 332.799 3357
488.856 332.799 3357
501.916 336.17 3391
511.078 336.864 3398
521.342 338.252 3412
529.502 338.252 3412
539.867 339.64 3426
576.374 357.187 3603
593.92 362.639 3658
602.667 362.639 3658
611.415 362.639 3658
689.428 397.535 4010
699.017 397.535 4010
712.14 399.518 4030
721.777 399.518 4030
731.414 399.518 4030
739.212 398.526 4020
746.963 397.535 4010
752.967 395.651 3991
762.511 395.651 3991
772.055 395.651 3991
781.598 395.651 3991
800.657 400.41 4039
810.315 400.41 4039
819.974 400.41 4039
833.741 402.393 4059
843.447 402.393 4059
859.459 405.367 4089
869.237 405.367 4089
879.015 405.367 4089
888.793 405.367 4089
898.571 405.367 4089
908.349 405.367 4089
918.127 405.367 4089
927.905 405.367 4089
937.683 405.367 4089
947.461 405.367 4089
1052.44 404.375 4079
1062.19 404.375 4079
1071.95 404.375 4079
1081.7 404.375 4079
1091.46 404.375 4079
1101.21 404.375 4079
1105.52 402.393 4059
1112.48 401.401 4049
1119.39 400.41 4039
1120.94 397.535 4010
1130.53 397.535 4010
1134.71 395.651 3991
1144.26 395.651 3991
1156.69 396.643 4001
1166.26 396.643 4001
1175.83 396.643 4001
1188.06 397.535 4010
1197.65 397.535 4010
1207.24 397.535 4010
1216.83 397.535 4010
1226.42 397.535 4010
1236.01 397.535 4010
1245.6 397.535 4010
1249.24 395.651 3991
1252.79 393.768 3972
1259.43 392.876 3963
1268.9 392.876 3963
1281.28 393.768 3972
1290.78 393.768 3972
1300.28 393.768 3972
1294.28 389.108 3925
1303.67 389.108 3925
1298 384.647 3880
1304.24 383.755 3871
1292.69 375.031 3783
1301.73 375.031 3783
1310.78 375.031 3783
1316.69 374.139 3774
1325.71 374.139 3774
1331.91 373.346 3766
1350.17 375.923 3792
1394.01 385.539 3889
1403.31 385.539 3889
1412.61 385.539 3889
1421.91 385.539 3889
1431.21 385.539 3889
1453.84 389.108 3925
1473.67 391.884 3953
1483.12 391.884 3953
1499.74 393.768 3972
1516.46 395.651 3991
1533.27 397.535 4010
1542.86 397.535 4010
1556.32 398.526 4020
1569.83 399.518 4030
1602.59 405.367 4089
1612.37 405.367 4089
1622.15 405.367 4089
1710.15 405.367 4089
1719.93 405.367 4089
1729.7 405.367 4089
1735.23 404.375 4079
1736.43 402.393 4059
1741.83 401.401 4049
1751.51 401.401 4049
1748.58 398.526 4020
1745.51 395.651 3991
1742.74 392.876 3963
1752.22 392.876 3963
1761.7 392.876 3963
1779.66 394.759 3982
1789.19 394.759 3982
1798.71 394.759 3982
1799.6 392.876 3963
1809.08 392.876 3963
1813.97 391.884 3953
1823.42 391.884 3953
1824.53 390.1 3935
1833.94 390.1 3935
1843.35 390.1 3935
1848.05 389.108 3925
1857.43 389.108 3925
1862.54 388.216 3916
1871.9 388.216 3916
1863.97 384.647 3880
1873.25 384.647 3880
1869.43 381.971 3853
1874.25 381.078 3844
1879.04 380.186 3835
1888.21 380.186 3835
1892.93 379.294 3826
1880.7 375.031 3783
1835.79 364.324 3675
1832.03 361.846 3650
1840.76 361.846 3650
1841.89 360.359 3635
1842.44 358.773 3619
1823.47 353.419 3565
1831.99 353.419 3565
1832.26 351.833 3549
1825.7 348.958 3520
1837.77 349.652 3527
1846.2 349.652 3527
1854.64 349.652 3527
1863.07 349.652 3527
1867.79 348.958 3520
1876.21 348.958 3520
1884.63 348.958 3520
1893.04 348.958 3520
1901.46 348.958 3520
1909.88 348.958 3520
1918.3 348.958 3520
1926.71 348.958 3520
1930.73 348.165 3512
2571.17 402.393 4059
2580.87 402.393 4059
2603.35 404.375 4079
2613.1 404.375 4079
2622.85 404.375 4079
2594.53 398.526 4020
2591.83 396.643 4001
2601.4 396.643 4001
2629.89 399.518 4030
2639.53 399.518 4030
2649.17 399.518 4030
533.555 73.7571 744
535.334 73.7571 744
537.114 73.7571 744
538.893 73.7571 744
540.672 73.7571 744
543.909 73.9554 746
545.693 73.9554 746
547.477 73.9554 746
549.261 73.9554 746
551.045 73.9554 746
552.829 73.9554 746
554.613 73.9554 746
556.397 73.9554 746
558.929 74.0545 747
561.466 74.1536 748
563.254 74.1536 748
566.554 74.3519 750
569.863 74.5502 752
572.421 74.6493 753
574.222 74.6493 753
576.023 74.6493 753
-2370.46 321.448 3166
-2362.89 321.448 3166
-2355.32 321.448 3166
-2352.2 322.058 3172
-2344.61 322.058 3172
-2337.03 322.058 3172
-2329.44 322.058 3172
-2321.86 322.058 3172
-2309.9 321.448 3166
-2302.32 321.448 3166
-2294.75 321.448 3166
-2287.18 321.448 3166
-2296.89 323.885 3190
-2297.88 325.104 3202
-2290.22 325.104 3202
-2296.11 327.033 3221
-2306.17 329.571 3246
-2306.9 330.789 3258
-2299.11 330.789 3258
-2305.38 332.82 3278
-2310.86 334.749 3297
-2302.98 334.749 3297
-2295.09 334.749 3297
-2411.39 352.923 3476
-2403.07 352.923 3476
-2394.76 352.923 3476
-2396.4 361.959 3565
-2387.88 361.959 3565
-2379.35 361.959 3565
-2360.19 360.335 3549
-2351.7 360.335 3549
-2343.21 360.335 3549
-2334.73 360.335 3549
-2311.82 358.101 3527
-2317.75 360.335 3549
-2334.64 364.295 3588
-2326.06 364.295 3588
-2317.48 364.295 3588
-2303.76 363.482 3580
-2295.19 363.482 3580
-2286.63 363.482 3580
-2287.62 365.005 3595
-2279.02 365.005 3595
-2280.53 366.63 3611
-2271.89 366.63 3611
-2282.69 369.777 3642
-2273.98 369.777 3642
-2265.27 369.777 3642
-1847.24 349.979 3447
-1839 349.979 3447
-1861.56 355.868 3505
-1864.81 358.101 3527
-1867.96 360.335 3549
-1859.47 360.335 3549
-1850.98 360.335 3549
-1842.5 360.335 3549
-1834.01 360.335 3549
-1817.81 358.812 3534
-1786.83 354.345 3490
-1793.77 357.391 3520
-1788.9 358.101 3527
-1780.47 358.101 3527
-1772.04 358.101 3527
-1774.6 360.335 3549
-1789.01 365.005 3595
-1780.41 365.005 3595
-1794.98 369.777 3642
-1786.27 369.777 3642
-1777.56 369.777 3642
-1768.85 369.777 3642
-1760.14 369.777 3642
-1755.28 370.59 3650
-1758.51 373.128 3675
-1749.73 373.128 3675
-1752.31 375.565 3699
-1751.47 377.291 3716
-1750.09 378.915 3732
-1741.17 378.915 3732
-1735.96 379.727 3740
-1739.02 382.367 3766
-1730.01 382.367 3766
-1721.01 382.367 3766
-1712 382.367 3766
-1695.31 380.641 3749
-1686.34 380.641 3749
-1696.62 385.007 3792
-1687.55 385.007 3792
-1678.48 385.007 3792
-1669.41 385.007 3792
-1660.35 385.007 3792
-1651.28 385.007 3792
-1645.68 385.819 3800
-1636.59 385.819 3800
-1627.5 385.819 3800
-1615.01 385.007 3792
-1602.13 384.093 3783
-1578.76 380.641 3749
-1569.8 380.641 3749
-1560.83 380.641 3749
-1558.91 382.367 3766
-1549.9 382.367 3766
-1540.89 382.367 3766
-1531.89 382.367 3766
-1533.4 385.007 3792
-1545.23 390.287 3844
-1543.23 392.114 3862
-1534 392.114 3862
-1524.76 392.114 3862
-616.15 171.994 1694
-612.099 171.994 1694
-608.048 171.994 1694
-603.284 171.791 1692
-599.238 171.791 1692
-593.433 171.283 1687
-587.652 170.776 1682
-580.16 169.76 1672
-576.162 169.76 1672
-567.373 168.339 1658
-560.01 167.324 1648
-556.069 167.324 1648
-552.128 167.324 1648
-548.187 167.324 1648
-542.925 166.918 1644
-535.06 165.699 1632
-529.855 165.293 1628
-525.962 165.293 1628
-519.824 164.582 1621
-514.038 163.973 1615
-508.597 163.466 1610
-504.747 163.466 1610
-499.03 162.856 1604
-494.268 162.552 1601
-488.908 162.044 1596
-485.092 162.044 1596
-480.974 161.943 1595
-476.561 161.74 1593
-472.752 161.74 1593
-468.942 161.74 1593
-464.841 161.638 1592
-461.034 161.638 1592
-457.227 161.638 1592
-453.42 161.638 1592
-449.613 161.638 1592
-446.086 161.74 1593
-443.665 162.247 1598
-441.495 162.856 1604
-437.66 162.856 1604
-434.365 163.059 1606
-430.793 163.161 1607
-427.747 163.466 1610
-423.897 163.466 1610
-421.873 164.176 1617
-418.006 164.176 1617
-415.164 164.582 1621
-411.288 164.582 1621
-407.412 164.582 1621
-404.78 165.09 1626
-401.631 165.395 1629
-397.736 165.395 1629
-393.841 165.395 1629
-391.621 166.105 1636
-388.656 166.511 1640
-385.204 166.715 1642
-381.277 166.715 1642
-377.351 166.715 1642
-374.107 167.019 1645
-370.173 167.019 1645
-366.239 167.019 1645
-362.306 167.019 1645
-359.461 167.527 1650
-355.946 167.73 1652
-351.996 167.73 1652
-348.046 167.73 1652
-345.137 168.238 1657
-341.792 168.542 1660
-337.822 168.542 1660
-334.456 168.847 1663
-331.274 169.253 1667
-327.484 169.354 1668
-323.496 169.354 1668
-319.507 169.354 1668
-316.842 170.065 1675
-313.21 170.268 1677
-309.2 170.268 1677
-305.19 170.268 1677
-302.078 170.776 1682
-298.587 171.08 1685
-294.558 171.08 1685
-291.218 171.487 1689
-288.199 172.096 1695
-285.152 172.705 1701
-281.084 172.705 1701
-277.505 173.01 1704
-274.233 173.517 1709
-271.095 174.126 1715
-266.994 174.126 1715
-264.119 174.939 1723
-261.206 175.751 1731
-258.403 176.665 1740
-254.242 176.665 1740
-251.375 177.578 1749
-248.182 178.289 1756
-244.955 179 1763
-240.739 179 1763
-237.865 180.015 1773
-234.548 180.726 1780
-230.809 181.132 1784
-226.543 181.132 1784
-223.024 181.741 1790
-218.744 181.741 1790
-214.942 182.147 1794
-210.652 182.147 1794
-206.592 182.35 1796
-202.748 182.757 1800
-198.444 182.757 1800
-194.14 182.757 1800
-189.835 182.757 1800
-185.325 182.553 1798
-181.025 182.553 1798
-176.529 182.35 1796
-172.042 182.147 1794
-167.378 181.741 1790
-163.28 181.944 1792
-158.995 181.944 1792
-154.71 181.944 1792
-150.928 182.553 1798
-146.629 182.553 1798
-142.329 182.553 1798
-308.609 408.156 4020
-298.996 408.156 4020
-289.383 408.156 4020
-280.466 409.172 4030
-270.829 409.172 4030
-261.192 409.172 4030
-241.63 393.028 3871
-232.373 393.028 3871
-223.116 393.028 3871
-214.854 394.856 3889
-205.554 394.856 3889
-196.255 394.856 3889
-186.955 394.856 3889
-177.655 394.856 3889
-167.966 393.942 3880
-157.583 391.2 3853
-148.716 392.114 3862
-140.131 393.942 3880
-130.853 393.942 3880
-121.856 394.856 3889
-112.817 395.769 3898
-103.735 396.683 3907
-94.3919 396.683 3907
-85.4409 398.511 3925
-76.7914 402.369 3963
-67.7903 405.212 3991
-58.2466 405.212 3991
-48.7029 405.212 3991
-39.1592 405.212 3991
-29.6155 405.212 3991
311.889 415.162 4089
321.667 415.162 4089
331.445 415.162 4089
340.388 414.147 4079
345.078 408.156 4020
351.338 404.298 3982
358.232 401.354 3953
367.685 401.354 3953
374.466 398.511 3925
382.092 396.683 3907
386.926 392.114 3862
396.162 392.114 3862
400.778 387.647 3818
403.359 381.453 3757
405.099 374.752 3691
413.926 374.752 3691
418.972 371.402 3658
423.16 367.442 3619
426.206 362.67 3572
429.27 358.101 3527
437.705 358.101 3527
437.79 351.4 3461
439.751 346.425 3412
446.991 345.714 3405
455.134 345.714 3405
460.419 343.582 3384
466.573 342.161 3370
470.829 339.419 3343
480.828 340.841 3357
488.856 340.841 3357
501.916 344.293 3391
511.078 345.004 3398
521.342 346.425 3412
529.502 346.425 3412
539.867 347.847 3426
576.374 365.818 3603
593.92 371.402 3658
602.667 371.402 3658
611.415 371.402 3658
689.428 407.141 4010
699.017 407.141 4010
710.373 408.156 4020
719.986 408.156 4020
729.599 408.156 4020
739.212 408.156 4020
746.963 407.141 4010
752.967 405.212 3991
762.511 405.212 3991
770.313 404.298 3982
781.598 405.212 3991
800.657 410.085 4039
810.315 410.085 4039
819.974 410.085 4039
833.741 412.116 4059
843.447 412.116 4059
859.459 415.162 4089
869.237 415.162 4089
879.015 415.162 4089
888.793 415.162 4089
898.571 415.162 4089
1062.19 414.147 4079
1071.95 414.147 4079
1081.7 414.147 4079
1091.46 414.147 4079
1101.21 414.147 4079
1105.52 412.116 4059
1112.48 411.101 4049
1119.39 410.085 4039
1120.94 407.141 4010
1130.53 407.141 4010
1134.71 405.212 3991
1144.26 405.212 3991
1156.69 406.227 4001
1166.26 406.227 4001
1175.83 406.227 4001
1188.06 407.141 4010
1197.65 407.141 4010
1207.24 407.141 4010
1216.83 407.141 4010
1226.42 407.141 4010
1236.01 407.141 4010
1245.6 407.141 4010
1249.24 405.212 3991
1252.79 403.283 3972
1259.43 402.369 3963
1268.9 402.369 3963
1281.28 403.283 3972
1290.78 403.283 3972
1300.28 403.283 3972
1294.28 398.511 3925
1303.67 398.511 3925
1350.17 385.007 3792
1394.01 394.856 3889
1403.31 394.856 3889
1412.61 394.856 3889
1421.91 394.856 3889
1431.21 394.856 3889
1453.84 398.511 3925
1473.67 401.354 3953
1483.12 401.354 3953
1499.74 403.283 3972
1516.46 405.212 3991
1533.27 407.141 4010
1542.86 407.141 4010
1556.32 408.156 4020
1569.83 409.172 4030
1602.59 415.162 4089
1612.37 415.162 4089
1622.15 415.162 4089
1710.15 415.162 4089
1719.93 415.162 4089
1729.7 415.162 4089
1735.23 414.147 4079
1736.43 412.116 4059
1741.83 411.101 4049
1751.51 411.101 4049
1748.58 408.156 4020
1745.51 405.212 3991
1742.74 402.369 3963
1752.22 402.369 3963
1761.7 402.369 3963
1779.66 404.298 3982
1789.19 404.298 3982
1798.71 404.298 3982
1799.6 402.369 3963
1809.08 402.369 3963
1813.97 401.354 3953
1823.42 401.354 3953
1824.53 399.526 3935
1833.94 399.526 3935
1843.35 399.526 3935
1848.05 398.511 3925
1857.43 398.511 3925
1862.54 397.597 3916
1871.9 397.597 3916
1859.65 393.028 3871
1868.91 393.028 3871
1856.33 388.459 3826
1869.87 389.373 3835
1879.04 389.373 3835
1888.21 389.373 3835
1892.93 388.459 3826
1880.7 384.093 3783
1835.79 373.128 3675
1832.03 370.59 3650
1840.76 370.59 3650
1841.89 369.067 3635
1838.36 366.63 3611
1823.47 361.959 3565
1831.99 361.959 3565
1832.26 360.335 3549
1825.7 357.391 3520
1837.77 358.101 3527
1846.2 358.101 3527
1854.64 358.101 3527
1863.07 358.101 3527
1867.79 357.391 3520
1876.21 357.391 3520
1884.63 357.391 3520
1893.04 357.391 3520
1901.46 357.391 3520
1905.54 356.578 3512
1913.94 356.578 3512
1922.33 356.578 3512
1930.73 356.578 3512
2571.17 412.116 4059
2580.87 412.116 4059
2590.58 412.116 4059
2600.29 412.116 4059
2609.99 412.116 4059
2588.07 407.141 4010
2591.83 406.227 4001
533.555 75.5394 744
535.334 75.5394 744
537.114 75.5394 744
538.893 75.5394 744
540.672 75.5394 744
543.18 75.6409 745
544.962 75.6409 745
546.743 75.6409 745
548.525 75.6409 745
550.306 75.6409 745
552.088 75.6409 745
553.869 75.6409 745
555.651 75.6409 745
557.432 75.6409 745
560.715 75.844 747
562.501 75.844 747
564.288 75.844 747
568.347 76.1486 750
570.901 76.2501 751
572.697 76.2501 751
574.493 76.2501 751
-2370.46 329.033 3166
-2362.89 329.033 3166
-2355.32 329.033 3166
-2352.2 329.656 3172
-2344.61 329.656 3172
-2337.03 329.656 3172
-2329.44 329.656 3172
-2321.86 329.656 3172
-2309.9 329.033 3166
-2302.32 329.033 3166
-2290.4 328.409 3160
-2282.85 328.409 3160
-2296.89 331.527 3190
-2289.26 331.527 3190
-2281.64 331.527 3190
-2291.12 334.021 3214
-2292.67 335.372 3227
-2298.4 337.347 3246
-2290.64 337.347 3246
-2291.32 338.594 3258
-2297.55 340.672 3278
-2289.71 340.672 3278
-2281.87 340.672 3278
-2441.36 376.111 3619
-2432.7 376.111 3619
-2424.05 376.111 3619
-2415.39 376.111 3619
-2375.48 371.227 3572
-2366.94 371.227 3572
-2358.4 371.227 3572
-2345.25 370.499 3565
-2336.73 370.499 3565
-2343.22 372.89 3588
-2334.64 372.89 3588
-2330.6 373.617 3595
-2322.01 373.617 3595
-2318.56 374.449 3603
-2309.94 374.449 3603
-2301.32 374.449 3603
-2292.71 374.449 3603
-2299.31 376.943 3627
-2300.11 378.502 3642
-2291.4 378.502 3642
-2292.72 380.165 3658
-2283.97 380.165 3658
-2275.22 380.165 3658
-2256.56 378.502 3642
-1867.96 368.837 3549
-1859.47 368.837 3549
-1850.98 368.837 3549
-1842.5 368.837 3549
-1834.01 368.837 3549
-1861.17 388.687 3740
-1852.22 388.687 3740
-1843.28 388.687 3740
-1834.33 388.687 3740
-1825.39 388.687 3740
-1796.53 384.426 3699
-1787.69 384.426 3699
-1778.84 384.426 3699
-1770 384.426 3699
-1761.15 384.426 3699
-1771.73 388.687 3740
-1762.79 388.687 3740
-1753.84 388.687 3740
-1741.17 387.855 3732
-1735.96 388.687 3740
-1739.02 391.389 3766
-1730.01 391.389 3766
-1721.01 391.389 3766
-1735.64 396.793 3818
-1726.51 396.793 3818
-1720.98 397.624 3826
-1711.83 397.624 3826
-1706.69 398.56 3835
-1697.52 398.56 3835
-1688.35 398.56 3835
-1675.23 397.624 3826
-1666.08 397.624 3826
-1656.94 397.624 3826
-1644.34 396.793 3818
-1635.21 396.793 3818
-1626.08 396.793 3818
-1605.94 394.091 3792
-1593.08 393.155 3783
-1584.04 393.155 3783
-1574.99 393.155 3783
-1565.94 393.155 3783
-1556.9 393.155 3783
-1547.85 393.155 3783
-1535.14 392.22 3774
-1533.4 394.091 3792
-1545.23 399.495 3844
-1543.23 401.366 3862
-1534 401.366 3862
-1524.76 401.366 3862
-616.15 176.052 1694
-612.099 176.052 1694
-608.048 176.052 1694
-603.284 175.844 1692
-599.238 175.844 1692
-594.488 175.636 1690
-587.652 174.805 1682
-580.16 173.766 1672
-576.162 173.766 1672
-567.373 172.311 1658
-560.689 171.479 1650
-556.069 171.272 1648
-552.128 171.272 1648
-548.187 171.272 1648
-543.916 171.168 1647
-535.715 169.817 1634
-530.181 169.297 1629
-526.285 169.297 1629
-520.466 168.673 1623
-514.675 168.05 1617
-509.229 167.53 1612
-505.374 167.53 1612
-499.652 166.907 1606
-494.268 166.387 1601
-489.521 166.075 1598
-485.7 166.075 1598
-480.974 165.763 1595
-476.561 165.556 1593
-472.752 165.556 1593
-468.942 165.556 1593
-465.133 165.556 1593
-461.324 165.556 1593
-457.227 165.452 1592
-453.42 165.452 1592
-449.048 165.244 1590
-445.806 165.452 1592
-443.665 166.075 1598
-441.22 166.595 1603
-437.387 166.595 1603
-433.824 166.699 1604
-430.793 167.011 1607
-427.481 167.218 1609
-423.634 167.218 1609
-421.351 167.842 1615
-418.006 168.05 1617
-414.908 168.362 1620
-411.034 168.362 1620
-407.412 168.466 1621
-404.78 168.985 1626
-401.631 169.297 1629
-397.736 169.297 1629
-393.841 169.297 1629
-391.142 169.817 1634
-388.656 170.44 1640
-385.204 170.648 1642
-381.277 170.648 1642
-377.811 170.856 1644
-374.107 170.96 1645
-370.173 170.96 1645
-366.239 170.96 1645
-362.306 170.96 1645
-359.025 171.272 1648
-355.516 171.479 1650
-351.57 171.479 1650
-348.046 171.687 1652
-345.137 172.207 1657
-342.204 172.727 1662
-338.229 172.727 1662
-334.456 172.83 1663
-331.274 173.246 1667
-327.484 173.35 1668
-323.496 173.35 1668
-319.507 173.35 1668
-316.842 174.078 1675
-313.21 174.285 1677
-309.2 174.285 1677
-305.372 174.389 1678
-302.257 174.909 1683
-299.296 175.533 1689
-295.257 175.533 1689
-292.08 176.052 1694
-288.54 176.364 1697
-285.152 176.78 1701
-281.084 176.78 1701
-277.505 177.091 1704
-274.554 177.819 1711
-271.569 178.546 1718
-267.461 178.546 1718
-264.732 179.482 1727
-261.658 180.209 1734
-259.146 181.352 1745
-254.973 181.352 1745
-251.806 182.08 1752
-249.171 183.223 1763
-246.067 184.055 1771
-241.832 184.055 1771
-238.804 184.99 1780
-235.338 185.613 1786
-231.585 186.029 1790
-227.304 186.029 1790
-223.522 186.445 1794
-219.477 186.653 1796
-215.422 186.861 1798
-211.122 186.861 1798
-207.053 187.068 1800
-202.748 187.068 1800
-198.444 187.068 1800
-194.14 187.068 1800
-189.835 187.068 1800
-185.531 187.068 1800
-181.227 187.068 1800
-176.922 187.068 1800
-172.426 186.861 1798
-167.939 186.653 1796
-163.645 186.653 1796
-159.35 186.653 1796
-155.228 186.861 1798
-151.432 187.484 1804
-147.118 187.484 1804
-142.804 187.484 1804
-308.609 417.786 4020
-298.996 417.786 4020
-289.383 417.786 4020
-280.466 418.825 4030
-270.829 418.825 4030
-261.192 418.825 4030
-243.315 405.107 3898
-233.994 405.107 3898
-224.673 405.107 3898
-215.351 405.107 3898
-206.03 405.107 3898
-196.709 405.107 3898
-187.387 405.107 3898
-178.066 405.107 3898
-168.355 404.172 3889
-158.687 403.236 3880
-149.409 403.236 3880
-140.456 404.172 3889
-131.156 404.172 3889
-122.42 406.042 3907
-113.078 406.042 3907
-104.213 407.913 3925
-94.8268 407.913 3925
-86.2681 411.862 3963
-76.9658 412.798 3972
-68.113 416.747 4010
-58.5239 416.747 4010
-48.9347 416.747 4010
311.889 424.957 4089
321.667 424.957 4089
331.445 424.957 4089
337.05 419.761 4039
345.078 417.786 4020
349.662 411.862 3963
359.138 411.862 3963
368.615 411.862 3963
377.138 410.823 3953
383.852 407.913 3925
386.926 401.366 3862
396.162 401.366 3862
403.507 399.495 3844
406.15 393.155 3783
406.855 385.257 3707
415.72 385.257 3707
420.919 381.931 3675
425.03 377.774 3635
426.206 371.227 3572
431.096 368.109 3542
439.566 368.109 3542
438.676 360.419 3468
441.556 356.054 3426
447.91 354.599 3412
456.069 354.599 3412
463.276 353.871 3405
466.573 350.234 3370
472.801 348.883 3357
486.701 353.144 3398
494.826 353.144 3398
506.06 355.326 3419
514.236 355.326 3419
522.412 355.326 3419
530.588 355.326 3419
544.279 358.964 3454
583.893 379.333 3650
601.876 385.257 3707
610.74 385.257 3707
639.495 397.624 3826
648.644 397.624 3826
689.428 416.747 4010
699.017 416.747 4010
710.373 417.786 4020
719.986 417.786 4020
729.599 417.786 4020
739.212 417.786 4020
746.963 416.747 4010
754.854 415.812 4001
764.421 415.812 4001
770.313 413.837 3982
781.598 414.772 3991
800.657 419.761 4039
818.34 423.918 4079
828.095 423.918 4079
837.849 423.918 4079
847.603 423.918 4079
859.459 424.957 4089
869.237 424.957 4089
879.015 424.957 4089
1084.35 424.957 4089
1094.13 424.957 4089
1103.91 424.957 4089
1108.24 422.879 4069
1115.22 421.839 4059
1119.39 419.761 4039
1123.73 417.786 4020
1133.35 417.786 4020
1134.71 414.772 3991
1144.26 414.772 3991
1156.69 415.812 4001
1166.26 415.812 4001
1175.83 415.812 4001
1188.06 416.747 4010
1197.65 416.747 4010
1207.24 416.747 4010
1216.83 416.747 4010
1226.42 416.747 4010
1236.01 416.747 4010
1245.6 416.747 4010
1249.24 414.772 3991
1252.79 412.798 3972
1259.43 411.862 3963
1268.9 411.862 3963
1281.28 412.798 3972
1290.78 412.798 3972
1300.28 412.798 3972
1309.78 412.798 3972
1319.28 412.798 3972
1394.01 404.172 3889
1403.31 404.172 3889
1412.61 404.172 3889
1421.91 404.172 3889
1431.21 404.172 3889
1453.84 407.913 3925
1473.67 410.823 3953
1483.12 410.823 3953
1503.52 413.837 3982
1520.26 415.812 4001
1533.27 416.747 4010
1542.86 416.747 4010
1556.32 417.786 4020
1569.83 418.825 4030
1602.59 424.957 4089
1612.37 424.957 4089
1622.15 424.957 4089
1710.15 424.957 4089
1719.93 424.957 4089
1729.7 424.957 4089
1739.48 424.957 4089
1744.98 423.918 4079
1754.74 423.918 4079
1764.49 423.918 4079
1761.2 420.8 4049
1762.57 418.825 4030
1755.05 414.772 3991
1764.6 414.772 3991
1774.14 414.772 3991
1788.16 415.812 4001
1797.72 415.812 4001
1807.29 415.812 4001
1808.23 413.837 3982
1817.75 413.837 3982
1818.56 411.862 3963
1828.03 411.862 3963
1832.87 410.823 3953
1842.33 410.823 3953
1851.78 410.823 3953
1861.23 410.823 3953
1870.68 410.823 3953
1871.58 408.952 3935
1871.9 406.978 3916
1838.03 397.624 3826
1847.18 397.624 3826
1848.08 395.858 3809
1840.12 392.22 3774
1849.15 392.22 3774
1858.17 392.22 3774
1867.2 392.22 3774
1863.79 389.622 3749
1823.31 379.333 3650
1824.5 377.774 3635
1833.2 377.774 3635
1829.73 375.28 3611
1834.29 374.449 3603
1823.47 370.499 3565
1831.99 370.499 3565
1828.65 368.109 3542
1825.7 365.823 3520
1834.12 365.823 3520
1842.54 365.823 3520
1850.96 365.823 3520
1859.37 365.823 3520
1863.55 364.991 3512
1871.94 364.991 3512
1868.56 362.705 3490
1876.91 362.705 3490
1885.26 362.705 3490
1897.4 363.432 3497
1905.76 363.432 3497
1914.12 363.432 3497
1922.49 363.432 3497
2571.17 421.839 4059
2580.87 421.839 4059
2590.58 421.839 4059
2575.3 417.786 4020
2584.92 417.786 4020
2582.27 415.812 4001
533.555 77.3216 744
535.334 77.3216 744
