1220.96 1220.28 2301
1229.66 1223.47 2307
1235.18 1223.47 2307
1240.7 1223.47 2307
1246.21 1223.47 2307
1251.73 1223.47 2307
1257.25 1223.47 2307
1259.48 1220.28 2301
1264.98 1220.28 2301
1270.48 1220.28 2301
1275.99 1220.28 2301
1272.58 1211.8 2285
1285.31 1218.69 2298
1294.18 1221.87 2304
1299.69 1221.87 2304
1319.93 1235.66 2330
1325.5 1235.66 2330
1331.07 1235.66 2330
1336.64 1235.66 2330
1323.78 1218.69 2298
1329.28 1218.69 2298
1334.77 1218.69 2298
1338.52 1217.1 2295
1342.25 1215.51 2292
1351.26 1218.69 2298
1356.75 1218.69 2298
1362.25 1218.69 2298
1364.17 1215.51 2292
1371.44 1217.1 2295
1378.73 1218.69 2298
1387.84 1221.87 2304
1393.35 1221.87 2304
1398.86 1221.87 2304
1406.2 1223.47 2307
1411.72 1223.47 2307
1417.23 1223.47 2307
1422.75 1223.47 2307
1432.6 1227.18 2314
1440 1228.77 2317
1449.28 1231.95 2323
1454.84 1231.95 2323
1460.39 1231.95 2323
1465.95 1231.95 2323
1471.5 1231.95 2323
1471.33 1227.18 2314
1480.7 1230.36 2320
1486.24 1230.36 2320
1491.79 1230.36 2320
1497.34 1230.36 2320
1500.94 1228.77 2317
1496.08 1220.28 2301
1501.58 1220.28 2301
1505.12 1218.69 2298
1510.62 1218.69 2298
1516.11 1218.69 2298
1523.59 1220.28 2301
1529.1 1220.28 2301
1534.6 1220.28 2301
1538.09 1218.69 2298
1543.59 1218.69 2298
1549.08 1218.69 2298
1552.55 1217.1 2295
1558.04 1217.1 2295
1558.76 1213.39 2288
1564.23 1213.39 2288
1569.7 1213.39 2288
1573.11 1211.8 2285
1574.42 1208.62 2279
1579.87 1208.62 2279
1579.06 1203.84 2270
1590.77 1208.62 2279
1596.22 1208.62 2279
1601.67 1208.62 2279
1622.64 1220.28 2301
1628.14 1220.28 2301
1633.64 1220.28 2301
1639.14 1220.28 2301
1644.65 1220.28 2301
1650.15 1220.28 2301
1649.18 1215.51 2292
1654.66 1215.51 2292
1660.14 1215.51 2292
1651.81 1205.43 2273
1657.25 1205.43 2273
1671.46 1211.8 2285
1676.92 1211.8 2285
1682.39 1211.8 2285
1683.42 1208.62 2279
1693.32 1211.8 2285
1706.21 1217.1 2295
1711.7 1217.1 2295
1717.19 1217.1 2295
1727.18 1220.28 2301
1732.68 1220.28 2301
1738.19 1220.28 2301
1743.69 1220.28 2301
1749.19 1220.28 2301
1754.69 1220.28 2301
1760.2 1220.28 2301
-1708.59 1215.67 2282
-1707.61 1218.87 2288
-1707.35 1222.6 2295
-1701.86 1222.6 2295
-1696.37 1222.6 2295
-1695.3 1225.8 2301
-1689.8 1225.8 2301
-1684.3 1225.8 2301
-1674.42 1222.6 2295
-1668.93 1222.6 2295
-1665.62 1224.2 2298
-1662.29 1225.8 2301
-1656.79 1225.8 2301
-1662.77 1234.32 2317
-1657.23 1234.32 2317
-1651.68 1234.32 2317
-1646.14 1234.32 2317
-1633.52 1228.99 2307
-1686.58 1273.21 2390
-1680.86 1273.21 2390
-1675.15 1273.21 2390
-1669.43 1273.21 2390
-1597.59 1222.6 2295
-1594.18 1224.2 2298
-1588.68 1224.2 2298
-1585.26 1225.8 2301
-1581.81 1227.39 2304
-1581.09 1231.12 2311
-1575.57 1231.12 2311
-1574.12 1234.32 2317
-1570.61 1235.92 2320
-1565.06 1235.92 2320
-1559.51 1235.92 2320
-1555.97 1237.52 2323
-1550.42 1237.52 2323
-1547.52 1239.65 2327
-1541.96 1239.65 2327
-1536.39 1239.65 2327
-1537.41 1244.97 2337
-1535.75 1248.17 2343
-1530.15 1248.17 2343
-1524.55 1248.17 2343
-1520.89 1249.77 2346
-1515.28 1249.77 2346
-1509.67 1249.77 2346
-1504.06 1249.77 2346
-1496.53 1248.17 2343
-1490.93 1248.17 2343
-1485.33 1248.17 2343
-1481.62 1249.77 2346
-1476.01 1249.77 2346
-1470.4 1249.77 2346
-1464.79 1249.77 2346
-1457.31 1248.17 2343
-1445.51 1242.84 2333
-1439.93 1242.84 2333
-1432.51 1241.24 2330
-1418.98 1234.32 2317
-1409.78 1231.12 2311
-1400 1227.39 2304
-1394.49 1227.39 2304
-1385.36 1224.2 2298
-1372.06 1217.27 2285
-1361.21 1212.48 2276
-1355.77 1212.48 2276
-1346.77 1209.28 2270
-1341.34 1209.28 2270
-1335.91 1209.28 2270
-1330.48 1209.28 2270
-1323.3 1207.68 2267
-1308.58 1199.16 2251
-1297.99 1194.36 2242
-1292.63 1194.36 2242
-1278.65 1186.37 2227
-1263.61 1177.32 2210
-1260.03 1178.92 2213
-1260.98 1184.78 2224
-1255.66 1184.78 2224
-1265.52 1199.16 2251
-1270.77 1209.28 2270
-1265.34 1209.28 2270
-1259.92 1209.28 2270
-1254.49 1209.28 2270
-1247.41 1207.68 2267
-1241.99 1207.68 2267
-1231.11 1202.36 2257
-1224.09 1200.76 2254
-1218.7 1200.76 2254
-1213.31 1200.76 2254
-1207.92 1200.76 2254
-1206.26 1204.49 2261
-1202.45 1206.08 2264
-1206.55 1215.67 2282
-1201.09 1215.67 2282
-1202.45 1222.6 2295
-1198.52 1224.2 2298
-1196.14 1227.39 2304
-1190.63 1227.39 2304
-1186.67 1228.99 2307
-1183.2 1231.12 2311
-1177.67 1231.12 2311
-1172.15 1231.12 2311
-1166.62 1231.12 2311
-1162.6 1232.72 2314
-1158.57 1234.32 2317
-1153.03 1234.32 2317
-1152.44 1239.65 2327
-1148.35 1241.24 2330
-1146.21 1244.97 2337
-1140.63 1244.97 2337
-1135.04 1244.97 2337
-1129.45 1244.97 2337
-1130.11 1251.9 2350
-1124.49 1251.9 2350
-1121.73 1255.1 2356
-1116.1 1255.1 2356
-1110.46 1255.1 2356
-1100.14 1249.77 2346
-1087.06 1241.24 2330
-1080.1 1239.65 2327
-1071.3 1235.92 2320
-1065.75 1235.92 2320
-1054.27 1228.99 2307
-1046.02 1225.8 2301
-1037.81 1222.6 2295
-1032.32 1222.6 2295
-1019.67 1214.08 2279
-1014.22 1214.08 2279
-1007.44 1212.48 2276
-1003.32 1214.08 2279
-997.872 1214.08 2279
-993.728 1215.67 2282
-989.571 1217.27 2285
-984.107 1217.27 2285
-978.642 1217.27 2285
-973.178 1217.27 2285
-965.173 1214.08 2279
-959.723 1214.08 2279
-954.274 1214.08 2279
-948.824 1214.08 2279
-943.374 1214.08 2279
-937.924 1214.08 2279
-932.474 1214.08 2279
-927.025 1214.08 2279
-921.575 1214.08 2279
-917.331 1215.67 2282
-911.874 1215.67 2282
-907.609 1217.27 2285
-902.145 1217.27 2285
-896.681 1217.27 2285
-891.216 1217.27 2285
-884.589 1215.67 2282
-879.132 1215.67 2282
-875.973 1218.87 2288
-870.501 1218.87 2288
-865.03 1218.87 2288
-861.061 1221 2292
-855.581 1221 2292
-850.1 1221 2292
-844.619 1221 2292
-839.138 1221 2292
-835.839 1224.2 2298
-830.344 1224.2 2298
-824.849 1224.2 2298
-820.423 1225.8 2301
-818.463 1231.12 2311
-813.992 1232.72 2314
-808.458 1232.72 2314
-803.966 1234.32 2317
-798.425 1234.32 2317
-792.884 1234.32 2317
-787.344 1234.32 2317
-781.803 1234.32 2317
-777.268 1235.92 2320
-772.718 1237.52 2323
-767.163 1237.52 2323
-762.919 1239.65 2327
-757.354 1239.65 2327
-752.759 1241.24 2330
-747.187 1241.24 2330
-742.57 1242.84 2333
-738.255 1244.97 2337
-733.607 1246.57 2340
-728.012 1246.57 2340
-725.503 1251.9 2350
-722.947 1257.23 2360
-719.127 1260.42 2366
-713.469 1260.42 2366
-707.811 1260.42 2366
-517.691 944.518 1773
-520.111 956.771 1796
-515.817 956.771 1796
-511.522 956.771 1796
-504.403 951.443 1786
-498.452 948.247 1780
-494.195 948.247 1780
-488.012 944.518 1773
-481.044 939.191 1763
-476.828 939.191 1763
-472.612 939.191 1763
-466.005 934.396 1754
-460.494 931.732 1749
-455.79 930.667 1747
-451.612 930.667 1747
-446.923 929.602 1745
-442.242 928.536 1743
-436.315 924.807 1736
-432.164 924.807 1736
-427.519 923.742 1734
-422.64 922.143 1731
-418.501 922.143 1731
-412.925 918.947 1725
-408.8 918.947 1725
-404.206 917.882 1723
-400.086 917.882 1723
-395.276 916.284 1720
-391.163 916.284 1720
-385.925 913.62 1715
-381.824 913.62 1715
-376.842 911.489 1711
-372.75 911.489 1711
-368.228 910.424 1709
-363.928 909.891 1708
-359.422 908.825 1706
-355.343 908.825 1706
-350.851 907.76 1704
-346.37 906.695 1702
-342.3 906.695 1702
-338.23 906.695 1702
-333.963 906.162 1701
-329.896 906.162 1701
-325.445 905.096 1699
-321.382 905.096 1699
-317.319 905.096 1699
-313.257 905.096 1699
-309.194 905.096 1699
-305.131 905.096 1699
-301.422 906.162 1701
-297.355 906.162 1701
-293.805 907.76 1704
-290.07 908.825 1706
-286.828 911.489 1711
-282.737 911.489 1711
-279.297 913.62 1715
-276.479 917.882 1723
-272.991 920.013 1727
-268.862 920.013 1727
-265.805 923.742 1734
-262.715 927.471 1741
-259.443 930.667 1747
-255.265 930.667 1747
-252.093 934.396 1754
-249.171 939.191 1763
-245.789 942.387 1769
-241.559 942.387 1769
-238.133 945.583 1775
-235.602 952.509 1788
-231.585 953.574 1790
-227.304 953.574 1790
-224.021 957.836 1798
-220.577 961.565 1805
-216.5 962.63 1807
-212.179 962.63 1807
-208.318 964.761 1811
-204.663 967.958 1817
-200.539 969.023 1819
-196.189 969.023 1819
-192.05 970.089 1821
-187.695 970.089 1821
-183.341 970.089 1821
-178.986 970.089 1821
-174.632 970.089 1821
-170.464 971.154 1823
-166.287 972.219 1825
-161.923 972.219 1825
-157.559 972.219 1825
-153.195 972.219 1825
-148.994 973.285 1827
-144.625 973.285 1827
-140.256 973.285 1827
-135.441 970.089 1821
-131.086 970.089 1821
-132.625 1225.8 2301
-127.123 1225.8 2301
-122.149 1231.12 2311
-116.925 1234.32 2317
-111.384 1234.32 2317
-105.844 1234.32 2317
-100.303 1234.32 2317
-94.6399 1232.72 2314
-89.4529 1237.52 2323
-83.8979 1237.52 2323
-78.8151 1244.97 2337
-73.2266 1244.97 2337
-68.1012 1253.5 2353
-62.4745 1253.5 2353
-56.8478 1253.5 2353
-51.221 1253.5 2353
-45.5943 1253.5 2353
-39.9675 1253.5 2353
-34.2387 1249.77 2346
-28.6287 1249.77 2346
-23.0187 1249.77 2346
-17.3864 1248.17 2343
-11.7534 1244.97 2337
-6.16492 1244.97 2337
-0.576448 1244.97 2337
5.01203 1244.97 2337
10.6005 1244.97 2337
16.189 1244.97 2337
21.7775 1244.97 2337
27.3659 1244.97 2337
32.8557 1241.24 2330
38.4274 1241.24 2330
43.867 1237.52 2323
49.422 1237.52 2323
54.5983 1228.99 2307
60.1151 1228.99 2307
65.5464 1227.39 2304
71.056 1227.39 2304
76.4659 1225.8 2301
82.182 1228.99 2307
87.8508 1231.12 2311
93.6195 1234.32 2317
99.1602 1234.32 2317
104.701 1234.32 2317
110.241 1234.32 2317
115.782 1234.32 2317
121.009 1231.12 2311
126.316 1228.99 2307
131.661 1227.39 2304
136.814 1224.2 2298
142.309 1224.2 2298
147.804 1224.2 2298
153.299 1224.2 2298
158.794 1224.2 2298
164.29 1224.2 2298
169.785 1224.2 2298
175.051 1222.6 2295
180.539 1222.6 2295
186.757 1227.39 2304
192.266 1227.39 2304
197.776 1227.39 2304
203.285 1227.39 2304
208.795 1227.39 2304
214.305 1227.39 2304
218.956 1222.6 2295
224.444 1222.6 2295
230.533 1225.8 2301
236.035 1225.8 2301
241.538 1225.8 2301
247.04 1225.8 2301
252.542 1225.8 2301
258.045 1225.8 2301
263.547 1225.8 2301
269.049 1225.8 2301
274.91 1227.39 2304
280.419 1227.39 2304
285.929 1227.39 2304
291.818 1228.99 2307
297.335 1228.99 2307
303.77 1232.72 2314
309.304 1232.72 2314
314.837 1232.72 2314
320.371 1232.72 2314
326.327 1234.32 2317
331.867 1234.32 2317
337.845 1235.92 2320
343.837 1237.52 2323
349.392 1237.52 2323
354.947 1237.52 2323
360.502 1237.52 2323
365.584 1235.92 2320
371.612 1237.52 2323
377.167 1237.52 2323
383.875 1241.24 2330
389.447 1241.24 2330
395.527 1242.84 2333
401.106 1242.84 2333
406.685 1242.84 2333
413.501 1246.57 2340
419.096 1246.57 2340
424.692 1246.57 2340
429.736 1244.97 2337
436.442 1248.17 2343
442.611 1249.77 2346
448.221 1249.77 2346
453.831 1249.77 2346
459.441 1249.77 2346
465.051 1249.77 2346
470.661 1249.77 2346
476.271 1249.77 2346
481.881 1249.77 2346
488.946 1253.5 2353
496.044 1257.23 2360
501.687 1257.23 2360
507.331 1257.23 2360
512.974 1257.23 2360
518.618 1257.23 2360
520.485 1248.17 2343
525.414 1246.57 2340
531.009 1246.57 2340
536.605 1246.57 2340
542.201 1246.57 2340
547.796 1246.57 2340
553.392 1246.57 2340
558.988 1246.57 2340
563.86 1244.97 2337
567.742 1241.24 2330
568.639 1231.12 2311
574.165 1231.12 2311
579.692 1231.12 2311
585.218 1231.12 2311
589.722 1228.99 2307
593.69 1225.8 2301
599.193 1225.8 2301
603.118 1222.6 2295
608.606 1222.6 2295
615.7 1225.8 2301
622.822 1228.99 2307
628.339 1228.99 2307
633.856 1228.99 2307
639.372 1228.99 2307
644.889 1228.99 2307
650.406 1228.99 2307
655.07 1227.39 2304
660.579 1227.39 2304
666.089 1227.39 2304
669.849 1224.2 2298
675.345 1224.2 2298
684.691 1231.12 2311
690.218 1231.12 2311
695.744 1231.12 2311
701.27 1231.12 2311
706.797 1231.12 2311
714.172 1234.32 2317
722.819 1239.65 2327
728.384 1239.65 2327
733.948 1239.65 2327
739.513 1239.65 2327
745.077 1239.65 2327
749.352 1237.52 2323
754.907 1237.52 2323
762.753 1241.24 2330
768.325 1241.24 2330
773.897 1241.24 2330
779.468 1241.24 2330
781.671 1235.92 2320
787.219 1235.92 2320
792.766 1235.92 2320
798.314 1235.92 2320
808.367 1242.84 2333
813.945 1242.84 2333
819.524 1242.84 2333
825.103 1242.84 2333
826.053 1235.92 2320
829.451 1232.72 2314
834.984 1232.72 2314
835.795 1225.8 2301
839.104 1222.6 2295
845.696 1224.2 2298
851.191 1224.2 2298
856.687 1224.2 2298
863.307 1225.8 2301
868.81 1225.8 2301
874.312 1225.8 2301
878.667 1224.2 2298
883.008 1222.6 2295
887.335 1221 2292
892.816 1221 2292
896.729 1218.87 2288
902.2 1218.87 2288
907.672 1218.87 2288
913.143 1218.87 2288
918.614 1218.87 2288
924.086 1218.87 2288
931.182 1221 2292
940.341 1225.8 2301
947.076 1227.39 2304
952.586 1227.39 2304
958.096 1227.39 2304
963.605 1227.39 2304
969.115 1227.39 2304
974.624 1227.39 2304
978.858 1225.8 2301
980.51 1221 2292
985.991 1221 2292
991.471 1221 2292
998.257 1222.6 2295
1003.75 1222.6 2295
1009.23 1222.6 2295
1014.72 1222.6 2295
1017.1 1218.87 2288
1021.23 1217.27 2285
1024 1214.08 2279
1029.45 1214.08 2279
1034.9 1214.08 2279
1041.72 1215.67 2282
1049.93 1218.87 2288
1055.4 1218.87 2288
1060.87 1218.87 2288
1064.94 1217.27 2285
1069 1215.67 2282
1074.46 1215.67 2282
1075.65 1210.88 2273
1081.09 1210.88 2273
1086.53 1210.88 2273
1091.96 1210.88 2273
1095.95 1209.28 2270
1098.47 1206.08 2264
1093.15 1194.36 2242
1097.04 1192.77 2239
1102.4 1192.77 2239
1106.27 1191.17 2236
1110.12 1189.57 2233
1124.45 1199.16 2251
1137.87 1207.68 2267
1143.29 1207.68 2267
1148.71 1207.68 2267
1147.51 1200.76 2254
1152.9 1200.76 2254
1158.29 1200.76 2254
1167.3 1204.49 2261
1175.82 1207.68 2267
1185.93 1212.48 2276
1191.37 1212.48 2276
1206.8 1222.6 2295
1212.29 1222.6 2295
1217.78 1222.6 2295
1226.47 1225.8 2301
1231.97 1225.8 2301
1239.08 1227.39 2304
1244.59 1227.39 2304
1250.1 1227.39 2304
1255.61 1227.39 2304
1257.84 1224.2 2298
1263.33 1224.2 2298
1268.83 1224.2 2298
1272.66 1222.6 2295
1270.91 1215.67 2282
1283.64 1222.6 2295
1294.18 1227.39 2304
1299.69 1227.39 2304
1319.93 1241.24 2330
1325.5 1241.24 2330
1331.07 1241.24 2330
1336.64 1241.24 2330
1323.78 1224.2 2298
1329.28 1224.2 2298
1334.77 1224.2 2298
1338.52 1222.6 2295
1342.25 1221 2292
1351.26 1224.2 2298
1356.75 1224.2 2298
1362.25 1224.2 2298
1364.17 1221 2292
1365.47 1217.27 2285
1376.93 1222.6 2295
1386.03 1225.8 2301
1391.54 1225.8 2301
1397.04 1225.8 2301
1404.37 1227.39 2304
1409.88 1227.39 2304
1415.39 1227.39 2304
1420.9 1227.39 2304
1428.27 1228.99 2307
1438.13 1232.72 2314
1447.41 1235.92 2320
1452.96 1235.92 2320
1458.51 1235.92 2320
1460.27 1232.72 2314
1465.8 1232.72 2314
1471.33 1232.72 2314
1480.7 1235.92 2320
1486.24 1235.92 2320
1491.79 1235.92 2320
1497.34 1235.92 2320
1500.94 1234.32 2317
1496.08 1225.8 2301
1501.58 1225.8 2301
1505.12 1224.2 2298
1510.62 1224.2 2298
1516.11 1224.2 2298
1523.59 1225.8 2301
1529.1 1225.8 2301
1534.6 1225.8 2301
1538.09 1224.2 2298
1543.59 1224.2 2298
1549.08 1224.2 2298
1552.55 1222.6 2295
1558.04 1222.6 2295
1558.76 1218.87 2288
1564.23 1218.87 2288
1567.64 1217.27 2285
1564.84 1210.88 2273
1561.99 1204.49 2261
1567.4 1204.49 2261
1570.02 1202.36 2257
1582.4 1207.68 2267
1587.82 1207.68 2267
1593.24 1207.68 2267
1596.55 1206.08 2264
1601.96 1206.08 2264
1618.02 1214.08 2279
1632.73 1221 2292
1638.21 1221 2292
1643.69 1221 2292
1644.14 1217.27 2285
1643.11 1212.48 2276
1648.55 1212.48 2276
1651.81 1210.88 2273
1657.25 1210.88 2273
1671.46 1217.27 2285
1676.92 1217.27 2285
1682.39 1217.27 2285
1683.42 1214.08 2279
1693.32 1217.27 2285
1706.21 1222.6 2295
1711.7 1222.6 2295
1717.19 1222.6 2295
1727.18 1225.8 2301
1732.68 1225.8 2301
1738.19 1225.8 2301
1743.69 1225.8 2301
1749.19 1225.8 2301
1754.69 1225.8 2301
1760.2 1225.8 2301
-1708.59 1221.14 2282
-1707.61 1224.35 2288
-1707.35 1228.1 2295
-1701.86 1228.1 2295
-1696.37 1228.1 2295
-1695.3 1231.31 2301
-1689.8 1231.31 2301
-1684.3 1231.31 2301
-1674.42 1228.1 2295
-1668.93 1228.1 2295
-1665.62 1229.7 2298
-1662.29 1231.31 2301
-1656.79 1231.31 2301
-1662.77 1239.87 2317
-1657.23 1239.87 2317
-1651.68 1239.87 2317
-1646.14 1239.87 2317
-1633.52 1234.52 2307
-1686.58 1278.93 2390
-1680.86 1278.93 2390
-1675.15 1278.93 2390
-1669.43 1278.93 2390
-1597.59 1228.1 2295
-1594.18 1229.7 2298
-1588.68 1229.7 2298
-1585.26 1231.31 2301
-1581.81 1232.91 2304
-1576.3 1232.91 2304
-1570.79 1232.91 2304
-1565.28 1232.91 2304
-1564.51 1236.66 2311
-1558.99 1236.66 2311
-1553.46 1236.66 2311
-1551.95 1239.87 2317
-1546.41 1239.87 2317
-1540.87 1239.87 2317
-1535.33 1239.87 2317
-1531.77 1241.47 2320
-1528.2 1243.08 2323
-1527.23 1246.83 2330
-1521.66 1246.83 2330
-1520.64 1250.57 2337
-1515.05 1250.57 2337
-1511.4 1252.18 2340
-1505.81 1252.18 2340
-1500.21 1252.18 2340
-1494.62 1252.18 2340
-1490.93 1253.78 2343
-1485.33 1253.78 2343
-1481.62 1255.39 2346
-1476.01 1255.39 2346
-1470.4 1255.39 2346
-1464.79 1255.39 2346
-1457.31 1253.78 2343
-1445.51 1248.43 2333
-1439.93 1248.43 2333
-1432.51 1246.83 2330
-1418.98 1239.87 2317
-1409.78 1236.66 2311
-1400 1232.91 2304
-1394.49 1232.91 2304
-1385.36 1229.7 2298
-1376.26 1226.49 2292
-1366.6 1222.75 2285
-1361.13 1222.75 2285
-1355.67 1222.75 2285
-1344.89 1217.93 2276
-1339.44 1217.93 2276
-1334 1217.93 2276
-1323.3 1213.11 2267
-1312.07 1207.76 2257
-1297.99 1199.74 2242
-1292.63 1199.74 2242
-1283.82 1196.52 2236
-1261.89 1181.01 2207
-1254.91 1179.4 2204
-1254.74 1184.22 2213
-1249.45 1184.22 2213
-1260.46 1199.74 2242
-1260.14 1204.55 2251
-1256.43 1206.16 2254
-1251.04 1206.16 2254
-1245.65 1206.16 2254
-1240.26 1206.16 2254
-1234.87 1206.16 2254
-1222.93 1199.74 2242
-1217.57 1199.74 2242
-1215.45 1202.95 2248
-1210.08 1202.95 2248
-1204.7 1202.95 2248
-1196.12 1199.74 2242
-1200.85 1209.9 2261
-1201.79 1216.32 2273
-1196.36 1216.32 2273
-1197.21 1222.75 2285
-1196.96 1228.1 2295
-1193.03 1229.7 2298
-1187.53 1229.7 2298
-1185.12 1232.91 2304
-1179.61 1232.91 2304
-1174.11 1232.91 2304
-1168.6 1232.91 2304
-1164.6 1234.52 2307
-1161.09 1236.66 2311
-1157.07 1238.26 2314
-1151.53 1238.26 2314
-1147.49 1239.87 2317
-1144.9 1243.08 2323
-1139.35 1243.08 2323
-1133.79 1243.08 2323
-1128.24 1243.08 2323
-1129.45 1250.57 2337
-1125.3 1252.18 2340
-1119.71 1252.18 2340
-1116.97 1255.39 2346
-1111.36 1255.39 2346
-1105.75 1255.39 2346
-1092.64 1246.83 2330
-1082.4 1241.47 2320
-1075.46 1239.87 2317
-1067.15 1236.66 2311
-1061.62 1236.66 2311
-1054.27 1234.52 2307
-1043.29 1228.1 2295
-1030.57 1219.54 2279
-1025.12 1219.54 2279
-1015.64 1214.72 2270
-1010.22 1214.72 2270
-1004.79 1214.72 2270
-1002 1217.93 2276
-996.558 1217.93 2276
-992.422 1219.54 2279
-988.271 1221.14 2282
-982.815 1221.14 2282
-977.358 1221.14 2282
-970.623 1219.54 2279
-963.903 1217.93 2276
-958.46 1217.93 2276
-953.017 1217.93 2276
-947.575 1217.93 2276
-937.165 1211.51 2264
-931.751 1211.51 2264
-926.337 1211.51 2264
-923.364 1214.72 2270
-917.936 1214.72 2270
-912.507 1214.72 2270
-907.079 1214.72 2270
-905.226 1219.54 2279
-899.776 1219.54 2279
-894.326 1219.54 2279
-888.876 1219.54 2279
-882.264 1217.93 2276
-875.665 1216.32 2273
-871.378 1217.93 2276
-865.936 1217.93 2276
-861.627 1219.54 2279
-857.305 1221.14 2282
-852.968 1222.75 2285
-847.503 1222.75 2285
-844.619 1226.49 2292
-839.138 1226.49 2292
-835.839 1229.7 2298
-830.344 1229.7 2298
-824.849 1229.7 2298
-820.423 1231.31 2301
-817.046 1234.52 2307
-813.992 1238.26 2314
-808.458 1238.26 2314
-803.966 1239.87 2317
-798.425 1239.87 2317
-792.884 1239.87 2317
-787.344 1239.87 2317
-780.791 1238.26 2314
-777.268 1241.47 2320
-771.72 1241.47 2320
-766.172 1241.47 2320
-760.624 1241.47 2320
-756.053 1243.08 2323
-751.79 1245.22 2327
-746.225 1245.22 2327
-741.616 1246.83 2330
-736.044 1246.83 2330
-732.667 1250.57 2337
-727.078 1250.57 2337
-723.342 1253.78 2343
-719.884 1257.53 2350
-714.264 1257.53 2350
-708.645 1257.53 2350
-520.111 961.073 1796
-515.817 961.073 1796
-511.522 961.073 1796
-507.227 961.073 1796
-499.572 954.651 1784
-495.306 954.651 1784
-488.563 949.835 1775
-482.681 946.625 1769
-476.828 943.414 1763
-472.612 943.414 1763
-466.005 938.598 1754
-461.021 936.992 1751
-455.79 934.852 1747
-451.612 934.852 1747
-447.435 934.852 1747
-442.75 933.782 1745
-436.818 930.036 1738
-432.662 930.036 1738
-427.519 927.895 1734
-422.884 926.825 1732
-418.501 926.29 1731
-412.925 923.079 1725
-408.8 923.079 1725
-404.206 922.009 1723
-399.854 921.474 1722
-395.276 920.404 1720
-391.163 920.404 1720
-386.15 918.263 1716
-381.824 917.728 1715
-376.842 915.588 1711
-372.75 915.588 1711
-368.228 914.518 1709
-363.928 913.982 1708
-359.422 912.912 1706
-355.343 912.912 1706
-350.851 911.842 1704
-346.37 910.772 1702
-342.3 910.772 1702
-338.23 910.772 1702
-333.963 910.237 1701
-329.896 910.237 1701
-325.445 909.166 1699
-321.382 909.166 1699
-317.319 909.166 1699
-313.257 909.166 1699
-309.194 909.166 1699
-305.131 909.166 1699
-301.422 910.237 1701
-297.355 910.237 1701
-293.805 911.842 1704
-290.07 912.912 1706
-286.828 915.588 1711
-282.737 915.588 1711
-279.297 917.728 1715
-276.479 922.009 1723
-272.991 924.15 1727
-268.862 924.15 1727
-265.498 926.825 1732
-262.564 931.106 1740
-258.848 932.712 1743
-254.68 932.712 1743
-251.662 936.992 1751
-248.464 940.738 1758
-245.233 944.484 1765
-241.012 944.484 1765
-237.328 946.625 1769
-235.075 954.651 1784
-231.585 957.862 1790
-227.304 957.862 1790
-224.021 962.143 1798
-220.577 965.889 1805
-216.5 966.959 1807
-212.179 966.959 1807
-208.318 969.1 1811
-204.663 972.31 1817
-200.539 973.381 1819
-196.189 973.381 1819
-192.05 974.451 1821
-187.695 974.451 1821
-183.341 974.451 1821
-178.986 974.451 1821
-174.632 974.451 1821
-170.464 975.521 1823
-166.287 976.591 1825
-161.923 976.591 1825
-157.559 976.591 1825
-153.195 976.591 1825
-148.994 977.661 1827
-144.625 977.661 1827
-140.256 977.661 1827
-135.441 974.451 1821
-131.086 974.451 1821
-132.452 1229.7 2298
-126.957 1229.7 2298
-121.62 1231.31 2301
-116.269 1232.91 2304
-110.76 1232.91 2304
-105.25 1232.91 2304
-99.7404 1232.91 2304
-94.2309 1232.91 2304
-88.9909 1236.66 2311
-83.4646 1236.66 2311
-78.2418 1241.47 2320
-72.694 1241.47 2320
-67.3487 1245.22 2327
-61.7842 1245.22 2327
-56.2196 1245.22 2327
-50.655 1245.22 2327
-45.0905 1245.22 2327
-39.5259 1245.22 2327
-33.8154 1239.87 2317
-28.2382 1238.26 2314
-22.6752 1236.66 2311
-17.1489 1236.66 2311
-11.6025 1234.52 2307
-6.10425 1238.26 2314
-0.570775 1238.26 2314
4.9627 1238.26 2314
10.4962 1238.26 2314
16.0297 1238.26 2314
21.5631 1238.26 2314
27.0966 1238.26 2314
32.6301 1238.26 2314
38.1636 1238.26 2314
43.6404 1236.66 2311
49.1667 1236.66 2311
54.5983 1234.52 2307
60.1151 1234.52 2307
65.5464 1232.91 2304
71.056 1232.91 2304
76.4659 1231.31 2301
82.182 1234.52 2307
87.8508 1236.66 2311
93.6195 1239.87 2317
99.1602 1239.87 2317
104.701 1239.87 2317
110.241 1239.87 2317
115.782 1239.87 2317
121.009 1236.66 2311
126.316 1234.52 2307
131.661 1232.91 2304
136.814 1229.7 2298
142.309 1229.7 2298
147.804 1229.7 2298
153.299 1229.7 2298
158.794 1229.7 2298
164.29 1229.7 2298
169.785 1229.7 2298
175.051 1228.1 2295
180.539 1228.1 2295
186.757 1232.91 2304
192.266 1232.91 2304
197.776 1232.91 2304
203.285 1232.91 2304
208.795 1232.91 2304
214.305 1232.91 2304
218.956 1228.1 2295
224.444 1228.1 2295
230.533 1231.31 2301
236.035 1231.31 2301
241.538 1231.31 2301
247.04 1231.31 2301
252.542 1231.31 2301
258.045 1231.31 2301
263.547 1231.31 2301
269.049 1231.31 2301
274.91 1232.91 2304
280.419 1232.91 2304
285.929 1232.91 2304
291.818 1234.52 2307
297.335 1234.52 2307
303.77 1238.26 2314
309.304 1238.26 2314
314.837 1238.26 2314
320.371 1238.26 2314
326.327 1239.87 2317
331.867 1239.87 2317
337.845 1241.47 2320
343.837 1243.08 2323
349.392 1243.08 2323
354.947 1243.08 2323
360.502 1243.08 2323
365.584 1241.47 2320
371.612 1243.08 2323
377.167 1243.08 2323
383.875 1246.83 2330
389.447 1246.83 2330
395.527 1248.43 2333
401.106 1248.43 2333
406.685 1248.43 2333
413.501 1252.18 2340
419.096 1252.18 2340
424.692 1252.18 2340
429.736 1250.57 2337
436.442 1253.78 2343
442.611 1255.39 2346
448.221 1255.39 2346
453.831 1255.39 2346
459.441 1255.39 2346
465.051 1255.39 2346
470.661 1255.39 2346
476.271 1255.39 2346
481.881 1255.39 2346
488.946 1259.13 2353
496.044 1262.88 2360
501.687 1262.88 2360
507.331 1262.88 2360
512.974 1262.88 2360
518.618 1262.88 2360
520.485 1253.78 2343
525.414 1252.18 2340
531.009 1252.18 2340
536.605 1252.18 2340
542.201 1252.18 2340
547.796 1252.18 2340
553.392 1252.18 2340
558.988 1252.18 2340
563.86 1250.57 2337
567.742 1246.83 2330
566.917 1232.91 2304
570.935 1229.7 2298
576.431 1229.7 2298
581.926 1229.7 2298
587.421 1229.7 2298
591.368 1226.49 2292
596.849 1226.49 2292
602.33 1226.49 2292
608.606 1228.1 2295
614.897 1229.7 2298
622.822 1234.52 2307
628.339 1234.52 2307
633.856 1234.52 2307
639.372 1234.52 2307
644.889 1234.52 2307
650.406 1234.52 2307
655.07 1232.91 2304
659.719 1231.31 2301
665.221 1231.31 2301
668.975 1228.1 2295
673.581 1226.49 2292
680.84 1229.7 2298
686.335 1229.7 2298
691.83 1229.7 2298
697.325 1229.7 2298
702.821 1229.7 2298
709.241 1231.31 2301
717.849 1236.66 2311
723.375 1236.66 2311
728.902 1236.66 2311
734.428 1236.66 2311
739.954 1236.66 2311
745.481 1236.66 2311
751.007 1236.66 2311
757.515 1238.26 2314
764.038 1239.87 2317
769.579 1239.87 2317
775.119 1239.87 2317
779.649 1238.26 2314
785.183 1238.26 2314
792.766 1241.47 2320
798.314 1241.47 2320
806.288 1245.22 2327
811.852 1245.22 2327
817.417 1245.22 2327
822.981 1245.22 2327
826.053 1241.47 2320
828.375 1236.66 2311
833.901 1236.66 2311
833.616 1228.1 2295
838.007 1226.49 2292
844.592 1228.1 2295
850.08 1228.1 2295
855.568 1228.1 2295
861.056 1228.1 2295
866.544 1228.1 2295
872.032 1228.1 2295
871.403 1219.54 2279
876.852 1219.54 2279
882.302 1219.54 2279
887.752 1219.54 2279
893.202 1219.54 2279
897.469 1217.93 2276
902.911 1217.93 2276
908.354 1217.93 2276
916.205 1221.14 2282
921.662 1221.14 2282
927.119 1221.14 2282
935.028 1224.35 2288
942.144 1226.49 2292
947.625 1226.49 2292
955.601 1229.7 2298
961.096 1229.7 2298
966.591 1229.7 2298
972.086 1229.7 2298
976.305 1228.1 2295
977.515 1222.75 2285
982.979 1222.75 2285
987.146 1221.14 2282
995.213 1224.35 2288
1002.43 1226.49 2292
1007.91 1226.49 2292
1013.4 1226.49 2292
1017.1 1224.35 2288
1021.23 1222.75 2285
1022.65 1217.93 2276
1028.09 1217.93 2276
1032.17 1216.32 2273
1037.61 1216.32 2273
1045.8 1219.54 2279
1051.25 1219.54 2279
1056.7 1219.54 2279
1059.35 1216.32 2273
1064.78 1216.32 2273
1070.22 1216.32 2273
1072.82 1213.11 2267
1076.81 1211.51 2264
1080.79 1209.9 2261
1086.2 1209.9 2261
1088.22 1206.16 2254
1087.79 1199.74 2242
1084.38 1190.1 2224
1084.3 1184.22 2213
1089.6 1184.22 2213
1094.89 1184.22 2213
1101.17 1185.29 2215
1113.96 1193.31 2230
1125.32 1199.74 2242
1130.68 1199.74 2242
1136.04 1199.74 2242
1141.4 1199.74 2242
1146.77 1199.74 2242
1145.96 1193.31 2230
1155.94 1198.13 2239
1165.96 1202.95 2248
1179.67 1211.51 2264
1185.09 1211.51 2264
1193.66 1214.72 2270
1199.09 1214.72 2270
1210.88 1221.14 2282
1219.54 1224.35 2288
1225.01 1224.35 2288
1230.48 1224.35 2288
1235.95 1224.35 2288
1241.42 1224.35 2288
1246.89 1224.35 2288
1254.55 1226.49 2292
1260.03 1226.49 2292
1265.51 1226.49 2292
1267.11 1222.75 2285
1262.55 1213.11 2267
1278.04 1222.75 2285
1294.18 1232.91 2304
1299.69 1232.91 2304
1319.93 1246.83 2330
1325.5 1246.83 2330
1331.07 1246.83 2330
1336.64 1246.83 2330
1323.78 1229.7 2298
1329.28 1229.7 2298
1334.77 1229.7 2298
1338.52 1228.1 2295
1342.25 1226.49 2292
1347.73 1226.49 2292
1349.08 1222.75 2285
1354.54 1222.75 2285
1358.22 1221.14 2282
1360.09 1217.93 2276
1365.53 1217.93 2276
1376.4 1222.75 2285
1381.86 1222.75 2285
1387.32 1222.75 2285
1392.79 1222.75 2285
1398.25 1222.75 2285
1403.72 1222.75 2285
1407.33 1221.14 2282
1412.79 1221.14 2282
1428.19 1229.7 2298
1439.3 1234.52 2307
1444.82 1234.52 2307
1450.33 1234.52 2307
1458.37 1236.66 2311
1465.8 1238.26 2314
1471.33 1238.26 2314
1478.78 1239.87 2317
1484.32 1239.87 2317
1489.86 1239.87 2317
1495.4 1239.87 2317
1494.47 1234.52 2307
1496.08 1231.31 2301
1501.58 1231.31 2301
1503.16 1228.1 2295
1508.65 1228.1 2295
1514.13 1228.1 2295
1521.61 1229.7 2298
1527.1 1229.7 2298
1532.6 1229.7 2298
1536.09 1228.1 2295
1539.56 1226.49 2292
1545.04 1226.49 2292
1547.81 1224.35 2288
1551.25 1222.75 2285
1554.67 1221.14 2282
1560.13 1221.14 2282
1559.41 1216.32 2273
1562.78 1214.72 2270
1559.23 1207.76 2257
1564.62 1207.76 2257
1535.24 1181.01 2207
1530.05 1172.98 2192
1529.68 1168.7 2184
1534.91 1168.7 2184
1547.89 1174.59 2195
1553.14 1174.59 2195
1558.38 1174.59 2195
1574.32 1182.61 2210
1589.61 1190.1 2224
1594.93 1190.1 2224
1604.56 1193.31 2230
1609.9 1193.31 2230
1615.23 1193.31 2230
1620.56 1193.31 2230
1643.39 1206.16 2254
1648.78 1206.16 2254
1654.17 1206.16 2254
1659.56 1206.16 2254
1658.31 1201.34 2245
1684.42 1216.32 2273
1696.55 1221.14 2282
1702.01 1221.14 2282
1707.46 1221.14 2282
1717.42 1224.35 2288
1722.9 1224.35 2288
1738.19 1231.31 2301
1743.69 1231.31 2301
1749.19 1231.31 2301
1752.41 1229.7 2298
1757.9 1229.7 2298
-1701.85 1221.77 2273
-1703.13 1226.61 2282
-1707.35 1233.59 2295
-1701.86 1233.59 2295
-1696.37 1233.59 2295
-1690.88 1233.59 2295
-1685.39 1233.59 2295
-1679.91 1233.59 2295
-1667.12 1228.22 2285
-1661.66 1228.22 2285
-1658.37 1229.83 2288
-1652.9 1229.83 2288
-1647.43 1229.83 2288
-1655.59 1240.04 2307
-1657.23 1245.42 2317
-1651.68 1245.42 2317
-1646.14 1245.42 2317
-1633.52 1240.04 2307
-1679.52 1279.28 2380
-1673.83 1279.28 2380
-1668.14 1279.28 2380
-1662.45 1279.28 2380
-1597.59 1233.59 2295
-1592.1 1233.59 2295
-1586.61 1233.59 2295
-1568.03 1223.38 2276
-1577.69 1235.21 2298
-1574.25 1236.82 2301
-1568.75 1236.82 2301
-1565.28 1238.43 2304
-1564.51 1242.19 2311
-1558.99 1242.19 2311
-1553.46 1242.19 2311
-1551.95 1245.42 2317
-1546.41 1245.42 2317
-1540.87 1245.42 2317
-1535.33 1245.42 2317
-1531.77 1247.03 2320
-1528.2 1248.65 2323
-1527.23 1252.41 2330
-1521.66 1252.41 2330
-1520.64 1256.17 2337
-1515.05 1256.17 2337
-1511.4 1257.78 2340
-1505.81 1257.78 2340
-1500.21 1257.78 2340
-1494.62 1257.78 2340
-1490.93 1259.4 2343
-1485.33 1259.4 2343
-1481.62 1261.01 2346
-1476.01 1261.01 2346
-1470.4 1261.01 2346
-1464.79 1261.01 2346
-1457.31 1259.4 2343
-1445.51 1254.02 2333
-1439.93 1254.02 2333
-1432.51 1252.41 2330
-1418.98 1245.42 2317
-1411.61 1243.81 2314
-1400 1238.43 2304
-1394.49 1238.43 2304
-1385.36 1235.21 2298
-1376.26 1231.98 2292
-1366.6 1228.22 2285
-1361.13 1228.22 2285
-1355.67 1228.22 2285
-1344.89 1223.38 2276
-1339.44 1223.38 2276
-1334 1223.38 2276
-1323.3 1218.54 2267
-1312.07 1213.17 2257
-1297.99 1205.11 2242
-1292.63 1205.11 2242
-1283.82 1201.88 2236
-1261.89 1186.29 2207
-1254.91 1184.68 2204
-1254.74 1189.52 2213
-1249.45 1189.52 2213
-1260.46 1205.11 2242
-1260.14 1209.94 2251
-1256.43 1211.56 2254
-1251.04 1211.56 2254
-1245.65 1211.56 2254
-1240.26 1211.56 2254
-1234.87 1211.56 2254
-1222.93 1205.11 2242
-1217.57 1205.11 2242
-1215.45 1208.33 2248
-1210.08 1208.33 2248
-1204.7 1208.33 2248
-1196.12 1205.11 2242
-1200.85 1215.32 2261
-1201.79 1221.77 2273
-1196.36 1221.77 2273
-1197.21 1228.22 2285
-1196.96 1233.59 2295
-1193.03 1235.21 2298
-1187.53 1235.21 2298
-1185.12 1238.43 2304
-1179.61 1238.43 2304
-1174.11 1238.43 2304
-1168.6 1238.43 2304
-1164.6 1240.04 2307
-1161.09 1242.19 2311
-1157.07 1243.81 2314
-1151.53 1243.81 2314
-1147.49 1245.42 2317
-1144.9 1248.65 2323
-1139.35 1248.65 2323
-1133.79 1248.65 2323
-1128.24 1248.65 2323
-1129.45 1256.17 2337
-1125.3 1257.78 2340
-1119.71 1257.78 2340
-1116.97 1261.01 2346
-1111.36 1261.01 2346
-1105.75 1261.01 2346
-1092.64 1252.41 2330
-1082.4 1247.03 2320
-1075.46 1245.42 2317
-1067.15 1242.19 2311
-1061.62 1242.19 2311
-1054.27 1240.04 2307
-1043.29 1233.59 2295
-1022.43 1215.32 2261
-1017.02 1215.32 2261
-1009.83 1213.17 2257
-995.085 1201.88 2236
-991.066 1203.49 2239
-985.712 1203.49 2239
-980.358 1203.49 2239
-978.923 1208.33 2248
-974.846 1209.94 2251
-969.463 1209.94 2251
-964.081 1209.94 2251
-958.698 1209.94 2251
-954.585 1211.56 2254
-949.195 1211.56 2254
-943.805 1211.56 2254
-938.415 1211.56 2254
-925.575 1201.88 2236
-920.228 1201.88 2236
-914.881 1201.88 2236
-909.534 1201.88 2236
-910.252 1209.94 2251
-906.076 1211.56 2254
-900.685 1211.56 2254
-900.459 1218.54 2267
-895.038 1218.54 2267
-889.617 1218.54 2267
-884.196 1218.54 2267
-877.612 1216.93 2264
-872.198 1216.93 2264
-869.081 1220.16 2270
-863.653 1220.16 2270
-860.493 1223.38 2276
-856.178 1224.99 2279
-850.728 1224.99 2279
-847.503 1228.22 2285
-842.039 1228.22 2285
-839.138 1231.98 2292
-834.748 1233.59 2295
-830.344 1235.21 2298
-824.849 1235.21 2298
-819.354 1235.21 2298
-815.984 1238.43 2304
-812.936 1242.19 2311
-807.41 1242.19 2311
-802.925 1243.81 2314
-797.391 1243.81 2314
-791.858 1243.81 2314
-786.324 1243.81 2314
-779.779 1242.19 2311
-775.257 1243.81 2314
-770.722 1245.42 2317
-765.181 1245.42 2317
-759.64 1245.42 2317
-754.1 1245.42 2317
-749.528 1247.03 2320
-743.981 1247.03 2320
-739.388 1248.65 2323
-733.833 1248.65 2323
-730.472 1252.41 2330
-724.9 1252.41 2330
-721.49 1256.17 2337
-716.82 1257.78 2340
-711.225 1257.78 2340
-705.629 1257.78 2340
-524.406 965.375 1796
-520.111 965.375 1796
-515.817 965.375 1796
-511.522 965.375 1796
-507.227 965.375 1796
-500.132 960 1786
-495.861 960 1786
-488.563 954.087 1775
-482.681 950.862 1769
-476.828 947.637 1763
-472.612 947.637 1763
-466.536 943.875 1756
-461.021 941.187 1751
-455.79 939.037 1747
-451.612 939.037 1747
-447.435 939.037 1747
-442.75 937.962 1745
-436.818 934.199 1738
-432.662 934.199 1738
-428.012 933.124 1736
-423.373 932.049 1734
-418.743 930.974 1732
-413.883 929.362 1729
-409.748 929.362 1729
-404.675 927.212 1725
-400.086 926.137 1723
-395.736 925.599 1722
-391.618 925.599 1722
-386.6 923.449 1718
-381.824 921.837 1715
-377.723 921.837 1715
-373.622 921.837 1715
-368.659 919.686 1711
-364.141 918.611 1709
-359.844 918.074 1708
-355.759 918.074 1708
-350.851 915.924 1704
-346.37 914.849 1702
-342.3 914.849 1702
-338.23 914.849 1702
-334.16 914.849 1702
-329.896 914.311 1701
-325.828 914.311 1701
-321.76 914.311 1701
-317.319 913.236 1699
-313.257 913.236 1699
-309.194 913.236 1699
-305.49 914.311 1701
-301.422 914.311 1701
-297.355 914.311 1701
-293.805 915.924 1704
-290.07 916.999 1706
-286.828 919.686 1711
-282.737 919.686 1711
-279.297 921.837 1715
-276.319 925.599 1722
-272.675 927.212 1725
-268.55 927.212 1725
-265.345 930.437 1731
-262.564 935.274 1740
-259.146 937.962 1745
-254.973 937.962 1745
-251.662 941.187 1751
-249.03 947.1 1762
-245.511 949.787 1767
-241.286 949.787 1767
-237.865 953.012 1773
-235.338 960 1786
-231.844 963.225 1792
-227.558 963.225 1792
-224.27 967.525 1800
-220.577 970.213 1805
-216.5 971.288 1807
-212.179 971.288 1807
-208.778 975.588 1815
-204.888 977.738 1819
-200.759 978.813 1821
-196.404 978.813 1821
-192.261 979.888 1823
-187.902 979.888 1823
-183.542 979.888 1823
-178.986 978.813 1821
-174.632 978.813 1821
-170.651 980.963 1825
-166.287 980.963 1825
-161.923 980.963 1825
-157.731 982.038 1827
-153.363 982.038 1827
-149.157 983.113 1829
-144.783 983.113 1829
-140.409 983.113 1829
-135.887 982.038 1827
-131.518 982.038 1827
-132.279 1233.59 2295
-126.791 1233.59 2295
-121.303 1233.59 2295
-116.118 1236.82 2301
-110.76 1238.43 2304
-105.25 1238.43 2304
-99.7404 1238.43 2304
-93.9855 1235.21 2298
-88.6058 1236.82 2301
-83.1034 1236.82 2301
-77.9383 1242.19 2311
-72.412 1242.19 2311
-67.1461 1247.03 2320
-61.5983 1247.03 2320
-56.123 1248.65 2323
-50.568 1248.65 2323
-45.013 1248.65 2323
-39.3561 1245.42 2317
-33.7716 1243.81 2314
-28.2015 1242.19 2311
-22.5771 1236.82 2301
-17.0747 1236.82 2301
-11.5723 1236.82 2301
-6.07787 1238.43 2304
-0.569048 1240.04 2307
4.94769 1240.04 2307
10.4644 1240.04 2307
16.0089 1242.19 2311
21.5352 1242.19 2311
27.0615 1242.19 2311
32.5878 1242.19 2311
38.0481 1240.04 2307
43.5648 1240.04 2307
49.0816 1240.04 2307
54.5273 1238.43 2304
59.9587 1236.82 2301
65.3757 1235.21 2298
70.871 1235.21 2298
76.2665 1233.59 2295
81.8614 1235.21 2298
87.6987 1240.04 2307
93.3771 1242.19 2311
98.9034 1242.19 2311
104.43 1242.19 2311
109.956 1242.19 2311
115.482 1242.19 2311
120.799 1240.04 2307
125.823 1235.21 2298
131.318 1235.21 2298
136.456 1231.98 2292
141.937 1231.98 2292
147.161 1229.83 2288
152.632 1229.83 2288
158.103 1229.83 2288
163.575 1229.83 2288
169.046 1229.83 2288
174.06 1226.61 2282
179.517 1226.61 2282
186.027 1233.59 2295
191.515 1233.59 2295
197.003 1233.59 2295
201.874 1229.83 2288
207.345 1229.83 2288
212.816 1229.83 2288
218.669 1231.98 2292
224.444 1233.59 2295
229.932 1233.59 2295
235.42 1233.59 2295
241.223 1235.21 2298
246.718 1235.21 2298
252.213 1235.21 2298
257.708 1235.21 2298
263.203 1235.21 2298
268.699 1235.21 2298
274.194 1235.21 2298
279.689 1235.21 2298
285.184 1235.21 2298
291.439 1238.43 2304
297.335 1240.04 2307
302.851 1240.04 2307
308.368 1240.04 2307
313.885 1240.04 2307
319.402 1240.04 2307
325.482 1242.19 2311
331.008 1242.19 2311
337.408 1245.42 2317
342.949 1245.42 2317
348.489 1245.42 2317
354.03 1245.42 2317
359.571 1245.42 2317
364.639 1243.81 2314
370.652 1245.42 2317
376.193 1245.42 2317
382.722 1248.65 2323
388.277 1248.65 2323
394.51 1250.8 2327
400.074 1250.8 2327
405.639 1250.8 2327
412.264 1254.02 2333
417.843 1254.02 2333
423.422 1254.02 2333
427.897 1250.8 2327
434.58 1254.02 2333
441.479 1257.78 2340
447.075 1257.78 2340
452.67 1257.78 2340
458.266 1257.78 2340
463.862 1257.78 2340
469.457 1257.78 2340
475.053 1257.78 2340
480.032 1256.17 2337
487.491 1261.01 2346
493.101 1261.01 2346
498.711 1261.01 2346
504.321 1261.01 2346
506.453 1252.41 2330
512.025 1252.41 2330
516.93 1250.8 2327
520.923 1247.03 2320
528.059 1250.8 2327
534.312 1252.41 2330
539.884 1252.41 2330
545.455 1252.41 2330
551.027 1252.41 2330
556.599 1252.41 2330
562.171 1252.41 2330
565.306 1247.03 2320
566.917 1238.43 2304
570.935 1235.21 2298
576.431 1235.21 2298
581.926 1235.21 2298
587.421 1235.21 2298
591.368 1231.98 2292
596.849 1231.98 2292
602.33 1231.98 2292
608.606 1233.59 2295
614.897 1235.21 2298
622.822 1240.04 2307
628.339 1240.04 2307
633.856 1240.04 2307
639.372 1240.04 2307
644.889 1240.04 2307
650.406 1240.04 2307
655.07 1238.43 2304
659.719 1236.82 2301
665.221 1236.82 2301
668.975 1233.59 2295
673.581 1231.98 2292
680.84 1235.21 2298
686.335 1235.21 2298
691.83 1235.21 2298
697.325 1235.21 2298
702.821 1235.21 2298
709.241 1236.82 2301
717.849 1242.19 2311
723.375 1242.19 2311
728.902 1242.19 2311
734.428 1242.19 2311
739.954 1242.19 2311
745.481 1242.19 2311
751.007 1242.19 2311
757.515 1243.81 2314
764.038 1245.42 2317
769.579 1245.42 2317
775.119 1245.42 2317
779.649 1243.81 2314
785.183 1243.81 2314
792.766 1247.03 2320
798.314 1247.03 2320
806.288 1250.8 2327
811.852 1250.8 2327
817.417 1250.8 2327
822.981 1250.8 2327
826.053 1247.03 2320
828.375 1242.19 2311
833.901 1242.19 2311
833.616 1233.59 2295
838.007 1231.98 2292
844.592 1233.59 2295
850.08 1233.59 2295
855.568 1233.59 2295
861.056 1233.59 2295
866.544 1233.59 2295
872.032 1233.59 2295
871.403 1224.99 2279
876.852 1224.99 2279
882.302 1224.99 2279
887.752 1224.99 2279
893.202 1224.99 2279
897.469 1223.38 2276
902.911 1223.38 2276
908.354 1223.38 2276
916.205 1226.61 2282
921.662 1226.61 2282
927.119 1226.61 2282
935.028 1229.83 2288
942.144 1231.98 2292
947.625 1231.98 2292
955.601 1235.21 2298
961.096 1235.21 2298
966.591 1235.21 2298
972.086 1235.21 2298
976.305 1233.59 2295
977.515 1228.22 2285
982.979 1228.22 2285
987.146 1226.61 2282
995.213 1229.83 2288
1002.43 1231.98 2292
1007.91 1231.98 2292
1013.4 1231.98 2292
1017.1 1229.83 2288
1021.23 1228.22 2285
1022.65 1223.38 2276
1028.09 1223.38 2276
1032.17 1221.77 2273
1037.61 1221.77 2273
1045.8 1224.99 2279
1051.25 1224.99 2279
1056.7 1224.99 2279
1055.15 1216.93 2264
1060.57 1216.93 2264
1065.98 1216.93 2264
1069.98 1215.32 2261
1069.2 1208.33 2248
1070.27 1203.49 2239
1075.63 1203.49 2239
1076.64 1198.66 2230
1079.06 1195.43 2224
1079.01 1189.52 2213
1081.36 1186.29 2207
1086.64 1186.29 2207
1085.98 1179.84 2195
1091.23 1179.84 2195
1097.98 1181.46 2198
1106.25 1184.68 2204
1111.52 1184.68 2204
1116.79 1184.68 2204
1122.06 1184.68 2204
1127.33 1184.68 2204
1129.52 1181.46 2198
1139.42 1186.29 2207
1147.81 1189.52 2213
1154.14 1190.59 2215
1164.15 1195.43 2224
1169.47 1195.43 2224
1177.96 1198.66 2230
1192.84 1208.33 2248
1198.22 1208.33 2248
1203.59 1208.33 2248
1212.19 1211.56 2254
1217.58 1211.56 2254
1233.28 1221.77 2273
1238.72 1221.77 2273
1244.15 1221.77 2273
1249.59 1221.77 2273
1255.02 1221.77 2273
1260.46 1221.77 2273
1260.88 1216.93 2264
1278.04 1228.22 2285
1294.18 1238.43 2304
1299.69 1238.43 2304
1319.93 1252.41 2330
1325.5 1252.41 2330
1331.07 1252.41 2330
1336.64 1252.41 2330
1323.78 1235.21 2298
1320.02 1226.61 2282
1325.48 1226.61 2282
1332.68 1228.22 2285
1338.15 1228.22 2285
1343.61 1228.22 2285
1341.99 1221.77 2273
1347.43 1221.77 2273
1352.86 1221.77 2273
1343.36 1208.33 2248
1350.53 1209.94 2251
1359.53 1213.17 2257
1364.93 1213.17 2257
1370.32 1213.17 2257
1381.82 1218.54 2267
1387.24 1218.54 2267
1392.66 1218.54 2267
1388.21 1209.94 2251
1393.6 1209.94 2251
1400.84 1211.56 2254
1414.34 1218.54 2267
1419.76 1218.54 2267
1425.19 1218.54 2267
1430.61 1218.54 2267
1441.73 1223.38 2276
1447.17 1223.38 2276
1464.74 1233.59 2295
1474.07 1236.82 2301
1479.57 1236.82 2301
1485.08 1236.82 2301
1486.69 1233.59 2295
1490.23 1231.98 2292
1495.71 1231.98 2292
1496.61 1228.22 2285
1502.07 1228.22 2285
1509.51 1229.83 2288
1517.63 1231.98 2292
1523.12 1231.98 2292
1528.6 1231.98 2292
1531.4 1229.83 2288
1532.84 1226.61 2282
1538.3 1226.61 2282
1541.73 1224.99 2279
1545.14 1223.38 2276
1548.54 1221.77 2273
1553.97 1221.77 2273
1557.35 1220.16 2270
1556.58 1215.32 2261
1524.68 1186.29 2207
1529.96 1186.29 2207
1524.8 1178.23 2192
1524.46 1173.93 2184
1525.48 1170.71 2178
1530.69 1170.71 2178
1535.9 1170.71 2178
1538.98 1169.09 2175
1546.32 1170.71 2178
1563.63 1179.84 2195
1568.88 1179.84 2195
1574.13 1179.84 2195
1579.38 1179.84 2195
1584.63 1179.84 2195
1589.88 1179.84 2195
1595.13 1179.84 2195
1590.17 1172.32 2181
1597.58 1173.93 2184
1604.27 1175.01 2186
1609.5 1175.01 2186
1614.72 1175.01 2186
1659.23 1203.49 2239
1669.04 1206.72 2245
1676.65 1208.33 2248
1682.02 1208.33 2248
1701.66 1218.54 2267
1707.08 1218.54 2267
1712.5 1218.54 2267
1717.92 1218.54 2267
1725.63 1220.16 2270
1731.05 1220.16 2270
1736.48 1220.16 2270
-1701.85 1227.21 2273
-1703.13 1232.07 2282
-1705.11 1237.47 2292
-1701.86 1239.09 2295
-1696.37 1239.09 2295
-1690.88 1239.09 2295
-1685.39 1239.09 2295
-1679.91 1239.09 2295
-1662.74 1230.45 2279
-1657.3 1230.45 2279
-1647.5 1227.21 2273
-1642.06 1227.21 2273
-1636.63 1227.21 2273
-1653.44 1243.95 2304
-1647.93 1243.95 2304
-1642.42 1243.95 2304
-1636.91 1243.95 2304
-1629.27 1242.33 2301
-1623.77 1242.33 2301
-1618.27 1242.33 2301
-1610.66 1240.71 2298
-1603.07 1239.09 2295
-1597.59 1239.09 2295
-1592.1 1239.09 2295
-1579.7 1233.69 2285
-1565.97 1227.21 2273
-1562.59 1228.83 2276
-1563.3 1233.69 2285
-1557.84 1233.69 2285
-1563.25 1242.33 2301
-1557.74 1242.33 2301
-1554.26 1243.95 2304
-1548.76 1243.95 2304
-1547.93 1247.73 2311
-1542.41 1247.73 2311
-1538.88 1249.35 2314
-1533.34 1249.35 2314
-1529.79 1250.97 2317
-1524.25 1250.97 2317
-1522.64 1254.21 2323
-1517.09 1254.21 2323
-1511.53 1254.21 2323
-1512.46 1259.61 2333
-1506.88 1259.61 2333
-1501.3 1259.61 2333
-1495.72 1259.61 2333
-1492.7 1261.77 2337
-1489.02 1263.39 2340
-1483.42 1263.39 2340
-1481.62 1266.63 2346
-1476.01 1266.63 2346
-1470.4 1266.63 2346
-1464.79 1266.63 2346
-1457.31 1265.01 2343
-1443.65 1257.99 2330
-1438.08 1257.99 2330
-1428.21 1254.21 2323
-1417.14 1249.35 2314
-1411.61 1249.35 2314
-1398.17 1242.33 2301
-1392.67 1242.33 2301
-1385.36 1240.71 2298
-1376.26 1237.47 2292
-1366.6 1233.69 2285
-1361.13 1233.69 2285
-1355.67 1233.69 2285
-1344.89 1228.83 2276
-1339.44 1228.83 2276
-1334 1228.83 2276
-1323.3 1223.97 2267
-1312.07 1218.58 2257
-1297.99 1210.48 2242
-1292.63 1210.48 2242
-1283.82 1207.24 2236
-1261.89 1191.58 2207
-1254.91 1189.96 2204
-1254.74 1194.82 2213
-1249.45 1194.82 2213
-1252.03 1202.38 2227
-1250.06 1205.62 2233
-1244.72 1205.62 2233
-1239.38 1205.62 2233
-1234.04 1205.62 2233
-1227.05 1204 2230
-1221.72 1204 2230
-1216.38 1204 2230
-1211.05 1204 2230
-1197.61 1195.9 2215
-1192.31 1195.9 2215
-1187.02 1195.9 2215
-1183.32 1197.52 2218
-1193.95 1213.72 2248
-1200.2 1225.59 2270
-1194.78 1225.59 2270
-1194.06 1230.45 2279
-1193.31 1235.31 2288
-1189.91 1237.47 2292
-1184.43 1237.47 2292
-1178.95 1237.47 2292
-1173.47 1237.47 2292
-1169.52 1239.09 2295
-1164.03 1239.09 2295
-1161.57 1242.33 2301
-1157.58 1243.95 2304
-1153.57 1245.57 2307
-1148.05 1245.57 2307
-1146 1249.35 2314
-1141.95 1250.97 2317
-1137.88 1252.59 2320
-1132.33 1252.59 2320
-1126.78 1252.59 2320
-1121.23 1252.59 2320
-1117.13 1254.21 2323
-1111.57 1254.21 2323
-1107.92 1256.37 2327
-1102.36 1256.37 2327
-1096.79 1256.37 2327
-1081.85 1245.57 2307
-1073.53 1242.33 2301
-1068.03 1242.33 2301
-1062.53 1242.33 2301
-1057.03 1242.33 2301
-1047.41 1237.47 2292
-1036.02 1230.45 2279
-1022.43 1220.74 2261
-1017.02 1220.74 2261
-1009.83 1218.58 2257
-995.085 1207.24 2236
-991.066 1208.86 2239
-985.712 1208.86 2239
-980.358 1208.86 2239
-978.923 1213.72 2248
-974.846 1215.34 2251
-969.463 1215.34 2251
-964.081 1215.34 2251
-958.698 1215.34 2251
-954.585 1216.96 2254
-949.195 1216.96 2254
-943.805 1216.96 2254
-938.415 1216.96 2254
-925.575 1207.24 2236
-920.228 1207.24 2236
-914.881 1207.24 2236
-909.534 1207.24 2236
-910.252 1215.34 2251
-906.076 1216.96 2254
-900.685 1216.96 2254
-900.459 1223.97 2267
-895.038 1223.97 2267
-889.617 1223.97 2267
-884.196 1223.97 2267
-877.612 1222.36 2264
-872.198 1222.36 2264
-869.081 1225.59 2270
-863.653 1225.59 2270
-860.493 1228.83 2276
-856.178 1230.45 2279
-850.728 1230.45 2279
-847.503 1233.69 2285
-842.039 1233.69 2285
-839.138 1237.47 2292
-834.748 1239.09 2295
-830.344 1240.71 2298
-824.849 1240.71 2298
-819.354 1240.71 2298
-815.984 1243.95 2304
-812.936 1247.73 2311
-807.41 1247.73 2311
-802.925 1249.35 2314
-797.391 1249.35 2314
-791.858 1249.35 2314
-786.324 1249.35 2314
-779.779 1247.73 2311
-775.257 1249.35 2314
-770.722 1250.97 2317
-765.181 1250.97 2317
-759.64 1250.97 2317
-754.1 1250.97 2317
-749.528 1252.59 2320
-743.981 1252.59 2320
-739.388 1254.21 2323
-733.833 1254.21 2323
-730.472 1257.99 2330
-724.9 1257.99 2330
-721.49 1261.77 2337
-716.82 1263.39 2340
-711.225 1263.39 2340
-705.629 1263.39 2340
-688.366 1242.33 2301
-524.406 969.677 1796
-520.111 969.677 1796
-515.817 969.677 1796
-511.522 969.677 1796
-507.227 969.677 1796
-500.132 964.278 1786
-495.861 964.278 1786
-488.563 958.339 1775
-482.681 955.1 1769
-476.828 951.86 1763
-472.612 951.86 1763
-466.536 948.081 1756
-461.021 945.382 1751
-455.79 943.222 1747
-451.612 943.222 1747
-447.435 943.222 1747
-442.75 942.142 1745
-436.818 938.363 1738
-432.662 938.363 1738
-428.505 938.363 1738
-423.373 936.203 1734
-418.743 935.123 1732
-414.362 934.583 1731
-410.222 934.583 1731
-404.675 931.344 1725
-400.55 931.344 1725
-395.736 929.724 1722
-391.618 929.724 1722
-386.6 927.565 1718
-382.047 926.485 1716
-377.723 925.945 1715
-373.622 925.945 1715
-368.659 923.785 1711
-364.141 922.705 1709
-359.844 922.165 1708
-355.759 922.165 1708
-351.263 921.086 1706
-346.777 920.006 1704
-342.702 920.006 1704
-338.627 920.006 1704
-334.16 918.926 1702
-329.896 918.386 1701
-325.828 918.386 1701
-321.76 918.386 1701
-317.693 918.386 1701
-313.257 917.306 1699
-309.558 918.386 1701
-305.49 918.386 1701
-301.954 920.006 1704
-297.879 920.006 1704
-294.149 921.086 1706
-290.41 922.165 1708
-286.828 923.785 1711
-282.737 923.785 1711
-279.297 925.945 1715
-276.319 929.724 1722
-272.675 931.344 1725
-268.55 931.344 1725
-265.039 933.504 1729
-262.564 939.443 1740
-259.146 942.142 1745
-254.973 942.142 1745
-251.662 945.382 1751
-249.03 951.321 1762
-245.511 954.02 1767
-241.286 954.02 1767
-237.865 957.26 1773
-235.338 964.278 1786
-231.844 967.518 1792
-227.558 967.518 1792
-224.27 971.837 1800
-220.577 974.537 1805
-216.74 976.696 1809
-212.414 976.696 1809
-208.778 979.936 1815
-204.888 982.095 1819
-200.98 984.255 1823
-196.62 984.255 1823
-192.261 984.255 1823
-187.902 984.255 1823
-183.542 984.255 1823
-179.183 984.255 1823
-174.632 983.175 1821
-170.651 985.335 1825
-166.287 985.335 1825
-161.923 985.335 1825
-157.731 986.415 1827
-153.363 986.415 1827
-149.157 987.495 1829
-144.783 987.495 1829
-140.409 987.495 1829
