492.575 1195.78 2947
492.671 1179.14 2906
499.62 1179.14 2906
507.441 1181.17 2911
516.346 1185.63 2922
523.333 1185.63 2922
530.321 1185.63 2922
534.366 1179.14 2906
541.315 1179.14 2906
544.491 1171.03 2886
549.482 1166.97 2876
554.424 1162.91 2866
562.257 1164.94 2871
569.123 1164.94 2871
575.988 1164.94 2871
582.854 1164.94 2871
589.719 1164.94 2871
596.584 1164.94 2871
604.501 1166.97 2876
611.378 1166.97 2876
620.405 1171.03 2886
627.307 1171.03 2886
634.208 1171.03 2886
641.109 1171.03 2886
648.01 1171.03 2886
654.912 1171.03 2886
659.52 1166.97 2876
848.087 1200.24 2958
855.161 1200.24 2958
862.234 1200.24 2958
869.308 1200.24 2958
876.381 1200.24 2958
881.961 1198.21 2953
882.701 1189.69 2932
886.677 1185.63 2922
893.665 1185.63 2922
894.179 1177.11 2901
893.351 1166.97 2876
900.228 1166.97 2876
907.106 1166.97 2876
912.394 1164.94 2871
914.777 1159.26 2857
916.77 1153.17 2842
923.566 1153.17 2842
925.779 1147.49 2828
922.979 1135.73 2799
934.322 1141.41 2813
944.394 1145.46 2823
952.83 1147.49 2828
959.592 1147.49 2828
966.355 1147.49 2828
973.118 1147.49 2828
979.88 1147.49 2828
983.154 1143.43 2818
989.893 1143.43 2818
993.448 1139.78 2809
1015.48 1157.23 2852
1022.3 1157.23 2852
1030.92 1159.26 2857
1039.57 1161.29 2862
1046.41 1161.29 2862
1053.26 1161.29 2862
1056.4 1157.23 2852
1059.49 1153.17 2842
1066.28 1153.17 2842
1065.91 1145.46 2823
1072.66 1145.46 2823
1082.85 1149.12 2832
1091.54 1151.14 2837
1102.2 1155.2 2847
1109.01 1155.2 2847
1115.82 1155.2 2847
1122.62 1155.2 2847
1129.43 1155.2 2847
1136.24 1155.2 2847
1143.05 1155.2 2847
1151.88 1157.23 2852
1158.7 1157.23 2852
1165.52 1157.23 2852
1170.28 1155.2 2847
1177.09 1155.2 2847
1183.9 1155.2 2847
1190.7 1155.2 2847
1201.72 1159.26 2857
1210.67 1161.29 2862
1225.59 1169 2881
1232.48 1169 2881
1239.37 1169 2881
1248.42 1171.03 2886
1255.32 1171.03 2886
1262.23 1171.03 2886
1269.13 1171.03 2886
1273.82 1169 2881
1274.04 1162.91 2866
1280.89 1162.91 2866
1287.75 1162.91 2866
1292.79 1161.29 2862
1295.1 1157.23 2852
1301.92 1157.23 2852
1308.74 1157.23 2852
1322.01 1162.91 2866
1338.14 1171.03 2886
1352.03 1177.11 2901
1358.97 1177.11 2901
1365.91 1177.11 2901
1435.19 1200.24 2958
1457.86 1213.23 2990
1465.01 1213.23 2990
1501.7 1237.57 3050
1511.47 1239.6 3055
1518.78 1239.6 3055
1526.08 1239.6 3055
1530.88 1237.57 3050
1535.14 1235.14 3044
1542.42 1235.14 3044
1530.36 1219.72 3006
1537.55 1219.72 3006
1525.21 1204.3 2968
1532.3 1204.3 2968
1520.73 1189.69 2932
1508.98 1175.08 2896
1521.14 1179.14 2906
1533.88 1183.6 2917
1540.85 1183.6 2917
1547.83 1183.6 2917
1576.66 1200.24 2958
1589.08 1204.3 2968
1602.1 1208.76 2979
1609.22 1208.76 2979
1619.06 1210.79 2984
1626.19 1210.79 2984
1633.33 1210.79 2984
1622.35 1166.97 2876
1660.96 1189.69 2932
1667.97 1189.69 2932
1674.98 1189.69 2932
1676.25 1185.63 2922
1683.24 1185.63 2922
1690.23 1185.63 2922
1676.3 1171.03 2886
1680.29 1169 2881
1704.75 1181.17 2911
1711.71 1181.17 2911
1718.67 1181.17 2911
1725.63 1181.17 2911
1732.59 1181.17 2911
1739.55 1181.17 2911
1746.51 1181.17 2911
1755.25 1173.06 2891
1762.17 1173.06 2891
1769.08 1173.06 2891
1775.99 1173.06 2891
1773.66 1166.97 2876
1780.53 1166.97 2876
1784.3 1164.94 2871
1782.44 1159.26 2857
1789.27 1159.26 2857
1799.24 1161.29 2862
1806.09 1161.29 2862
1812.93 1161.29 2862
1822.32 1162.91 2866
1829.17 1162.91 2866
1836.02 1162.91 2866
1842.88 1162.91 2866
1849.73 1162.91 2866
1859.82 1164.94 2871
1873.19 1169 2881
1880.08 1169 2881
1910.55 1183.6 2917
1927.38 1189.69 2932
1934.4 1189.69 2932
1941.41 1189.69 2932
1938.45 1183.6 2917
1945.43 1183.6 2917
1952.4 1183.6 2917
1955.35 1181.17 2911
-2406.4 1311.82 3214
-2398.72 1311.82 3214
-2386.57 1309.37 3208
-2374.45 1306.92 3202
-2340.18 1292.22 3166
-2332.61 1292.22 3166
-2289.79 1272.63 3118
-2277.94 1270.18 3112
-2217.24 1240.39 3039
-2209.97 1240.39 3039
-2159.21 1215.9 2979
-1545.23 1249.37 3061
-1537.91 1249.37 3061
-1536.09 1253.86 3072
-1534.71 1258.75 3084
-1527.34 1258.75 3084
-1519.97 1258.75 3084
-1504.25 1251.82 3067
-1483.25 1240.39 3039
-1475.99 1240.39 3039
-1465.82 1237.94 3033
-1450.87 1231.41 3017
-1413.03 1205.29 2953
-1403.11 1202.84 2947
-1396.07 1202.84 2947
-1374.88 1190.59 2917
-582.097 699.172 1713
-578.001 699.172 1713
-573.905 699.172 1713
-569.809 699.172 1713
-565.712 699.172 1713
-561.616 699.172 1713
-557.52 699.172 1713
-552.777 698.356 1711
-547.724 697.131 1708
-543.639 697.131 1708
-539.555 697.131 1708
-534.844 696.315 1706
-529.52 694.682 1702
-525.45 694.682 1702
-521.38 694.682 1702
-517.006 694.274 1701
-512.335 693.458 1699
-507.674 692.642 1697
-503.616 692.642 1697
-499.558 692.642 1697
-494.916 691.825 1695
-490.862 691.825 1695
-486.809 691.825 1695
-482.756 691.825 1695
-478.42 691.417 1694
-474.369 691.417 1694
-470.318 691.417 1694
-466.268 691.417 1694
-462.217 691.417 1694
-458.166 691.417 1694
-454.115 691.417 1694
-450.064 691.417 1694
-446.013 691.417 1694
-441.962 691.417 1694
-438.17 691.825 1695
-434.117 691.825 1695
-430.064 691.825 1695
-426.513 692.642 1697
-422.455 692.642 1697
-418.397 692.642 1697
-414.339 692.642 1697
-410.764 693.458 1699
-406.701 693.458 1699
-403.113 694.274 1701
-399.045 694.274 1701
-394.977 694.274 1701
-391.14 694.682 1702
-387.524 695.499 1704
-383.45 695.499 1704
-380.265 697.131 1708
-376.181 697.131 1708
-372.097 697.131 1708
-368.012 697.131 1708
-364.141 697.539 1709
-360.476 698.356 1711
-356.384 698.356 1711
-352.293 698.356 1711
-348.608 699.172 1713
-345.115 700.397 1716
-341.012 700.397 1716
-336.908 700.397 1716
-333.193 701.213 1718
-329.084 701.213 1718
-325.733 702.846 1722
-321.615 702.846 1722
-317.497 702.846 1722
-313.561 703.254 1723
-309.441 703.254 1723
-305.321 703.254 1723
-301.55 704.07 1725
-297.425 704.07 1725
-293.64 704.886 1727
-290.684 707.743 1734
-286.538 707.743 1734
-283.368 710.192 1740
-280.331 713.049 1747
-276.153 713.049 1747
-273.999 718.355 1760
-271.17 722.029 1769
-268.6 726.519 1780
-264.343 726.519 1780
-260.963 728.968 1786
-257.267 730.6 1790
-253.552 732.233 1794
-249.262 732.233 1794
-247.84 740.804 1815
-245.646 747.335 1831
-241.795 748.967 1835
-237.407 748.967 1835
-234.035 752.232 1843
-229.877 753.049 1845
-226.809 757.539 1856
-222.371 757.539 1856
-218.872 760.804 1864
-214.414 760.804 1864
-210.182 761.62 1866
-293.366 1086.1 2661
-287.003 1086.1 2661
-280.64 1086.1 2661
-287.143 1164.06 2852
-280.323 1164.06 2852
-273.503 1164.06 2852
-267.992 1169.78 2866
-261.139 1169.78 2866
-254.285 1169.78 2866
-247.087 1168.14 2862
-240.243 1168.14 2862
-233.399 1168.14 2862
-224.18 1155.9 2832
-103.509 1169.78 2866
-96.6556 1169.78 2866
-90.1154 1173.86 2876
-83.2381 1173.86 2876
-76.3607 1173.86 2876
-69.7249 1177.94 2886
-63.0413 1182.02 2896
-56.116 1182.02 2896
-49.4456 1188.14 2911
-42.791 1196.71 2932
-36.097 1207.33 2958
-29.0235 1207.33 2958
-21.95 1207.33 2958
-14.9017 1209.37 2963
-7.81629 1209.37 2963
-0.730858 1209.37 2963
6.3653 1211.41 2968
13.4627 1211.41 2968
20.5601 1211.41 2968
27.5177 1205.29 2953
34.3918 1198.76 2937
41.0485 1188.14 2911
48.0096 1188.14 2911
54.593 1179.98 2891
61.2935 1175.9 2881
68.1828 1175.9 2881
75.0722 1175.9 2881
81.9615 1175.9 2881
88.8508 1175.9 2881
95.7402 1175.9 2881
101.953 1168.14 2862
108.797 1168.14 2862
115.641 1168.14 2862
122.484 1168.14 2862
129.328 1168.14 2862
136.172 1168.14 2862
142.017 1159.98 2842
148.551 1157.94 2837
155.609 1159.98 2842
163.262 1166.1 2857
170.094 1166.1 2857
178.412 1175.9 2881
187.617 1190.59 2917
194.593 1190.59 2917
201.568 1190.59 2917
208.543 1190.59 2917
214.706 1186.1 2906
221.655 1186.1 2906
227.818 1182.02 2896
234.338 1179.98 2891
244.255 1194.67 2927
251.254 1194.67 2927
258.254 1194.67 2927
265.253 1194.67 2927
271.787 1192.63 2922
278.775 1192.63 2922
284.197 1186.1 2906
291.147 1186.1 2906
299.737 1192.63 2922
308.824 1200.8 2942
315.859 1200.8 2942
322.894 1200.8 2942
329.929 1200.8 2942
336.965 1200.8 2942
344 1200.8 2942
349.245 1194.67 2927
356.245 1194.67 2927
360.638 1186.1 2906
368.978 1190.59 2917
375.954 1190.59 2917
386.867 1202.84 2947
393.915 1202.84 2947
400.962 1202.84 2947
408.009 1202.84 2947
413.648 1198.76 2937
419.955 1196.71 2932
427.694 1198.76 2937
434.717 1198.76 2937
441.741 1198.76 2937
449.528 1200.8 2942
456.563 1200.8 2942
463.598 1200.8 2942
469.834 1198.76 2937
476.857 1198.76 2937
483.88 1198.76 2937
484.051 1182.02 2896
490.128 1179.98 2891
497.901 1182.02 2896
506.569 1186.1 2906
514.402 1188.14 2911
521.363 1188.14 2911
528.324 1188.14 2911
530.688 1177.94 2886
537.59 1177.94 2886
541.661 1171.82 2871
545.852 1166.1 2857
552.683 1166.1 2857
559.515 1166.1 2857
566.347 1166.1 2857
574.985 1169.78 2866
581.838 1169.78 2866
588.692 1169.78 2866
594.714 1168.14 2862
602.399 1169.78 2866
609.252 1169.78 2866
618.255 1173.86 2876
626.22 1175.9 2881
633.109 1175.9 2881
639.998 1175.9 2881
646.888 1175.9 2881
653.777 1175.9 2881
659.52 1173.86 2876
661.995 1166.1 2857
665.315 1159.98 2842
672.111 1159.98 2842
677.713 1157.94 2837
682.326 1154.27 2828
848.087 1207.33 2958
855.161 1207.33 2958
862.234 1207.33 2958
869.308 1207.33 2958
876.381 1207.33 2958
881.961 1205.29 2953
882.701 1196.71 2932
886.677 1192.63 2922
893.665 1192.63 2922
894.179 1184.06 2901
893.351 1173.86 2876
900.228 1173.86 2876
907.106 1173.86 2876
912.394 1171.82 2871
914.777 1166.1 2857
916.77 1159.98 2842
923.566 1159.98 2842
925.779 1154.27 2828
922.979 1142.43 2799
934.322 1148.14 2813
944.394 1152.23 2823
952.83 1154.27 2828
959.592 1154.27 2828
966.355 1154.27 2828
973.118 1154.27 2828
979.88 1154.27 2828
983.154 1150.19 2818
989.893 1150.19 2818
993.448 1146.51 2809
1015.48 1164.06 2852
1022.3 1164.06 2852
1030.92 1166.1 2857
1039.57 1168.14 2862
1046.41 1168.14 2862
1053.26 1168.14 2862
1056.4 1164.06 2852
1059.49 1159.98 2842
1066.28 1159.98 2842
1065.91 1152.23 2823
1072.66 1152.23 2823
1082.85 1155.9 2832
1091.54 1157.94 2837
1102.2 1162.02 2847
1109.01 1162.02 2847
1115.82 1162.02 2847
1122.62 1162.02 2847
1129.43 1162.02 2847
1136.24 1162.02 2847
1143.05 1162.02 2847
1151.88 1164.06 2852
1158.7 1164.06 2852
1165.52 1164.06 2852
1170.28 1162.02 2847
1177.09 1162.02 2847
1183.9 1162.02 2847
1190.7 1162.02 2847
1201.72 1166.1 2857
1210.67 1168.14 2862
1225.59 1175.9 2881
1232.48 1175.9 2881
1239.37 1175.9 2881
1248.42 1177.94 2886
1255.32 1177.94 2886
1262.23 1177.94 2886
1269.13 1177.94 2886
1273.82 1175.9 2881
1274.04 1169.78 2866
1280.89 1169.78 2866
1287.75 1169.78 2866
1292.79 1168.14 2862
1295.1 1164.06 2852
1301.92 1164.06 2852
1308.74 1164.06 2852
1322.01 1169.78 2866
1338.14 1177.94 2886
1352.03 1184.06 2901
1358.97 1184.06 2901
1365.91 1184.06 2901
1435.19 1207.33 2958
1457.86 1220.39 2990
1465.01 1220.39 2990
1501.7 1244.88 3050
1511.47 1246.92 3055
1518.78 1246.92 3055
1526.08 1246.92 3055
1530.88 1244.88 3050
1535.14 1242.43 3044
1542.42 1242.43 3044
1530.36 1226.92 3006
1537.55 1226.92 3006
1525.21 1211.41 2968
1532.3 1211.41 2968
1520.73 1196.71 2932
1508.98 1182.02 2896
1521.14 1186.1 2906
1528.09 1186.1 2906
1535.04 1186.1 2906
1541.99 1186.1 2906
1554.8 1190.59 2917
1561.78 1190.59 2917
1568.75 1190.59 2917
1572.49 1188.14 2911
1571.31 1182.02 2896
1551.53 1162.02 2847
1558.34 1162.02 2847
1607.61 1168.14 2862
1622.35 1173.86 2876
1660.96 1196.71 2932
1667.97 1196.71 2932
1674.98 1196.71 2932
1676.25 1192.63 2922
1683.24 1192.63 2922
1690.23 1192.63 2922
1676.3 1177.94 2886
1677.37 1173.86 2876
1684.25 1173.86 2876
1691.13 1173.86 2876
1698.01 1173.86 2876
1704.88 1173.86 2876
1705.81 1169.78 2866
1712.66 1169.78 2866
1714.12 1166.1 2857
1762.17 1179.98 2891
1769.08 1179.98 2891
1775.99 1179.98 2891
1773.66 1173.86 2876
1780.53 1173.86 2876
1784.3 1171.82 2871
1782.44 1166.1 2857
1783 1162.02 2847
1789.81 1162.02 2847
1796.62 1162.02 2847
1812.93 1168.14 2862
1819.77 1168.14 2862
1826.62 1168.14 2862
1830.26 1166.1 2857
1837.09 1166.1 2857
1840.7 1164.06 2852
1847.52 1164.06 2852
1854.34 1164.06 2852
1861.16 1164.06 2852
1886.97 1175.9 2881
1900.43 1179.98 2891
1907.35 1179.98 2891
1914.26 1179.98 2891
1921.17 1179.98 2891
1928.09 1179.98 2891
1935 1179.98 2891
1928.48 1171.82 2871
-2374.95 1302.27 3172
-2367.37 1302.27 3172
-2319.61 1280.1 3118
-2312.15 1280.1 3118
-2292.13 1273.12 3101
-2284.72 1273.12 3101
-2264.82 1266.14 3084
-2245 1259.16 3067
-2217.24 1247.67 3039
-2209.97 1247.67 3039
-2159.21 1223.03 2979
-1545.23 1256.7 3061
-1537.91 1256.7 3061
-1536.09 1261.22 3072
-1534.71 1266.14 3084
-1527.34 1266.14 3084
-1519.97 1266.14 3084
-1504.25 1259.16 3067
-1483.25 1247.67 3039
-1475.99 1247.67 3039
-1465.82 1245.2 3033
-1450.87 1238.64 3017
-1417.82 1216.47 2963
-1410.73 1216.47 2963
-1403.65 1216.47 2963
-1389.02 1209.9 2947
-582.777 704.097 1715
-578.676 704.097 1715
-574.575 704.097 1715
-569.809 703.276 1713
-565.712 703.276 1713
-561.616 703.276 1713
-557.52 703.276 1713
-552.777 702.455 1711
-547.724 701.223 1708
-543.639 701.223 1708
-539.555 701.223 1708
-534.217 699.581 1704
-529.52 698.76 1702
-525.45 698.76 1702
-521.38 698.76 1702
-517.006 698.349 1701
-512.335 697.528 1699
-507.674 696.707 1697
-503.616 696.707 1697
-499.558 696.707 1697
-494.916 695.886 1695
-490.862 695.886 1695
-486.809 695.886 1695
-482.756 695.886 1695
-478.42 695.475 1694
-474.369 695.475 1694
-470.318 695.475 1694
-466.268 695.475 1694
-462.217 695.475 1694
-458.166 695.475 1694
-454.115 695.475 1694
-450.064 695.475 1694
-446.013 695.475 1694
-441.962 695.475 1694
-438.17 695.886 1695
-434.629 696.707 1697
-430.571 696.707 1697
-426.513 696.707 1697
-422.455 696.707 1697
-418.89 697.528 1699
-414.827 697.528 1699
-410.764 697.528 1699
-407.18 698.349 1701
-403.113 698.349 1701
-399.045 698.349 1701
-395.21 698.76 1702
-391.14 698.76 1702
-387.524 699.581 1704
-383.45 699.581 1704
-380.265 701.223 1708
-376.181 701.223 1708
-372.315 701.633 1709
-368.228 701.633 1709
-364.567 702.455 1711
-360.476 702.455 1711
-356.801 703.276 1713
-352.705 703.276 1713
-349.219 704.507 1716
-345.115 704.507 1716
-341.409 705.328 1718
-337.301 705.328 1718
-333.581 706.149 1720
-329.851 706.971 1722
-325.922 707.381 1723
-321.802 707.381 1723
-317.682 707.381 1723
-313.925 708.202 1725
-310.16 709.023 1727
-306.03 709.023 1727
-301.9 709.023 1727
-297.77 709.023 1727
-294.321 710.666 1731
-290.684 711.897 1734
-286.538 711.897 1734
-283.368 714.361 1740
-280.651 718.056 1749
-276.469 718.056 1749
-273.999 722.572 1760
-271.17 726.267 1769
-268.6 730.783 1780
-264.343 730.783 1780
-260.671 732.425 1784
-257.267 734.888 1790
-253.552 736.53 1794
-249.262 736.53 1794
-248.386 746.794 1819
-246.183 753.363 1835
-241.795 753.363 1835
-237.407 753.363 1835
-234.035 756.647 1843
-230.126 758.29 1847
-227.298 763.627 1860
-222.85 763.627 1860
-218.637 764.448 1862
-301.262 1075.24 2619
-299.729 1092.48 2661
-293.366 1092.48 2661
-287.003 1092.48 2661
-280.64 1092.48 2661
-284.224 1158.99 2823
-277.473 1158.99 2823
-270.722 1158.99 2823
-263.972 1158.99 2823
-257.221 1158.99 2823
-250.47 1158.99 2823
-243.72 1158.99 2823
-236.549 1156.94 2818
-229.811 1156.94 2818
-222.359 1153.24 2809
-116.439 1168.84 2847
-109.631 1168.84 2847
-103.509 1176.64 2866
-96.6556 1176.64 2866
-90.1154 1180.75 2876
-83.2381 1180.75 2876
-76.3607 1180.75 2876
-69.4833 1180.75 2876
-62.6059 1180.75 2876
-55.7285 1180.75 2876
-49.8023 1203.74 2932
-43.1705 1214.41 2958
-36.097 1214.41 2958
-29.0235 1214.41 2958
-21.95 1214.41 2958
-14.6151 1193.06 2906
-7.70813 1199.63 2922
-0.720745 1199.63 2922
6.29881 1205.79 2937
13.3221 1205.79 2937
20.3453 1205.79 2937
27.2288 1199.63 2922
33.9703 1191.01 2901
40.6959 1184.85 2886
47.5972 1184.85 2886
54.3097 1180.75 2876
61.0807 1178.69 2871
67.9461 1178.69 2871
74.8116 1178.69 2871
81.677 1178.69 2871
88.2649 1175 2862
94.9426 1172.95 2857
101.596 1170.89 2852
108.416 1170.89 2852
115.236 1170.89 2852
122.056 1170.89 2852
128.425 1166.79 2842
135.221 1166.79 2842
141.767 1164.74 2837
148.08 1161.04 2828
154.842 1161.04 2828
162.405 1166.79 2842
169.201 1166.79 2842
176.926 1172.95 2857
184.337 1176.64 2866
191.19 1176.64 2866
198.044 1176.64 2866
205.255 1178.69 2871
212.12 1178.69 2871
218.986 1178.69 2871
225.851 1178.69 2871
232.716 1178.69 2871
241.251 1186.91 2891
248.164 1186.91 2891
255.077 1186.91 2891
261.991 1186.91 2891
268.904 1186.91 2891
275.817 1186.91 2891
280.775 1178.69 2871
287.139 1176.64 2866
296.044 1184.85 2886
305.045 1193.06 2906
311.994 1193.06 2906
318.943 1193.06 2906
326.453 1195.12 2911
333.414 1195.12 2911
340.375 1195.12 2911
344.95 1186.91 2891
351.254 1184.85 2886
358.156 1184.85 2886
367.587 1193.06 2906
374.536 1193.06 2906
382.929 1197.58 2917
391.241 1201.69 2927
398.241 1201.69 2927
405.24 1201.69 2927
409.986 1195.12 2911
416.947 1195.12 2911
424.782 1197.58 2917
431.757 1197.58 2917
439.485 1199.63 2922
448.764 1205.79 2937
455.787 1205.79 2937
462.811 1205.79 2937
464.075 1191.01 2901
470.2 1188.96 2896
477.125 1188.96 2896
482.379 1184.85 2886
489.28 1184.85 2886
497.041 1186.91 2891
505.698 1191.01 2901
512.635 1191.01 2901
519.572 1191.01 2901
525.602 1188.96 2896
527.011 1176.64 2866
533.864 1176.64 2866
539.963 1175 2862
545.852 1172.95 2857
552.683 1172.95 2857
559.515 1172.95 2857
565.356 1170.89 2852
573.179 1172.95 2857
581.026 1175 2862
587.87 1175 2862
594.714 1175 2862
602.399 1176.64 2866
609.252 1176.64 2866
618.255 1180.75 2876
626.22 1182.8 2881
633.109 1182.8 2881
639.998 1182.8 2881
646.888 1182.8 2881
653.777 1182.8 2881
659.52 1180.75 2876
661.995 1172.95 2857
665.315 1166.79 2842
672.111 1166.79 2842
677.713 1164.74 2837
682.326 1161.04 2828
826.011 1182.8 2881
832.9 1182.8 2881
839.789 1182.8 2881
846.679 1182.8 2881
853.568 1182.8 2881
860.457 1182.8 2881
862.831 1176.64 2866
866.953 1172.95 2857
873.785 1172.95 2857
879.076 1170.89 2852
884.343 1168.84 2847
886.456 1162.68 2832
893.228 1162.68 2832
900 1162.68 2832
906.772 1162.68 2832
912.254 1161.04 2828
914.142 1154.88 2813
920.869 1154.88 2813
921.33 1147.08 2794
932.994 1153.24 2809
942.722 1156.94 2818
952.83 1161.04 2828
959.592 1161.04 2828
966.355 1161.04 2828
969.677 1156.94 2818
976.415 1156.94 2818
981.41 1154.88 2813
986.731 1153.24 2809
993.448 1153.24 2809
1005.15 1158.99 2823
1011.9 1158.99 2823
1029.12 1170.89 2852
1035.94 1170.89 2852
1042.76 1170.89 2852
1049.58 1170.89 2852
1052.69 1166.79 2842
1057.62 1164.74 2837
1064.41 1164.74 2837
1065.91 1158.99 2823
1072.66 1158.99 2823
1079.41 1158.99 2823
1086.16 1158.99 2823
1098.33 1164.74 2837
1105.11 1164.74 2837
1111.9 1164.74 2837
1118.68 1164.74 2837
1125.47 1164.74 2837
1132.25 1164.74 2837
1139.03 1164.74 2837
1147.84 1166.79 2842
1154.63 1166.79 2842
1161.43 1166.79 2842
1168.23 1166.79 2842
1175.02 1166.79 2842
1183.9 1168.84 2847
1190.7 1168.84 2847
1201.72 1172.95 2857
1210.67 1175 2862
1223.47 1180.75 2876
1232.48 1182.8 2881
1239.37 1182.8 2881
1248.42 1184.85 2886
1255.32 1184.85 2886
1262.23 1184.85 2886
1269.13 1184.85 2886
1273.82 1182.8 2881
1274.04 1176.64 2866
1280.89 1176.64 2866
1287.75 1176.64 2866
1292.79 1175 2862
1295.1 1170.89 2852
1301.92 1170.89 2852
1308.74 1170.89 2852
1322.01 1176.64 2866
1338.14 1184.85 2886
1345.04 1184.85 2886
1351.94 1184.85 2886
1435.19 1214.41 2958
1442.26 1214.41 2958
1449.33 1214.41 2958
1456.41 1214.41 2958
1484.26 1231.66 3000
1491.43 1231.66 3000
1498.61 1231.66 3000
1505.78 1231.66 3000
1502.36 1223.03 2979
1509.49 1223.03 2979
1497.77 1207.84 2942
1504.81 1207.84 2942
1506.71 1203.74 2932
1513.72 1203.74 2932
1494.28 1182.8 2881
1501.17 1182.8 2881
1508.06 1182.8 2881
1525.46 1191.01 2901
1535.04 1193.06 2906
1541.99 1193.06 2906
1554.8 1197.58 2917
1561.78 1197.58 2917
1568.75 1197.58 2917
1572.49 1195.12 2911
1571.31 1188.96 2896
1551.53 1168.84 2847
1558.34 1168.84 2847
1551.95 1158.99 2823
1607.61 1175 2862
1622.35 1180.75 2876
1660.96 1203.74 2932
1667.97 1203.74 2932
1674.98 1203.74 2932
1676.25 1199.63 2922
1683.24 1199.63 2922
1690.23 1199.63 2922
1676.3 1184.85 2886
1677.37 1180.75 2876
1684.25 1180.75 2876
1691.13 1180.75 2876
1698.01 1180.75 2876
1704.88 1180.75 2876
1705.81 1176.64 2866
1712.66 1176.64 2866
1714.12 1172.95 2857
1700.47 1158.99 2823
1762.17 1186.91 2891
1769.08 1186.91 2891
1775.99 1186.91 2891
1773.66 1180.75 2876
1780.53 1180.75 2876
1784.3 1178.69 2871
1782.44 1172.95 2857
1783 1168.84 2847
1789.81 1168.84 2847
1796.62 1168.84 2847
1812.93 1175 2862
1819.77 1175 2862
1826.62 1175 2862
1830.26 1172.95 2857
1837.09 1172.95 2857
1840.7 1170.89 2852
1847.52 1170.89 2852
1854.34 1170.89 2852
1861.16 1170.89 2852
1886.97 1182.8 2881
1900.43 1186.91 2891
1907.35 1186.91 2891
1914.26 1186.91 2891
1921.17 1186.91 2891
1928.09 1186.91 2891
1935 1186.91 2891
1928.48 1178.69 2871
-2334.52 1287.57 3118
-2327.07 1287.57 3118
-2315.15 1285.09 3112
-2295.1 1278.07 3095
-2279.57 1273.53 3084
-2272.19 1273.53 3084
-2252.33 1266.51 3067
-2224.5 1254.95 3039
-2212.86 1252.47 3033
-2205.61 1252.47 3033
-2167.19 1234.71 2990
-2152.09 1230.17 2979
-1509.39 1234.71 2990
-1502.24 1234.71 2990
-1516.59 1252.47 3033
-1523.27 1264.03 3061
-1515.95 1264.03 3061
-1508.63 1264.03 3061
-1495.91 1259.49 3050
-1472.51 1245.86 3017
-1465.3 1245.86 3017
-1458.09 1245.86 3017
-1437.89 1234.71 2990
-1417.82 1223.56 2963
-1410.73 1223.56 2963
-1403.65 1223.56 2963
-1389.02 1216.96 2947
-582.777 708.205 1715
-578.676 708.205 1715
-574.575 708.205 1715
-569.809 707.379 1713
-565.712 707.379 1713
-561.616 707.379 1713
-557.52 707.379 1713
-552.777 706.553 1711
-547.724 705.314 1708
-543.639 705.314 1708
-539.555 705.314 1708
-534.217 703.663 1704
-529.52 702.837 1702
-525.45 702.837 1702
-521.38 702.837 1702
-517.006 702.424 1701
-512.335 701.598 1699
-508.272 701.598 1699
-504.209 701.598 1699
-499.558 700.772 1697
-495.5 700.772 1697
-490.862 699.946 1695
-486.809 699.946 1695
-482.756 699.946 1695
-478.42 699.533 1694
-474.369 699.533 1694
-470.318 699.533 1694
-466.268 699.533 1694
-462.217 699.533 1694
-458.166 699.533 1694
-454.115 699.533 1694
-450.064 699.533 1694
-446.013 699.533 1694
-442.223 699.946 1695
-438.17 699.946 1695
-434.629 700.772 1697
-430.571 700.772 1697
-427.016 701.598 1699
-422.953 701.598 1699
-418.89 701.598 1699
-414.827 701.598 1699
-411.248 702.424 1701
-407.18 702.424 1701
-403.35 702.837 1702
-399.28 702.837 1702
-395.21 702.837 1702
-391.599 703.663 1704
-387.979 704.489 1706
-383.9 704.489 1706
-380.265 705.314 1708
-376.401 705.727 1709
-372.75 706.553 1711
-368.659 706.553 1711
-364.567 706.553 1711
-360.897 707.379 1713
-357.217 708.205 1715
-353.116 708.205 1715
-349.626 709.444 1718
-345.517 709.444 1718
-341.807 710.27 1720
-337.694 710.27 1720
-333.968 711.096 1722
-330.042 711.509 1723
-326.3 712.335 1725
-322.175 712.335 1725
-318.419 713.16 1727
-314.289 713.16 1727
-310.519 713.986 1729
-306.384 713.986 1729
-302.25 713.986 1729
-298.46 714.812 1731
-294.831 716.051 1734
-290.684 716.051 1734
-287.199 717.703 1738
-284.182 720.593 1745
-281.133 723.484 1752
-276.943 723.484 1752
-274.311 727.614 1762
-271.477 731.33 1771
-268.6 735.047 1780
-264.343 735.047 1780
-260.671 736.698 1784
-257.267 739.176 1790
-253.552 740.828 1794
-249.262 740.828 1794
-248.659 751.977 1821
-246.183 757.759 1835
-242.585 760.236 1841
-238.183 760.236 1841
-234.543 762.714 1847
-230.998 765.605 1854
-227.298 768.082 1860
-313.787 1081.51 2619
-307.524 1081.51 2619
-303.102 1088.12 2635
-299.729 1098.85 2661
-293.366 1098.85 2661
-287.003 1098.85 2661
-280.64 1098.85 2661
-284.224 1165.75 2823
-277.473 1165.75 2823
-272.544 1173.6 2842
-266.216 1175.66 2847
-259.408 1175.66 2847
-252.6 1175.66 2847
-244.151 1167.82 2828
-236.969 1165.75 2823
-230.218 1165.75 2823
-223.468 1165.75 2823
-126.994 1147.99 2780
-121.385 1157.9 2804
-116.439 1175.66 2847
-109.631 1175.66 2847
-103.184 1179.79 2857
-96.5207 1181.86 2862
-89.8021 1183.51 2866
-82.9486 1183.51 2866
-76.2279 1185.57 2871
-69.3625 1185.57 2871
-62.497 1185.57 2871
-55.6316 1185.57 2871
-49.8023 1210.76 2932
-43.1705 1221.5 2958
-36.097 1221.5 2958
-29.0235 1221.5 2958
-21.95 1221.5 2958
-14.5396 1193.83 2891
-7.62636 1193.83 2891
-0.711865 1191.77 2886
6.22161 1197.96 2901
13.1588 1197.96 2901
20.0959 1197.96 2901
27.0331 1197.96 2901
33.7946 1191.77 2886
40.4844 1185.57 2871
47.3499 1185.57 2871
53.9509 1179.79 2857
60.6765 1177.73 2852
67.6148 1179.79 2857
74.4468 1179.79 2857
81.2787 1179.79 2857
87.8023 1175.66 2847
94.1118 1169.47 2832
100.884 1169.47 2832
107.656 1169.47 2832
114.428 1169.47 2832
121.201 1169.47 2832
127.566 1165.75 2823
134.317 1165.75 2823
140.817 1163.69 2818
147.294 1161.62 2813
154.295 1163.69 2818
161.605 1167.82 2828
168.368 1167.82 2828
176.307 1175.66 2847
183.758 1179.79 2857
191.19 1183.51 2866
198.044 1183.51 2866
204.897 1183.51 2866
211.751 1183.51 2866
218.604 1183.51 2866
224.356 1177.73 2852
231.176 1177.73 2852
239.582 1185.57 2871
247.306 1189.7 2881
254.195 1189.7 2881
261.084 1189.7 2881
267.974 1189.7 2881
274.863 1189.7 2881
281.752 1189.7 2881
287.64 1185.57 2871
295.018 1187.64 2876
303.995 1195.9 2896
310.92 1195.9 2896
317.845 1195.9 2896
324.771 1195.9 2896
331.123 1193.83 2891
338.036 1193.83 2891
343.16 1187.64 2876
350.037 1187.64 2876
356.294 1185.57 2871
365.057 1191.77 2886
371.958 1191.77 2886
381.485 1200.03 2906
388.434 1200.03 2906
395.383 1200.03 2906
402.333 1200.03 2906
408.577 1197.96 2901
415.515 1197.96 2901
422.452 1197.96 2901
429.389 1197.96 2901
436.326 1197.96 2901
443.263 1197.96 2901
450.201 1197.96 2901
457.138 1197.96 2901
463.275 1195.9 2896
469.388 1193.83 2891
473.007 1185.57 2871
479.872 1185.57 2871
485.89 1183.51 2866
497.041 1193.83 2891
505.698 1197.96 2901
512.635 1197.96 2901
519.572 1197.96 2901
525.602 1195.9 2896
526.275 1181.86 2862
533.119 1181.86 2862
539.963 1181.86 2862
545.852 1179.79 2857
552.683 1179.79 2857
559.515 1179.79 2857
564.365 1175.66 2847
572.176 1177.73 2852
581.026 1181.86 2862
587.87 1181.86 2862
594.714 1181.86 2862
602.399 1183.51 2866
609.252 1183.51 2866
618.255 1187.64 2876
626.22 1189.7 2881
633.109 1189.7 2881
639.998 1189.7 2881
645.765 1187.64 2876
652.642 1187.64 2876
656.309 1181.86 2862
661.995 1179.79 2857
665.315 1173.6 2842
672.111 1173.6 2842
677.713 1171.53 2837
682.326 1167.82 2828
754.038 1163.69 2818
760.777 1163.69 2818
767.516 1163.69 2818
830.311 1195.9 2896
837.237 1195.9 2896
844.162 1195.9 2896
846.679 1189.7 2881
853.568 1189.7 2881
855.977 1183.51 2866
858.616 1177.73 2852
865.436 1177.73 2852
872.256 1177.73 2852
877.535 1175.66 2847
879.684 1169.47 2832
888.021 1171.53 2837
894.805 1171.53 2837
901.589 1171.53 2837
908.373 1171.53 2837
913.544 1169.47 2832
917.392 1165.75 2823
924.143 1165.75 2823
924.628 1157.9 2804
929.672 1155.84 2799
942.722 1163.69 2818
949.461 1163.69 2818
956.199 1163.69 2818
962.938 1163.69 2818
967.956 1161.62 2813
974.683 1161.62 2813
978.27 1157.9 2804
976.544 1147.99 2780
983.192 1147.99 2780
1000.17 1159.97 2809
1006.88 1159.97 2809
1018.65 1165.75 2823
1028.67 1169.47 2832
1035.44 1169.47 2832
1042.22 1169.47 2832
1048.99 1169.47 2832
1052.4 1165.75 2823
1059.16 1165.75 2823
1065.91 1165.75 2823
1072.66 1165.75 2823
1074.05 1159.97 2809
1082.31 1161.62 2813
1094.84 1167.82 2828
1101.61 1167.82 2828
1108.37 1167.82 2828
1115.13 1167.82 2828
1121.89 1167.82 2828
1128.66 1167.82 2828
1137.03 1169.47 2832
1143.8 1169.47 2832
1150.57 1169.47 2832
1157.34 1169.47 2832
1164.11 1169.47 2832
1170.89 1169.47 2832
1179.74 1171.53 2837
1186.52 1171.53 2837
1195.41 1173.6 2842
1208.55 1179.79 2857
1223.47 1187.64 2876
1230.34 1187.64 2876
1237.22 1187.64 2876
1248.42 1191.77 2886
1255.32 1191.77 2886
1262.23 1191.77 2886
1266.93 1189.7 2881
1273.82 1189.7 2881
1278.48 1187.64 2876
1285.36 1187.64 2876
1287.75 1183.51 2866
1290.53 1179.79 2857
1297.37 1179.79 2857
1304.2 1179.79 2857
1308.74 1177.73 2852
1322.01 1183.51 2866
1338.14 1191.77 2886
1345.04 1191.77 2886
1351.94 1191.77 2886
1429.85 1216.96 2947
1439.82 1219.43 2953
1446.88 1219.43 2953
1453.94 1219.43 2953
1458.04 1216.96 2947
1465.08 1216.96 2947
1457.15 1204.57 2917
1446.05 1189.7 2881
1450.42 1187.64 2876
1457.3 1187.64 2876
1457.05 1181.86 2862
1463.89 1181.86 2862
1470.73 1181.86 2862
1477.58 1181.86 2862
1474.05 1173.6 2842
1478.24 1171.53 2837
1485.02 1171.53 2837
1499.7 1177.73 2852
1511.8 1181.86 2862
1518.64 1181.86 2862
1527.62 1183.51 2866
1534.47 1183.51 2866
1541.32 1183.51 2866
1548.18 1183.51 2866
1547.44 1177.73 2852
1551.53 1175.66 2847
1558.34 1175.66 2847
1551.95 1165.75 2823
1607.61 1181.86 2862
1619.53 1185.57 2871
1632.06 1189.7 2881
1647.49 1195.9 2896
1654.41 1195.9 2896
1661.34 1195.9 2896
1668.26 1195.9 2896
1675.19 1195.9 2896
1670.5 1187.64 2876
1674.46 1185.57 2871
1664.34 1173.6 2842
1679.96 1179.79 2857
1686.79 1179.79 2857
1693.62 1179.79 2857
1700.45 1179.79 2857
1707.28 1179.79 2857
1714.12 1179.79 2857
1700.47 1165.75 2823
1761.94 1179.79 2857
1768.77 1179.79 2857
1775.6 1179.79 2857
1766.84 1169.47 2832
1773.61 1169.47 2832
1783.53 1171.53 2837
1790.31 1171.53 2837
1806.6 1177.73 2852
1813.42 1177.73 2852
1820.24 1177.73 2852
1823.85 1175.66 2847
1830.66 1175.66 2847
1825.21 1167.82 2828
1831.97 1167.82 2828
1844.58 1171.53 2837
1851.37 1171.53 2837
1867.98 1177.73 2852
1874.8 1177.73 2852
1881.62 1177.73 2852
1888.44 1177.73 2852
1895.26 1177.73 2852
1895.41 1173.6 2842
1902.2 1173.6 2842
1909 1173.6 2842
-2312.81 1282.99 3089
-2305.42 1282.99 3089
-2298.04 1282.99 3089
-2290.65 1282.99 3089
-2270.7 1275.93 3072
-2263.35 1275.93 3072
-2239.85 1266.8 3050
-2224.5 1262.23 3039
-2193.16 1248.52 3006
-2185.97 1248.52 3006
-2167.19 1241.88 2990
-2152.09 1237.31 2979
-1493.23 1228.58 2958
-1486.16 1228.58 2958
-1495.09 1241.88 2990
-1495.9 1248.52 3006
-1494.16 1253.09 3017
-1486.94 1253.09 3017
-1479.73 1253.09 3017
-1474.96 1255.17 3022
-1475.99 1262.23 3039
-1468.72 1262.23 3039
-1461.45 1262.23 3039
-1430.74 1241.88 2990
-1420.73 1239.38 2984
-1413.59 1239.38 2984
-1404.1 1237.31 2979
-1396.98 1237.31 2979
-1407.8 1259.74 3033
-1400.54 1259.74 3033
-1393.29 1259.74 3033
-1386.04 1259.74 3033
-1378.78 1259.74 3033
-1371.53 1259.74 3033
-1217.97 1174.59 2828
-1211.2 1174.59 2828
-1204.44 1174.59 2828
-1197.68 1174.59 2828
-582.777 712.313 1715
-578.676 712.313 1715
-574.575 712.313 1715
-569.809 711.483 1713
-565.712 711.483 1713
-561.616 711.483 1713
-557.52 711.483 1713
-552.777 710.652 1711
-547.724 709.406 1708
-543.639 709.406 1708
-539.555 709.406 1708
-534.217 707.745 1704
-529.52 706.914 1702
-525.45 706.914 1702
-521.38 706.914 1702
-517.006 706.499 1701
-512.335 705.668 1699
-508.272 705.668 1699
-504.209 705.668 1699
-499.558 704.837 1697
-495.5 704.837 1697
-490.862 704.006 1695
-486.809 704.006 1695
-482.756 704.006 1695
-478.42 703.591 1694
-474.369 703.591 1694
-470.318 703.591 1694
-466.268 703.591 1694
-462.217 703.591 1694
-458.166 703.591 1694
-454.115 703.591 1694
-450.064 703.591 1694
-446.013 703.591 1694
-442.223 704.006 1695
-438.17 704.006 1695
-434.629 704.837 1697
-430.571 704.837 1697
-427.016 705.668 1699
-422.953 705.668 1699
-418.89 705.668 1699
-414.827 705.668 1699
-411.248 706.499 1701
-407.18 706.499 1701
-403.35 706.914 1702
-399.28 706.914 1702
-395.21 706.914 1702
-391.599 707.745 1704
-387.979 708.575 1706
-383.9 708.575 1706
-380.265 709.406 1708
-376.401 709.821 1709
-372.75 710.652 1711
-368.659 710.652 1711
-364.567 710.652 1711
-360.897 711.483 1713
-357.217 712.313 1715
-353.116 712.313 1715
-349.626 713.559 1718
-345.517 713.559 1718
-341.807 714.39 1720
-337.694 714.39 1720
-333.968 715.221 1722
-330.042 715.636 1723
-326.3 716.467 1725
-322.175 716.467 1725
-318.419 717.297 1727
-314.289 717.297 1727
-310.519 718.128 1729
-306.384 718.128 1729
-302.25 718.128 1729
-298.46 718.959 1731
-294.831 720.205 1734
-290.684 720.205 1734
-287.199 721.866 1738
-284.182 724.774 1745
-281.133 727.681 1752
-276.943 727.681 1752
-274.311 731.834 1762
-271.477 735.573 1771
-268.6 739.311 1780
-264.343 739.311 1780
-260.379 740.141 1782
-256.405 740.972 1784
-252.987 743.464 1790
-248.707 743.464 1790
-248.659 756.34 1821
-246.183 762.154 1835
-242.585 764.647 1841
-238.183 764.647 1841
-234.543 767.139 1847
-230.998 770.046 1854
-227.298 772.538 1860
-313.787 1087.78 2619
-307.524 1087.78 2619
-303.102 1094.43 2635
-299.729 1105.23 2661
-293.366 1105.23 2661
-287.003 1105.23 2661
-280.64 1105.23 2661
-272.544 1180.4 2842
-266.216 1182.48 2847
-259.408 1182.48 2847
-252.6 1182.48 2847
-244.497 1176.25 2832
-237.389 1174.59 2828
-230.626 1174.59 2828
-223.468 1172.51 2823
-138.473 1139.7 2744
-131.912 1139.7 2744
-126.994 1154.65 2780
-121.385 1164.62 2804
-116.439 1182.48 2847
-109.631 1182.48 2847
-103.184 1186.64 2857
-96.5207 1188.71 2862
-89.8021 1190.37 2866
-82.9486 1190.37 2866
-76.2279 1192.45 2871
-69.3625 1192.45 2871
-62.497 1192.45 2871
-55.6316 1192.45 2871
-49.8023 1217.79 2932
-43.1705 1228.58 2958
-36.097 1228.58 2958
-29.0235 1228.58 2958
-21.95 1228.58 2958
-14.5396 1200.76 2891
-7.62636 1200.76 2891
-0.711865 1198.68 2886
6.22161 1204.91 2901
13.1588 1204.91 2901
20.0959 1204.91 2901
27.0331 1204.91 2901
33.7946 1198.68 2886
40.4844 1192.45 2871
47.3499 1192.45 2871
53.9509 1186.64 2857
60.6765 1184.56 2852
67.6148 1186.64 2857
74.4468 1186.64 2857
81.2787 1186.64 2857
87.8023 1182.48 2847
94.1118 1176.25 2832
100.884 1176.25 2832
107.656 1176.25 2832
114.428 1176.25 2832
121.201 1176.25 2832
127.566 1172.51 2823
134.317 1172.51 2823
140.817 1170.44 2818
147.294 1168.36 2813
154.295 1170.44 2818
161.605 1174.59 2828
168.368 1174.59 2828
176.307 1182.48 2847
183.758 1186.64 2857
191.19 1190.37 2866
198.044 1190.37 2866
204.897 1190.37 2866
211.751 1190.37 2866
218.604 1190.37 2866
224.356 1184.56 2852
231.176 1184.56 2852
239.582 1192.45 2871
247.306 1196.6 2881
254.195 1196.6 2881
264.347 1211.56 2917
271.322 1211.56 2917
278.298 1211.56 2917
285.273 1211.56 2917
291.647 1209.06 2911
295.018 1194.53 2876
303.995 1202.83 2896
310.92 1202.83 2896
317.845 1202.83 2896
324.771 1202.83 2896
331.123 1200.76 2891
338.036 1200.76 2891
343.16 1194.53 2876
350.037 1194.53 2876
356.294 1192.45 2871
365.057 1198.68 2886
371.958 1198.68 2886
381.485 1206.99 2906
388.434 1206.99 2906
395.383 1206.99 2906
402.333 1206.99 2906
408.577 1204.91 2901
415.515 1204.91 2901
422.452 1204.91 2901
429.389 1204.91 2901
436.326 1204.91 2901
443.263 1204.91 2901
450.201 1204.91 2901
457.138 1204.91 2901
463.275 1202.83 2896
469.388 1200.76 2891
473.007 1192.45 2871
479.872 1192.45 2871
485.89 1190.37 2866
497.041 1200.76 2891
505.698 1204.91 2901
512.635 1204.91 2901
519.572 1204.91 2901
525.602 1202.83 2896
526.275 1188.71 2862
533.119 1188.71 2862
539.963 1188.71 2862
545.852 1186.64 2857
552.683 1186.64 2857
559.515 1186.64 2857
564.365 1182.48 2847
572.176 1184.56 2852
581.026 1188.71 2862
587.87 1188.71 2862
594.714 1188.71 2862
602.399 1190.37 2866
609.252 1190.37 2866
618.255 1194.53 2876
626.22 1196.6 2881
633.109 1196.6 2881
639.998 1196.6 2881
643.52 1190.37 2866
650.373 1190.37 2866
656.309 1188.71 2862
660.836 1184.56 2852
665.315 1180.4 2842
672.111 1180.4 2842
675.563 1174.59 2828
677.741 1166.7 2809
679.829 1158.81 2790
686.501 1158.81 2790
742.261 1162.55 2799
754.038 1170.44 2818
760.777 1170.44 2818
768.878 1172.51 2823
775.628 1172.51 2823
782.379 1172.51 2823
830.311 1202.83 2896
837.237 1202.83 2896
844.162 1202.83 2896
851.087 1202.83 2896
858.012 1202.83 2896
855.977 1190.37 2866
858.616 1184.56 2852
865.436 1184.56 2852
872.256 1184.56 2852
877.535 1182.48 2847
879.684 1176.25 2832
888.021 1178.33 2837
896.382 1180.4 2842
903.178 1180.4 2842
909.974 1180.4 2842
915.157 1178.33 2837
921.941 1178.33 2837
924.143 1172.51 2823
930.893 1172.51 2823
940.633 1176.25 2832
947.405 1176.25 2832
954.177 1176.25 2832
959.592 1174.59 2828
962.938 1170.44 2818
966.58 1166.7 2809
973.297 1166.7 2809
973.385 1158.81 2790
976.544 1154.65 2780
980.009 1150.92 2771
994.825 1160.47 2794
1001.51 1160.47 2794
1013.6 1166.7 2809
1020.32 1166.7 2809
1027.03 1166.7 2809
1033.75 1166.7 2809
1040.47 1166.7 2809
1045.32 1164.62 2804
1050.15 1162.55 2799
1056.84 1162.55 2799
1063.54 1162.55 2799
1070.23 1162.55 2799
1076.92 1162.55 2799
1089.04 1168.36 2813
1095.76 1168.36 2813
1104.45 1170.44 2818
1111.19 1170.44 2818
1117.93 1170.44 2818
1124.67 1170.44 2818
1131.41 1170.44 2818
1138.14 1170.44 2818
1144.88 1170.44 2818
1151.62 1170.44 2818
1160.42 1172.51 2823
1167.17 1172.51 2823
1177.66 1176.25 2832
1184.43 1176.25 2832
1195.41 1180.4 2842
1206.44 1184.56 2852
1219.21 1190.37 2866
1230.34 1194.53 2876
1237.22 1194.53 2876
1246.26 1196.6 2881
1253.15 1196.6 2881
1260.04 1196.6 2881
1266.93 1196.6 2881
1273.82 1196.6 2881
1278.48 1194.53 2876
1285.36 1194.53 2876
1287.75 1190.37 2866
1290.53 1186.64 2857
1297.37 1186.64 2857
1304.2 1186.64 2857
1308.74 1184.56 2852
1318.03 1133.89 2730
1429.85 1224.02 2947
1436.9 1224.02 2947
1443.94 1224.02 2947
1450.99 1224.02 2947
1443.19 1211.56 2917
1450.17 1211.56 2917
1436.66 1194.53 2876
1426.48 1180.4 2842
1430.75 1178.33 2837
1437.54 1178.33 2837
1444.32 1178.33 2837
1451.1 1178.33 2837
1457.89 1178.33 2837
1464.67 1178.33 2837
1459.01 1168.36 2813
1465.73 1168.36 2813
1477.7 1172.51 2823
1491.81 1178.33 2837
1503.87 1182.48 2847
1510.68 1182.48 2847
1517.49 1182.48 2847
1524.3 1182.48 2847
1531.11 1182.48 2847
1537.91 1182.48 2847
1544.72 1182.48 2847
1543.36 1176.25 2832
1550.13 1176.25 2832
1551.95 1172.51 2823
1607.61 1188.71 2862
1614.46 1188.71 2862
1629.23 1194.53 2876
1638.95 1196.6 2881
1645.84 1196.6 2881
1652.73 1196.6 2881
1659.62 1196.6 2881
1666.51 1196.6 2881
1667.59 1192.45 2871
1663.38 1184.56 2852
1661.41 1178.33 2837
1668.2 1178.33 2837
1674.98 1178.33 2837
1681.76 1178.33 2837
1688.55 1178.33 2837
1695.33 1178.33 2837
1702.12 1178.33 2837
1700.47 1172.51 2823
1744.63 1170.44 2818
1751.36 1170.44 2818
1758.1 1170.44 2818
1764.84 1170.44 2818
1771.58 1170.44 2818
1778.32 1170.44 2818
1797.09 1178.33 2837
1803.88 1178.33 2837
1810.66 1178.33 2837
1817.45 1178.33 2837
1818.44 1174.59 2828
1818.75 1170.44 2818
1825.49 1170.44 2818
1841.33 1176.25 2832
1848.1 1176.25 2832
1858.15 1178.33 2837
1868.22 1180.4 2842
1875.02 1180.4 2842
1881.81 1180.4 2842
1881.96 1176.25 2832
1886.07 1174.59 2828
1892.83 1174.59 2828
1899.59 1174.59 2828
-2312.81 1290.39 3089
-2305.42 1290.39 3089
-2298.04 1290.39 3089
-2290.65 1290.39 3089
-2270.7 1283.29 3072
-2263.35 1283.29 3072
-2239.85 1274.1 3050
-2232.56 1274.1 3050
-2193.16 1255.72 3006
-2185.97 1255.72 3006
-2167.19 1249.04 2990
-2152.09 1244.44 2979
-1493.23 1235.67 2958
-1486.16 1235.67 2958
-1487.09 1242.35 2974
-1495.9 1255.72 3006
-1494.16 1260.32 3017
-1486.94 1260.32 3017
-1482.18 1262.41 3022
-1477.88 1264.91 3028
-1475.99 1269.51 3039
-1468.72 1269.51 3039
-1461.45 1269.51 3039
-1448.92 1264.91 3028
-1441.68 1264.91 3028
-1413.59 1246.53 2984
-1406.46 1246.53 2984
-1417.14 1262.41 3022
-1409.92 1262.41 3022
-1407.8 1267 3033
-1400.54 1267 3033
-1393.29 1267 3033
-1386.04 1267 3033
-1378.78 1267 3033
-1371.53 1267 3033
-1337.74 1242.35 2974
-1311.84 1224.81 2932
-1304.83 1224.81 2932
-1291.17 1218.54 2917
-1268.35 1203.5 2881
-1253.14 1195.57 2862
-1246.3 1195.57 2862
-1235.12 1191.39 2852
-1221.84 1185.12 2837
-1215.06 1185.12 2837
-1208.27 1185.12 2837
-1197.68 1181.36 2828
-582.097 715.586 1713
-578.001 715.586 1713
-573.905 715.586 1713
-569.809 715.586 1713
-565.052 714.751 1711
-560.96 714.751 1711
-556.869 714.751 1711
-552.131 713.915 1709
-547.724 713.497 1708
-543.003 712.662 1706
-538.923 712.662 1706
-534.217 711.827 1704
-530.142 711.827 1704
-525.45 710.991 1702
-521.38 710.991 1702
-517.006 710.573 1701
-512.938 710.573 1701
-508.272 709.738 1699
-504.209 709.738 1699
-500.146 709.738 1699
-495.5 708.902 1697
-491.442 708.902 1697
-487.384 708.902 1697
-482.756 708.067 1695
-478.703 708.067 1695
-474.649 708.067 1695
-470.596 708.067 1695
-466.543 708.067 1695
-462.217 707.649 1694
-458.166 707.649 1694
-454.115 707.649 1694
-450.33 708.067 1695
-446.277 708.067 1695
-442.223 708.067 1695
-438.17 708.067 1695
-434.629 708.902 1697
-430.571 708.902 1697
-427.016 709.738 1699
-422.953 709.738 1699
-419.383 710.573 1701
-415.315 710.573 1701
-411.248 710.573 1701
-407.18 710.573 1701
-403.35 710.991 1702
-399.28 710.991 1702
-395.674 711.827 1704
-392.059 712.662 1706
-388.434 713.497 1708
-384.35 713.497 1708
-380.488 713.915 1709
-376.842 714.751 1711
-373.186 715.586 1713
-369.09 715.586 1713
-364.993 715.586 1713
-361.318 716.422 1715
-357.842 717.675 1718
-353.734 717.675 1718
-350.033 718.51 1720
-345.92 718.51 1720
-342.204 719.346 1722
-338.086 719.346 1722
-334.55 720.599 1725
-330.425 720.599 1725
-327.057 722.27 1729
-322.922 722.27 1729
-318.788 722.27 1729
-314.653 722.27 1729
-310.878 723.105 1731
-306.739 723.105 1731
-302.774 723.523 1732
-298.977 724.359 1734
-295.171 725.194 1736
-291.019 725.194 1736
-287.694 727.283 1741
-284.182 728.954 1745
-282.417 735.22 1760
-278.208 735.22 1760
-275.089 738.144 1767
-272.396 742.321 1777
-268.902 744.41 1782
-264.64 744.41 1782
-261.548 747.752 1790
-257.555 748.588 1792
-253.835 750.258 1796
-249.54 750.258 1796
-248.659 760.702 1821
-246.451 767.386 1837
-243.376 771.563 1847
-238.959 771.563 1847
-234.543 771.563 1847
-325.316 1090.72 2611
-320.05 1094.06 2619
-314.746 1097.4 2627
-308.464 1097.4 2627
-303.102 1100.74 2635
-296.801 1100.74 2635
-290.5 1100.74 2635
-284.199 1100.74 2635
-272.544 1187.21 2842
-266.216 1189.3 2847
-259.408 1189.3 2847
-252.6 1189.3 2847
-244.497 1183.04 2832
-237.389 1181.36 2828
-230.626 1181.36 2828
-223.468 1179.28 2823
-138.473 1146.27 2744
-131.912 1146.27 2744
-126.994 1161.31 2780
-121.385 1171.34 2804
-116.03 1185.12 2837
-109.246 1185.12 2837
-102.642 1187.21 2842
-96.0148 1189.3 2847
-89.5201 1193.48 2857
-82.6881 1193.48 2857
-75.989 1195.57 2862
-69.2417 1197.24 2866
-62.497 1199.33 2871
-55.6316 1199.33 2871
-49.8023 1224.81 2932
-42.937 1228.99 2942
-35.9017 1228.99 2942
-28.8665 1228.99 2942
-21.8313 1228.99 2942
-14.4642 1201.42 2876
-7.58679 1201.42 2876
-0.705945 1195.57 2862
6.16799 1201.42 2876
13.0454 1201.42 2876
19.9228 1201.42 2876
26.8002 1201.42 2876
33.6775 1201.42 2876
40.287 1193.48 2857
47.119 1193.48 2857
53.7621 1189.3 2847
60.3574 1185.12 2837
67.1415 1185.12 2837
73.9256 1185.12 2837
80.5675 1183.04 2832
87.2163 1181.36 2828
93.6466 1177.19 2818
100.065 1173.43 2809
106.782 1173.43 2809
113.499 1173.43 2809
120.216 1173.43 2809
126.933 1173.43 2809
133.651 1173.43 2809
140.118 1171.34 2804
146.561 1169.25 2799
153.528 1171.34 2804
160.748 1175.1 2813
167.475 1175.1 2813
174.821 1179.28 2823
183.115 1189.3 2847
189.923 1189.3 2847
196.731 1189.3 2847
203.539 1189.3 2847
210.347 1189.3 2847
217.155 1189.3 2847
222.783 1183.04 2832
228.826 1179.28 2823
237.579 1189.3 2847
246.447 1199.33 2871
253.313 1199.33 2871
264.347 1218.54 2917
271.322 1218.54 2917
278.298 1218.54 2917
285.273 1218.54 2917
291.647 1216.04 2911
293.992 1197.24 2866
301.896 1201.42 2876
309.31 1203.5 2881
316.199 1203.5 2881
323.089 1203.5 2881
329.405 1201.42 2876
336.283 1201.42 2876
340.296 1191.39 2852
347.116 1191.39 2852
353.936 1191.39 2852
363.16 1199.33 2871
370.025 1199.33 2871
378.86 1205.59 2886
387.098 1209.77 2896
394.023 1209.77 2896
400.948 1209.77 2896
406.465 1205.59 2886
413.366 1205.59 2886
420.267 1205.59 2886
427.169 1205.59 2886
434.07 1205.59 2886
442.499 1209.77 2896
449.425 1209.77 2896
456.35 1209.77 2896
460.076 1201.42 2876
465.329 1197.24 2866
471.524 1195.57 2862
478.368 1195.57 2862
485.212 1195.57 2862
494.463 1201.42 2876
503.955 1207.68 2891
510.868 1207.68 2891
517.781 1207.68 2891
521.972 1201.42 2876
524.436 1191.39 2852
531.256 1191.39 2852
537.133 1189.3 2847
543.941 1189.3 2847
550.749 1189.3 2847
557.557 1189.3 2847
562.383 1185.12 2837
571.173 1189.3 2847
581.026 1195.57 2862
587.87 1195.57 2862
594.714 1195.57 2862
602.399 1197.24 2866
609.252 1197.24 2866
618.255 1201.42 2876
626.22 1203.5 2881
633.109 1203.5 2881
639.998 1203.5 2881
643.52 1197.24 2866
650.373 1197.24 2866
656.309 1195.57 2862
660.836 1191.39 2852
665.315 1187.21 2842
672.111 1187.21 2842
675.563 1181.36 2828
677.741 1173.43 2809
682.022 1169.25 2799
688.715 1169.25 2799
695.408 1169.25 2799
734.254 1167.16 2794
742.261 1169.25 2799
754.038 1177.19 2818
760.777 1177.19 2818
768.878 1179.28 2823
775.628 1179.28 2823
782.379 1179.28 2823
830.311 1209.77 2896
837.237 1209.77 2896
844.162 1209.77 2896
851.087 1209.77 2896
858.012 1209.77 2896
855.977 1197.24 2866
858.616 1191.39 2852
865.436 1191.39 2852
872.256 1191.39 2852
877.535 1189.3 2847
879.684 1183.04 2832
888.021 1185.12 2837
896.382 1187.21 2842
903.178 1187.21 2842
909.974 1187.21 2842
915.157 1185.12 2837
921.941 1185.12 2837
924.143 1179.28 2823
930.893 1179.28 2823
940.633 1183.04 2832
947.405 1183.04 2832
954.177 1183.04 2832
959.592 1181.36 2828
964.646 1179.28 2823
966.58 1173.43 2809
973.297 1173.43 2809
973.385 1165.49 2790
976.544 1161.31 2780
980.009 1157.55 2771
994.825 1167.16 2794
1001.51 1167.16 2794
1013.6 1173.43 2809
1020.32 1173.43 2809
1027.03 1173.43 2809
1033.75 1173.43 2809
1040.47 1173.43 2809
1045.32 1171.34 2804
1050.15 1169.25 2799
1056.84 1169.25 2799
1063.54 1169.25 2799
1070.23 1169.25 2799
1076.92 1169.25 2799
1089.04 1175.1 2813
1095.76 1175.1 2813
1104.45 1177.19 2818
1111.19 1177.19 2818
1117.93 1177.19 2818
1124.67 1177.19 2818
1131.41 1177.19 2818
1138.14 1177.19 2818
1144.88 1177.19 2818
1151.62 1177.19 2818
1160.42 1179.28 2823
1167.17 1179.28 2823
1177.66 1183.04 2832
1184.43 1183.04 2832
1195.41 1187.21 2842
1206.44 1191.39 2852
1219.21 1197.24 2866
1230.34 1201.42 2876
1237.22 1201.42 2876
1246.26 1203.5 2881
1253.15 1203.5 2881
1260.04 1203.5 2881
1266.93 1203.5 2881
1273.82 1203.5 2881
1278.48 1201.42 2876
1285.36 1201.42 2876
1287.75 1197.24 2866
1290.53 1193.48 2857
1297.37 1193.48 2857
1304.2 1193.48 2857
1308.74 1191.39 2852
1304.49 1181.36 2828
1311.25 1181.36 2828
1318.01 1181.36 2828
1317.75 1175.1 2813
1324.47 1175.1 2813
1320.32 1165.49 2790
1307.01 1147.95 2748
1313.58 1147.95 2748
1320.15 1147.95 2748
1322.38 1144.19 2739
1331.36 1146.27 2744
1364.73 1169.25 2799
1371.43 1169.25 2799
1392.4 1181.36 2828
1399.16 1181.36 2828
1405.92 1181.36 2828
1407.69 1177.19 2818
1414.43 1177.19 2818
1416.63 1173.43 2809
1425.37 1175.1 2813
1432.1 1175.1 2813
1438.83 1175.1 2813
1445.55 1175.1 2813
1452.28 1175.1 2813
1456.93 1173.43 2809
1461.05 1171.34 2804
1472.46 1175.1 2813
1484.45 1179.28 2823
1495.95 1183.04 2832
1502.72 1183.04 2832
1514.83 1187.21 2842
1521.62 1187.21 2842
1528.42 1187.21 2842
1529.81 1183.04 2832
1536.58 1183.04 2832
1541.18 1181.36 2828
1547.94 1181.36 2828
1551.95 1179.28 2823
1540.48 1165.49 2790
1561.62 1171.34 2804
1581.75 1181.36 2828
1596.38 1187.21 2842
1611.64 1193.48 2857
1621.3 1195.57 2862
1638.95 1203.5 2881
1645.84 1203.5 2881
1652.73 1203.5 2881
1653.86 1199.33 2871
1660.73 1199.33 2871
1656.56 1191.39 2852
1643.55 1177.19 2818
1645.01 1173.43 2809
1662.9 1181.36 2828
1669.67 1181.36 2828
1676.43 1181.36 2828
1683.19 1181.36 2828
1689.95 1181.36 2828
1693.72 1179.28 2823
1692.03 1173.43 2809
1729.77 1167.16 2794
1736.45 1167.16 2794
1743.13 1167.16 2794
1761.71 1175.1 2813
1771.58 1177.19 2818
1778.32 1177.19 2818
1793.93 1183.04 2832
1800.7 1183.04 2832
1807.47 1183.04 2832
1805.27 1177.19 2818
1812.01 1177.19 2818
1806.49 1169.25 2799
1813.18 1169.25 2799
1841.33 1183.04 2832
1848.1 1183.04 2832
1858.15 1185.12 2837
1864.94 1185.12 2837
1871.72 1185.12 2837
1878.5 1185.12 2837
1885.29 1185.12 2837
1888.74 1183.04 2832
1895.51 1183.04 2832
1902.28 1183.04 2832
-2300.08 1290.65 3072
-2292.74 1290.65 3072
-2281.67 1288.55 3067
-2269.89 1286.03 3061
-2262.57 1286.03 3061
-2255.25 1286.03 3061
-2239.85 1281.41 3050
-2232.56 1281.41 3050
-2181.49 1256.2 2990
-2174.34 1256.2 2990
-2167.19 1256.2 2990
-2152.09 1251.58 2979
-1495.76 1244.86 2963
-1488.67 1244.86 2963
-1487.09 1249.48 2974
-1501.37 1267.54 3017
-1496.63 1269.65 3022
-1489.41 1269.65 3022
-1482.18 1269.65 3022
-1477.88 1272.17 3028
-1475.99 1276.79 3039
-1468.72 1276.79 3039
-1461.45 1276.79 3039
-1448.92 1272.17 3028
-1441.68 1272.17 3028
-1413.59 1253.68 2984
-1406.46 1253.68 2984
-1417.14 1269.65 3022
