1722.28 167.304 3603
1727.06 166.933 3595
1735.65 166.933 3595
1740.85 166.608 3588
1749.43 166.608 3588
1758.01 166.608 3588
1766.59 166.608 3588
1767.26 165.865 3572
1775.8 165.865 3572
1776.85 165.168 3557
1766.78 163.45 3520
1775.2 163.45 3520
1771.96 162.382 3497
1762 160.71 3461
1752.37 159.085 3426
1760.56 159.085 3426
1768.76 159.085 3426
1776.95 159.085 3426
1785.14 159.085 3426
1797 159.41 3433
1812.57 160.06 3447
1820.81 160.06 3447
1844.44 161.407 3476
1860.22 162.057 3490
1872.31 162.382 3497
1880.67 162.382 3497
1893.36 162.754 3505
1905.54 163.079 3512
1922.11 163.775 3527
1930.54 163.775 3527
1955.47 165.168 3557
1972.26 165.865 3572
1985.24 166.236 3580
1993.8 166.236 3580
2010.75 166.933 3595
2023.84 167.304 3603
2063.48 169.858 3658
2072.23 169.858 3658
2086.1 170.276 3667
2094.86 170.276 3667
2103.63 170.276 3667
2112.4 170.276 3667
2115.97 169.858 3658
2124.71 169.858 3658
2133.46 169.858 3658
2142.21 169.858 3658
2150.95 169.858 3658
2165.02 170.276 3667
2173.78 170.276 3667
2182.55 170.276 3667
2191.32 170.276 3667
2194.69 169.858 3658
2193.8 169.115 3642
2202.51 169.115 3642
2206.97 168.79 3635
2219.93 169.115 3642
2233.53 169.487 3650
2242.26 169.487 3650
2250.99 169.487 3650
2254.77 169.115 3642
2254.15 168.419 3627
2262.83 168.419 3627
2280.89 169.115 3642
2289.6 169.115 3642
2298.31 169.115 3642
2307.02 169.115 3642
2315.73 169.115 3642
2324.44 169.115 3642
2328.66 168.79 3635
2337.36 168.79 3635
2350.57 169.115 3642
2359.27 169.115 3642
2378.39 169.858 3658
2387.13 169.858 3658
2395.88 169.858 3658
2404.63 169.858 3658
2413.38 169.858 3658
2416.83 169.487 3650
2425.55 169.487 3650
2428.95 169.115 3642
2443.01 169.487 3650
2451.74 169.487 3650
2460.47 169.487 3650
2469.2 169.487 3650
2472.49 169.115 3642
2476.43 168.79 3635
2485.13 168.79 3635
2493.82 168.79 3635
2497 168.419 3627
2494.62 167.676 3611
1983.76 131.967 2842
1990.55 131.967 2842
1997.35 131.967 2842
2000.62 131.735 2837
1990.42 130.621 2813
1997.15 130.621 2813
1997.46 130.203 2804
1997.02 129.739 2794
1987.21 128.671 2771
1993.83 128.671 2771
1997.57 128.485 2767
2000.57 128.253 2762
2010.81 128.485 2767
2020.34 128.671 2771
2037.21 129.321 2785
2043.87 129.321 2785
2050.52 129.321 2785
2063.83 129.739 2794
2070.51 129.739 2794
2077.2 129.739 2794
2095.06 130.435 2809
2104.77 130.621 2813
2115.25 130.853 2818
2121.99 130.853 2818
2132.51 131.085 2823
2143.05 131.317 2828
2156.65 131.735 2837
2163.44 131.735 2837
2170.22 131.735 2837
-2370.46 154.596 3166
-2362.89 154.596 3166
-2350.86 154.303 3160
-2343.3 154.303 3160
-2331.31 154.01 3154
-2323.77 154.01 3154
-2307.41 153.424 3142
-2304.29 153.717 3148
-2305.52 154.303 3160
-2302.32 154.596 3166
-2294.75 154.596 3166
-2291.52 154.889 3172
-2292.57 155.475 3184
-2284.96 155.475 3184
-2277.34 155.475 3184
-2269.73 155.475 3184
-2262.12 155.475 3184
-2254.5 155.475 3184
-2238.42 154.889 3172
-2218.18 154.01 3154
-2202.22 153.424 3142
-2194.71 153.424 3142
-2178.84 152.839 3130
-2171.36 152.839 3130
-2168.02 153.132 3136
-2172.92 154.01 3154
-2165.38 154.01 3154
-2157.84 154.01 3154
-2150.3 154.01 3154
-2142.75 154.01 3154
-2135.21 154.01 3154
-2131.72 154.303 3160
-2136.26 155.182 3178
-2128.66 155.182 3178
-2121.06 155.182 3178
-2117.45 155.475 3184
-2109.84 155.475 3184
-2102.22 155.475 3184
-2094.61 155.475 3184
-2087 155.475 3184
-2091.14 156.354 3202
-2091.29 156.94 3214
-2083.6 156.94 3214
-2080.44 157.282 3221
-2080.46 157.868 3233
-2072.73 157.868 3233
-2065 157.868 3233
-2057.27 157.868 3233
-2045.73 157.575 3227
-2038.01 157.575 3227
-2030.3 157.575 3227
-2022.58 157.575 3227
-2014.86 157.575 3227
-2007.15 157.575 3227
-1999.43 157.575 3227
-1988.01 157.282 3221
-1972.32 156.647 3208
-1968.32 156.94 3214
-1960.63 156.94 3214
-1964.49 157.868 3233
-1964.63 158.503 3246
-1960.48 158.796 3252
-1952.71 158.796 3252
-1948.52 159.089 3258
-1948.47 159.724 3271
-1940.65 159.724 3271
-1932.83 159.724 3271
-1921.48 159.431 3265
-1921.29 160.065 3278
-1913.45 160.065 3278
-1905.61 160.065 3278
-1901.25 160.358 3284
-1896.85 160.651 3290
-1888.98 160.651 3290
-1881.12 160.651 3290
-1869.83 160.358 3284
-1858.58 160.065 3278
-1846.79 159.724 3271
-1838.97 159.724 3271
-1831.14 159.724 3271
-1823.32 159.724 3271
-1812.17 159.431 3265
-1804.36 159.431 3265
-1796.55 159.431 3265
-1784.91 159.089 3258
-1777.12 159.089 3258
-1769.33 159.089 3258
-1761.54 159.089 3258
-1753.75 159.089 3258
-1745.96 159.089 3258
-1738.17 159.089 3258
-1730.38 159.089 3258
-1722.58 159.089 3258
-1718.48 159.431 3265
-1710.67 159.431 3265
-1702.86 159.431 3265
-1691.42 159.089 3258
-1693.97 160.065 3278
-1692.3 160.651 3290
-1684.43 160.651 3290
-1683.19 161.286 3303
-1682.39 161.97 3317
-1684.56 162.946 3337
-1676.58 162.946 3337
-1668.6 162.946 3337
-1657.13 162.605 3330
-1649.17 162.605 3330
-1641.21 162.605 3330
-1633.24 162.605 3330
-1625.28 162.605 3330
-1617.32 162.605 3330
-1603.07 161.97 3317
-1595.14 161.97 3317
-1587.21 161.97 3317
-1582.13 162.263 3323
-1574.19 162.263 3323
-1566.24 162.263 3323
-1555.48 161.97 3317
-1547.55 161.97 3317
-1539.62 161.97 3317
-1525.22 161.286 3303
-1514.57 160.993 3297
-1506.68 160.993 3297
-1498.8 160.993 3297
-1485.03 160.358 3284
-1479.88 160.651 3290
-1475.14 160.993 3297
-1467.26 160.993 3297
-1459.38 160.993 3297
-1457.22 161.628 3310
-1449.3 161.628 3310
-1441.39 161.628 3310
-1433.47 161.628 3310
-1425.55 161.628 3310
-1417.64 161.628 3310
-1409.72 161.628 3310
-1401.81 161.628 3310
-1382.94 160.358 3284
-1372.58 160.065 3278
-1364.74 160.065 3278
-1348.62 159.089 3258
-1340.83 159.089 3258
-1333.04 159.089 3258
-1325.25 159.089 3258
-1309.78 158.161 3239
-1291.98 156.94 3214
-1284.3 156.94 3214
-1276.61 156.94 3214
-1264.19 156.354 3202
-1249.47 155.475 3184
-1234.83 154.596 3166
-1227.26 154.596 3166
-1215.07 154.01 3154
-1207.53 154.01 3154
-608.979 79.1538 1621
-605.103 79.1538 1621
-601.227 79.1538 1621
-596.982 79.1049 1620
-592.01 78.9584 1617
-588.143 78.9584 1617
-583.553 78.8608 1615
-577.897 78.6166 1610
-574.047 78.6166 1610
-570.197 78.6166 1610
-566.347 78.6166 1610
-562.497 78.6166 1610
-558.647 78.6166 1610
-554.452 78.5678 1609
-550.605 78.5678 1609
-546.077 78.4701 1607
-541.897 78.4213 1606
-538.057 78.4213 1606
-534.216 78.4213 1606
-530.376 78.4213 1606
-525.88 78.3236 1604
-522.044 78.3236 1604
-519.824 78.5678 1609
-515.976 78.5678 1609
-512.129 78.5678 1609
-509.229 78.7143 1612
-505.687 78.7631 1613
-501.83 78.7631 1613
-498.59 78.8608 1615
-495.648 79.0073 1618
-491.778 79.0073 1618
-487.909 79.0073 1618
-484.638 79.1049 1620
-481.061 79.1538 1621
-477.185 79.1538 1621
-473.309 79.1538 1621
-469.432 79.1538 1621
-466.131 79.2514 1623
-462.249 79.2514 1623
-458.368 79.2514 1623
-454.487 79.2514 1623
-450.884 79.3003 1624
-447 79.3003 1624
-443.117 79.3003 1624
-439.233 79.3003 1624
-435.35 79.3003 1624
-431.466 79.3003 1624
-427.583 79.3003 1624
-423.699 79.3003 1624
-419.04 79.1538 1621
-415.164 79.1538 1621
-411.288 79.1538 1621
-407.412 79.1538 1621
-403.535 79.1538 1621
-399.659 79.1538 1621
-395.783 79.1538 1621
-391.906 79.1538 1621
-388.03 79.1538 1621
-384.154 79.1538 1621
-380.277 79.1538 1621
-376.401 79.1538 1621
-372.525 79.1538 1621
-368.649 79.1538 1621
-364.772 79.1538 1621
-360.896 79.1538 1621
-357.02 79.1538 1621
-353.143 79.1538 1621
-349.267 79.1538 1621
-345.391 79.1538 1621
-341.936 79.2514 1623
-338.263 79.3003 1624
-334.38 79.3003 1624
-330.496 79.3003 1624
-327.015 79.3979 1626
-323.524 79.4956 1628
-319.631 79.4956 1628
-315.738 79.4956 1628
-312.036 79.5444 1629
-308.519 79.6421 1631
-305.553 79.8862 1636
-301.641 79.8862 1636
-297.729 79.8862 1636
-293.996 79.935 1637
-290.967 80.1792 1642
-287.041 80.1792 1642
-283.632 80.3257 1645
-280.548 80.5698 1650
-277.105 80.7163 1653
-273.153 80.7163 1653
-270.665 81.1558 1662
-266.852 81.2046 1663
-263.191 81.3023 1665
-259.209 81.3023 1665
-256.301 81.6441 1672
-252.454 81.6929 1673
-249.196 81.9371 1678
-245.183 81.9371 1678
-241.17 81.9371 1678
-237.723 82.1324 1682
-233.84 82.1812 1683
-229.815 82.1812 1683
-226.73 82.523 1690
-222.952 82.6207 1692
-219.294 82.7672 1695
-215.241 82.7672 1695
-211.935 83.0602 1701
-208.234 83.2067 1704
-204.998 83.5485 1711
-200.906 83.5485 1711
-197.045 83.6461 1713
-193.512 83.8903 1718
-190.175 84.2321 1725
-186.05 84.2321 1725
-182.136 84.3298 1727
-178.419 84.5251 1731
-174.984 84.8669 1738
-170.828 84.8669 1738
-166.96 85.0134 1741
-163.545 85.404 1749
-160 85.7458 1756
-155.801 85.7458 1756
-152.551 86.283 1767
-148.662 86.4783 1771
-144.916 86.7713 1777
-140.667 86.7713 1777
-136.801 87.0154 1782
-132.689 87.1131 1784
-128.711 87.3084 1788
-124.574 87.4061 1790
-120.294 87.4061 1790
-116.013 87.4061 1790
-191.209 169.001 3461
-182.932 169.001 3461
-174.656 169.001 3461
-167.437 170.076 3483
-159.748 170.759 3497
-151.386 170.759 3497
-143.023 170.759 3497
-134.661 170.759 3497
-126.298 170.759 3497
-117.936 170.759 3497
-109.824 171.15 3505
-101.877 171.882 3520
-93.4595 171.882 3520
-85.0421 171.882 3520
-76.6247 171.882 3520
-68.2073 171.882 3520
-59.5352 171.15 3505
-51.1537 171.15 3505
-42.7721 171.15 3505
-34.3906 171.15 3505
-26.0091 171.15 3505
-17.6628 171.492 3512
-9.26453 171.492 3512
-0.866275 171.492 3512
7.53198 171.492 3512
15.9302 171.492 3512
24.3285 171.492 3512
32.6615 171.15 3505
41.043 171.15 3505
49.4246 171.15 3505
57.4432 170.076 3483
65.7721 170.076 3483
74.1011 170.076 3483
82.43 170.076 3483
90.368 169.343 3468
98.4619 169.001 3461
106.306 168.318 3447
114.549 168.318 3447
122.293 167.634 3433
130.503 167.634 3433
138.995 167.976 3440
147.221 167.976 3440
155.447 167.976 3440
163.007 167.292 3426
170.85 166.95 3419
179.392 167.292 3426
187.585 167.292 3426
195.777 167.292 3426
205.22 168.318 3447
213.897 168.66 3454
222.606 169.001 3461
230.883 169.001 3461
239.159 169.001 3461
249.008 170.076 3483
257.854 170.417 3490
266.2 170.417 3490
274.546 170.417 3490
283.459 170.759 3497
291.821 170.759 3497
300.183 170.759 3497
309.252 171.15 3505
317.633 171.15 3505
326.015 171.15 3505
333.633 170.759 3497
341.995 170.759 3497
349.656 170.417 3490
358.002 170.417 3490
366.348 170.417 3490
372.331 169.343 3468
379.856 169.001 3461
388.132 169.001 3461
396.409 169.001 3461
399.774 166.95 3419
405.444 165.925 3398
413.57 165.925 3398
421.696 165.925 3398
429.821 165.925 3398
436.142 165.241 3384
441.478 164.216 3363
449.52 164.216 3363
456.745 163.923 3357
466.573 164.558 3370
474.632 164.558 3370
482.69 164.558 3370
490.749 164.558 3370
497.772 164.216 3363
505.813 164.216 3363
515.995 164.9 3377
528.415 166.267 3405
536.558 166.267 3405
546.94 166.95 3419
558.525 167.976 3440
574.989 170.417 3490
583.334 170.417 3490
592.867 170.759 3497
601.229 170.759 3497
609.592 170.759 3497
616.717 170.417 3490
626.316 170.759 3497
634.679 170.759 3497
643.041 170.759 3497
651.404 170.759 3497
659.766 170.759 3497
669.657 171.15 3505
680.94 171.882 3520
689.357 171.882 3520
700.55 172.566 3534
709.001 172.566 3534
717.452 172.566 3534
725.903 172.566 3534
734.354 172.566 3534
741.333 172.224 3527
749.767 172.224 3527
758.201 172.224 3527
765.114 171.882 3520
771.773 171.492 3512
780.172 171.492 3512
790.366 171.882 3520
798.784 171.882 3520
808.806 172.224 3527
818.862 172.566 3534
830.825 173.298 3549
839.311 173.298 3549
849.709 173.689 3557
858.215 173.689 3557
866.721 173.689 3557
875.227 173.689 3557
880.006 172.957 3542
886.469 172.566 3534
894.92 172.566 3534
903.371 172.566 3534
917.756 173.689 3557
926.262 173.689 3557
934.768 173.689 3557
943.274 173.689 3557
951.78 173.689 3557
960.285 173.689 3557
968.791 173.689 3557
977.297 173.689 3557
985.803 173.689 3557
996.545 174.08 3565
1005.07 174.08 3565
1013.6 174.08 3565
1022.12 174.08 3565
1032.67 174.421 3572
1041.21 174.421 3572
1052.1 174.812 3580
1060.66 174.812 3580
1073.71 175.545 3595
1084.71 175.935 3603
1093.33 175.935 3603
1101.94 175.935 3603
1110.56 175.935 3603
1119.17 175.935 3603
1127.79 175.935 3603
1136.41 175.935 3603
1145.02 175.935 3603
1151.08 175.545 3595
1164.83 176.326 3611
1173.47 176.326 3611
1182.1 176.326 3611
1196.01 177.107 3627
1204.69 177.107 3627
1213.36 177.107 3627
1222.03 177.107 3627
1233.42 177.498 3635
1244.51 177.84 3642
1253.22 177.84 3642
1261.92 177.84 3642
1270.63 177.84 3642
1279.34 177.84 3642
1288.05 177.84 3642
1296.76 177.84 3642
1305.47 177.84 3642
1314.18 177.84 3642
1322.89 177.84 3642
1329.04 177.498 3635
1337.73 177.498 3635
1346.42 177.498 3635
1355.12 177.498 3635
1363.81 177.498 3635
1372.5 177.498 3635
1381.19 177.498 3635
1392.56 177.84 3642
1401.27 177.84 3642
1409.98 177.84 3642
1415.96 177.498 3635
1424.65 177.498 3635
1430.19 177.107 3627
1426.17 175.545 3595
1428.78 174.812 3580
1437.34 174.812 3580
1445.9 174.812 3580
1448.37 174.08 3565
1450.36 173.298 3549
1455.97 172.957 3542
1464.44 172.957 3542
1472.91 172.957 3542
1481.38 172.957 3542
1489.85 172.957 3542
1498.32 172.957 3542
1503.38 172.566 3534
1511.83 172.566 3534
1517.27 172.224 3527
1525.71 172.224 3527
1531.1 171.882 3520
1539.51 171.882 3520
1551.01 172.224 3527
1566.08 172.957 3542
1581.21 173.689 3557
1589.72 173.689 3557
1604.97 174.421 3572
1617.12 174.812 3580
1632.49 175.545 3595
1641.09 175.545 3595
1660.7 176.717 3619
1669.35 176.717 3619
1678.01 176.717 3619
1686.66 176.717 3619
1702.81 177.498 3635
1718.57 178.23 3650
1727.29 178.23 3650
1736.02 178.23 3650
1737.58 177.498 3635
1738.59 176.717 3619
1747.24 176.717 3619
1755.89 176.717 3619
1756.75 175.935 3603
1758.01 175.203 3588
1766.59 175.203 3588
1775.17 175.203 3588
1783.75 175.203 3588
1784.34 174.421 3572
1777.83 172.957 3542
1786.3 172.957 3542
1779.56 171.492 3512
1773.2 170.076 3483
1755.95 167.634 3433
1764.16 167.634 3433
1768.76 167.292 3426
1776.95 167.292 3426
1785.14 167.292 3426
1797 167.634 3433
1812.57 168.318 3447
1820.81 168.318 3447
1844.44 169.734 3476
1860.22 170.417 3490
1876.6 171.15 3505
1884.98 171.15 3505
1897.14 171.492 3512
1909.88 171.882 3520
1925.93 172.566 3534
1934.38 172.566 3534
1955.47 173.689 3557
1972.26 174.421 3572
1985.24 174.812 3580
1993.8 174.812 3580
2010.75 175.545 3595
2023.84 175.935 3603
2063.48 178.621 3658
2072.23 178.621 3658
2086.1 179.06 3667
2094.86 179.06 3667
2103.63 179.06 3667
2112.4 179.06 3667
2115.97 178.621 3658
2124.71 178.621 3658
2133.46 178.621 3658
2142.21 178.621 3658
2150.95 178.621 3658
2165.02 179.06 3667
2173.78 179.06 3667
2182.55 179.06 3667
2191.32 179.06 3667
2194.69 178.621 3658
2193.8 177.84 3642
2202.51 177.84 3642
2206.97 177.498 3635
2219.93 177.84 3642
2233.53 178.23 3650
2242.26 178.23 3650
2250.99 178.23 3650
2259.72 178.23 3650
2259.12 177.498 3635
2272.18 177.84 3642
2280.89 177.84 3642
2289.6 177.84 3642
2298.31 177.84 3642
2307.02 177.84 3642
2315.73 177.84 3642
2324.44 177.84 3642
2333.15 177.84 3642
2341.86 177.84 3642
2350.57 177.84 3642
2359.27 177.84 3642
2384.24 179.06 3667
2393.01 179.06 3667
2401.78 179.06 3667
2410.55 179.06 3667
2413.38 178.621 3658
2416.83 178.23 3650
2425.55 178.23 3650
2434.28 178.23 3650
2443.01 178.23 3650
2451.74 178.23 3650
2460.47 178.23 3650
2469.2 178.23 3650
2472.49 177.84 3642
2476.43 177.498 3635
2485.13 177.498 3635
2493.82 177.498 3635
2497 177.107 3627
2494.62 176.326 3611
2503.26 176.326 3611
2511.89 176.326 3611
1983.76 138.775 2842
1990.55 138.775 2842
1997.35 138.775 2842
2000.62 138.531 2837
1990.42 137.359 2813
1997.15 137.359 2813
1997.46 136.92 2804
1997.02 136.432 2794
1987.21 135.309 2771
1993.83 135.309 2771
1997.57 135.113 2767
2000.57 134.869 2762
2010.81 135.113 2767
2020.34 135.309 2771
2037.21 135.992 2785
2043.87 135.992 2785
2050.52 135.992 2785
2063.83 136.432 2794
2070.51 136.432 2794
2077.2 136.432 2794
2095.06 137.164 2809
2104.77 137.359 2813
2115.25 137.604 2818
2121.99 137.604 2818
2132.51 137.848 2823
2143.05 138.092 2828
2156.65 138.531 2837
2163.44 138.531 2837
2170.22 138.531 2837
-2365.97 161.873 3160
-2358.41 161.873 3160
-2346.39 161.566 3154
-2338.85 161.566 3154
-2318 160.644 3136
-2314.93 160.951 3142
-2307.41 160.951 3142
-2304.29 161.259 3148
-2301.14 161.566 3154
-2297.96 161.873 3160
-2290.4 161.873 3160
-2287.18 162.181 3166
-2288.25 162.795 3178
-2284.96 163.103 3184
-2277.34 163.103 3184
-2269.73 163.103 3184
-2262.12 163.103 3184
-2254.5 163.103 3184
-2238.42 162.488 3172
-2213.96 161.259 3148
-2193.81 160.336 3130
-2190.52 160.644 3136
-2183.02 160.644 3136
-2175.52 160.644 3136
-2168.02 160.644 3136
-2172.92 161.566 3154
-2165.38 161.566 3154
-2161.94 161.873 3160
-2154.39 161.873 3160
-2146.83 161.873 3160
-2139.27 161.873 3160
-2131.72 161.873 3160
-2136.26 162.795 3178
-2132.68 163.103 3184
-2125.07 163.103 3184
-2117.45 163.103 3184
-2109.84 163.103 3184
-2102.22 163.103 3184
-2094.61 163.103 3184
-2087 163.103 3184
-2091.14 164.025 3202
-2091.29 164.639 3214
-2083.6 164.639 3214
-2084.31 165.305 3227
-2080.46 165.613 3233
-2072.73 165.613 3233
-2065 165.613 3233
-2057.27 165.613 3233
-2053.34 165.92 3239
-2045.59 165.92 3239
-2037.85 165.92 3239
-2030.1 165.92 3239
-2022.36 165.92 3239
-2014.61 165.92 3239
-2003.15 165.613 3233
-1991.71 165.305 3227
-1980.31 164.998 3221
-1972.61 164.998 3221
-1964.9 164.998 3221
-1972.39 166.279 3246
-1968.26 166.586 3252
-1968.32 167.252 3265
-1960.51 167.252 3265
-1956.29 167.559 3271
-1952.64 167.918 3278
-1944.8 167.918 3278
-1936.97 167.918 3278
-1929.13 167.918 3278
-1921.29 167.918 3278
-1913.45 167.918 3278
-1905.61 167.918 3278
-1904.72 168.533 3290
-1896.85 168.533 3290
-1888.98 168.533 3290
-1881.12 168.533 3290
-1873.25 168.533 3290
-1858.58 167.918 3278
-1850.74 167.918 3278
-1846.27 168.225 3284
-1838.42 168.225 3284
-1830.57 168.225 3284
-1819.39 167.918 3278
-1811.55 167.918 3278
-1803.71 167.918 3278
-1792.03 167.559 3271
-1780.94 167.252 3265
-1773.13 167.252 3265
-1765.32 167.252 3265
-1757.52 167.252 3265
-1749.71 167.252 3265
-1745.1 167.559 3271
-1737.28 167.559 3271
-1733.16 167.918 3278
-1728.48 168.225 3284
-1720.63 168.225 3284
-1712.77 168.225 3284
-1701.8 167.918 3278
-1700.17 168.533 3290
-1702.59 169.557 3310
-1694.67 169.557 3310
-1690.32 169.916 3317
-1692.54 170.94 3337
-1691.12 171.606 3350
-1683.11 171.606 3350
-1675.1 171.606 3350
-1667.09 171.606 3350
-1662.54 171.965 3357
-1654.51 171.965 3357
-1649.43 172.272 3363
-1641.39 172.272 3363
-1633.35 172.272 3363
-1622.4 171.965 3357
-1614.38 171.965 3357
-1609.22 172.272 3363
-1601.18 172.272 3363
-1593.14 172.272 3363
-1585.09 172.272 3363
-1580.33 172.631 3370
-1572.28 172.631 3370
-1564.22 172.631 3370
-1546.92 171.606 3350
-1538.91 171.606 3350
-1530.9 171.606 3350
-1519.71 171.248 3343
-1511.71 171.248 3343
-1501.02 170.94 3337
-1493.04 170.94 3337
-1481.95 170.582 3330
-1473.98 170.582 3330
-1469.1 170.94 3337
-1461.12 170.94 3337
-1453.14 170.94 3337
-1442.13 170.582 3330
-1434.17 170.582 3330
-1426.21 170.582 3330
-1418.24 170.582 3330
-1410.28 170.582 3330
-1393.89 169.557 3310
-1375.09 168.225 3284
-1367.24 168.225 3284
-1351.52 167.252 3265
-1343.71 167.252 3265
-1333.04 166.893 3258
-1325.25 166.893 3258
-1317.46 166.893 3258
-1297.21 165.305 3227
-1284.3 164.639 3214
-1276.61 164.639 3214
-1268.92 164.639 3214
-1249.47 163.103 3184
-1234.83 162.181 3166
-1227.26 162.181 3166
-1217.38 161.873 3160
-1209.82 161.873 3160
-604.73 82.9857 1620
-600.856 82.9857 1620
-596.982 82.9857 1620
-592.01 82.832 1617
-588.143 82.832 1617
-583.553 82.7295 1615
-578.974 82.6271 1613
-574.76 82.5759 1612
-571.259 82.6271 1613
-567.402 82.6271 1613
-563.545 82.6271 1613
-559.341 82.5759 1612
-554.797 82.4734 1610
-550.947 82.4734 1610
-546.757 82.4222 1609
-543.922 82.5759 1612
-540.067 82.5759 1612
-536.212 82.5759 1612
-531.367 82.4222 1609
-527.519 82.4222 1609
-523.997 82.4734 1610
-520.147 82.4734 1610
-516.297 82.4734 1610
-513.402 82.6271 1613
-509.545 82.6271 1613
-506.941 82.832 1617
-503.075 82.832 1617
-499.517 82.8832 1618
-495.648 82.8832 1618
-492.69 83.0369 1621
-488.814 83.0369 1621
-484.938 83.0369 1621
-481.655 83.1393 1623
-477.774 83.1393 1623
-473.893 83.1393 1623
-470.301 83.1906 1624
-466.418 83.1906 1624
-462.534 83.1906 1624
-458.651 83.1906 1624
-454.767 83.1906 1624
-450.884 83.1906 1624
-447 83.1906 1624
-443.117 83.1906 1624
-439.233 83.1906 1624
-435.35 83.1906 1624
-431.466 83.1906 1624
-427.583 83.1906 1624
-423.699 83.1906 1624
-419.04 83.0369 1621
-415.164 83.0369 1621
-411.288 83.0369 1621
-407.412 83.0369 1621
-403.535 83.0369 1621
-399.659 83.0369 1621
-395.783 83.0369 1621
-391.906 83.0369 1621
-388.03 83.0369 1621
-384.154 83.0369 1621
-380.277 83.0369 1621
-376.401 83.0369 1621
-372.525 83.0369 1621
-368.649 83.0369 1621
-364.772 83.0369 1621
-360.896 83.0369 1621
-357.02 83.0369 1621
-353.143 83.0369 1621
-349.267 83.0369 1621
-345.391 83.0369 1621
-341.936 83.1393 1623
-338.263 83.1906 1624
-334.38 83.1906 1624
-330.496 83.1906 1624
-327.015 83.293 1626
-323.524 83.3955 1628
-319.631 83.3955 1628
-315.738 83.3955 1628
-312.036 83.4467 1629
-308.519 83.5491 1631
-305.553 83.8053 1636
-301.641 83.8053 1636
-297.729 83.8053 1636
-293.996 83.8565 1637
-290.967 84.1126 1642
-287.041 84.1126 1642
-283.632 84.2663 1645
-280.548 84.5224 1650
-277.105 84.6761 1653
-273.153 84.6761 1653
-270.665 85.1371 1662
-266.852 85.1884 1663
-263.191 85.2908 1665
-259.209 85.2908 1665
-256.301 85.6494 1672
-252.303 85.6494 1672
-249.047 85.9055 1677
-245.037 85.9055 1677
-241.17 85.9567 1678
-237.723 86.1617 1682
-233.84 86.2129 1683
-229.815 86.2129 1683
-226.73 86.5715 1690
-222.952 86.6739 1692
-219.294 86.8276 1695
-215.241 86.8276 1695
-211.686 87.0325 1699
-208.234 87.2886 1704
-204.998 87.6472 1711
-200.906 87.6472 1711
-197.045 87.7496 1713
-193.512 88.0058 1718
-190.175 88.3644 1725
-186.05 88.3644 1725
-182.136 88.4668 1727
-178.419 88.6717 1731
-174.984 89.0303 1738
-170.828 89.0303 1738
-166.96 89.184 1741
-163.545 89.5938 1749
-160 89.9524 1756
-155.801 89.9524 1756
-152.551 90.5158 1767
-148.662 90.7207 1771
-144.916 91.0281 1777
-140.667 91.0281 1777
-136.801 91.2842 1782
-132.689 91.3867 1784
-128.711 91.5916 1788
-124.574 91.694 1790
-120.294 91.694 1790
-116.013 91.694 1790
-191.209 177.292 3461
-182.932 177.292 3461
-174.656 177.292 3461
-167.437 178.419 3483
-159.748 179.136 3497
-151.386 179.136 3497
-143.023 179.136 3497
-134.661 179.136 3497
-126.298 179.136 3497
-117.936 179.136 3497
-109.824 179.546 3505
-101.877 180.315 3520
-93.4595 180.315 3520
-85.0421 180.315 3520
-76.6247 180.315 3520
-68.2073 180.315 3520
-59.5352 179.546 3505
-51.1537 179.546 3505
-42.7721 179.546 3505
-34.3906 179.546 3505
-26.0091 179.546 3505
-17.6628 179.905 3512
-9.26453 179.905 3512
-0.866275 179.905 3512
7.53198 179.905 3512
15.9302 179.905 3512
24.3285 179.905 3512
32.6615 179.546 3505
41.043 179.546 3505
49.4246 179.546 3505
57.4432 178.419 3483
65.7721 178.419 3483
74.1011 178.419 3483
82.43 178.419 3483
90.368 177.651 3468
98.4619 177.292 3461
106.306 176.575 3447
114.549 176.575 3447
122.293 175.858 3433
130.503 175.858 3433
138.995 176.216 3440
147.221 176.216 3440
155.447 176.216 3440
163.007 175.499 3426
170.85 175.141 3419
179.026 175.141 3419
187.585 175.499 3426
195.777 175.499 3426
204.804 176.216 3440
213.897 176.934 3454
222.606 177.292 3461
230.883 177.292 3461
239.159 177.292 3461
249.008 178.419 3483
257.854 178.778 3490
266.2 178.778 3490
274.546 178.778 3490
283.459 179.136 3497
291.821 179.136 3497
300.183 179.136 3497
308.546 179.136 3497
316.908 179.136 3497
325.271 179.136 3497
332.965 178.778 3490
341.311 178.778 3490
349.656 178.778 3490
358.002 178.778 3490
364.878 178.061 3476
372.331 177.651 3468
379.856 177.292 3461
386.562 176.575 3447
394.805 176.575 3447
399.774 175.141 3419
405.444 174.065 3398
411.866 173.348 3384
419.958 173.348 3384
428.05 173.348 3384
433.436 172.272 3363
439.771 171.606 3350
447.782 171.606 3350
454.024 170.94 3337
464.773 171.965 3357
472.801 171.965 3357
480.828 171.965 3357
488.856 171.965 3357
494.811 171.248 3343
502.805 171.248 3343
512.939 171.965 3357
524.07 172.989 3377
532.145 172.989 3377
545.82 174.782 3412
557.389 175.858 3433
574.989 178.778 3490
583.334 178.778 3490
592.867 179.136 3497
601.229 179.136 3497
609.592 179.136 3497
616.717 178.778 3490
626.316 179.136 3497
634.679 179.136 3497
643.041 179.136 3497
651.404 179.136 3497
659.766 179.136 3497
669.657 179.546 3505
680.94 180.315 3520
689.357 180.315 3520
700.55 181.032 3534
709.001 181.032 3534
717.452 181.032 3534
725.903 181.032 3534
734.354 181.032 3534
741.333 180.673 3527
749.767 180.673 3527
758.201 180.673 3527
765.114 180.315 3520
771.773 179.905 3512
780.172 179.905 3512
790.366 180.315 3520
798.784 180.315 3520
808.806 180.673 3527
818.862 181.032 3534
830.825 181.8 3549
839.311 181.8 3549
849.709 182.21 3557
858.215 182.21 3557
866.721 182.21 3557
875.227 182.21 3557
880.006 181.441 3542
886.469 181.032 3534
894.92 181.032 3534
903.371 181.032 3534
917.756 182.21 3557
926.262 182.21 3557
934.768 182.21 3557
943.274 182.21 3557
951.78 182.21 3557
960.285 182.21 3557
968.791 182.21 3557
977.297 182.21 3557
985.803 182.21 3557
996.545 182.62 3565
1005.07 182.62 3565
1013.6 182.62 3565
1022.12 182.62 3565
1032.67 182.978 3572
1041.21 182.978 3572
1052.1 183.388 3580
1060.66 183.388 3580
1073.71 184.156 3595
1082.3 184.156 3595
1093.33 184.566 3603
1101.94 184.566 3603
1110.56 184.566 3603
1119.17 184.566 3603
1127.79 184.566 3603
1136.41 184.566 3603
1142.48 184.156 3595
1151.08 184.156 3595
1164.83 184.976 3611
1173.47 184.976 3611
1182.1 184.976 3611
1196.01 185.796 3627
1204.69 185.796 3627
1213.36 185.796 3627
1222.03 185.796 3627
1233.42 186.205 3635
1244.51 186.564 3642
1253.22 186.564 3642
1261.92 186.564 3642
1270.63 186.564 3642
1279.34 186.564 3642
1288.05 186.564 3642
1296.76 186.564 3642
1305.47 186.564 3642
1314.18 186.564 3642
1322.89 186.564 3642
1329.04 186.205 3635
1337.73 186.205 3635
1346.42 186.205 3635
1355.12 186.205 3635
1363.81 186.205 3635
1372.5 186.205 3635
1381.19 186.205 3635
1392.56 186.564 3642
1401.27 186.564 3642
1409.98 186.564 3642
1415.96 186.205 3635
1424.65 186.205 3635
1430.19 185.796 3627
1426.17 184.156 3595
1428.78 183.388 3580
1437.34 183.388 3580
1445.9 183.388 3580
1448.37 182.62 3565
1450.36 181.8 3549
1455.97 181.441 3542
1464.44 181.441 3542
1472.91 181.441 3542
1481.38 181.441 3542
1489.85 181.441 3542
1498.32 181.441 3542
1503.38 181.032 3534
1511.83 181.032 3534
1517.27 180.673 3527
1525.71 180.673 3527
1531.1 180.315 3520
1539.51 180.315 3520
1551.01 180.673 3527
1566.08 181.441 3542
1581.21 182.21 3557
1589.72 182.21 3557
1604.97 182.978 3572
1617.12 183.388 3580
1632.49 184.156 3595
1641.09 184.156 3595
1660.7 185.386 3619
1669.35 185.386 3619
1678.01 185.386 3619
1686.66 185.386 3619
1702.81 186.205 3635
1718.57 186.974 3650
1727.29 186.974 3650
1736.02 186.974 3650
1737.58 186.205 3635
1738.59 185.386 3619
1747.24 185.386 3619
1755.89 185.386 3619
1756.75 184.566 3603
1758.01 183.798 3588
1766.59 183.798 3588
1775.17 183.798 3588
1783.75 183.798 3588
1784.34 182.978 3572
1777.83 181.441 3542
1786.3 181.441 3542
1779.56 179.905 3512
1773.2 178.419 3483
1755.95 175.858 3433
1764.16 175.858 3433
1768.76 175.499 3426
1776.95 175.499 3426
1781.5 175.141 3419
1793.34 175.499 3426
1812.57 176.575 3447
1820.81 176.575 3447
1844.44 178.061 3476
1860.22 178.778 3490
1876.6 179.546 3505
1884.98 179.546 3505
1897.14 179.905 3512
1909.88 180.315 3520
1925.93 181.032 3534
1934.38 181.032 3534
1955.47 182.21 3557
1972.26 182.978 3572
1980.8 182.978 3572
1989.34 182.978 3572
2006.83 183.798 3588
2023.84 184.566 3603
2063.48 187.384 3658
2072.23 187.384 3658
2086.1 187.845 3667
2094.86 187.845 3667
2103.63 187.845 3667
2107.22 187.384 3658
2111.34 186.974 3650
2115.42 186.564 3642
2128.79 186.974 3650
2142.21 187.384 3658
2150.95 187.384 3658
2159.7 187.384 3658
2173.78 187.845 3667
2182.55 187.845 3667
2191.32 187.845 3667
2189.89 186.974 3650
2193.8 186.564 3642
2202.51 186.564 3642
2206.97 186.205 3635
2219.93 186.564 3642
2233.53 186.974 3650
2242.26 186.974 3650
2250.99 186.974 3650
2259.72 186.974 3650
2259.12 186.205 3635
2272.18 186.564 3642
2280.89 186.564 3642
2289.6 186.564 3642
2298.31 186.564 3642
2307.02 186.564 3642
2315.73 186.564 3642
2324.44 186.564 3642
2333.15 186.564 3642
2341.86 186.564 3642
2350.57 186.564 3642
2359.27 186.564 3642
2384.24 187.845 3667
2393.01 187.845 3667
2401.78 187.845 3667
2410.55 187.845 3667
2413.38 187.384 3658
2416.83 186.974 3650
2425.55 186.974 3650
2434.28 186.974 3650
2443.01 186.974 3650
2451.74 186.974 3650
2460.47 186.974 3650
2469.2 186.974 3650
2472.49 186.564 3642
2476.43 186.205 3635
2485.13 186.205 3635
2493.82 186.205 3635
2497 185.796 3627
2494.62 184.976 3611
2503.26 184.976 3611
2511.89 184.976 3611
1987.05 145.327 2837
1993.83 145.327 2837
2000.62 145.327 2837
1990.42 144.098 2813
1997.15 144.098 2813
1997.46 143.637 2804
1997.02 143.125 2794
1984.34 141.742 2767
1990.95 141.742 2767
1997.57 141.742 2767
2000.57 141.485 2762
2007.17 141.485 2762
2020.34 141.946 2771
2037.21 142.664 2785
2043.87 142.664 2785
2050.52 142.664 2785
2063.83 143.125 2794
2070.51 143.125 2794
2077.2 143.125 2794
2095.06 143.893 2809
2104.77 144.098 2813
2115.25 144.354 2818
2121.99 144.354 2818
2132.51 144.61 2823
2143.05 144.866 2828
2156.65 145.327 2837
2163.44 145.327 2837
2170.22 145.327 2837
-2361.48 169.121 3154
-2353.94 169.121 3154
-2341.93 168.8 3148
-2329.95 168.478 3142
-2313.57 167.834 3130
-2310.5 168.156 3136
-2303.01 168.156 3136
-2299.9 168.478 3142
-2301.14 169.121 3154
-2293.6 169.121 3154
-2286.06 169.121 3154
-2287.18 169.765 3166
-2283.93 170.087 3172
-2280.65 170.408 3178
-2273.05 170.408 3178
-2265.45 170.408 3178
-2253.59 170.087 3172
-2246.01 170.087 3172
-2238.42 170.087 3172
-2213.96 168.8 3148
-2193.81 167.834 3130
-2190.52 168.156 3136
-2183.02 168.156 3136
-2175.52 168.156 3136
-2168.02 168.156 3136
-2172.92 169.121 3154
-2165.38 169.121 3154
-2161.94 169.443 3160
-2154.39 169.443 3160
-2146.83 169.443 3160
-2139.27 169.443 3160
-2131.72 169.443 3160
-2136.26 170.408 3178
-2132.68 170.73 3184
-2125.07 170.73 3184
-2117.45 170.73 3184
-2109.84 170.73 3184
-2102.22 170.73 3184
-2094.61 170.73 3184
-2087 170.73 3184
-2091.14 171.695 3202
-2091.29 172.339 3214
-2083.6 172.339 3214
-2084.31 173.036 3227
-2080.46 173.357 3233
-2076.57 173.679 3239
-2068.83 173.679 3239
-2065.54 174.054 3246
-2057.78 174.054 3246
-2050.01 174.054 3246
-2042.25 174.054 3246
-2034.49 174.054 3246
-2026.73 174.054 3246
-2018.96 174.054 3246
-2011.2 174.054 3246
-1999.12 173.679 3239
-1984 173.036 3227
-1979.95 173.357 3233
-1972.22 173.357 3233
-1979.68 174.698 3258
-1976.13 175.073 3265
-1987.61 176.789 3297
-1979.73 176.789 3297
-1971.84 176.789 3297
-1963.96 176.789 3297
-1956.08 176.789 3297
-1948.19 176.789 3297
-1936.19 176.414 3290
-1928.32 176.414 3290
-1920.45 176.414 3290
-1912.59 176.414 3290
-1904.72 176.414 3290
-1896.85 176.414 3290
-1888.98 176.414 3290
-1881.12 176.414 3290
-1873.25 176.414 3290
-1858.58 175.77 3278
-1850.74 175.77 3278
-1846.27 176.092 3284
-1838.42 176.092 3284
-1830.57 176.092 3284
-1819.39 175.77 3278
-1811.55 175.77 3278
-1803.71 175.77 3278
-1795.87 175.77 3278
-1784.21 175.395 3271
-1776.39 175.395 3271
-1765.32 175.073 3265
-1757.52 175.073 3265
-1749.71 175.073 3265
-1748.84 175.77 3278
-1741 175.77 3278
-1736.33 176.092 3284
-1731.64 176.414 3290
-1723.77 176.414 3290
-1715.9 176.414 3290
-1704.92 176.092 3284
-1703.78 176.789 3297
-1702.59 177.486 3310
-1694.67 177.486 3310
-1690.32 177.862 3317
-1699.13 179.631 3350
-1697.68 180.328 3363
-1689.64 180.328 3363
-1681.6 180.328 3363
-1673.56 180.328 3363
-1665.51 180.328 3363
-1657.47 180.328 3363
-1649.43 180.328 3363
-1641.39 180.328 3363
-1633.35 180.328 3363
-1625.3 180.328 3363
-1617.26 180.328 3363
-1609.22 180.328 3363
-1607.84 181.079 3377
-1599.77 181.079 3377
-1594.99 181.454 3384
-1586.9 181.454 3384
-1578.81 181.454 3384
-1570.72 181.454 3384
-1556.16 180.704 3370
-1544.88 180.328 3363
-1536.84 180.328 3363
-1526.07 180.006 3357
-1518.05 180.006 3357
-1510.02 180.006 3357
-1501.99 180.006 3357
-1490.85 179.631 3350
-1482.84 179.631 3350
-1474.83 179.631 3350
-1466.81 179.631 3350
-1458.8 179.631 3350
-1445.16 178.934 3337
-1439.77 179.256 3343
-1431.77 179.256 3343
-1423.78 179.256 3343
-1415.78 179.256 3343
-1402.32 178.559 3330
-1394.35 178.559 3330
-1369.74 176.414 3290
-1354 175.395 3271
-1343.71 175.073 3265
-1335.91 175.073 3265
-1328.1 175.073 3265
-1320.29 175.073 3265
-1299.62 173.357 3233
-1289.49 173.036 3227
-1281.77 173.036 3227
-1268.92 172.339 3214
-1251.82 171.052 3190
-1239.51 170.408 3178
-1231.91 170.408 3178
-1219.69 169.765 3166
-1212.12 169.765 3166
-604.73 86.8664 1620
-600.856 86.8664 1620
-596.982 86.8664 1620
-592.376 86.7591 1618
-588.507 86.7591 1618
-583.553 86.5983 1615
-579.692 86.5983 1615
-575.83 86.5983 1615
-571.968 86.5983 1615
-568.106 86.5983 1615
-564.244 86.5983 1615
-559.688 86.491 1613
-554.797 86.3302 1610
-551.631 86.4374 1612
-547.776 86.4374 1612
-544.259 86.491 1613
-540.402 86.491 1613
-536.545 86.491 1613
-532.357 86.4374 1612
-527.847 86.3302 1610
-524.648 86.4374 1612
-521.116 86.491 1613
-517.259 86.491 1613
-514.038 86.5983 1615
-510.808 86.7055 1617
-507.255 86.7591 1618
-503.386 86.7591 1618
-500.134 86.8664 1620
-496.567 86.92 1621
-492.69 86.92 1621
-488.814 86.92 1621
-485.536 87.0272 1623
-481.655 87.0272 1623
-478.068 87.0809 1624
-474.185 87.0809 1624
-470.301 87.0809 1624
-466.418 87.0809 1624
-462.534 87.0809 1624
-458.651 87.0809 1624
-454.767 87.0809 1624
-450.884 87.0809 1624
-447.551 87.1881 1626
-443.663 87.1881 1626
-439.774 87.1881 1626
-435.886 87.1881 1626
-431.998 87.1881 1626
-427.583 87.0809 1624
-423.699 87.0809 1624
-419.04 86.92 1621
-415.164 86.92 1621
-411.288 86.92 1621
-407.412 86.92 1621
-403.535 86.92 1621
-399.659 86.92 1621
-395.783 86.92 1621
-391.906 86.92 1621
-388.03 86.92 1621
-384.154 86.92 1621
-380.277 86.92 1621
-376.169 86.8664 1620
-372.295 86.8664 1620
-368.421 86.8664 1620
-364.772 86.92 1621
-360.896 86.92 1621
-357.02 86.92 1621
-353.143 86.92 1621
-349.267 86.92 1621
-345.391 86.92 1621
-341.936 87.0272 1623
-338.263 87.0809 1624
-334.38 87.0809 1624
-330.496 87.0809 1624
-327.015 87.1881 1626
-323.524 87.2953 1628
-319.631 87.2953 1628
-315.738 87.2953 1628
-312.036 87.349 1629
-308.519 87.4562 1631
-305.553 87.7243 1636
-301.641 87.7243 1636
-297.729 87.7243 1636
-293.996 87.7779 1637
-290.967 88.046 1642
-287.041 88.046 1642
-283.632 88.2069 1645
-280.548 88.475 1650
-277.105 88.6359 1653
-273.153 88.6359 1653
-270.665 89.1185 1662
-266.852 89.1721 1663
-263.191 89.2793 1665
-259.209 89.2793 1665
-256.301 89.6547 1672
-252.303 89.6547 1672
-249.047 89.9228 1677
-245.037 89.9228 1677
-241.17 89.9764 1678
-237.723 90.1909 1682
-233.701 90.1909 1682
-229.679 90.1909 1682
-226.596 90.5662 1689
-222.688 90.6199 1690
-219.294 90.888 1695
-215.241 90.888 1695
-211.686 91.1025 1699
-208.234 91.3706 1704
-204.758 91.6387 1709
-200.672 91.6387 1709
-197.045 91.8532 1713
-193.512 92.1213 1718
-189.955 92.3894 1723
-185.835 92.3894 1723
-182.136 92.6039 1727
-178.419 92.8183 1731
-174.783 93.0864 1736
-170.632 93.0864 1736
-166.96 93.3545 1741
-163.545 93.7835 1749
-160 94.1589 1756
-155.801 94.1589 1756
-152.551 94.7487 1767
-148.662 94.9632 1771
-144.916 95.2849 1777
-140.667 95.2849 1777
-136.955 95.6603 1784
-132.837 95.7675 1786
-128.711 95.8747 1788
-124.574 95.982 1790
-120.294 95.982 1790
-116.013 95.982 1790
-192.424 186.763 3483
-184.095 186.763 3483
-175.766 186.763 3483
-168.11 187.513 3497
-159.748 187.513 3497
-151.386 187.513 3497
-143.637 188.318 3512
-135.238 188.318 3512
-126.84 188.318 3512
-118.206 187.942 3505
-109.824 187.942 3505
-102.282 189.497 3534
-93.8312 189.497 3534
-85.3804 189.497 3534
-76.9295 189.497 3534
-68.4786 189.497 3534
-59.79 188.747 3520
-51.3726 188.747 3520
-42.8576 188.318 3512
-34.4593 188.318 3512
-26.1204 188.747 3520
-17.703 188.747 3520
-9.28563 188.747 3520
-0.868249 188.747 3520
7.54914 188.747 3520
15.9665 188.747 3520
24.3839 188.747 3520
32.7267 188.318 3512
41.043 187.942 3505
49.4246 187.942 3505
57.6741 187.513 3497
65.7721 186.763 3483
74.1011 186.763 3483
82.43 186.763 3483
90.7589 186.763 3483
98.661 185.958 3468
106.738 185.583 3461
115.015 185.583 3461
122.792 184.832 3447
131.035 184.832 3447
139.278 184.832 3447
147.521 184.832 3447
155.763 184.832 3447
163.673 184.457 3440
171.2 183.706 3426
179.026 183.331 3419
187.202 183.331 3419
195.377 183.331 3419
203.97 183.706 3426
213.897 185.208 3454
222.606 185.583 3461
230.883 185.583 3461
239.643 185.958 3468
249.008 186.763 3483
257.337 186.763 3483
265.666 186.763 3483
273.995 186.763 3483
283.459 187.513 3497
291.821 187.513 3497
300.183 187.513 3497
309.252 187.942 3505
317.633 187.942 3505
326.015 187.942 3505
332.965 187.138 3490
341.311 187.138 3490
348.955 186.763 3483
357.284 186.763 3483
364.878 186.387 3476
372.331 185.958 3468
378.32 184.832 3447
383.422 183.331 3419
391.598 183.331 3419
398.137 182.58 3405
402.939 181.079 3377
408.58 180.006 3357
416.607 180.006 3357
424.635 180.006 3357
431.76 179.631 3350
437.146 178.559 3330
445.109 178.559 3330
453.072 178.559 3330
462.004 178.934 3337
469.984 178.934 3337
477.964 178.934 3337
485.943 178.934 3337
490.963 177.862 3317
497.842 177.486 3310
506.827 177.862 3317
520.966 180.006 3357
528.994 180.006 3357
541.341 181.454 3384
555.115 183.331 3419
574.989 187.138 3490
583.334 187.138 3490
592.867 187.513 3497
601.229 187.513 3497
609.592 187.513 3497
615.48 186.763 3483
626.316 187.513 3497
634.679 187.513 3497
643.041 187.513 3497
651.404 187.513 3497
659.766 187.513 3497
669.657 187.942 3505
680.94 188.747 3520
689.357 188.747 3520
700.55 189.497 3534
709.001 189.497 3534
717.452 189.497 3534
725.903 189.497 3534
734.354 189.497 3534
742.804 189.497 3534
751.255 189.497 3534
759.706 189.497 3534
766.635 189.122 3527
773.531 188.747 3520
781.949 188.747 3520
791.938 189.122 3527
800.372 189.122 3527
810.411 189.497 3534
820.716 189.926 3542
830.825 190.302 3549
839.311 190.302 3549
849.709 190.731 3557
858.215 190.731 3557
866.721 190.731 3557
875.227 190.731 3557
881.745 190.302 3549
888.476 189.926 3542
896.946 189.926 3542
903.371 189.497 3534
917.756 190.731 3557
926.262 190.731 3557
934.768 190.731 3557
943.274 190.731 3557
951.78 190.731 3557
960.285 190.731 3557
968.791 190.731 3557
977.297 190.731 3557
985.803 190.731 3557
996.545 191.16 3565
1005.07 191.16 3565
1013.6 191.16 3565
1022.12 191.16 3565
1032.67 191.535 3572
1041.21 191.535 3572
1052.1 191.964 3580
1060.66 191.964 3580
1073.71 192.768 3595
1082.3 192.768 3595
1090.9 192.768 3595
1099.5 192.768 3595
1108.09 192.768 3595
1116.69 192.768 3595
1125.29 192.768 3595
1133.88 192.768 3595
1142.48 192.768 3595
1151.08 192.768 3595
1164.83 193.626 3611
1173.47 193.626 3611
1182.1 193.626 3611
1196.01 194.484 3627
1204.69 194.484 3627
1213.36 194.484 3627
1222.03 194.484 3627
1233.42 194.913 3635
1244.51 195.288 3642
1253.22 195.288 3642
1261.92 195.288 3642
1270.63 195.288 3642
1279.34 195.288 3642
1288.05 195.288 3642
1296.76 195.288 3642
1305.47 195.288 3642
1314.18 195.288 3642
1322.89 195.288 3642
1329.04 194.913 3635
1337.73 194.913 3635
1349.02 195.288 3642
1360.71 195.717 3650
1369.44 195.717 3650
1378.16 195.717 3650
1386.89 195.717 3650
1398.68 196.146 3658
1407.43 196.146 3658
1416.17 196.146 3658
1421.81 195.717 3650
1430.53 195.717 3650
1433.35 194.913 3635
1432.52 193.626 3611
1431.97 192.393 3588
1437.34 191.964 3580
1445.9 191.964 3580
1451.21 191.535 3572
1450.36 190.302 3549
1465.42 191.16 3565
1473.94 191.16 3565
1482.47 191.16 3565
1490.99 191.16 3565
1499.52 191.16 3565
1508.04 191.16 3565
1513.17 190.731 3557
1518.25 190.302 3549
1523.73 189.926 3542
1532.2 189.926 3542
1531.1 188.747 3520
1539.51 188.747 3520
1554.09 189.497 3534
1562.54 189.497 3534
1584.77 191.16 3565
1593.29 191.16 3565
1608.56 191.964 3580
1620.73 192.393 3588
1643.39 194.055 3619
1652.05 194.055 3619
1660.7 194.055 3619
1669.35 194.055 3619
1685.43 194.913 3635
1694.12 194.913 3635
1709.84 195.717 3650
1718.57 195.717 3650
1727.29 195.717 3650
1736.02 195.717 3650
1737.58 194.913 3635
1742.43 194.484 3627
1751.1 194.484 3627
1755.89 194.055 3619
1756.75 193.197 3603
1765.36 193.197 3603
1773.98 193.197 3603
1775.17 192.393 3588
1783.75 192.393 3588
1788.34 191.964 3580
1785.35 190.731 3557
1793.86 190.731 3557
1783.62 188.747 3520
1780.33 187.513 3497
1755.95 184.082 3433
1764.16 184.082 3433
1768.76 183.706 3426
1776.95 183.706 3426
1781.5 183.331 3419
1793.34 183.706 3426
1812.57 184.832 3447
1820.81 184.832 3447
1844.44 186.387 3476
1860.22 187.138 3490
1876.6 187.942 3505
1884.98 187.942 3505
1897.14 188.318 3512
1909.88 188.747 3520
1925.93 189.497 3534
1934.38 189.497 3534
1955.47 190.731 3557
1968.39 191.16 3565
1980.8 191.535 3572
1989.34 191.535 3572
2006.83 192.393 3588
2023.84 193.197 3603
2054.46 195.288 3642
2063.16 195.288 3642
2080.98 196.146 3658
2089.72 196.146 3658
2098.47 196.146 3658
2107.22 196.146 3658
2106.71 195.288 3642
2115.42 195.288 3642
2124.13 195.288 3642
2132.84 195.288 3642
2141.55 195.288 3642
2154.98 195.717 3650
2163.71 195.717 3650
2172.44 195.717 3650
2181.16 195.717 3650
2189.89 195.717 3650
2193.8 195.288 3642
2202.51 195.288 3642
2211.22 195.288 3642
2229.68 196.146 3658
2238.43 196.146 3658
2247.18 196.146 3658
2255.92 196.146 3658
2264.67 196.146 3658
2268.45 195.717 3650
2277.17 195.717 3650
2290.91 196.146 3658
2299.66 196.146 3658
2308.41 196.146 3658
2317.16 196.146 3658
2325.9 196.146 3658
2334.65 196.146 3658
2343.4 196.146 3658
2347 195.717 3650
2355.73 195.717 3650
2364.46 195.717 3650
2384.24 196.629 3667
2393.01 196.629 3667
2401.78 196.629 3667
2410.55 196.629 3667
2413.38 196.146 3658
2416.83 195.717 3650
2425.55 195.717 3650
2434.28 195.717 3650
2437.66 195.288 3642
2446.37 195.288 3642
2455.08 195.288 3642
2463.78 195.288 3642
2472.49 195.288 3642
2476.43 194.913 3635
2485.13 194.913 3635
2493.82 194.913 3635
2497 194.484 3627
2494.62 193.626 3611
2503.26 193.626 3611
2511.89 193.626 3611
1970.24 150.837 2813
1976.97 150.837 2813
1983.69 150.837 2813
1990.42 150.837 2813
1997.15 150.837 2813
2001.02 150.622 2809
1997.02 149.818 2794
1984.34 148.37 2767
1990.95 148.37 2767
1997.57 148.37 2767
2000.57 148.102 2762
2007.17 148.102 2762
2020.34 148.584 2771
2037.21 149.335 2785
2043.87 149.335 2785
2050.52 149.335 2785
2063.83 149.818 2794
2070.51 149.818 2794
2077.2 149.818 2794
2095.06 150.622 2809
2104.77 150.837 2813
2115.25 151.105 2818
2121.99 151.105 2818
2132.51 151.373 2823
2143.05 151.641 2828
2156.65 152.123 2837
2163.44 152.123 2837
2170.22 152.123 2837
-2361.48 176.677 3154
-2353.94 176.677 3154
-2341.93 176.341 3148
-2329.95 176.005 3142
-2313.57 175.332 3130
-2310.5 175.668 3136
-2303.01 175.668 3136
-2299.9 176.005 3142
-2301.14 176.677 3154
-2293.6 176.677 3154
-2286.06 176.677 3154
-2287.18 177.349 3166
-2283.93 177.685 3172
-2280.65 178.021 3178
-2273.05 178.021 3178
-2265.45 178.021 3178
-2253.59 177.685 3172
-2246.01 177.685 3172
-2238.42 177.685 3172
-2213.96 176.341 3148
-2193.81 175.332 3130
-2190.52 175.668 3136
-2183.02 175.668 3136
-2175.52 175.668 3136
-2168.02 175.668 3136
-2172.92 176.677 3154
-2165.38 176.677 3154
-2161.94 177.013 3160
-2154.39 177.013 3160
-2146.83 177.013 3160
-2139.27 177.013 3160
-2131.72 177.013 3160
-2140.29 178.357 3184
-2136.7 178.693 3190
-2129.07 178.693 3190
-2121.44 178.693 3190
-2113.81 178.693 3190
-2106.19 178.693 3190
-2094.61 178.357 3184
-2090.93 178.693 3190
-2091.14 179.366 3202
-2095.84 180.43 3221
-2088.14 180.43 3221
-2084.31 180.766 3227
-2084.32 181.438 3239
-2076.57 181.438 3239
-2068.83 181.438 3239
-2069.36 182.166 3252
-2065.38 182.503 3258
-2057.59 182.503 3258
-2049.8 182.503 3258
-2054.55 183.623 3278
-2046.71 183.623 3278
-2038.87 183.623 3278
-2031.03 183.623 3278
-2007.14 182.166 3252
-1987.69 181.102 3233
-1991.59 182.166 3252
-1983.81 182.166 3252
-1987.58 183.231 3271
-1995.5 184.687 3297
-1991.23 185.023 3303
-1983.33 185.023 3303
-1983.81 185.807 3317
-1975.87 185.807 3317
-1967.94 185.807 3317
-1960.01 185.807 3317
-1947.96 185.415 3310
-1932.42 184.687 3297
-1924.54 184.687 3297
-1912.59 184.295 3290
-1904.72 184.295 3290
-1900.89 184.687 3297
-1893 184.687 3297
-1885.12 184.687 3297
-1877.24 184.687 3297
-1865.38 184.295 3290
-1857.51 184.295 3290
-1849.65 184.295 3290
-1841.78 184.295 3290
-1833.91 184.295 3290
-1826.05 184.295 3290
-1818.18 184.295 3290
-1810.31 184.295 3290
-1799.16 183.959 3284
-1788.03 183.623 3278
-1780.19 183.623 3278
-1768.57 183.231 3271
-1764.51 183.623 3278
-1756.68 183.623 3278
-1762.17 185.023 3303
-1754.28 185.023 3303
-1746.38 185.023 3303
-1738.48 185.023 3303
-1730.58 185.023 3303
-1719.55 184.687 3297
-1708.03 184.295 3290
-1703.78 184.687 3297
-1702.59 185.415 3310
-1694.67 185.415 3310
-1696.95 186.536 3330
-1699.13 187.656 3350
-1701.22 188.776 3370
-1693.16 188.776 3370
-1685.1 188.776 3370
-1677.04 188.776 3370
-1675.91 189.561 3384
-1667.82 189.561 3384
-1666.6 190.345 3398
-1658.47 190.345 3398
-1650.34 190.345 3398
-1635.45 189.561 3384
-1620.63 188.776 3370
-1612.57 188.776 3370
-1607.84 189.169 3377
-1599.77 189.169 3377
-1598.29 189.953 3391
-1593.47 190.345 3398
-1585.34 190.345 3398
-1577.21 190.345 3398
-1565.86 189.953 3391
-1548.1 188.776 3370
-1540.04 188.776 3370
-1528.8 188.384 3363
-1520.76 188.384 3363
-1510.02 188.048 3357
-1501.99 188.048 3357
-1493.96 188.048 3357
-1485.93 188.048 3357
-1477.91 188.048 3357
-1469.88 188.048 3357
-1458.8 187.656 3350
-1447.76 187.264 3343
-1439.77 187.264 3343
-1437.77 188.048 3357
-1429.74 188.048 3357
-1421.71 188.048 3357
-1407.79 187.264 3343
-1399.8 187.264 3343
-1372.65 184.687 3297
-1354 183.231 3271
-1346.18 183.231 3271
-1338.36 183.231 3271
-1330.54 183.231 3271
-1322.72 183.231 3271
-1299.62 181.102 3233
-1291.89 181.102 3233
-1284.16 181.102 3233
-1271.69 180.43 3221
-1254.18 179.029 3196
-1239.51 178.021 3178
-1231.91 178.021 3178
-1219.69 177.349 3166
-1212.12 177.349 3166
-604.73 90.7471 1620
-600.856 90.7471 1620
-596.982 90.7471 1620
-592.376 90.6351 1618
-588.507 90.6351 1618
-584.276 90.5791 1617
-579.692 90.467 1615
-575.83 90.467 1615
-571.968 90.467 1615
-568.106 90.467 1615
-564.244 90.467 1615
-560.382 90.467 1615
-555.831 90.355 1613
-551.973 90.355 1613
-548.116 90.355 1613
-544.934 90.467 1615
-541.072 90.467 1615
-537.21 90.467 1615
-532.688 90.355 1613
-528.503 90.299 1612
-525.624 90.467 1615
-522.408 90.5791 1617
-518.542 90.5791 1617
-514.675 90.5791 1617
-511.124 90.6351 1618
-507.882 90.7471 1620
-504.008 90.7471 1620
-500.443 90.8031 1621
-496.567 90.8031 1621
-493.298 90.9152 1623
-489.417 90.9152 1623
-485.536 90.9152 1623
-481.952 90.9712 1624
-478.068 90.9712 1624
-474.185 90.9712 1624
-470.301 90.9712 1624
-466.418 90.9712 1624
-462.534 90.9712 1624
-458.651 90.9712 1624
-454.767 90.9712 1624
-451.439 91.0832 1626
-447.551 91.0832 1626
-443.663 91.0832 1626
-439.774 91.0832 1626
-435.886 91.0832 1626
-431.998 91.0832 1626
-427.583 90.9712 1624
-423.699 90.9712 1624
-419.04 90.8031 1621
-415.164 90.8031 1621
-411.288 90.8031 1621
-407.412 90.8031 1621
-403.535 90.8031 1621
-399.659 90.8031 1621
-395.783 90.8031 1621
-391.906 90.8031 1621
-387.791 90.7471 1620
-383.917 90.7471 1620
-380.043 90.7471 1620
-376.169 90.7471 1620
-372.295 90.7471 1620
-368.421 90.7471 1620
-364.547 90.7471 1620
-360.673 90.7471 1620
-357.02 90.8031 1621
-353.143 90.8031 1621
-349.267 90.8031 1621
-345.391 90.8031 1621
-341.936 90.9152 1623
-338.055 90.9152 1623
-334.38 90.9712 1624
-330.496 90.9712 1624
-327.015 91.0832 1626
-323.524 91.1952 1628
-319.827 91.2513 1629
-315.932 91.2513 1629
-312.036 91.2513 1629
-308.708 91.4193 1632
-305.553 91.6434 1636
-301.641 91.6434 1636
-297.911 91.6994 1637
-294.355 91.8114 1639
-290.967 91.9795 1642
-287.041 91.9795 1642
-283.459 92.0915 1644
-280.548 92.4276 1650
-277.105 92.5957 1653
-273.153 92.5957 1653
-270.665 93.0998 1662
-266.852 93.1558 1663
-263.191 93.2679 1665
-259.209 93.2679 1665
-256.301 93.66 1672
-252.303 93.66 1672
-249.047 93.9401 1677
-245.037 93.9401 1677
-241.17 93.9961 1678
-237.723 94.2201 1682
-233.701 94.2201 1682
-229.679 94.2201 1682
