-1298.42 1254.45 2501
-1292.44 1254.45 2501
-1286.46 1254.45 2501
-1280.48 1254.45 2501
-1274.5 1254.45 2501
-1266.49 1252.45 2497
-1259 1250.94 2494
-1249.02 1246.93 2486
-1243.07 1246.93 2486
-1237.13 1246.93 2486
-1225.73 1241.41 2475
-1216.37 1237.9 2468
-1210.46 1237.9 2468
-1199.19 1232.39 2457
-1204 1243.42 2479
-1205.32 1250.94 2494
-1199.36 1250.94 2494
-1193.4 1250.94 2494
-1187.43 1250.94 2494
-1181.47 1250.94 2494
-1175.51 1250.94 2494
-1169.54 1250.94 2494
-1152.85 1239.41 2471
-1138.58 1230.38 2453
-1132.72 1230.38 2453
-1126.85 1230.38 2453
-1124.64 1234.39 2461
-1118.76 1234.39 2461
-1114.23 1235.9 2464
-1108.34 1235.9 2464
-1102.44 1235.9 2464
-1095.22 1234.39 2461
-1089.33 1234.39 2461
-1083.45 1234.39 2461
-1077.56 1234.39 2461
-1071.68 1234.39 2461
-1065.79 1234.39 2461
-1059.91 1234.39 2461
-1044.6 1223.36 2439
-1031.1 1214.33 2421
-1021.08 1209.31 2411
-1015.31 1209.31 2411
-1004.94 1203.8 2400
-993.788 1197.27 2387
-989.322 1198.78 2390
-989.368 1205.8 2404
-983.619 1205.8 2404
-989.26 1219.85 2432
-984.658 1221.35 2435
-984.865 1228.87 2450
-979.006 1228.87 2450
-978.708 1235.9 2464
-984.66 1250.94 2494
-978.696 1250.94 2494
-984.433 1265.99 2524
-982.662 1271.51 2535
-981.223 1277.53 2547
-975.132 1277.53 2547
-969.041 1277.53 2547
-958.414 1271.51 2535
-952.352 1271.51 2535
-946.29 1271.51 2535
-940.228 1271.51 2535
-934.166 1271.51 2535
-928.104 1271.51 2535
-922.042 1271.51 2535
-912.006 1265.99 2524
-905.97 1265.99 2524
-898.508 1263.99 2520
-892.482 1263.99 2520
-886.456 1263.99 2520
-880.43 1263.99 2520
-874.404 1263.99 2520
-868.378 1263.99 2520
-860.983 1261.98 2516
-852.588 1258.47 2509
-842.539 1252.45 2497
-836.568 1252.45 2497
-826.938 1246.93 2486
-816.039 1239.41 2471
-805.54 1232.39 2457
-799.665 1232.39 2457
-789.266 1225.36 2443
-789.197 1234.39 2461
-783.312 1234.39 2461
-777.427 1234.39 2461
-771.542 1234.39 2461
-531.933 864.225 1723
-527.813 864.225 1723
-523.692 864.225 1723
-517.461 860.714 1716
-512.46 859.209 1713
-508.364 859.209 1713
-503.679 858.206 1711
-498.711 856.701 1708
-493.469 854.695 1704
-489.394 854.695 1704
-485.319 854.695 1704
-481.244 854.695 1704
-475.769 852.187 1699
-473.095 854.695 1704
-469.02 854.695 1704
-464.945 854.695 1704
-460.871 854.695 1704
-456.796 854.695 1704
-451.924 853.19 1701
-447.856 853.19 1701
-443.789 853.19 1701
-439.721 853.19 1701
-435.91 853.692 1702
-431.84 853.692 1702
-427.77 853.692 1702
-424.197 854.695 1704
-420.123 854.695 1704
-416.048 854.695 1704
-412.457 855.698 1706
-408.856 856.701 1708
-405.009 857.203 1709
-400.922 857.203 1709
-397.299 858.206 1711
-394.127 860.212 1715
-390.708 861.717 1718
-386.6 861.717 1718
-384.05 865.228 1725
-380.806 867.234 1729
-378.632 871.748 1738
-374.476 871.748 1738
-370.959 873.253 1741
-367.639 875.26 1745
-363.883 876.263 1747
-359.705 876.263 1747
-355.934 877.266 1749
-352.355 878.771 1752
-348.961 880.777 1756
-344.762 880.777 1756
-340.563 880.777 1756
-336.363 880.777 1756
-332.921 882.783 1760
-328.712 882.783 1760
-324.504 882.783 1760
-320.295 882.783 1760
-316.086 882.783 1760
-311.169 880.777 1756
-306.27 878.771 1752
-300.529 874.256 1743
-296.361 874.256 1743
-292.193 874.256 1743
-286.868 870.745 1736
-282.717 870.745 1736
-278.565 870.745 1736
-273.782 868.739 1732
-269.64 868.739 1732
-265.345 868.237 1731
-261.206 868.237 1731
-257.066 868.237 1731
-252.927 868.237 1731
-248.5 867.234 1729
-244.083 866.231 1727
-239.953 866.231 1727
-235.823 866.231 1727
-231.694 866.231 1727
-227.564 866.231 1727
-224.081 868.739 1732
-219.939 868.739 1732
-216.296 870.745 1736
-212.389 871.748 1738
-208.233 871.748 1738
-204.077 871.748 1738
-199.921 871.748 1738
-195.765 871.748 1738
-191.609 871.748 1738
-187.453 871.748 1738
-182.875 869.742 1734
-178.728 869.742 1734
-174.582 869.742 1734
-170.435 869.742 1734
-166.48 870.745 1736
-162.329 870.745 1736
-229.613 1263.99 2520
-223.587 1263.99 2520
-217.561 1263.99 2520
-211.199 1261.98 2516
-205.182 1261.98 2516
-199.166 1261.98 2516
-192.612 1258.47 2509
-185.199 1248.94 2490
-178.957 1246.93 2486
-173.012 1246.93 2486
-166.059 1239.41 2471
-159.502 1234.39 2461
-153.804 1235.9 2464
-147.912 1235.9 2464
-142.02 1235.9 2464
-136.514 1239.41 2471
-130.606 1239.41 2471
-124.697 1239.41 2471
-118.788 1239.41 2471
-112.879 1239.41 2471
-106.667 1235.9 2464
-100.775 1235.9 2464
-94.8825 1235.9 2464
-88.5931 1230.38 2453
-82.7272 1230.38 2453
-76.9867 1232.39 2457
-71.1112 1232.39 2457
-65.2358 1232.39 2457
-59.3604 1232.39 2457
-53.4849 1232.39 2457
-47.687 1234.39 2461
-41.802 1234.39 2461
-35.917 1234.39 2461
-29.9832 1232.39 2457
-24.1078 1232.39 2457
-18.2323 1232.39 2457
-12.3921 1235.9 2464
-6.49994 1235.9 2464
-0.608761 1237.9 2468
5.29298 1237.9 2468
11.1947 1237.9 2468
17.0687 1235.9 2464
22.9609 1235.9 2464
28.8531 1235.9 2464
34.6465 1232.39 2457
40.522 1232.39 2457
46.3974 1232.39 2457
52.1877 1230.38 2453
58.0536 1230.38 2453
63.9195 1230.38 2453
69.5008 1225.36 2443
75.3428 1225.36 2443
81.1848 1225.36 2443
86.4924 1217.84 2428
91.7663 1210.82 2414
97.5389 1210.82 2414
103.183 1209.31 2411
108.632 1205.8 2404
114.381 1205.8 2404
120.13 1205.8 2404
125.512 1202.29 2397
131.244 1202.29 2397
136.976 1202.29 2397
142.708 1202.29 2397
148.006 1198.78 2390
153.078 1193.76 2380
158.769 1193.76 2380
164.668 1195.27 2383
171.081 1200.28 2393
177.838 1207.31 2407
183.899 1209.31 2411
189.665 1209.31 2411
196.565 1216.33 2425
202.364 1216.33 2425
209.708 1225.36 2443
216.785 1232.39 2457
222.66 1232.39 2457
228.536 1232.39 2457
234.411 1232.39 2457
240.287 1232.39 2457
246.162 1232.39 2457
250.909 1226.87 2446
256.758 1226.87 2446
262.607 1226.87 2446
269.225 1230.38 2453
275.091 1230.38 2453
280.957 1230.38 2453
287.758 1234.39 2461
293.643 1234.39 2461
299.528 1234.39 2461
305.413 1234.39 2461
311.677 1235.9 2464
317.569 1235.9 2464
323.462 1235.9 2464
329.888 1237.9 2468
336.198 1239.41 2471
342.107 1239.41 2471
348.016 1239.41 2471
353.925 1239.41 2471
358.815 1235.9 2464
364.707 1235.9 2464
369.546 1232.39 2457
375.422 1232.39 2457
382.383 1235.9 2464
390.009 1241.41 2475
397.687 1246.93 2486
403.632 1246.93 2486
410.236 1248.94 2490
416.859 1250.94 2494
422.822 1250.94 2494
428.786 1250.94 2494
435.97 1254.45 2501
441.951 1254.45 2501
447.932 1254.45 2501
453.912 1254.45 2501
460.629 1256.46 2505
466.619 1256.46 2505
472.609 1256.46 2505
478.599 1256.46 2505
484.589 1256.46 2505
491.951 1259.97 2512
501.129 1268 2528
507.174 1268 2528
513.22 1268 2528
519.265 1268 2528
525.31 1268 2528
531.355 1268 2528
537.401 1268 2528
543.446 1268 2528
549.491 1268 2528
552.899 1261.98 2516
558.916 1261.98 2516
564.932 1261.98 2516
570.949 1261.98 2516
576.965 1261.98 2516
582.055 1259.97 2512
582.912 1248.94 2490
587.211 1245.43 2483
593.148 1245.43 2483
592.813 1232.39 2457
596.008 1226.87 2446
599.15 1221.35 2435
604.973 1221.35 2435
609.04 1217.84 2428
612.314 1212.82 2418
617.073 1210.82 2414
622.846 1210.82 2414
623.15 1200.28 2393
624.405 1191.76 2376
631.943 1195.27 2383
638.712 1197.27 2387
645.23 1198.78 2390
650.945 1198.78 2390
659.408 1203.8 2400
669.027 1210.82 2414
680.67 1221.35 2435
686.492 1221.35 2435
696.58 1228.87 2450
703.299 1230.38 2453
712.345 1235.9 2464
718.237 1235.9 2464
726.186 1239.41 2471
732.095 1239.41 2471
738.004 1239.41 2471
743.913 1239.41 2471
746.788 1234.39 2461
751.449 1232.39 2457
757.325 1232.39 2457
763.2 1232.39 2457
769.076 1232.39 2457
777.159 1235.9 2464
787.818 1243.42 2479
795.027 1245.43 2483
800.964 1245.43 2483
806.902 1245.43 2483
812.839 1245.43 2483
818.777 1245.43 2483
818.404 1235.9 2464
821.954 1232.39 2457
825.471 1228.87 2450
833.705 1232.39 2457
839.581 1232.39 2457
845.456 1232.39 2457
848.906 1228.87 2450
854.765 1228.87 2450
860.623 1228.87 2450
866.482 1228.87 2450
872.341 1228.87 2450
882.143 1234.39 2461
888.028 1234.39 2461
900.451 1243.42 2479
906.379 1243.42 2479
912.307 1243.42 2479
918.235 1243.42 2479
924.163 1243.42 2479
924.463 1235.9 2464
930.355 1235.9 2464
936.247 1235.9 2464
942.14 1235.9 2464
948.032 1235.9 2464
953.924 1235.9 2464
959.816 1235.9 2464
962.965 1232.39 2457
961.742 1223.36 2439
964.798 1219.85 2432
970.614 1219.85 2432
973.619 1216.33 2425
979.418 1216.33 2425
986.435 1217.84 2428
993.876 1219.85 2432
999.692 1219.85 2432
1005.51 1219.85 2432
1011.32 1219.85 2432
1017.14 1219.85 2432
1020.01 1216.33 2425
1024.12 1214.33 2421
1029.91 1214.33 2421
1035.7 1214.33 2421
1041.48 1214.33 2421
1035.16 1200.28 2393
1038.27 1197.27 2387
1030.42 1181.73 2356
1039.14 1185.24 2363
1044.79 1185.24 2363
1051.77 1186.74 2366
1061.9 1191.76 2376
1072.52 1197.27 2387
1078.23 1197.27 2387
1089.84 1203.8 2400
1100.6 1209.31 2411
1109.58 1212.82 2418
1116.75 1214.33 2421
1122.54 1214.33 2421
1130.19 1216.33 2425
1140.67 1221.35 2435
1148.38 1223.36 2439
1154.21 1223.36 2439
1170.51 1234.39 2461
1181.17 1239.41 2471
1196.21 1248.94 2490
1202.16 1248.94 2490
1218.79 1259.97 2512
1228.7 1263.99 2520
1234.73 1263.99 2520
1240.75 1263.99 2520
1246.78 1263.99 2520
1250.82 1261.98 2516
1256.83 1261.98 2516
1262.85 1261.98 2516
1270.88 1263.99 2520
1276.91 1263.99 2520
1282.93 1263.99 2520
1288.96 1263.99 2520
1287.28 1256.46 2505
1283.46 1246.93 2486
1289.4 1246.93 2486
1287.53 1239.41 2471
1288.21 1234.39 2461
1289.89 1230.38 2453
1269.87 1205.8 2404
1275.62 1205.8 2404
1275.5 1200.28 2393
1278.01 1197.27 2387
1281.57 1195.27 2383
1287.27 1195.27 2383
1289.17 1191.76 2376
1294.85 1191.76 2376
1300.53 1191.76 2376
1308.41 1193.76 2380
1314.1 1193.76 2380
1319.79 1193.76 2380
1325.49 1193.76 2380
1335.09 1197.27 2387
1340.8 1197.27 2387
1346.51 1197.27 2387
1357.88 1202.29 2397
1363.61 1202.29 2397
1369.35 1202.29 2397
1375.08 1202.29 2397
1380.81 1202.29 2397
1400.42 1214.33 2421
1416.67 1223.36 2439
1422.5 1223.36 2439
1441.22 1234.39 2461
1447.1 1234.39 2461
1452.99 1234.39 2461
1449.98 1226.87 2446
1458.21 1228.87 2450
1472.43 1235.9 2464
1478.33 1235.9 2464
1484.22 1235.9 2464
1490.11 1235.9 2464
1496 1235.9 2464
1500.07 1234.39 2461
1505.95 1234.39 2461
1495.86 1221.35 2435
1488.74 1210.82 2414
1516.8 1228.87 2450
1531.36 1235.9 2464
1537.25 1235.9 2464
1550.03 1241.41 2475
1569.78 1252.45 2497
1578.27 1254.45 2501
1584.26 1254.45 2501
1595.32 1258.47 2509
1601.32 1258.47 2509
1609.24 1259.97 2512
1615.25 1259.97 2512
1621.26 1259.97 2512
1627.26 1259.97 2512
1633.27 1259.97 2512
1632.1 1254.45 2501
1630.88 1248.94 2490
1629.6 1243.42 2479
1630.25 1239.41 2471
1636.16 1239.41 2471
1642.07 1239.41 2471
1647.98 1239.41 2471
1647.19 1234.39 2461
1653.08 1234.39 2461
1644.13 1223.36 2439
1635.76 1212.82 2418
1622.53 1198.78 2390
1628.25 1198.78 2390
1627.13 1193.76 2380
1625.96 1188.75 2370
1619.92 1180.22 2353
1618.64 1175.21 2343
1624.24 1175.21 2343
1629.84 1175.21 2343
1635.45 1175.21 2343
1638.95 1173.7 2340
1644.54 1173.7 2340
1650.14 1173.7 2340
1667.06 1181.73 2356
1679.79 1186.74 2366
1690.43 1190.25 2373
1696.11 1190.25 2373
1701.78 1190.25 2373
1731.92 1207.31 2407
1755.73 1219.85 2432
1763.71 1221.35 2435
1795.7 1239.41 2471
1804.52 1241.41 2475
1818.49 1246.93 2486
1824.43 1246.93 2486
1830.38 1246.93 2486
1839.28 1248.94 2490
1845.23 1248.94 2490
1859.36 1254.45 2501
1865.35 1254.45 2501
1871.33 1254.45 2501
1857.79 1241.41 2475
1863.71 1241.41 2475
1859.05 1234.39 2461
1848.27 1223.36 2439
1829.77 1207.31 2407
1835.53 1207.31 2407
-1790.67 1213.07 2407
-1813.83 1232.73 2446
-1807.98 1232.73 2446
-1802.13 1232.73 2446
-1772.79 1216.6 2414
-1772.14 1220.13 2421
-1766.35 1220.13 2421
-1781.65 1234.74 2450
-1777.96 1236.26 2453
-1774.99 1238.27 2457
-1769.11 1238.27 2457
-1763.24 1238.27 2457
-1754.5 1236.26 2453
-1748.63 1236.26 2453
-1727.85 1225.67 2432
-1565.69 1199.46 2380
-1571.15 1208.03 2397
-1565.41 1208.03 2397
-1559.68 1208.03 2397
-1547.47 1202.99 2387
-1541.76 1202.99 2387
-1536.05 1202.99 2387
-1521.37 1195.94 2373
-1532.94 1209.54 2400
-1536.11 1216.6 2414
-1530.34 1216.6 2414
-1524.56 1216.6 2414
-1521.31 1218.62 2418
-1528.69 1229.2 2439
-1522.85 1229.2 2439
-1539.41 1247.34 2475
-1547.13 1258.43 2497
-1552.88 1268.01 2516
-1546.87 1268.01 2516
-1540.85 1268.01 2516
-1546.42 1277.58 2535
-1550.08 1285.65 2551
-1543.98 1285.65 2551
-1537.88 1285.65 2551
-1534.18 1287.66 2555
-1539.44 1297.24 2574
-1533.28 1297.24 2574
-1529.5 1299.25 2578
-1523.34 1299.25 2578
-1517.17 1299.25 2578
-1412.25 1265.99 2512
-1406.25 1265.99 2512
-1400.24 1265.99 2512
-1394.23 1265.99 2512
-1384.36 1262.46 2505
-1378.37 1262.46 2505
-1367.99 1258.43 2497
-1360.39 1256.92 2494
-1334.33 1238.27 2457
-1324.67 1234.74 2450
-1318.81 1234.74 2450
-1310.81 1232.73 2446
-1314.56 1241.8 2464
-1318.76 1251.37 2483
-1320.23 1258.43 2497
-1314.25 1258.43 2497
-1308.28 1258.43 2497
-1302.31 1258.43 2497
-1298.42 1260.45 2501
-1292.44 1260.45 2501
-1286.46 1260.45 2501
-1280.48 1260.45 2501
-1274.5 1260.45 2501
-1266.49 1258.43 2497
-1259 1256.92 2494
-1249.02 1252.89 2486
-1243.07 1252.89 2486
-1231.65 1247.34 2475
-1222.27 1243.81 2468
-1207.49 1234.74 2450
-1201.64 1234.74 2450
-1192.36 1231.22 2443
-1198.66 1243.81 2468
-1198.08 1249.36 2479
-1192.15 1249.36 2479
-1186.22 1249.36 2479
-1180.29 1249.36 2479
-1174.36 1249.36 2479
-1168.44 1249.36 2479
-1162.51 1249.36 2479
-1132.79 1223.66 2428
-1115.84 1211.56 2404
-1113.32 1215.09 2411
-1107.56 1215.09 2411
-1104.99 1218.62 2418
-1106.94 1227.18 2435
-1102.92 1229.2 2439
-1097.09 1229.2 2439
-1091.26 1229.2 2439
-1087.21 1231.22 2443
-1081.36 1231.22 2443
-1075.52 1231.22 2443
-1069.68 1231.22 2443
-1063.84 1231.22 2443
-1058 1231.22 2443
-1050.43 1229.2 2439
-1032.61 1215.09 2411
-1020.88 1208.03 2397
-1010.91 1202.99 2387
-1005.2 1202.99 2387
-997.821 1200.98 2383
-989.208 1197.45 2376
-985.182 1199.46 2380
-983.606 1204.5 2390
-977.891 1204.5 2390
-976.244 1209.54 2400
-976.166 1216.6 2414
-972.001 1218.62 2418
-966.219 1218.62 2418
-967.189 1227.18 2435
-972.816 1241.8 2464
-978.696 1256.92 2494
-972.732 1256.92 2494
-979.948 1274.05 2528
-979.682 1281.61 2543
-973.601 1281.61 2543
-967.52 1281.61 2543
-957.28 1276.07 2532
-952.352 1277.58 2535
-946.29 1277.58 2535
-940.228 1277.58 2535
-934.166 1277.58 2535
-925.541 1274.05 2528
-919.496 1274.05 2528
-912.006 1272.04 2524
-904.534 1270.02 2520
-897.082 1268.01 2516
-892.482 1270.02 2520
-886.456 1270.02 2520
-880.43 1270.02 2520
-874.404 1270.02 2520
-868.378 1270.02 2520
-860.983 1268.01 2516
-852.588 1264.48 2509
-842.539 1258.43 2497
-836.568 1258.43 2497
-826.938 1252.89 2486
-816.039 1245.33 2471
-805.54 1238.27 2457
-799.665 1238.27 2457
-789.266 1231.22 2443
-789.197 1240.29 2461
-783.312 1240.29 2461
-777.427 1240.29 2461
-771.542 1240.29 2461
-531.933 868.352 1723
-527.813 868.352 1723
-523.692 868.352 1723
-517.461 864.824 1716
-511.862 862.304 1711
-507.77 862.304 1711
-503.679 862.304 1711
-498.711 860.793 1708
-493.469 858.777 1704
-489.394 858.777 1704
-485.319 858.777 1704
-481.244 858.777 1704
-475.769 856.257 1699
-473.095 858.777 1704
-469.02 858.777 1704
-464.945 858.777 1704
-460.871 858.777 1704
-456.796 858.777 1704
-451.924 857.265 1701
-447.856 857.265 1701
-443.789 857.265 1701
-439.721 857.265 1701
-435.91 857.769 1702
-431.84 857.769 1702
-427.77 857.769 1702
-424.197 858.777 1704
-420.123 858.777 1704
-416.048 858.777 1704
-412.457 859.785 1706
-408.856 860.793 1708
-405.009 861.297 1709
-400.922 861.297 1709
-397.299 862.304 1711
-394.127 864.32 1715
-390.708 865.832 1718
-386.6 865.832 1718
-384.05 869.36 1725
-380.806 871.376 1729
-378.197 874.904 1736
-374.045 874.904 1736
-370.746 876.92 1740
-367.639 879.44 1745
-363.883 880.448 1747
-359.705 880.448 1747
-355.934 881.456 1749
-352.355 882.967 1752
-348.563 883.975 1754
-344.369 883.975 1754
-340.563 884.983 1756
-336.363 884.983 1756
-332.164 884.983 1756
-327.965 884.983 1756
-323.766 884.983 1756
-319.567 884.983 1756
-315.368 884.983 1756
-310.46 882.967 1752
-306.095 882.464 1751
-300.529 878.432 1743
-296.361 878.432 1743
-291.858 877.424 1741
-286.868 874.904 1736
-282.717 874.904 1736
-278.565 874.904 1736
-273.782 872.888 1732
-269.64 872.888 1732
-265.345 872.384 1731
-261.206 872.384 1731
-257.066 872.384 1731
-252.927 872.384 1731
-248.5 871.376 1729
-244.083 870.368 1727
-239.953 870.368 1727
-235.55 869.36 1725
-231.425 869.36 1725
-228.091 872.384 1731
-224.081 872.888 1732
-219.939 872.888 1732
-216.545 875.912 1738
-212.389 875.912 1738
-208.473 876.92 1740
-204.312 876.92 1740
-200.151 876.92 1740
-195.765 875.912 1738
-191.609 875.912 1738
-187.237 874.904 1736
-183.085 874.904 1736
-178.934 874.904 1736
-174.783 874.904 1736
-170.632 874.904 1736
-166.48 874.904 1736
-162.329 874.904 1736
-229.613 1270.02 2520
-223.587 1270.02 2520
-217.561 1270.02 2520
-211.199 1268.01 2516
-205.182 1268.01 2516
-199.166 1268.01 2516
-192.612 1264.48 2509
-185.199 1254.9 2490
-178.957 1252.89 2486
-173.012 1252.89 2486
-166.059 1245.33 2471
-159.502 1240.29 2461
-153.804 1241.8 2464
-147.912 1241.8 2464
-142.02 1241.8 2464
-136.514 1245.33 2471
-130.606 1245.33 2471
-124.697 1245.33 2471
-118.788 1245.33 2471
-112.879 1245.33 2471
-106.667 1241.8 2464
-100.775 1241.8 2464
-94.8825 1241.8 2464
-88.5931 1236.26 2453
-82.7272 1236.26 2453
-76.9867 1238.27 2457
-71.1112 1238.27 2457
-65.2358 1238.27 2457
-59.3604 1238.27 2457
-53.4849 1238.27 2457
-47.687 1240.29 2461
-41.802 1240.29 2461
-35.917 1240.29 2461
-29.9832 1238.27 2457
-24.1078 1238.27 2457
-18.2323 1238.27 2457
-12.3921 1241.8 2464
-6.49994 1241.8 2464
-0.608761 1243.81 2468
5.29298 1243.81 2468
11.1947 1243.81 2468
17.0687 1241.8 2464
22.9609 1241.8 2464
28.8531 1241.8 2464
34.6465 1238.27 2457
40.522 1238.27 2457
46.3974 1238.27 2457
52.1877 1236.26 2453
58.0536 1236.26 2453
63.9195 1236.26 2453
69.5008 1231.22 2443
75.3428 1231.22 2443
81.1848 1231.22 2443
86.4924 1223.66 2428
91.7663 1216.6 2414
97.5389 1216.6 2414
103.183 1215.09 2411
108.632 1211.56 2404
114.381 1211.56 2404
120.13 1211.56 2404
125.512 1208.03 2397
131.244 1208.03 2397
136.976 1208.03 2397
142.708 1208.03 2397
148.006 1204.5 2390
153.078 1199.46 2380
158.769 1199.46 2380
164.668 1200.98 2383
171.081 1206.02 2393
177.838 1213.07 2407
183.899 1215.09 2411
189.665 1215.09 2411
196.565 1222.14 2425
202.364 1222.14 2425
209.708 1231.22 2443
216.785 1238.27 2457
222.66 1238.27 2457
228.536 1238.27 2457
234.411 1238.27 2457
240.287 1238.27 2457
246.162 1238.27 2457
250.909 1232.73 2446
256.758 1232.73 2446
262.607 1232.73 2446
269.225 1236.26 2453
275.091 1236.26 2453
280.957 1236.26 2453
286.822 1236.26 2453
293.166 1238.27 2457
299.041 1238.27 2457
305.413 1240.29 2461
311.298 1240.29 2461
317.183 1240.29 2461
322.543 1238.27 2457
328.953 1240.29 2461
335.246 1241.8 2464
341.138 1241.8 2464
347.03 1241.8 2464
351.92 1238.27 2457
357.795 1238.27 2457
363.671 1238.27 2457
367.44 1231.22 2443
373.282 1231.22 2443
379.59 1232.73 2446
387.172 1238.27 2457
394.808 1243.81 2468
400.709 1243.81 2468
408.423 1249.36 2479
415.521 1252.89 2486
422.144 1254.9 2490
428.099 1254.9 2490
434.053 1254.9 2490
440.007 1254.9 2490
447.215 1258.43 2497
453.186 1258.43 2497
459.158 1258.43 2497
465.129 1258.43 2497
471.1 1258.43 2497
477.071 1258.43 2497
483.042 1258.43 2497
490.58 1262.46 2505
497.958 1265.99 2512
503.964 1265.99 2512
509.971 1265.99 2512
518.443 1272.04 2524
524.479 1272.04 2524
530.515 1272.04 2524
536.55 1272.04 2524
540.866 1268.01 2516
546.883 1268.01 2516
550.482 1262.46 2505
556.472 1262.46 2505
564.034 1265.99 2512
570.041 1265.99 2512
576.048 1265.99 2512
576.957 1254.9 2490
581.975 1252.89 2486
583.663 1243.81 2468
589.565 1243.81 2468
590.159 1232.73 2446
591.622 1223.66 2428
593.983 1216.6 2414
599.756 1216.6 2414
605.528 1216.6 2414
610.541 1215.09 2411
615.284 1213.07 2407
616.654 1204.5 2390
622.369 1204.5 2390
625.456 1199.46 2380
631.147 1199.46 2380
638.712 1202.99 2387
644.42 1202.99 2387
650.128 1202.99 2387
656.66 1204.5 2390
665.147 1209.54 2400
674.799 1216.6 2414
680.572 1216.6 2414
690.325 1223.66 2428
700.432 1231.22 2443
709.165 1236.26 2453
715.031 1236.26 2453
722.072 1238.27 2457
727.948 1238.27 2457
733.823 1238.27 2457
739.698 1238.27 2457
743.45 1234.74 2450
744.721 1227.18 2435
750.544 1227.18 2435
756.366 1227.18 2435
762.189 1227.18 2435
772.743 1234.74 2450
778.602 1234.74 2450
784.461 1234.74 2450
790.319 1234.74 2450
797.153 1236.26 2453
803.019 1236.26 2453
808.885 1236.26 2453
813.754 1234.74 2450
818.274 1232.73 2446
817.048 1222.14 2425
828.955 1231.22 2443
834.797 1231.22 2443
840.639 1231.22 2443
846.481 1231.22 2443
852.323 1231.22 2443
858.165 1231.22 2443
861.177 1227.18 2435
867 1227.18 2435
874.257 1229.2 2439
880.089 1229.2 2439
897.545 1245.33 2471
904.916 1247.34 2475
910.835 1247.34 2475
916.753 1247.34 2475
921.18 1245.33 2471
920.336 1236.26 2453
925.069 1234.74 2450
935.107 1240.29 2461
940.992 1240.29 2461
946.877 1240.29 2461
952.762 1240.29 2461
958.647 1240.29 2461
957.478 1231.22 2443
958.982 1225.67 2432
962.021 1222.14 2425
967.82 1222.14 2425
969.202 1216.6 2414
974.975 1216.6 2414
983.591 1220.13 2421
992.241 1223.66 2428
998.048 1223.66 2428
1003.85 1223.66 2428
1008.41 1222.14 2425
1009.61 1216.6 2414
1017.07 1218.62 2418
1022.85 1218.62 2418
1028.63 1218.62 2418
1034.41 1218.62 2418
1040.19 1218.62 2418
1032.57 1202.99 2387
1036.53 1200.98 2383
1030.42 1187.37 2356
1037.82 1189.39 2360
1043.46 1189.39 2360
1051.77 1192.41 2366
1061.9 1197.45 2376
1072.52 1202.99 2387
1078.23 1202.99 2387
1088.48 1208.03 2397
1097.41 1211.56 2404
1109.58 1218.62 2418
1115.36 1218.62 2418
1121.14 1218.62 2418
1126.93 1218.62 2418
1135.99 1222.14 2425
1141.79 1222.14 2425
1147.59 1222.14 2425
1158.14 1227.18 2435
1176.39 1240.29 2461
1190.92 1249.36 2479
1196.85 1249.36 2479
1210.06 1256.92 2494
1224.8 1265.99 2512
1230.81 1265.99 2512
1236.81 1265.99 2512
1241.34 1264.48 2509
1247.34 1264.48 2509
1254.83 1265.99 2512
1260.84 1265.99 2512
1266.85 1265.99 2512
1272.85 1265.99 2512
1278.86 1265.99 2512
1284.87 1265.99 2512
1285.22 1260.45 2501
1283.46 1252.89 2486
1289.4 1252.89 2486
1287.53 1245.33 2471
1288.21 1240.29 2461
1288.31 1234.74 2450
1275.15 1216.6 2414
1280.92 1216.6 2414
1279.23 1209.54 2400
1281.22 1206.02 2393
1283.72 1202.99 2387
1289.43 1202.99 2387
1291.34 1199.46 2380
1294.85 1197.45 2376
1300.53 1197.45 2376
1308.41 1199.46 2380
1314.1 1199.46 2380
1319.79 1199.46 2380
1325.49 1199.46 2380
1331.18 1199.46 2380
1340.8 1202.99 2387
1346.51 1202.99 2387
1357.88 1208.03 2397
1363.61 1208.03 2397
1369.35 1208.03 2397
1375.08 1208.03 2397
1371.02 1199.46 2380
1394.64 1215.09 2411
1406.21 1220.13 2421
1412 1220.13 2421
1441.22 1240.29 2461
1447.1 1240.29 2461
1452.99 1240.29 2461
1449.98 1232.73 2446
1455.83 1232.73 2446
1468.25 1238.27 2457
1478.33 1241.8 2464
1484.22 1241.8 2464
1490.11 1241.8 2464
1496 1241.8 2464
1489.1 1231.22 2443
1494.94 1231.22 2443
1495.86 1227.18 2435
1488.74 1216.6 2414
1516.8 1234.74 2450
1531.36 1241.8 2464
1537.25 1241.8 2464
1550.03 1247.34 2475
1569.78 1258.43 2497
1578.27 1260.45 2501
1584.26 1260.45 2501
1592.78 1262.46 2505
1598.77 1262.46 2505
1604.76 1262.46 2505
1610.75 1262.46 2505
1614.16 1260.45 2501
1620.14 1260.45 2501
1626.12 1260.45 2501
1617.74 1249.36 2479
1621.05 1247.34 2475
1615.14 1238.27 2457
1616.39 1234.74 2450
1622.25 1234.74 2450
1628.11 1234.74 2450
1633.97 1234.74 2450
1632.47 1229.2 2439
1638.3 1229.2 2439
1629.98 1218.62 2418
1614.79 1202.99 2387
1613.03 1197.45 2376
1611.9 1192.41 2366
1617.55 1192.41 2366
1614.29 1185.86 2353
1615.1 1182.33 2346
1614.49 1177.79 2337
1620.08 1177.79 2337
1618.71 1172.75 2327
1626.37 1174.27 2330
1634.05 1175.78 2333
1639.62 1175.78 2333
1645.2 1175.78 2333
1657.86 1180.82 2343
1663.46 1180.82 2343
1678.32 1187.37 2356
1691.11 1192.41 2366
1696.76 1192.41 2366
1719.69 1204.5 2390
1727.57 1206.02 2393
1763.71 1227.18 2435
1769.54 1227.18 2435
1786.3 1234.74 2450
1807.52 1245.33 2471
1816.36 1247.34 2475
1822.28 1247.34 2475
1828.2 1247.34 2475
1834.12 1247.34 2475
1840.04 1247.34 2475
1845.95 1247.34 2475
1851.87 1247.34 2475
1844.28 1238.27 2457
1850.15 1238.27 2457
1842.43 1229.2 2439
1837.66 1222.14 2425
1829.77 1213.07 2407
1835.53 1213.07 2407
-1790.67 1218.84 2407
-1813.83 1238.59 2446
-1807.98 1238.59 2446
-1802.13 1238.59 2446
-1772.79 1222.38 2414
-1772.14 1225.93 2421
-1766.35 1225.93 2421
-1781.65 1240.61 2450
-1777.96 1242.13 2453
-1774.99 1244.16 2457
-1769.11 1244.16 2457
-1763.24 1244.16 2457
-1754.5 1242.13 2453
-1748.63 1242.13 2453
-1727.85 1231.5 2432
-1565.69 1205.17 2380
-1571.15 1213.77 2397
-1565.41 1213.77 2397
-1559.68 1213.77 2397
-1547.47 1208.71 2387
-1541.76 1208.71 2387
-1536.05 1208.71 2387
-1521.37 1201.62 2373
-1532.94 1215.29 2400
-1536.11 1222.38 2414
-1530.34 1222.38 2414
-1524.56 1222.38 2414
-1521.31 1224.41 2418
-1528.69 1235.04 2439
-1522.85 1235.04 2439
-1546.26 1258.84 2486
-1558.9 1274.03 2516
-1552.88 1274.03 2516
-1546.87 1274.03 2516
-1540.85 1274.03 2516
-1546.42 1283.65 2535
-1550.08 1291.76 2551
-1543.98 1291.76 2551
-1537.88 1291.76 2551
-1534.18 1293.78 2555
-1537.64 1301.88 2571
-1531.5 1301.88 2571
-1527.13 1303.4 2574
-1520.97 1303.4 2574
-1514.82 1303.4 2574
-1397.37 1253.27 2475
-1410.57 1270.49 2509
-1404.57 1270.49 2509
-1398.57 1270.49 2509
-1392.57 1270.49 2509
-1384.36 1268.46 2505
-1378.37 1268.46 2505
-1367.99 1264.41 2497
-1360.39 1262.89 2494
-1334.33 1244.16 2457
-1324.67 1240.61 2450
-1318.81 1240.61 2450
-1310.81 1238.59 2446
-1314.56 1247.7 2464
-1318.76 1257.32 2483
-1320.23 1264.41 2497
-1314.25 1264.41 2497
-1308.28 1264.41 2497
-1302.31 1264.41 2497
-1298.42 1266.44 2501
-1292.44 1266.44 2501
-1286.46 1266.44 2501
-1280.48 1266.44 2501
-1274.5 1266.44 2501
-1266.49 1264.41 2497
-1256.98 1260.87 2490
-1247.51 1257.32 2483
-1241.57 1257.32 2483
-1228.17 1249.73 2468
-1214.84 1242.13 2453
-1207.49 1240.61 2450
-1201.64 1240.61 2450
-1192.36 1237.07 2443
-1196.72 1247.7 2464
-1190.83 1247.7 2464
-1188.3 1251.25 2471
-1182.39 1251.25 2471
-1176.48 1251.25 2471
-1162.05 1242.13 2453
-1156.18 1242.13 2453
-1138.59 1229.47 2428
-1119.72 1215.29 2400
-1106.09 1206.69 2383
-1100.39 1206.69 2383
-1094.7 1206.69 2383
-1093.57 1211.75 2393
-1091.03 1215.29 2400
-1085.29 1215.29 2400
-1079.55 1215.29 2400
-1076.94 1218.84 2407
-1071.18 1218.84 2407
-1065.43 1218.84 2407
-1059.67 1218.84 2407
-1053.92 1218.84 2407
-1045.11 1215.29 2400
-1039.37 1215.29 2400
-1032.34 1213.77 2397
-1022.33 1208.71 2387
-1013.64 1205.17 2380
-1000.75 1196.56 2363
-998.045 1200.1 2370
-992.378 1200.1 2370
-987.959 1201.62 2373
-983.526 1203.14 2376
-977.845 1203.14 2376
-972.163 1203.14 2376
-969.329 1206.69 2383
-966.461 1210.23 2390
-961.951 1211.75 2393
-956.229 1211.75 2393
-957.656 1220.86 2411
-962.946 1235.04 2439
-969.671 1251.25 2471
-963.762 1251.25 2471
-976.847 1276.06 2520
-972.362 1278.08 2524
-966.326 1278.08 2524
-960.291 1278.08 2524
-955.767 1280.11 2528
-949.722 1280.11 2528
-943.677 1280.11 2528
-937.632 1280.11 2528
-931.587 1280.11 2528
-924.077 1278.08 2524
-918.041 1278.08 2524
-909.115 1274.03 2516
-903.098 1274.03 2516
-897.082 1274.03 2516
-892.482 1276.06 2520
-886.456 1276.06 2520
-880.43 1276.06 2520
-874.404 1276.06 2520
-868.378 1276.06 2520
-860.983 1274.03 2516
-852.588 1270.49 2509
-845.238 1268.46 2505
-839.248 1268.46 2505
-826.938 1258.84 2486
-816.039 1251.25 2471
-805.54 1244.16 2457
-799.665 1244.16 2457
-789.266 1237.07 2443
-789.197 1246.18 2461
-783.312 1246.18 2461
-777.427 1246.18 2461
-771.542 1246.18 2461
-524.137 866.403 1711
-520.045 866.403 1711
-515.953 866.403 1711
-511.862 866.403 1711
-507.77 866.403 1711
-502.796 864.884 1708
-498.128 863.871 1706
-494.048 863.871 1706
-489.968 863.871 1706
-485.319 862.859 1704
-481.244 862.859 1704
-476.33 861.339 1701
-473.095 862.859 1704
-469.02 862.859 1704
-464.945 862.859 1704
-460.871 862.859 1704
-456.796 862.859 1704
-452.19 861.846 1702
-448.12 861.846 1702
-443.789 861.339 1701
-439.98 861.846 1702
-436.422 862.859 1704
-432.347 862.859 1704
-428.272 862.859 1704
-424.197 862.859 1704
-420.616 863.871 1706
-416.536 863.871 1706
-412.94 864.884 1708
-409.095 865.39 1709
-405.009 865.39 1709
-400.922 865.39 1709
-397.299 866.403 1711
-394.357 868.935 1716
-391.163 870.961 1720
-387.05 870.961 1720
-384.05 873.492 1725
-380.806 875.518 1729
-378.197 879.062 1736
-374.045 879.062 1736
-370.746 881.088 1740
-367.218 882.607 1743
-363.466 883.62 1745
-359.293 883.62 1745
-355.934 885.645 1749
-352.355 887.164 1752
-348.563 888.177 1754
-344.369 888.177 1754
-340.175 888.177 1754
-335.98 888.177 1754
-331.786 888.177 1754
-327.592 888.177 1754
-323.397 888.177 1754
-319.203 888.177 1754
-315.009 888.177 1754
-310.46 887.164 1752
-305.746 885.645 1749
-300.529 882.607 1743
-296.361 882.607 1743
-291.69 881.088 1740
-286.868 879.062 1736
-282.391 878.05 1734
-278.245 878.05 1734
-273.782 877.037 1732
-269.484 876.531 1731
-265.345 876.531 1731
-261.206 876.531 1731
-257.066 876.531 1731
-252.927 876.531 1731
-248.213 874.505 1727
-243.8 873.492 1725
-239.675 873.492 1725
-235.55 873.492 1725
-231.425 873.492 1725
-228.091 876.531 1731
-224.081 877.037 1732
-219.939 877.037 1732
-216.545 880.075 1738
-212.389 880.075 1738
-208.473 881.088 1740
-204.312 881.088 1740
-200.151 881.088 1740
-195.765 880.075 1738
-191.609 880.075 1738
-187.237 879.062 1736
-183.085 879.062 1736
-178.934 879.062 1736
-174.783 879.062 1736
-170.632 879.062 1736
-166.288 878.05 1734
-223.232 1274.03 2516
-217.215 1274.03 2516
-211.199 1274.03 2516
-205.182 1274.03 2516
-199.166 1274.03 2516
-191.46 1262.89 2494
-184.901 1258.84 2486
-178.453 1255.3 2479
-172.525 1255.3 2479
-165.118 1244.16 2457
-159.243 1244.16 2457
-153.118 1242.13 2453
-147.252 1242.13 2453
-141.386 1242.13 2453
-135.962 1246.18 2461
-130.077 1246.18 2461
-124.192 1246.18 2461
-118.307 1246.18 2461
-112.422 1246.18 2461
-106.191 1242.13 2453
-100.325 1242.13 2453
-94.4589 1242.13 2453
-88.4847 1240.61 2450
-82.255 1235.04 2439
-76.4227 1235.04 2439
-70.9086 1240.61 2450
-65.0499 1240.61 2450
-59.1912 1240.61 2450
-53.2455 1238.59 2446
-47.532 1242.13 2453
-41.6661 1242.13 2453
-35.8003 1242.13 2453
-29.9832 1244.16 2457
-24.1078 1244.16 2457
-18.2323 1244.16 2457
-12.3569 1244.16 2457
-6.48148 1244.16 2457
-0.606047 1244.16 2457
5.25437 1240.61 2450
11.1131 1240.61 2450
16.9233 1237.07 2443
22.7652 1237.07 2443
28.6072 1237.07 2443
34.3927 1235.04 2439
40.2251 1235.04 2439
46.0575 1235.04 2439
51.8899 1235.04 2439
57.6276 1233.02 2435
63.268 1229.47 2428
68.875 1225.93 2421
74.6643 1225.93 2421
80.4537 1225.93 2421
85.8868 1220.86 2411
91.2341 1215.29 2400
96.9732 1215.29 2400
102.712 1215.29 2400
108.135 1211.75 2393
113.858 1211.75 2393
119.58 1211.75 2393
125.145 1210.23 2390
130.696 1208.71 2387
135.776 1203.14 2376
141.457 1203.14 2376
147.139 1203.14 2376
152.435 1200.1 2370
157.835 1198.08 2366
163.977 1201.62 2373
171.081 1211.75 2393
176.804 1211.75 2393
183.899 1220.86 2411
189.665 1220.86 2411
195.997 1224.41 2418
201.78 1224.41 2418
207.819 1225.93 2421
214.844 1233.02 2435
220.667 1233.02 2435
226.489 1233.02 2435
232.312 1233.02 2435
238.135 1233.02 2435
243.958 1233.02 2435
249.473 1231.5 2432
255.289 1231.5 2432
261.856 1235.04 2439
268.127 1237.07 2443
273.969 1237.07 2443
279.811 1237.07 2443
286.472 1240.61 2450
293.166 1244.16 2457
299.041 1244.16 2457
305.413 1246.18 2461
311.298 1246.18 2461
317.183 1246.18 2461
322.543 1244.16 2457
328.953 1246.18 2461
335.246 1247.7 2464
341.138 1247.7 2464
347.03 1247.7 2464
351.92 1244.16 2457
357.795 1244.16 2457
363.671 1244.16 2457
367.44 1237.07 2443
373.282 1237.07 2443
379.59 1238.59 2446
387.172 1244.16 2457
394.808 1249.73 2468
400.709 1249.73 2468
408.423 1255.3 2479
415.521 1258.84 2486
422.144 1260.87 2490
428.099 1260.87 2490
434.053 1260.87 2490
440.007 1260.87 2490
447.215 1264.41 2497
453.186 1264.41 2497
459.158 1264.41 2497
465.129 1264.41 2497
471.1 1264.41 2497
477.071 1264.41 2497
483.042 1264.41 2497
490.58 1268.46 2505
497.958 1272.01 2512
503.964 1272.01 2512
509.971 1272.01 2512
518.443 1278.08 2524
524.479 1278.08 2524
530.515 1278.08 2524
536.55 1278.08 2524
540.866 1274.03 2516
546.883 1274.03 2516
550.482 1268.46 2505
556.472 1268.46 2505
564.034 1272.01 2512
570.041 1272.01 2512
576.048 1272.01 2512
576.957 1260.87 2490
581.975 1258.84 2486
583.663 1249.73 2468
589.565 1249.73 2468
590.159 1238.59 2446
591.622 1229.47 2428
593.983 1222.38 2414
599.756 1222.38 2414
605.528 1222.38 2414
610.541 1220.86 2411
615.284 1218.84 2407
616.654 1210.23 2390
622.369 1210.23 2390
625.456 1205.17 2380
631.147 1205.17 2380
639.514 1210.23 2390
645.23 1210.23 2390
650.945 1210.23 2390
656.66 1210.23 2390
665.147 1215.29 2400
674.799 1222.38 2414
680.572 1222.38 2414
690.325 1229.47 2428
700.432 1237.07 2443
709.165 1242.13 2453
715.031 1242.13 2453
722.072 1244.16 2457
727.948 1244.16 2457
733.823 1244.16 2457
739.698 1244.16 2457
743.45 1240.61 2450
744.721 1233.02 2435
750.544 1233.02 2435
756.366 1233.02 2435
762.189 1233.02 2435
772.743 1240.61 2450
778.602 1240.61 2450
784.461 1240.61 2450
790.319 1240.61 2450
797.153 1242.13 2453
803.019 1242.13 2453
808.885 1242.13 2453
813.754 1240.61 2450
818.274 1238.59 2446
817.048 1227.95 2425
828.955 1237.07 2443
834.797 1237.07 2443
840.639 1237.07 2443
846.481 1237.07 2443
852.323 1237.07 2443
858.165 1237.07 2443
857.641 1227.95 2425
863.439 1227.95 2425
869.238 1227.95 2425
875.037 1227.95 2425
880.836 1227.95 2425
900.894 1247.7 2464
906.787 1247.7 2464
912.679 1247.7 2464
917.453 1246.18 2461
916.584 1237.07 2443
922.426 1237.07 2443
930.928 1240.61 2450
936.786 1240.61 2450
942.645 1240.61 2450
945.794 1237.07 2443
951.636 1237.07 2443
953.167 1231.5 2432
956.222 1227.95 2425
957.657 1222.38 2414
963.43 1222.38 2414
969.202 1222.38 2414
972.148 1218.84 2407
977.904 1218.84 2407
989.381 1225.93 2421
995.17 1225.93 2421
1000.96 1225.93 2421
1006.75 1225.93 2421
1008.36 1220.86 2411
1014.12 1220.86 2411
1019.89 1220.86 2411
1025.65 1220.86 2411
1023.72 1211.75 2393
1029.44 1211.75 2393
1032.57 1208.71 2387
1026.53 1195.04 2360
1030.42 1193.01 2356
1036.06 1193.01 2356
1041.69 1193.01 2356
1051.77 1198.08 2366
1060.56 1201.62 2373
1070.73 1206.69 2383
1076.42 1206.69 2383
1085.3 1210.23 2390
1095.58 1215.29 2400
1107.74 1222.38 2414
1115.36 1224.41 2418
1121.14 1224.41 2418
1126.93 1224.41 2418
1130.84 1222.38 2414
1138.49 1224.41 2418
1144.27 1224.41 2418
1153.38 1227.95 2425
1162.53 1231.5 2432
1189 1253.27 2475
1194.92 1253.27 2475
1202.78 1255.3 2479
1216.02 1262.89 2494
1225.42 1266.44 2501
1231.4 1266.44 2501
1237.38 1266.44 2501
1243.36 1266.44 2501
1253.34 1270.49 2509
1259.33 1270.49 2509
1266.85 1272.01 2512
1272.85 1272.01 2512
1278.86 1272.01 2512
1284.87 1272.01 2512
1285.22 1266.44 2501
1283.46 1258.84 2486
1289.4 1258.84 2486
1287.53 1251.25 2471
1288.21 1246.18 2461
1288.31 1240.61 2450
1275.15 1222.38 2414
1280.92 1222.38 2414
1279.23 1215.29 2400
1281.22 1211.75 2393
1283.72 1208.71 2387
1289.43 1208.71 2387
1291.34 1205.17 2380
1293.21 1201.62 2373
1295.06 1198.08 2366
1300.72 1198.08 2366
1306.37 1198.08 2366
1312.03 1198.08 2366
1316.02 1196.56 2363
1319.99 1195.04 2360
1325.63 1195.04 2360
1331.28 1195.04 2360
1336.92 1195.04 2360
1342.56 1195.04 2360
1348.21 1195.04 2360
1351.56 1193.01 2356
1357.19 1193.01 2356
1376.71 1205.17 2380
1389.95 1211.75 2393
1395.67 1211.75 2393
1405.49 1215.29 2400
1411.23 1215.29 2400
1421.11 1218.84 2407
1426.86 1218.84 2407
1445.12 1229.47 2428
1457.5 1235.04 2439
1463.33 1235.04 2439
1469.16 1235.04 2439
1474.99 1235.04 2439
1478.4 1233.02 2435
1484.22 1233.02 2435
1490.04 1233.02 2435
1478.66 1218.84 2407
1478.25 1213.77 2397
1494.51 1222.38 2414
1522.66 1240.61 2450
1528.51 1240.61 2450
1545.65 1249.73 2468
1558.46 1255.3 2479
1571.33 1260.87 2490
1577.29 1260.87 2490
1583.24 1260.87 2490
1589.2 1260.87 2490
1595.15 1260.87 2490
1601.1 1260.87 2490
1604.48 1258.84 2486
1603.3 1253.27 2475
1609.21 1253.27 2475
1596.21 1238.59 2446
1602.06 1238.59 2446
1596.07 1229.47 2428
1595.28 1224.41 2418
1601.06 1224.41 2418
1602.2 1220.86 2411
1598.62 1213.77 2397
1604.36 1213.77 2397
1610.09 1213.77 2397
1606.38 1206.69 2383
1603.29 1200.1 2370
1604.2 1196.56 2363
1603.04 1191.49 2353
1608.67 1191.49 2353
1612.23 1189.98 2350
1613.04 1186.43 2343
1607.58 1178.33 2327
1613.15 1178.33 2327
1618.71 1178.33 2327
1624.28 1178.33 2327
1631.94 1179.85 2330
1639.62 1181.37 2333
1645.2 1181.37 2333
1650.78 1181.37 2333
1661.33 1184.91 2340
1674.05 1189.98 2350
1683.96 1193.01 2356
1689.59 1193.01 2356
1707.46 1201.62 2373
1727.57 1211.75 2393
1753.57 1225.93 2421
1759.36 1225.93 2421
1773.17 1231.5 2432
1781.18 1233.02 2435
1787.01 1233.02 2435
1792.83 1233.02 2435
1809.73 1240.61 2450
1820.78 1244.16 2457
1826.65 1244.16 2457
1832.53 1244.16 2457
1838.4 1244.16 2457
1820.26 1227.95 2425
1826.06 1227.95 2425
1831.86 1227.95 2425
1837.66 1227.95 2425
1829.77 1218.84 2407
1835.53 1218.84 2407
1780.09 1178.33 2327
-1790.67 1224.6 2407
-1813.83 1244.45 2446
-1807.98 1244.45 2446
-1802.13 1244.45 2446
-1772.79 1228.17 2414
-1772.14 1231.73 2421
-1766.35 1231.73 2421
-1781.65 1246.48 2450
-1777.96 1248.01 2453
-1774.99 1250.04 2457
-1769.11 1250.04 2457
-1763.24 1250.04 2457
-1754.5 1248.01 2453
-1748.63 1248.01 2453
-1727.85 1237.32 2432
-1565.69 1210.87 2380
-1571.15 1219.52 2397
-1565.41 1219.52 2397
-1559.68 1219.52 2397
-1547.47 1214.43 2387
-1541.76 1214.43 2387
-1536.05 1214.43 2387
-1521.37 1207.31 2373
-1532.94 1221.04 2400
-1536.11 1228.17 2414
-1530.34 1228.17 2414
-1524.56 1228.17 2414
-1521.31 1230.2 2418
-1528.69 1240.88 2439
-1522.85 1240.88 2439
-1546.26 1264.8 2486
-1558.9 1280.06 2516
-1552.88 1280.06 2516
-1546.87 1280.06 2516
-1540.85 1280.06 2516
-1546.42 1289.73 2535
-1550.08 1297.87 2551
-1543.98 1297.87 2551
-1537.88 1297.87 2551
-1534.18 1299.9 2555
-1537.64 1308.04 2571
-1531.5 1308.04 2571
-1527.13 1309.57 2574
-1520.97 1309.57 2574
-1514.82 1309.57 2574
-1418.75 1257.17 2471
-1412.84 1257.17 2471
-1406.93 1257.17 2471
-1401.02 1257.17 2471
-1397.37 1259.2 2475
-1410.57 1276.5 2509
-1404.57 1276.5 2509
-1398.57 1276.5 2509
-1392.57 1276.5 2509
-1384.36 1274.46 2505
-1378.37 1274.46 2505
-1367.99 1270.39 2497
-1360.39 1268.87 2494
-1334.33 1250.04 2457
-1326.29 1248.01 2453
-1320.43 1248.01 2453
-1310.81 1244.45 2446
-1314.56 1253.6 2464
-1318.76 1263.27 2483
-1320.23 1270.39 2497
-1314.25 1270.39 2497
-1308.28 1270.39 2497
-1302.31 1270.39 2497
-1298.42 1272.43 2501
-1292.44 1272.43 2501
-1286.46 1272.43 2501
-1280.48 1272.43 2501
-1274.5 1272.43 2501
-1266.49 1270.39 2497
-1256.98 1266.83 2490
-1247.51 1263.27 2483
-1241.57 1263.27 2483
-1228.17 1255.64 2468
-1214.84 1248.01 2453
-1207.49 1246.48 2450
-1201.64 1246.48 2450
-1192.36 1242.92 2443
-1196.72 1253.6 2464
-1190.83 1253.6 2464
-1188.3 1257.17 2471
-1182.39 1257.17 2471
-1176.48 1257.17 2471
-1162.05 1248.01 2453
-1156.18 1248.01 2453
-1138.59 1235.29 2428
-1119.72 1221.04 2400
-1106.09 1212.39 2383
-1100.39 1212.39 2383
-1094.7 1212.39 2383
-1093.57 1217.48 2393
-1091.03 1221.04 2400
-1085.29 1221.04 2400
-1079.55 1221.04 2400
-1076.94 1224.6 2407
-1071.18 1224.6 2407
-1065.43 1224.6 2407
-1059.67 1224.6 2407
-1053.92 1224.6 2407
-1045.11 1221.04 2400
-1039.37 1221.04 2400
-1032.34 1219.52 2397
-1022.33 1214.43 2387
-1013.64 1210.87 2380
-1000.75 1202.22 2363
-998.045 1205.78 2370
-992.378 1205.78 2370
-987.959 1207.31 2373
-983.526 1208.83 2376
-977.845 1208.83 2376
-972.163 1208.83 2376
-969.329 1212.39 2383
-966.461 1215.96 2390
-961.951 1217.48 2393
-956.229 1217.48 2393
-957.656 1226.64 2411
-962.946 1240.88 2439
-969.671 1257.17 2471
-963.762 1257.17 2471
-976.847 1282.1 2520
-970.821 1282.1 2520
-964.795 1282.1 2520
-957.247 1280.06 2516
-951.231 1280.06 2516
-948.219 1284.13 2524
-942.184 1284.13 2524
-936.148 1284.13 2524
-930.113 1284.13 2524
-922.612 1282.1 2520
-916.586 1282.1 2520
-907.67 1278.03 2512
-901.663 1278.03 2512
-897.082 1280.06 2516
-892.482 1282.1 2520
-886.456 1282.1 2520
-880.43 1282.1 2520
-874.404 1282.1 2520
-868.378 1282.1 2520
-860.983 1280.06 2516
-852.588 1276.5 2509
-845.238 1274.46 2505
-839.248 1274.46 2505
-826.938 1264.8 2486
-815.048 1255.64 2468
-805.54 1250.04 2457
-799.665 1250.04 2457
-787.974 1240.88 2439
-789.197 1252.08 2461
-783.312 1252.08 2461
-777.427 1252.08 2461
-771.542 1252.08 2461
-515.049 868.976 1708
-510.965 868.976 1708
-506.88 868.976 1708
-502.796 868.976 1708
-498.128 867.958 1706
-494.048 867.958 1706
-489.968 867.958 1706
-485.889 867.958 1706
-481.244 866.94 1704
-476.61 865.923 1702
-473.65 867.958 1706
-469.571 867.958 1706
-465.491 867.958 1706
-461.411 867.958 1706
-457.332 867.958 1706
-452.19 865.923 1702
-448.12 865.923 1702
-444.05 865.923 1702
-439.98 865.923 1702
-436.422 866.94 1704
-432.347 866.94 1704
-428.272 866.94 1704
-424.695 867.958 1706
-420.616 867.958 1706
-416.536 867.958 1706
-412.94 868.976 1708
-409.095 869.484 1709
-405.009 869.484 1709
-400.922 869.484 1709
-397.299 870.502 1711
-394.357 873.046 1716
-391.163 875.081 1720
-387.05 875.081 1720
-384.496 878.642 1727
-380.806 879.66 1729
-377.761 882.204 1734
-373.614 882.204 1734
-370.32 884.239 1738
-367.218 886.782 1743
-363.466 887.8 1745
-359.293 887.8 1745
-355.527 888.818 1747
-352.355 891.361 1752
-348.166 891.361 1752
-343.976 891.361 1752
-340.175 892.379 1754
-335.98 892.379 1754
-331.786 892.379 1754
-327.592 892.379 1754
-323.397 892.379 1754
-319.203 892.379 1754
-315.009 892.379 1754
-310.283 890.853 1751
-305.746 889.835 1749
-300.184 885.765 1741
-296.021 885.765 1741
-291.69 885.256 1740
-286.538 882.204 1734
-282.391 882.204 1734
-278.245 882.204 1734
-273.624 880.677 1731
-269.484 880.677 1731
-265.345 880.677 1731
-261.206 880.677 1731
-257.066 880.677 1731
-252.635 879.66 1729
-247.925 877.625 1725
-243.8 877.625 1725
-239.675 877.625 1725
-235.55 877.625 1725
-231.694 878.642 1727
-228.091 880.677 1731
-224.081 881.186 1732
-219.939 881.186 1732
-216.545 884.239 1738
-212.633 885.256 1740
-208.473 885.256 1740
-204.312 885.256 1740
-200.151 885.256 1740
-195.99 885.256 1740
-191.829 885.256 1740
-187.237 883.221 1736
-183.085 883.221 1736
-178.934 883.221 1736
-174.783 883.221 1736
-170.632 883.221 1736
-166.48 883.221 1736
-223.232 1280.06 2516
-217.215 1280.06 2516
-211.199 1280.06 2516
-204.611 1276.5 2509
-198.612 1276.5 2509
-191.46 1268.87 2494
-184.678 1263.27 2483
-177.373 1253.6 2464
-171.481 1253.6 2464
-164.648 1246.48 2450
-158.076 1240.88 2439
-152.244 1240.88 2439
-146.411 1240.88 2439
-140.579 1240.88 2439
-135.354 1246.48 2450
-129.496 1246.48 2450
-123.788 1248.01 2453
-117.922 1248.01 2453
-112.057 1248.01 2453
-106.191 1248.01 2453
-100.325 1248.01 2453
-94.4589 1248.01 2453
-88.0874 1240.88 2439
-82.1201 1238.85 2435
-76.4227 1240.88 2439
-70.5903 1240.88 2439
-64.7579 1240.88 2439
-59.0221 1242.92 2443
-53.1802 1242.92 2443
-47.532 1248.01 2453
-41.6661 1248.01 2453
-35.8003 1248.01 2453
-29.9832 1250.04 2457
-24.1078 1250.04 2457
-18.2323 1250.04 2457
-12.3217 1246.48 2450
-6.46301 1246.48 2450
-0.604321 1246.48 2450
5.23936 1242.92 2443
11.0813 1242.92 2443
16.8194 1235.29 2428
22.6254 1235.29 2428
28.4315 1235.29 2428
34.1389 1231.73 2421
39.9282 1231.73 2421
45.6609 1230.2 2418
51.4431 1230.2 2418
57.2253 1230.2 2418
62.9032 1228.17 2414
68.3913 1223.08 2404
74.14 1223.08 2404
79.7558 1221.04 2400
85.2456 1217.48 2393
90.8539 1215.96 2390
96.5691 1215.96 2390
102.156 1214.43 2387
107.548 1210.87 2380
113.049 1208.83 2376
118.73 1208.83 2376
124.412 1208.83 2376
130.094 1208.83 2376
135.604 1207.31 2373
141.279 1207.31 2373
146.768 1205.78 2370
152.178 1203.74 2366
157.835 1203.74 2366
163.493 1203.74 2366
170.867 1215.96 2390
176.582 1215.96 2390
183.594 1224.6 2407
189.35 1224.6 2407
195.106 1224.6 2407
200.862 1224.6 2407
207.218 1228.17 2414
213.609 1231.73 2421
219.398 1231.73 2421
225.187 1231.73 2421
230.977 1231.73 2421
236.766 1231.73 2421
242.555 1231.73 2421
248.345 1231.73 2421
254.134 1231.73 2421
260.353 1233.76 2425
266.481 1235.29 2428
272.287 1235.29 2428
279.353 1240.88 2439
285.653 1242.92 2443
292.33 1246.48 2450
298.189 1246.48 2450
304.048 1246.48 2450
309.906 1246.48 2450
315.765 1246.48 2450
321.624 1246.48 2450
325.477 1238.85 2435
332.389 1242.92 2443
338.231 1242.92 2443
344.073 1242.92 2443
349.915 1242.92 2443
354.155 1237.32 2432
358.934 1233.76 2425
364.733 1233.76 2425
368.851 1228.17 2414
375.71 1231.73 2421
384.966 1242.92 2443
392.408 1248.01 2453
398.274 1248.01 2453
404.14 1248.01 2453
411.343 1252.08 2461
417.736 1253.6 2464
423.629 1253.6 2464
429.521 1253.6 2464
435.413 1253.6 2464
441.305 1253.6 2464
447.197 1253.6 2464
453.089 1253.6 2464
457.678 1250.04 2457
463.553 1250.04 2457
468.091 1246.48 2450
474.53 1248.01 2453
483.334 1255.64 2468
490.623 1259.2 2475
496.541 1259.2 2475
506.926 1270.39 2497
513.719 1272.43 2501
519.7 1272.43 2501
525.68 1272.43 2501
530.811 1270.39 2497
536.137 1268.87 2494
542.101 1268.87 2494
548.065 1268.87 2494
554.028 1268.87 2494
559.094 1266.83 2490
565.049 1266.83 2490
571.003 1266.83 2490
573.482 1259.2 2475
577.761 1255.64 2468
578.46 1244.45 2446
584.309 1244.45 2446
589.435 1242.92 2443
587.479 1226.64 2411
593.245 1226.64 2411
599.01 1226.64 2411
603.772 1224.6 2407
609.528 1224.6 2407
613.495 1221.04 2400
616.654 1215.96 2390
622.369 1215.96 2390
625.456 1210.87 2380
631.147 1210.87 2380
639.514 1215.96 2390
645.23 1215.96 2390
650.945 1215.96 2390
656.66 1215.96 2390
665.147 1221.04 2400
674.799 1228.17 2414
680.572 1228.17 2414
689.472 1233.76 2425
697.278 1237.32 2432
707.141 1244.45 2446
712.99 1244.45 2446
722.072 1250.04 2457
727.948 1250.04 2457
733.823 1250.04 2457
739.698 1250.04 2457
743.45 1246.48 2450
744.721 1238.85 2435
750.544 1238.85 2435
756.366 1238.85 2435
762.189 1238.85 2435
769.274 1240.88 2439
778.602 1246.48 2450
784.461 1246.48 2450
790.319 1246.48 2450
797.153 1248.01 2453
803.019 1248.01 2453
808.885 1248.01 2453
813.754 1246.48 2450
809.911 1231.73 2421
815.7 1231.73 2421
822.847 1233.76 2425
828.646 1233.76 2425
834.445 1233.76 2425
840.244 1233.76 2425
846.043 1233.76 2425
851.842 1233.76 2425
857.641 1233.76 2425
863.439 1233.76 2425
869.238 1233.76 2425
875.037 1233.76 2425
880.836 1233.76 2425
900.894 1253.6 2464
906.787 1253.6 2464
912.679 1253.6 2464
917.453 1252.08 2461
916.584 1242.92 2443
922.426 1242.92 2443
930.928 1246.48 2450
936.786 1246.48 2450
942.645 1246.48 2450
945.794 1242.92 2443
951.636 1242.92 2443
953.167 1237.32 2432
956.222 1233.76 2425
957.657 1228.17 2414
963.43 1228.17 2414
969.202 1228.17 2414
972.148 1224.6 2407
977.904 1224.6 2407
989.381 1231.73 2421
995.17 1231.73 2421
1000.96 1231.73 2421
1006.75 1231.73 2421
1008.36 1226.64 2411
1014.12 1226.64 2411
1019.89 1226.64 2411
1025.65 1226.64 2411
1023.72 1217.48 2393
1029.44 1217.48 2393
1032.57 1214.43 2387
1026.53 1200.69 2360
1030.42 1198.66 2356
1036.06 1198.66 2356
1041.69 1198.66 2356
1051.77 1203.74 2366
1060.56 1207.31 2373
1070.73 1212.39 2383
1076.42 1212.39 2383
1085.3 1215.96 2390
1095.58 1221.04 2400
1107.74 1228.17 2414
1115.36 1230.2 2418
1121.14 1230.2 2418
1126.93 1230.2 2418
1130.84 1228.17 2414
1138.49 1230.2 2418
1144.27 1230.2 2418
1153.38 1233.76 2425
1162.53 1237.32 2432
1189 1259.2 2475
1194.92 1259.2 2475
1202.78 1261.24 2479
1216.02 1268.87 2494
1225.42 1272.43 2501
1231.4 1272.43 2501
1237.38 1272.43 2501
1243.36 1272.43 2501
1253.34 1276.5 2509
1259.33 1276.5 2509
1266.85 1278.03 2512
1272.85 1278.03 2512
1278.86 1278.03 2512
1284.87 1278.03 2512
1285.22 1272.43 2501
1283.46 1264.8 2486
1289.4 1264.8 2486
1287.53 1257.17 2471
1288.21 1252.08 2461
1288.31 1246.48 2450
1275.15 1228.17 2414
1280.92 1228.17 2414
1279.23 1221.04 2400
1281.22 1217.48 2393
1283.72 1214.43 2387
1289.43 1214.43 2387
1291.34 1210.87 2380
1293.21 1207.31 2373
1295.06 1203.74 2366
1300.72 1203.74 2366
1306.37 1203.74 2366
1312.03 1203.74 2366
1316.02 1202.22 2363
1319.99 1200.69 2360
1325.63 1200.69 2360
1331.28 1200.69 2360
1336.92 1200.69 2360
1342.56 1200.69 2360
1348.21 1200.69 2360
1351.56 1198.66 2356
1357.19 1198.66 2356
1376.71 1210.87 2380
1382.4 1210.87 2380
1388.09 1210.87 2380
1397.88 1214.43 2387
1403.59 1214.43 2387
1409.3 1214.43 2387
