669.527 658.162 3461
677.803 658.162 3461
686.079 658.162 3461
694.356 658.162 3461
702.632 658.162 3461
709.47 656.831 3454
717.73 656.831 3454
725.989 656.831 3454
735.737 658.162 3461
744.013 658.162 3461
752.29 658.162 3461
760.566 658.162 3461
768.842 658.162 3461
775.547 656.831 3454
783.806 656.831 3454
792.066 656.831 3454
800.325 656.831 3454
810.224 658.162 3461
818.5 658.162 3461
830.36 661.014 3476
838.672 661.014 3476
846.984 661.014 3476
855.296 661.014 3476
863.608 661.014 3476
875.432 663.677 3490
885.55 665.008 3497
893.913 665.008 3497
906.145 667.86 3512
922.356 673.565 3542
934.768 676.418 3557
943.274 676.418 3557
955.793 679.27 3572
966.495 680.792 3580
979.141 683.644 3595
987.738 683.644 3595
1000.77 686.687 3611
1011.64 688.208 3619
1022.55 689.729 3627
1031.22 689.729 3627
1042.19 691.251 3635
1055.22 694.103 3650
1063.95 694.103 3650
1072.68 694.103 3650
1081.4 694.103 3650
1092.52 695.624 3658
1103.98 697.336 3667
1117.6 700.379 3683
1126.41 700.379 3683
1135.22 700.379 3683
1144.02 700.379 3683
1152.83 700.379 3683
1161.64 700.379 3683
1167.9 698.857 3675
1174.13 697.336 3667
1182.9 697.336 3667
1191.67 697.336 3667
1200.44 697.336 3667
1209.2 697.336 3667
1217.97 697.336 3667
1223.73 695.624 3658
1229.78 694.103 3650
1238.51 694.103 3650
1247.24 694.103 3650
1253.22 692.582 3642
1261.92 692.582 3642
1270.63 692.582 3642
1279.34 692.582 3642
1288.05 692.582 3642
1296.76 692.582 3642
1302.96 691.251 3635
1311.65 691.251 3635
1320.35 691.251 3635
1326.11 689.729 3627
1334.79 689.729 3627
1343.46 689.729 3627
1352.13 689.729 3627
1360.81 689.729 3627
1372.5 691.251 3635
1381.19 691.251 3635
1389.89 691.251 3635
1398.58 691.251 3635
1407.27 691.251 3635
1418.69 692.582 3642
1427.4 692.582 3642
1436.11 692.582 3642
1444.82 692.582 3642
1453.53 692.582 3642
1462.23 692.582 3642
1470.94 692.582 3642
1476.81 691.251 3635
1485.5 691.251 3635
1494.19 691.251 3635
1502.89 691.251 3635
1511.58 691.251 3635
1523.2 692.582 3642
1531.91 692.582 3642
1540.62 692.582 3642
1549.33 692.582 3642
1558.04 692.582 3642
1563.73 691.251 3635
1575.45 692.582 3642
1584.16 692.582 3642
1599.87 695.624 3658
1608.62 695.624 3658
1621.34 697.336 3667
1630.11 697.336 3667
1642.46 698.857 3675
1654.84 700.379 3683
1674.49 704.943 3707
1691.07 708.175 3724
1699.98 708.175 3724
1731.83 717.684 3774
1740.85 717.684 3774
1749.88 717.684 3774
1758.9 717.684 3774
1764.18 716.162 3766
1781.19 719.395 3783
1790.23 719.395 3783
1799.28 719.395 3783
1812.63 721.107 3792
1821.7 721.107 3792
1830.76 721.107 3792
1835.47 719.395 3783
1836.22 716.162 3766
1832.49 711.218 3740
1841.43 711.218 3740
1830.09 703.421 3699
1818.55 695.624 3658
1819.31 692.582 3642
1816.47 688.208 3619
1825.13 688.208 3619
1821.62 683.644 3595
1826.65 682.313 3588
1827.05 679.27 3572
1835.59 679.27 3572
1844.13 679.27 3572
1860.97 682.313 3588
1877.37 685.165 3603
1890.17 686.687 3611
1898.81 686.687 3611
1911.67 688.208 3619
1920.32 688.208 3619
1945.5 694.103 3650
1954.23 694.103 3650
1972.1 697.336 3667
1998.15 703.421 3699
2020.56 708.175 3724
2043.09 712.929 3749
2061.36 716.162 3766
2084.66 721.107 3792
2108.09 726.051 3818
2131.64 730.995 3844
2140.83 730.995 3844
2160.09 734.418 3862
2194.6 742.976 3907
2214.1 746.398 3925
2223.48 746.398 3925
2248.8 751.723 3953
2258.25 751.723 3953
2267.7 751.723 3953
2277.15 751.723 3953
2286.61 751.723 3953
2307.1 755.336 3972
2316.59 755.336 3972
2326.09 755.336 3972
2341.47 757.238 3982
2350.99 757.238 3982
2360.52 757.238 3982
2370.04 757.238 3982
2379.56 757.238 3982
2383.08 755.336 3972
2404.03 758.949 3991
2413.57 758.949 3991
2423.11 758.949 3991
2444.24 762.563 4010
2453.83 762.563 4010
2463.42 762.563 4010
2473.01 762.563 4010
2482.59 762.563 4010
2492.18 762.563 4010
2501.77 762.563 4010
2505.73 760.851 4001
2515.29 760.851 4001
2524.86 760.851 4001
2534.43 760.851 4001
2531.91 757.238 3982
2535.05 755.336 3972
2538.79 753.625 3963
2548.26 753.625 3963
2527.41 744.687 3916
2513.45 737.841 3880
2522.73 737.841 3880
2526.13 736.13 3871
2535.39 736.13 3871
2544.65 736.13 3871
2530.15 729.284 3835
2539.32 729.284 3835
2548.49 729.284 3835
2540.32 724.339 3809
2543.41 722.628 3800
2547.12 721.107 3792
2556.19 721.107 3792
2559.17 719.395 3783
2568.22 719.395 3783
2565.68 716.162 3766
2574.69 716.162 3766
2583.69 716.162 3766
531.338 139.962 736
533.098 139.962 736
534.858 139.962 736
536.618 139.962 736
538.378 139.962 736
539.404 139.771 735
539.689 139.391 733
539.965 139.011 731
541.713 139.011 731
541.231 138.44 728
542.971 138.44 728
543.964 138.25 727
545.703 138.25 727
547.441 138.25 727
549.18 138.25 727
550.918 138.25 727
552.656 138.25 727
554.395 138.25 727
555.368 138.06 726
-2361.48 607.337 3154
-2353.94 607.337 3154
-2337.47 605.026 3142
-2325.5 603.87 3136
-2318 603.87 3136
-2314.93 605.026 3142
-2307.41 605.026 3142
-2299.9 605.026 3142
-2283.63 602.715 3130
-2276.14 602.715 3130
-2268.66 602.715 3130
-2274.18 606.181 3148
-2292.57 613.113 3184
-2311.51 620.238 3221
-2303.81 620.238 3221
-2308.94 623.704 3239
-2346.66 636.028 3303
-2338.76 636.028 3303
-2452.95 669.341 3476
-2459.4 673.385 3497
-2498.7 686.479 3565
-2490.18 686.479 3565
-2502.54 692.256 3595
-2516.14 698.418 3627
-2513 699.958 3635
-2504.3 699.958 3635
-2523.07 707.661 3675
-2536.18 713.823 3707
-2538.9 717.096 3724
-2530 717.096 3724
-2521.09 717.096 3724
-2512.19 717.096 3724
-2503.28 717.096 3724
-2482.99 713.823 3707
-2463.45 710.742 3691
-2465.26 713.823 3707
-2456.4 713.823 3707
-2447.53 713.823 3707
-2438.67 713.823 3707
-2429.8 713.823 3707
-2420.94 713.823 3707
-2401.66 710.742 3691
-2387.65 709.201 3683
-2373.68 707.661 3675
-2364.89 707.661 3675
-2356.1 707.661 3675
-2347.31 707.661 3675
-2343.62 709.201 3683
-2334.81 709.201 3683
-2326 709.201 3683
-2317.19 709.201 3683
-2308.39 709.201 3683
-2299.58 709.201 3683
-2275.22 704.387 3658
-2272.05 706.12 3667
-2268.22 707.661 3675
-2259.43 707.661 3675
-2250.64 707.661 3675
-2241.86 707.661 3675
-2233.07 707.661 3675
-2229.12 709.201 3683
-2220.32 709.201 3683
-2211.51 709.201 3683
-2197.92 707.661 3675
-2179 704.387 3658
-2170.25 704.387 3658
-1977.72 730.19 3792
-1968.65 730.19 3792
-1959.58 730.19 3792
-1950.52 730.19 3792
-1954.76 735.197 3818
-1945.63 735.197 3818
-1936.5 735.197 3818
-1927.37 735.197 3818
-1905.18 730.19 3792
-1887.11 726.724 3774
-1878.08 726.724 3774
-1893.72 747.136 3880
-1884.44 747.136 3880
-1875.16 747.136 3880
-1806.74 723.451 3757
-1797.75 723.451 3757
-1788.77 723.451 3757
-1779.78 723.451 3757
-1755.25 717.096 3724
-1753.84 720.177 3740
-1744.9 720.177 3740
-1735.96 720.177 3740
-1727.01 720.177 3740
-1725.88 723.451 3757
-1716.89 723.451 3757
-1715.64 726.724 3774
-1706.61 726.724 3774
-1697.59 726.724 3774
-1680.96 723.451 3757
-1668.41 721.91 3749
-1674.5 728.457 3783
-1665.45 728.457 3783
-1656.41 728.457 3783
-1647.36 728.457 3783
-1645.68 731.731 3800
-1636.59 731.731 3800
-1631.36 733.464 3809
-1622.25 733.464 3809
-1616.95 735.197 3818
-1611.19 736.737 3826
-1602.04 736.737 3826
-1592.89 736.737 3826
-1591.19 740.203 3844
-1582 740.203 3844
-1572.81 740.203 3844
-1563.62 740.203 3844
-1550.79 738.47 3835
-1556.09 745.403 3871
-1546.83 745.403 3871
-1537.57 745.403 3871
-664.05 346.994 1802
-659.741 346.994 1802
-655.432 346.994 1802
-649.677 346.224 1798
-643.942 345.454 1794
-639.652 345.454 1794
-632.529 343.913 1786
-625.092 342.18 1777
-617.349 340.255 1767
-613.124 340.255 1767
-607.175 339.292 1762
-599.54 337.366 1752
-594.331 336.789 1749
-588.124 335.633 1743
-583.956 335.633 1743
-578.79 335.056 1740
-573.308 334.285 1736
-569.157 334.285 1736
-565.005 334.285 1736
-559.562 333.515 1732
-553.817 332.552 1727
-549.05 332.167 1725
-544.925 332.167 1725
-540.8 332.167 1725
-536.053 331.782 1723
-531.933 331.782 1723
-527.813 331.782 1723
-523.388 331.59 1722
-519.271 331.59 1722
-513.956 330.819 1718
-509.848 330.819 1718
-505.151 330.434 1716
-500.755 330.242 1715
-496.075 329.857 1713
-491.979 329.857 1713
-487.883 329.857 1713
-482.656 329.086 1709
-478.57 329.086 1709
-474.483 329.086 1709
-470.121 328.894 1708
-465.491 328.509 1706
-461.411 328.509 1706
-457.868 328.894 1708
-453.784 328.894 1708
-449.699 328.894 1708
-445.615 328.894 1708
-441.531 328.894 1708
-437.446 328.894 1708
-432.854 328.509 1706
-428.272 328.124 1704
-424.197 328.124 1704
-420.123 328.124 1704
-416.048 328.124 1704
-411.49 327.738 1702
-407.42 327.738 1702
-403.35 327.738 1702
-399.28 327.738 1702
-395.21 327.738 1702
-391.14 327.738 1702
-387.07 327.738 1702
-383 327.738 1702
-378.93 327.738 1702
-374.639 327.546 1701
-370.572 327.546 1701
-366.504 327.546 1701
-362.01 327.161 1699
-357.526 326.776 1697
-353.468 326.776 1697
-348.381 325.813 1692
-344.335 325.813 1692
-340.288 325.813 1692
-336.242 325.813 1692
-332.196 325.813 1692
-328.15 325.813 1692
-323.721 325.428 1690
-319.68 325.428 1690
-315.638 325.428 1690
-311.597 325.428 1690
-307.374 325.235 1689
-303.335 325.235 1689
-299.296 325.235 1689
-294.907 324.85 1687
-290.184 324.08 1683
-286.159 324.08 1683
-282.135 324.08 1683
-278.11 324.08 1683
-274.085 324.08 1683
-270.382 324.465 1685
-266.352 324.465 1685
-262.323 324.465 1685
-258.294 324.465 1685
-254.264 324.465 1685
-250.235 324.465 1685
-246.206 324.465 1685
-242.176 324.465 1685
-238.147 324.465 1685
-234.396 324.85 1687
-230.361 324.85 1687
-226.596 325.235 1689
-222.557 325.235 1689
-218.518 325.235 1689
-214.479 325.235 1689
-210.565 325.428 1690
-206.768 325.813 1692
-202.722 325.813 1692
-198.676 325.813 1692
-194.859 326.198 1694
-190.921 326.39 1695
-187.088 326.776 1697
-183.246 327.161 1699
-179.183 327.161 1699
-175.43 327.738 1702
-171.36 327.738 1702
-167.29 327.738 1702
-163.22 327.738 1702
-159.056 327.546 1701
-155.08 327.738 1702
-151.01 327.738 1702
-146.94 327.738 1702
-143.038 328.124 1704
-138.963 328.124 1704
-134.888 328.124 1704
-130.813 328.124 1704
-126.739 328.124 1704
-122.664 328.124 1704
-118.589 328.124 1704
-114.313 327.546 1701
-110.763 329.086 1709
-106.802 329.471 1711
-102.71 329.471 1711
-98.6185 329.471 1711
-193.075 736.737 3826
-183.926 736.737 3826
-174.777 736.737 3826
-165.282 735.197 3818
-156.847 738.47 3835
-147.676 738.47 3835
-138.506 738.47 3835
-129.335 738.47 3835
-120.164 738.47 3835
-110.733 736.737 3826
-101.584 736.737 3826
-92.435 736.737 3826
-82.9158 733.464 3809
-73.6329 731.731 3800
-64.546 731.731 3800
-55.459 731.731 3800
-46.0548 726.724 3774
-36.8632 723.451 3757
-27.8791 723.451 3757
-18.895 723.451 3757
-9.82378 717.096 3724
-0.908454 709.201 3683
7.82794 702.847 3650
16.5925 704.387 3658
25.3399 704.387 3658
34.0873 704.387 3658
42.8346 704.387 3658
51.582 704.387 3658
60.0655 701.306 3642
69.0768 704.387 3658
77.8242 704.387 3658
86.5716 704.387 3658
95.319 704.387 3658
104.066 704.387 3658
112.567 702.847 3650
121.295 702.847 3650
130.024 702.847 3650
138.448 701.306 3642
147.157 701.306 3642
155.866 701.306 3642
164.259 699.958 3635
172.951 699.958 3635
181.644 699.958 3635
190.336 699.958 3635
198.59 698.418 3627
206.806 696.877 3619
215.46 696.877 3619
223.619 695.337 3611
232.769 696.877 3619
241.423 696.877 3619
250.077 696.877 3619
258.731 696.877 3619
267.385 696.877 3619
276.039 696.877 3619
284.693 696.877 3619
293.996 698.418 3627
302.669 698.418 3627
311.343 698.418 3627
320.016 698.418 3627
330.048 701.306 3642
338.758 701.306 3642
347.467 701.306 3642
356.176 701.306 3642
364.184 699.958 3635
372.876 699.958 3635
379.889 696.877 3619
385.966 692.256 3595
391.27 686.479 3565
399.795 686.479 3565
407.404 684.939 3557
414.975 683.398 3549
421.672 680.51 3534
427.445 676.273 3512
435.843 676.273 3512
441.458 672.037 3490
446.066 666.453 3461
450.667 661.061 3433
458.876 661.061 3433
465.181 658.365 3419
468.511 651.626 3384
474.632 648.93 3370
482.69 648.93 3370
483.905 639.879 3323
491.851 639.879 3323
499.797 639.879 3323
508.813 641.227 3330
518.794 643.731 3343
526.788 643.731 3343
537.021 646.426 3357
547.16 648.93 3370
558.678 652.973 3391
566.787 652.973 3391
576.083 654.321 3398
585.412 655.669 3405
595.995 658.365 3419
604.171 658.365 3419
613.6 659.713 3426
621.793 659.713 3426
631.273 661.061 3433
639.482 661.061 3433
647.691 661.061 3433
655.901 661.061 3433
664.11 661.061 3433
672.319 661.061 3433
680.529 661.061 3433
688.738 661.061 3433
696.947 661.061 3433
703.719 659.713 3426
711.911 659.713 3426
720.104 659.713 3426
728.297 659.713 3426
736.489 659.713 3426
744.682 659.713 3426
752.875 659.713 3426
761.067 659.713 3426
767.688 658.365 3419
775.864 658.365 3419
784.04 658.365 3419
790.594 657.017 3412
800.391 658.365 3419
808.567 658.365 3419
818.415 659.713 3426
826.608 659.713 3426
834.801 659.713 3426
842.993 659.713 3426
854.664 662.409 3440
864.646 663.757 3447
878.207 667.801 3468
886.5 667.801 3468
900.469 672.037 3490
914.544 676.273 3512
926.884 679.162 3527
935.318 679.162 3527
949.639 683.398 3549
960.285 684.939 3557
975.056 689.367 3580
983.616 689.367 3580
996.334 692.256 3595
1009.4 695.337 3611
1020.29 696.877 3619
1028.95 696.877 3619
1039.9 698.418 3627
1050.88 699.958 3635
1061.61 701.306 3642
1072.68 702.847 3650
1081.4 702.847 3650
1090.13 702.847 3650
1101.27 704.387 3658
1115.17 707.661 3675
1123.96 707.661 3675
1135.22 709.201 3683
1144.02 709.201 3683
1152.83 709.201 3683
1161.64 709.201 3683
1167.9 707.661 3675
1174.13 706.12 3667
1182.9 706.12 3667
1191.67 706.12 3667
1200.44 706.12 3667
1206.24 704.387 3658
1214.98 704.387 3658
1221.06 702.847 3650
1229.78 702.847 3650
1235.8 701.306 3642
1244.51 701.306 3642
1253.22 701.306 3642
1261.92 701.306 3642
1270.63 701.306 3642
1279.34 701.306 3642
1288.05 701.306 3642
1296.76 701.306 3642
1302.96 699.958 3635
1308.77 698.418 3627
1317.44 698.418 3627
1326.11 698.418 3627
1334.79 698.418 3627
1343.46 698.418 3627
1352.13 698.418 3627
1360.81 698.418 3627
1369.48 698.418 3627
1378.15 698.418 3627
1386.83 698.418 3627
1395.5 698.418 3627
1404.17 698.418 3627
1415.96 699.958 3635
1424.65 699.958 3635
1433.35 699.958 3635
1442.04 699.958 3635
1450.73 699.958 3635
1459.42 699.958 3635
1468.12 699.958 3635
1473.56 698.418 3627
1478.96 696.877 3619
1487.62 696.877 3619
1496.27 696.877 3619
1504.93 696.877 3619
1520.27 699.958 3635
1528.96 699.958 3635
1537.66 699.958 3635
1546.35 699.958 3635
1555.04 699.958 3635
1560.29 698.418 3627
1568.96 698.418 3627
1577.64 698.418 3627
1589.81 699.958 3635
1605.1 702.847 3650
1617.36 704.387 3658
1626.11 704.387 3658
1634.86 704.387 3658
1647.65 706.12 3667
1667.26 710.742 3691
1691.07 717.096 3724
1699.98 717.096 3724
1728.16 725.184 3766
1737.16 725.184 3766
1746.17 725.184 3766
1755.17 725.184 3766
1764.18 725.184 3766
1781.19 728.457 3783
1790.23 728.457 3783
1799.28 728.457 3783
1812.63 730.19 3792
1821.7 730.19 3792
1830.76 730.19 3792
1835.47 728.457 3783
1827.93 721.91 3749
1828.57 718.637 3732
1837.49 718.637 3732
1814.26 706.12 3667
1818.55 704.387 3658
1811.82 698.418 3627
1816.47 696.877 3619
1825.13 696.877 3619
1821.62 692.256 3595
1822.58 689.367 3580
1827.05 687.827 3572
1835.59 687.827 3572
1844.13 687.827 3572
1860.97 690.908 3588
1877.37 693.796 3603
1890.17 695.337 3611
1898.81 695.337 3611
1911.67 696.877 3619
1920.32 696.877 3619
1945.5 702.847 3650
1954.23 702.847 3650
1972.1 706.12 3667
1998.15 712.282 3699
2020.56 717.096 3724
2043.09 721.91 3749
2061.36 725.184 3766
2084.66 730.19 3792
2108.09 735.197 3818
2131.64 740.203 3844
2140.83 740.203 3844
2160.09 743.67 3862
2194.6 752.335 3907
2214.1 755.801 3925
2223.48 755.801 3925
2243.68 759.46 3944
2258.25 761.193 3953
2267.7 761.193 3953
2277.15 761.193 3953
2286.61 761.193 3953
2301.87 763.118 3963
2311.35 763.118 3963
2320.82 763.118 3963
2341.47 766.777 3982
2350.99 766.777 3982
2360.52 766.777 3982
2370.04 766.777 3982
2379.56 766.777 3982
2383.08 764.851 3972
2404.03 768.51 3991
2413.57 768.51 3991
2423.11 768.51 3991
2438.75 770.435 4001
2448.32 770.435 4001
2463.42 772.169 4010
2473.01 772.169 4010
2482.59 772.169 4010
2486.59 770.435 4001
2496.16 770.435 4001
2505.73 770.435 4001
2509.01 768.51 3991
2518.55 768.51 3991
2528.09 768.51 3991
2531.91 766.777 3982
2535.05 764.851 3972
2538.79 763.118 3963
2548.26 763.118 3963
2527.41 754.068 3916
2513.45 747.136 3880
2522.73 747.136 3880
2526.13 745.403 3871
2535.39 745.403 3871
2544.65 745.403 3871
2530.15 738.47 3835
2539.32 738.47 3835
2548.49 738.47 3835
2540.32 733.464 3809
2543.41 731.731 3800
2547.12 730.19 3792
2556.19 730.19 3792
2559.17 728.457 3783
2568.22 728.457 3783
2565.68 725.184 3766
2574.69 725.184 3766
2583.69 725.184 3766
531.338 141.725 736
533.098 141.725 736
534.858 141.725 736
536.618 141.725 736
538.378 141.725 736
539.404 141.532 735
539.689 141.147 733
539.965 140.762 731
541.713 140.762 731
541.231 140.184 728
542.226 139.992 727
543.216 139.799 726
544.952 139.799 726
546.688 139.799 726
548.424 139.799 726
550.16 139.799 726
551.896 139.799 726
553.632 139.799 726
554.604 139.607 725
-2361.48 614.892 3154
-2353.94 614.892 3154
-2328.54 610.213 3130
-2316.6 609.043 3124
-2318 611.383 3136
-2310.5 611.383 3136
-2303.01 611.383 3136
-2295.51 611.383 3136
-2283.63 610.213 3130
-2276.14 610.213 3130
-2264.31 609.043 3124
-2274.18 613.722 3148
-2288.25 619.571 3178
-2311.51 627.954 3221
-2303.81 627.954 3221
-2308.94 631.463 3239
-2346.66 643.94 3303
-2338.76 643.94 3303
-2452.95 677.668 3476
-2454.48 680.397 3490
-2498.7 695.019 3565
-2490.18 695.019 3565
-2502.54 700.868 3595
-2505.04 703.987 3611
-2513 708.666 3635
-2504.3 708.666 3635
-2511.4 713.15 3658
-2536.18 722.703 3707
-2538.9 726.017 3724
-2530 726.017 3724
-2521.09 726.017 3724
-2506.79 724.457 3716
-2497.91 724.457 3716
-2477.63 721.143 3699
-2458.11 718.024 3683
-2454.62 719.583 3691
-2451.1 721.143 3699
-2442.25 721.143 3699
-2438.67 722.703 3707
-2429.8 722.703 3707
-2420.94 722.703 3707
-2401.66 719.583 3691
-2387.65 718.024 3683
-2373.68 716.464 3675
-2364.89 716.464 3675
-2356.1 716.464 3675
-2347.31 716.464 3675
-2343.62 718.024 3683
-2334.81 718.024 3683
-2326 718.024 3683
-2317.19 718.024 3683
-2308.39 718.024 3683
-2299.58 718.024 3683
-2275.22 713.15 3658
-2272.05 714.905 3667
-2268.22 716.464 3675
-2259.43 716.464 3675
-2250.64 716.464 3675
-2241.86 716.464 3675
-2233.07 716.464 3675
-2229.12 718.024 3683
-2220.32 718.024 3683
-2211.51 718.024 3683
-2197.92 716.464 3675
-2179 713.15 3658
-2170.25 713.15 3658
-2143.19 707.106 3627
-1995.86 739.274 3792
-1986.79 739.274 3792
-1977.72 739.274 3792
-1968.65 739.274 3792
-1959.58 739.274 3792
-1950.52 739.274 3792
-1954.76 744.343 3818
-1945.63 744.343 3818
-1936.5 744.343 3818
-1927.37 744.343 3818
-1905.18 739.274 3792
-1887.11 735.765 3774
-1878.08 735.765 3774
-1893.72 756.43 3880
-1884.44 756.43 3880
-1875.16 756.43 3880
-1806.74 732.451 3757
-1797.75 732.451 3757
-1788.77 732.451 3757
-1779.78 732.451 3757
-1755.25 726.017 3724
-1753.84 729.136 3740
-1744.9 729.136 3740
-1735.96 729.136 3740
-1727.01 729.136 3740
-1725.88 732.451 3757
-1716.89 732.451 3757
-1715.64 735.765 3774
-1706.61 735.765 3774
-1697.59 735.765 3774
-1680.96 732.451 3757
-1668.41 730.891 3749
-1674.5 737.519 3783
-1665.45 737.519 3783
-1656.41 737.519 3783
-1647.36 737.519 3783
-1645.68 740.834 3800
-1636.59 740.834 3800
-1631.36 742.588 3809
-1622.25 742.588 3809
-1616.95 744.343 3818
-1611.19 745.903 3826
-1602.04 745.903 3826
-1592.89 745.903 3826
-1591.19 749.412 3844
-1582 749.412 3844
-1572.81 749.412 3844
-1563.62 749.412 3844
-1550.79 747.657 3835
-1556.09 754.676 3871
-1546.83 754.676 3871
-1537.57 754.676 3871
-664.05 351.311 1802
-659.741 351.311 1802
-655.432 351.311 1802
-649.677 350.531 1798
-644.66 350.141 1796
-640.365 350.141 1796
-635.362 349.751 1794
-627.555 347.802 1784
-620.843 346.437 1777
-616.593 346.437 1777
-607.52 343.708 1763
-601.593 342.733 1758
-595.35 341.563 1752
-589.473 340.589 1747
-585.296 340.589 1747
-579.788 339.809 1743
-574.629 339.224 1740
-569.812 338.834 1738
-565.656 338.834 1738
-560.854 338.444 1736
-555.099 337.469 1731
-550.323 337.079 1729
-546.189 337.079 1729
-542.054 337.079 1729
-537.92 337.079 1729
-533.168 336.689 1727
-529.038 336.689 1727
-524.3 336.3 1725
-519.572 335.91 1723
-515.153 335.715 1722
-511.035 335.715 1722
-506.328 335.325 1720
-501.631 334.935 1718
-497.523 334.935 1718
-493.415 334.935 1718
-488.737 334.545 1716
-484.351 334.35 1715
-479.69 333.96 1713
-475.594 333.96 1713
-470.947 333.57 1711
-466.31 333.18 1709
-462.223 333.18 1709
-458.672 333.57 1711
-454.581 333.57 1711
-450.489 333.57 1711
-446.398 333.57 1711
-442.306 333.57 1711
-438.215 333.57 1711
-433.616 333.18 1709
-429.529 333.18 1709
-425.442 333.18 1709
-421.355 333.18 1709
-417.269 333.18 1709
-412.94 332.985 1708
-408.856 332.985 1708
-404.772 332.985 1708
-400.687 332.985 1708
-396.603 332.985 1708
-392.518 332.985 1708
-388.434 332.985 1708
-384.35 332.985 1708
-380.265 332.985 1708
-376.181 332.985 1708
-372.097 332.985 1708
-368.012 332.985 1708
-363.502 332.595 1706
-358.58 331.816 1702
-354.51 331.816 1702
-349.41 330.841 1697
-345.352 330.841 1697
-341.294 330.841 1697
-337.236 330.841 1697
-333.178 330.841 1697
-328.538 330.256 1694
-324.487 330.256 1694
-320.436 330.256 1694
-316.385 330.256 1694
-311.966 329.866 1692
-307.92 329.866 1692
-303.515 329.476 1690
-299.473 329.476 1690
-295.257 329.281 1689
-290.873 328.891 1687
-286.839 328.891 1687
-282.805 328.891 1687
-278.771 328.891 1687
-274.737 328.891 1687
-270.703 328.891 1687
-266.669 328.891 1687
-262.634 328.891 1687
-258.907 329.281 1689
-254.868 329.281 1689
-250.829 329.281 1689
-246.79 329.281 1689
-242.751 329.281 1689
-238.712 329.281 1689
-234.812 329.476 1690
-230.771 329.476 1690
-226.73 329.476 1690
-222.688 329.476 1690
-218.647 329.476 1690
-214.606 329.476 1690
-210.814 329.866 1692
-206.768 329.866 1692
-202.961 330.256 1694
-198.91 330.256 1694
-194.975 330.451 1695
-191.147 330.841 1697
-187.309 331.231 1699
-183.462 331.621 1701
-179.394 331.621 1701
-175.43 331.816 1702
-171.36 331.816 1702
-167.29 331.816 1702
-163.22 331.816 1702
-159.056 331.621 1701
-155.08 331.816 1702
-151.01 331.816 1702
-146.94 331.816 1702
-142.87 331.816 1702
-138.8 331.816 1702
-134.888 332.205 1704
-130.813 332.205 1704
-126.739 332.205 1704
-122.664 332.205 1704
-118.589 332.205 1704
-114.313 331.621 1701
-110.763 333.18 1709
-106.802 333.57 1711
-102.71 333.57 1711
-224.154 758.185 3889
-214.854 758.185 3889
-205.554 758.185 3889
-194.892 752.921 3862
-185.657 752.921 3862
-176.422 752.921 3862
-166.797 751.166 3853
-157.215 749.412 3844
-148.023 749.412 3844
-138.831 749.412 3844
-129.335 747.657 3835
-120.164 747.657 3835
-110.502 744.343 3818
-101.372 744.343 3818
-91.8068 740.834 3800
-82.7199 740.834 3800
-73.3035 737.519 3783
-64.2572 737.519 3783
-55.2109 737.519 3783
-45.8473 732.451 3757
-36.6964 729.136 3740
-27.7529 729.136 3740
-18.729 726.017 3724
-9.71562 718.024 3683
-0.900315 711.59 3650
7.81078 710.031 3642
16.5199 710.031 3642
25.1251 707.106 3627
33.7984 707.106 3627
42.4716 707.106 3627
51.1449 707.106 3627
59.8182 707.106 3627
68.6425 708.666 3635
77.4838 710.031 3642
86.1929 710.031 3642
94.902 710.031 3642
103.611 710.031 3642
112.32 710.031 3642
121.029 710.031 3642
129.489 708.666 3635
137.877 707.106 3627
146.551 707.106 3627
155.224 707.106 3627
163.897 707.106 3627
172.57 707.106 3627
180.844 705.547 3619
189.498 705.547 3619
198.152 705.547 3619
205.892 702.427 3603
214.508 702.427 3603
222.628 700.868 3595
231.225 700.868 3595
239.822 700.868 3595
248.419 700.868 3595
257.015 700.868 3595
266.203 702.427 3603
274.819 702.427 3603
283.435 702.427 3603
292.699 703.987 3611
301.334 703.987 3611
309.969 703.987 3611
318.604 703.987 3611
328.689 707.106 3627
337.362 707.106 3627
346.036 707.106 3627
354.709 707.106 3627
362.581 705.547 3619
371.235 705.547 3619
378.209 702.427 3603
385.215 699.503 3588
391.27 695.019 3565
399.795 695.019 3565
407.404 693.459 3557
414.975 691.9 3549
421.672 688.975 3534
427.445 684.686 3512
435.843 684.686 3512
441.458 680.397 3490
446.066 674.744 3461
450.667 669.285 3433
458.876 669.285 3433
465.181 666.555 3419
467.542 658.367 3377
473.646 655.638 3363
481.688 655.638 3363
483.031 646.67 3317
490.963 646.67 3317
498.895 646.67 3317
507.744 647.84 3323
516.776 649.204 3330
524.739 649.204 3330
534.782 651.739 3343
545.049 654.468 3357
555.218 657.003 3370
563.277 657.003 3370
572.523 658.367 3377
581.802 659.732 3384
592.334 662.461 3398
600.46 662.461 3398
609.839 663.826 3405
617.982 663.826 3405
627.411 665.191 3412
635.57 665.191 3412
643.729 665.191 3412
653.226 666.555 3419
661.402 666.555 3419
669.578 666.555 3419
677.753 666.555 3419
685.929 666.555 3419
694.105 666.555 3419
702.281 666.555 3419
710.457 666.555 3419
718.633 666.555 3419
726.809 666.555 3419
734.985 666.555 3419
743.16 666.555 3419
749.798 665.191 3412
757.957 665.191 3412
764.544 663.826 3405
772.687 663.826 3405
780.829 663.826 3405
787.35 662.461 3398
795.475 662.461 3398
803.601 662.461 3398
813.399 663.826 3405
821.541 663.826 3405
831.389 665.191 3412
839.548 665.191 3412
847.708 665.191 3412
859.378 667.92 3426
871.116 670.649 3440
879.342 670.649 3440
894.793 676.108 3468
906.992 679.033 3483
921.102 683.322 3505
929.484 683.322 3505
943.752 687.611 3527
956.236 690.535 3542
968.791 693.459 3557
977.297 693.459 3557
992.177 697.943 3580
1004.93 700.868 3595
1018.04 703.987 3611
1026.67 703.987 3611
1037.6 705.547 3619
1048.57 707.106 3627
1059.57 708.666 3635
1070.32 710.031 3642
1079.03 710.031 3642
1090.13 711.59 3650
1101.27 713.15 3658
1112.75 714.905 3667
1121.52 714.905 3667
1132.75 716.464 3675
1141.54 716.464 3675
1150.33 716.464 3675
1159.11 716.464 3675
1167.9 716.464 3675
1174.13 714.905 3667
1182.9 714.905 3667
1191.67 714.905 3667
1197.49 713.15 3658
1206.24 713.15 3658
1214.98 713.15 3658
1221.06 711.59 3650
1227.09 710.031 3642
1235.8 710.031 3642
1244.51 710.031 3642
1250.81 708.666 3635
1259.5 708.666 3635
1268.19 708.666 3635
1276.88 708.666 3635
1285.58 708.666 3635
1294.27 708.666 3635
1302.96 708.666 3635
1308.77 707.106 3627
1317.44 707.106 3627
1326.11 707.106 3627
1331.84 705.547 3619
1340.5 705.547 3619
1349.15 705.547 3619
1357.81 705.547 3619
1369.48 707.106 3627
1378.15 707.106 3627
1386.83 707.106 3627
1395.5 707.106 3627
1404.17 707.106 3627
1412.85 707.106 3627
1424.65 708.666 3635
1433.35 708.666 3635
1442.04 708.666 3635
1447.54 707.106 3627
1453 705.547 3619
1461.65 705.547 3619
1467.06 703.987 3611
1475.69 703.987 3611
1481.04 702.427 3603
1489.66 702.427 3603
1498.27 702.427 3603
1506.89 702.427 3603
1515.5 702.427 3603
1524.12 702.427 3603
1532.74 702.427 3603
1541.35 702.427 3603
1546.53 700.868 3595
1558.58 702.427 3603
1567.2 702.427 3603
1582.81 705.547 3619
1591.47 705.547 3619
1603.66 707.106 3627
1615.89 708.666 3635
1624.58 708.666 3635
1643.61 713.15 3658
1660.03 716.464 3675
1679.72 721.143 3699
1688.56 721.143 3699
1712.55 727.577 3732
1737.16 734.205 3766
1749.88 735.765 3774
1758.9 735.765 3774
1772.14 737.519 3783
1785.43 739.274 3792
1798.28 740.834 3800
1807.37 740.834 3800
1816.45 740.834 3800
1825.54 740.834 3800
1834.63 740.834 3800
1839.83 739.274 3792
1836.22 734.205 3766
1832.49 729.136 3740
1841.43 729.136 3740
1822.18 718.024 3683
1818.55 713.15 3658
1815.81 708.666 3635
1816.47 705.547 3619
1825.13 705.547 3619
1825.67 702.427 3603
1826.65 699.503 3588
1831.14 697.943 3580
1843.81 699.503 3588
1852.39 699.503 3588
1868.75 702.427 3603
1881.54 703.987 3611
1890.17 703.987 3611
1898.81 703.987 3611
1911.67 705.547 3619
1924.57 707.106 3627
1945.5 711.59 3650
1954.23 711.59 3650
1980.7 718.024 3683
1998.15 721.143 3699
2024.91 727.577 3732
2033.83 727.577 3732
2065.74 735.765 3774
2098.96 744.343 3818
2117.47 747.657 3835
2136.63 751.166 3853
2145.84 751.166 3853
2175.19 758.185 3889
2194.6 761.694 3907
2214.1 765.203 3925
2223.48 765.203 3925
2243.68 768.907 3944
2258.25 770.662 3953
2267.7 770.662 3953
2277.15 770.662 3953
2286.61 770.662 3953
2301.87 772.612 3963
2311.35 772.612 3963
2320.82 772.612 3963
2335.59 774.366 3972
2345.09 774.366 3972
2354.59 774.366 3972
2364.09 774.366 3972
2373.58 774.366 3972
2383.08 774.366 3972
2404.03 778.07 3991
2413.57 778.07 3991
2423.11 778.07 3991
2432.66 778.07 3991
2448.32 780.02 4001
2463.42 781.775 4010
2473.01 781.775 4010
2482.59 781.775 4010
2486.59 780.02 4001
2496.16 780.02 4001
2505.73 780.02 4001
2515.29 780.02 4001
2518.55 778.07 3991
2528.09 778.07 3991
2531.91 776.316 3982
2535.05 774.366 3972
2538.79 772.612 3963
2548.26 772.612 3963
2527.41 763.449 3916
2513.45 756.43 3880
2534.43 759.939 3898
2543.75 759.939 3898
2553.07 759.939 3898
2562.4 759.939 3898
2547.97 752.921 3862
2557.2 752.921 3862
2566.44 752.921 3862
2563.67 749.412 3844
2549.43 742.588 3809
2558.54 742.588 3809
2579.11 745.903 3826
2588.26 745.903 3826
2597.41 745.903 3826
2577.26 737.519 3783
2574.69 734.205 3766
2583.69 734.205 3766
531.338 143.488 736
533.098 143.488 736
534.858 143.488 736
536.618 143.488 736
538.378 143.488 736
539.404 143.293 735
540.426 143.098 734
539.965 142.513 731
541.713 142.513 731
541.231 141.928 728
542.226 141.733 727
543.216 141.538 726
544.201 141.343 725
545.935 141.343 725
547.669 141.343 725
549.402 141.343 725
551.136 141.343 725
552.87 141.343 725
553.839 141.148 724
-2361.48 622.447 3154
-2353.94 622.447 3154
-2328.54 617.711 3130
-2321.05 617.711 3130
-2322.44 620.079 3142
-2314.93 620.079 3142
-2307.41 620.079 3142
-2299.9 620.079 3142
-2288.01 618.895 3136
-2280.51 618.895 3136
-2273.01 618.895 3136
-2282.85 623.632 3160
-2305.53 631.92 3202
-2320.12 638.038 3233
-2312.39 638.038 3233
-2322.48 642.972 3258
-2375.08 659.747 3343
-2367.09 659.747 3343
-2452.95 685.995 3476
-2454.48 688.758 3490
-2509.22 706.519 3580
-2500.66 706.519 3580
-2497.66 708.098 3588
-2505.04 712.637 3611
-2513 717.374 3635
-2504.3 717.374 3635
-2511.4 721.913 3658
-2536.18 731.583 3707
-2538.9 734.938 3724
-2530 734.938 3724
-2521.09 734.938 3724
-2506.79 733.359 3716
-2497.91 733.359 3716
-2477.63 730.004 3699
-2458.11 726.846 3683
-2454.62 728.425 3691
-2445.8 728.425 3691
-2436.97 728.425 3691
-2438.67 731.583 3707
-2429.8 731.583 3707
-2420.94 731.583 3707
-2401.66 728.425 3691
-2387.65 726.846 3683
-2373.68 725.268 3675
-2364.89 725.268 3675
-2356.1 725.268 3675
-2347.31 725.268 3675
-2343.62 726.846 3683
-2334.81 726.846 3683
-2326 726.846 3683
-2317.19 726.846 3683
-2308.39 726.846 3683
-2299.58 726.846 3683
-2275.22 721.913 3658
-2272.05 723.689 3667
-2263.28 723.689 3667
-2254.51 723.689 3667
-2245.75 723.689 3667
-2236.98 723.689 3667
-2228.21 723.689 3667
-2219.44 723.689 3667
-2210.67 723.689 3667
-2196.5 721.913 3658
-2187.75 721.913 3658
-2165.3 717.374 3635
-2156.61 717.374 3635
-2143.19 715.795 3627
-1995.86 748.358 3792
-1986.79 748.358 3792
-1977.72 748.358 3792
-1968.65 748.358 3792
-1959.58 748.358 3792
-1950.52 748.358 3792
-1954.76 753.489 3818
-1945.63 753.489 3818
-1936.5 753.489 3818
-1927.37 753.489 3818
-1905.18 748.358 3792
-1887.11 744.806 3774
-1878.08 744.806 3774
-1806.74 741.451 3757
-1797.75 741.451 3757
-1788.77 741.451 3757
-1764.15 734.938 3724
-1732.15 725.268 3675
-1730.87 728.425 3691
-1722.04 728.425 3691
-1713.21 728.425 3691
-1704.39 728.425 3691
-1695.56 728.425 3691
-1686.73 728.425 3691
-1677.91 728.425 3691
-1669.08 728.425 3691
-1660.25 728.425 3691
-1655.01 730.004 3699
-1646.16 730.004 3699
-1648.38 734.938 3724
-1650.48 739.872 3749
-1648.96 743.227 3766
-1639.96 743.227 3766
-1630.95 743.227 3766
-1625.39 744.806 3774
-1620.22 746.582 3783
-1611.17 746.582 3783
-1602.13 746.582 3783
-1607.82 753.489 3818
-1598.69 753.489 3818
-1589.56 753.489 3818
-1576.71 751.713 3809
-1567.6 751.713 3809
-1558.49 751.713 3809
-1549.38 751.713 3809
-1533.4 748.358 3792
-1538 755.068 3826
-1528.85 755.068 3826
-1519.7 755.068 3826
-658.277 354.838 1798
-653.977 354.838 1798
-649.677 354.838 1798
-644.66 354.444 1796
-640.365 354.444 1796
-635.362 354.049 1794
-627.555 352.076 1784
-620.843 350.694 1777
-616.593 350.694 1777
-607.52 347.931 1763
-601.593 346.944 1758
-595.35 345.76 1752
-589.473 344.773 1747
-585.296 344.773 1747
-579.788 343.984 1743
-574.629 343.392 1740
-569.812 342.997 1738
-565.656 342.997 1738
-560.854 342.603 1736
-555.099 341.616 1731
-550.323 341.221 1729
-546.189 341.221 1729
-542.054 341.221 1729
-537.92 341.221 1729
-533.168 340.826 1727
-529.038 340.826 1727
-524.3 340.432 1725
-519.572 340.037 1723
-515.153 339.84 1722
-511.035 339.84 1722
-506.328 339.445 1720
-501.631 339.05 1718
-497.523 339.05 1718
-493.415 339.05 1718
-488.737 338.656 1716
-484.351 338.458 1715
-479.69 338.064 1713
-475.594 338.064 1713
-470.947 337.669 1711
-466.31 337.274 1709
-462.223 337.274 1709
-458.672 337.669 1711
-454.581 337.669 1711
-450.489 337.669 1711
-446.398 337.669 1711
-442.306 337.669 1711
-438.215 337.669 1711
-433.616 337.274 1709
-429.529 337.274 1709
-425.442 337.274 1709
-421.355 337.274 1709
-417.269 337.274 1709
-412.94 337.077 1708
-408.856 337.077 1708
-404.772 337.077 1708
-400.687 337.077 1708
-396.603 337.077 1708
-392.518 337.077 1708
-388.434 337.077 1708
-384.35 337.077 1708
-380.265 337.077 1708
-376.181 337.077 1708
-372.097 337.077 1708
-368.012 337.077 1708
-363.502 336.682 1706
-358.58 335.893 1702
-354.51 335.893 1702
-349.41 334.906 1697
-345.352 334.906 1697
-341.294 334.906 1697
-337.236 334.906 1697
-333.178 334.906 1697
-328.538 334.314 1694
-324.487 334.314 1694
-320.436 334.314 1694
-316.385 334.314 1694
-311.966 333.919 1692
-307.92 333.919 1692
-303.515 333.524 1690
-299.473 333.524 1690
-295.257 333.327 1689
-290.873 332.932 1687
-286.839 332.932 1687
-282.805 332.932 1687
-278.771 332.932 1687
-274.737 332.932 1687
-270.703 332.932 1687
-266.669 332.932 1687
-262.634 332.932 1687
-258.907 333.327 1689
-255.019 333.524 1690
-250.978 333.524 1690
-246.936 333.524 1690
-242.895 333.524 1690
-238.854 333.524 1690
-234.812 333.524 1690
-230.771 333.524 1690
-226.998 333.919 1692
-222.952 333.919 1692
-218.906 333.919 1692
-214.86 333.919 1692
-211.063 334.314 1694
-207.012 334.314 1694
-203.081 334.511 1695
-199.028 334.511 1695
-195.205 334.906 1697
-191.372 335.301 1699
-187.309 335.301 1699
-183.462 335.695 1701
-179.394 335.695 1701
-175.43 335.893 1702
-171.36 335.893 1702
-167.29 335.893 1702
-163.22 335.893 1702
-159.15 335.893 1702
-155.08 335.893 1702
-151.01 335.893 1702
-146.94 335.893 1702
-142.87 335.893 1702
-138.8 335.893 1702
-134.888 336.287 1704
-130.813 336.287 1704
-126.739 336.287 1704
-122.664 336.287 1704
-118.589 336.287 1704
-114.313 335.695 1701
-110.763 337.274 1709
-106.802 337.669 1711
-233.454 767.501 3889
-224.154 767.501 3889
-214.854 767.501 3889
-205.554 767.501 3889
-196.255 767.501 3889
-186.09 763.949 3871
-176.833 763.949 3871
-167.186 762.172 3862
-157.951 762.172 3862
-148.369 760.396 3853
-139.156 760.396 3853
-129.639 758.62 3844
-120.446 758.62 3844
-110.502 753.489 3818
-101.372 753.489 3818
-91.8068 749.937 3800
-82.7199 749.937 3800
-73.3035 746.582 3783
-64.2572 746.582 3783
-55.2109 746.582 3783
-45.8473 741.451 3757
-36.6964 738.096 3740
-27.7529 738.096 3740
-18.729 734.938 3724
-9.71562 726.846 3683
-0.900315 720.334 3650
7.81078 718.755 3642
16.5199 718.755 3642
25.1251 715.795 3627
33.7984 715.795 3627
42.4716 715.795 3627
51.1449 715.795 3627
59.8182 715.795 3627
68.6425 717.374 3635
77.4838 718.755 3642
86.1929 718.755 3642
94.902 718.755 3642
103.611 718.755 3642
112.32 718.755 3642
121.029 718.755 3642
129.489 717.374 3635
137.877 715.795 3627
146.551 715.795 3627
155.224 715.795 3627
163.897 715.795 3627
172.57 715.795 3627
180.844 714.216 3619
189.498 714.216 3619
198.152 714.216 3619
205.892 711.058 3603
214.508 711.058 3603
222.628 709.48 3595
231.225 709.48 3595
239.822 709.48 3595
248.419 709.48 3595
257.015 709.48 3595
266.203 711.058 3603
274.819 711.058 3603
283.435 711.058 3603
292.699 712.637 3611
301.334 712.637 3611
309.969 712.637 3611
318.604 712.637 3611
328.689 715.795 3627
337.362 715.795 3627
346.036 715.795 3627
354.709 715.795 3627
362.581 714.216 3619
371.235 714.216 3619
378.209 711.058 3603
385.215 708.098 3588
391.27 703.559 3565
399.795 703.559 3565
407.404 701.98 3557
414.975 700.401 3549
421.672 697.441 3534
427.445 693.099 3512
435.843 693.099 3512
441.458 688.758 3490
446.066 683.034 3461
450.667 677.509 3433
458.876 677.509 3433
465.181 674.746 3419
467.542 666.457 3377
473.646 663.694 3363
481.688 663.694 3363
483.031 654.616 3317
490.963 654.616 3317
498.895 654.616 3317
507.744 655.8 3323
516.776 657.181 3330
524.739 657.181 3330
534.782 659.747 3343
545.049 662.51 3357
555.218 665.075 3370
563.277 665.075 3370
572.523 666.457 3377
581.802 667.838 3384
592.334 670.601 3398
600.46 670.601 3398
609.839 671.983 3405
617.982 671.983 3405
627.411 673.364 3412
635.57 673.364 3412
643.729 673.364 3412
653.226 674.746 3419
661.402 674.746 3419
669.578 674.746 3419
677.753 674.746 3419
685.929 674.746 3419
694.105 674.746 3419
702.281 674.746 3419
710.457 674.746 3419
718.633 674.746 3419
726.809 674.746 3419
734.985 674.746 3419
743.16 674.746 3419
749.798 673.364 3412
757.957 673.364 3412
764.544 671.983 3405
772.687 671.983 3405
780.829 671.983 3405
787.35 670.601 3398
795.475 670.601 3398
803.601 670.601 3398
813.399 671.983 3405
821.541 671.983 3405
831.389 673.364 3412
839.548 673.364 3412
847.708 673.364 3412
859.378 676.127 3426
871.116 678.89 3440
879.342 678.89 3440
894.793 684.416 3468
906.992 687.376 3483
921.102 691.718 3505
929.484 691.718 3505
943.752 696.06 3527
956.236 699.02 3542
968.791 701.98 3557
977.297 701.98 3557
992.177 706.519 3580
1004.93 709.48 3595
1018.04 712.637 3611
1026.67 712.637 3611
1037.6 714.216 3619
1048.57 715.795 3627
1059.57 717.374 3635
1070.32 718.755 3642
1079.03 718.755 3642
1090.13 720.334 3650
1101.27 721.913 3658
1112.75 723.689 3667
1121.52 723.689 3667
1132.75 725.268 3675
1141.54 725.268 3675
1150.33 725.268 3675
1159.11 725.268 3675
1167.9 725.268 3675
1174.13 723.689 3667
1182.9 723.689 3667
1191.67 723.689 3667
1197.49 721.913 3658
1206.24 721.913 3658
1214.98 721.913 3658
1221.06 720.334 3650
1227.09 718.755 3642
1235.8 718.755 3642
1244.51 718.755 3642
1250.81 717.374 3635
1259.5 717.374 3635
1268.19 717.374 3635
1276.88 717.374 3635
1285.58 717.374 3635
1294.27 717.374 3635
1302.96 717.374 3635
1308.77 715.795 3627
1317.44 715.795 3627
1326.11 715.795 3627
1331.84 714.216 3619
1340.5 714.216 3619
1349.15 714.216 3619
1357.81 714.216 3619
1369.48 715.795 3627
1378.15 715.795 3627
1386.83 715.795 3627
1395.5 715.795 3627
1404.17 715.795 3627
1406.61 712.637 3611
1415.25 712.637 3611
1423.88 712.637 3611
1432.52 712.637 3611
1441.15 712.637 3611
1446.58 711.058 3603
1455.19 711.058 3603
1460.56 709.48 3595
1469.15 709.48 3595
1477.75 709.48 3595
1486.35 709.48 3595
1488.71 706.519 3580
1497.27 706.519 3580
1505.83 706.519 3580
1514.39 706.519 3580
1522.95 706.519 3580
1531.51 706.519 3580
1540.07 706.519 3580
1552.09 708.098 3588
1560.67 708.098 3588
1572.32 709.48 3595
1584.43 711.058 3603
1600.12 714.216 3619
1612.33 715.795 3627
1621 715.795 3627
1633.27 717.374 3635
1660.03 725.268 3675
1683.35 731.583 3707
1692.22 731.583 3707
1712.55 736.517 3732
1745 746.582 3783
1758.22 748.358 3792
1767.29 748.358 3792
1780.11 749.937 3800
1797.67 753.489 3818
1810.58 755.068 3826
1819.73 755.068 3826
1828.88 755.068 3826
1834.19 753.489 3818
1843.32 753.489 3818
1843.71 749.937 3800
1844.51 746.582 3783
1840.82 741.451 3757
1849.8 741.451 3757
1838.5 733.359 3716
1830.98 726.846 3683
1827.3 721.913 3658
1824.5 717.374 3635
1833.2 717.374 3635
1833.78 714.216 3619
1834.29 711.058 3603
1835.23 708.098 3588
1851.52 711.058 3603
1860.14 711.058 3603
1872.9 712.637 3611
1894.04 717.374 3635
1902.74 717.374 3635
1911.43 717.374 3635
1915.9 715.795 3627
1932.53 718.755 3642
1954.56 723.689 3667
1963.33 723.689 3667
1985.01 728.425 3691
2011.66 734.938 3724
2043.35 743.227 3766
2052.36 743.227 3766
2079.97 749.937 3800
2098.96 753.489 3818
2122.44 758.62 3844
2156.59 767.501 3889
2165.89 767.501 3889
2180.22 769.277 3898
2194.6 771.053 3907
2224.81 778.355 3944
2234.25 778.355 3944
2248.8 780.131 3953
2258.25 780.131 3953
2267.7 780.131 3953
2277.15 780.131 3953
2286.61 780.131 3953
2301.87 782.105 3963
2316.59 783.881 3972
2326.09 783.881 3972
2341.47 785.855 3982
2350.99 785.855 3982
2360.52 785.855 3982
2370.04 785.855 3982
2379.56 785.855 3982
2389.08 785.855 3982
2404.03 787.631 3991
2413.57 787.631 3991
2423.11 787.631 3991
2432.66 787.631 3991
2453.83 791.381 4010
2469.56 793.354 4020
2479.17 793.354 4020
2488.79 793.354 4020
2498.4 793.354 4020
2508.01 793.354 4020
2511.36 791.381 4010
2520.95 791.381 4010
2530.54 791.381 4010
2540.13 791.381 4010
2549.72 791.381 4010
2541.44 785.855 3982
2538.79 782.105 3963
2548.26 782.105 3963
2545.48 778.355 3944
2530.94 771.053 3907
2540.28 771.053 3907
2555.5 772.829 3916
2564.86 772.829 3916
2574.23 772.829 3916
2583.59 772.829 3916
2575.08 767.501 3889
2584.38 767.501 3889
2575.67 762.172 3862
2584.91 762.172 3862
2594.14 762.172 3862
2603.38 762.172 3862
2612.61 762.172 3862
2621.85 762.172 3862
2624.95 760.396 3853
2634.17 760.396 3853
2643.38 760.396 3853
534.858 145.251 736
536.618 145.251 736
538.378 145.251 736
539.404 145.054 735
540.426 144.856 734
540.703 144.461 732
542.454 144.461 732
540.487 143.475 727
541.48 143.277 726
542.468 143.08 725
543.451 142.883 724
545.182 142.883 724
546.913 142.883 724
548.645 142.883 724
550.376 142.883 724
552.107 142.883 724
553.839 142.883 724
-2361.48 630.003 3154
-2353.94 630.003 3154
-2333 626.407 3136
-2321.05 625.209 3130
-2322.44 627.606 3142
-2314.93 627.606 3142
-2307.41 627.606 3142
-2299.9 627.606 3142
-2288.01 626.407 3136
-2289.23 628.804 3148
-2281.71 628.804 3148
-2291.52 633.598 3172
-2309.85 640.789 3208
-2338.06 650.777 3258
-2330.27 650.777 3258
-2345.29 657.169 3290
-2380.05 669.153 3350
-2372.04 669.153 3350
-2452.95 694.321 3476
-2454.48 697.118 3490
-2509.22 715.095 3580
-2500.66 715.095 3580
-2497.66 716.693 3588
-2505.04 721.287 3611
-2513 726.081 3635
-2504.3 726.081 3635
-2511.4 730.675 3658
-2519.76 735.669 3683
-2533.45 742.261 3716
-2524.56 742.261 3716
-2515.68 742.261 3716
-2500.72 740.463 3707
-2491.86 740.463 3707
-2477.63 738.865 3699
-2452.77 734.071 3675
-2454.62 737.267 3691
-2445.8 737.267 3691
-2436.97 737.267 3691
-2428.14 737.267 3691
-2419.32 737.267 3691
-2410.49 737.267 3691
-2401.66 737.267 3691
-2387.65 735.669 3683
-2373.68 734.071 3675
-2364.89 734.071 3675
-2356.1 734.071 3675
-2347.31 734.071 3675
-2338.52 734.071 3675
-2334.81 735.669 3683
-2326 735.669 3683
-2317.19 735.669 3683
-2298.36 732.473 3667
-2289.59 732.473 3667
-2275.22 730.675 3658
-2266.48 730.675 3658
-2257.73 730.675 3658
-2248.98 730.675 3658
-2240.23 730.675 3658
-2231.49 730.675 3658
-2228.21 732.473 3667
-2219.44 732.473 3667
-2210.67 732.473 3667
-2182.69 726.081 3635
-2173.99 726.081 3635
-2160.54 724.483 3627
-2151.86 724.483 3627
-2143.19 724.483 3627
-2115.68 718.091 3595
-2027.01 748.852 3749
-2018.05 748.852 3749
-2009.08 748.852 3749
-1995.86 757.442 3792
-1986.79 757.442 3792
-1977.72 757.442 3792
-1950.48 750.45 3757
-1941.5 750.45 3757
-1932.51 750.45 3757
-1936.84 755.644 3783
-1927.79 755.644 3783
-1918.75 755.644 3783
-1905.16 753.846 3774
-1896.13 753.846 3774
-1878.61 750.45 3757
-1869.62 750.45 3757
-1835.88 740.463 3707
-1770.24 724.483 3627
-1761.57 724.483 3627
-1752.89 724.483 3627
-1759.13 730.675 3658
-1750.38 730.675 3658
-1741.63 730.675 3658
-1729.1 729.078 3650
-1716.6 727.48 3642
-1723.36 734.071 3675
-1714.57 734.071 3675
-1705.79 734.071 3675
-1697 734.071 3675
-1684.53 732.473 3667
-1679.42 734.071 3675
-1670.63 734.071 3675
-1661.85 734.071 3675
-1653.06 734.071 3675
-1644.27 734.071 3675
-1635.48 734.071 3675
-1633.78 737.267 3691
-1631.99 740.463 3707
-1623.13 740.463 3707
-1614.26 740.463 3707
-1605.4 740.463 3707
-1596.54 740.463 3707
-1587.67 740.463 3707
-1575.4 738.865 3699
-1566.55 738.865 3699
-1578.76 748.852 3749
-1569.8 748.852 3749
-1560.83 748.852 3749
-1558.91 752.248 3766
-1556.9 755.644 3783
-1547.85 755.644 3783
-1538.8 755.644 3783
-1529.76 755.644 3783
-1520.71 755.644 3783
-1511.67 755.644 3783
-1502.62 755.644 3783
-1483.31 750.45 3757
-1450.84 752.248 3766
-1441.83 752.248 3766
-1432.83 752.248 3766
-648.955 358.746 1796
-644.66 358.746 1796
-640.365 358.746 1796
-635.362 358.347 1794
-628.258 356.749 1786
-622.59 355.95 1782
-618.328 355.95 1782
-607.52 352.154 1763
-602.962 351.955 1762
-596.03 350.357 1754
-590.823 349.757 1751
-586.636 349.757 1751
-579.788 348.159 1743
-575.62 348.159 1743
-570.468 347.56 1740
-566.307 347.56 1740
-561.5 347.161 1738
-556.703 346.761 1736
-551.278 345.962 1732
-547.136 345.962 1732
-542.681 345.763 1731
-538.542 345.763 1731
-534.403 345.763 1731
-530.263 345.763 1731
-524.908 344.964 1727
-520.778 344.964 1727
-516.05 344.564 1725
-511.925 344.564 1725
-507.211 344.165 1723
-502.799 343.965 1722
-498.102 343.565 1720
-493.989 343.565 1720
-489.876 343.565 1720
-485.198 343.166 1718
-480.53 342.766 1716
-476.427 342.766 1716
-472.323 342.766 1716
-467.401 342.167 1713
-463.305 342.167 1713
-459.208 342.167 1713
-455.643 342.567 1715
-451.542 342.567 1715
-447.441 342.567 1715
-442.823 342.167 1713
-438.727 342.167 1713
-434.123 341.768 1711
-430.534 342.167 1713
-426.438 342.167 1713
-422.835 342.567 1715
-418.734 342.567 1715
-414.633 342.567 1715
-410.531 342.567 1715
-406.43 342.567 1715
-401.86 342.167 1713
-397.764 342.167 1713
-393.668 342.167 1713
-390.026 342.567 1715
-385.925 342.567 1715
-381.824 342.567 1715
-377.282 342.167 1713
-373.186 342.167 1713
-369.09 342.167 1713
-364.567 341.768 1711
-359.422 340.769 1706
-355.343 340.769 1706
-350.44 339.97 1702
-346.37 339.97 1702
-342.099 339.77 1701
-338.031 339.77 1701
-333.963 339.77 1701
-329.12 338.971 1697
-325.062 338.971 1697
-320.626 338.572 1695
-316.572 338.572 1695
-312.519 338.572 1695
-308.284 338.372 1694
-303.874 337.972 1692
-299.828 337.972 1692
-295.432 337.573 1690
-291.218 337.373 1689
-287.179 337.373 1689
-283.14 337.373 1689
-279.101 337.373 1689
-275.063 337.373 1689
-271.024 337.373 1689
-266.985 337.373 1689
-262.946 337.373 1689
-259.06 337.573 1690
-255.019 337.573 1690
-250.978 337.573 1690
-246.936 337.573 1690
-242.895 337.573 1690
-238.854 337.573 1690
-234.812 337.573 1690
-230.771 337.573 1690
-226.998 337.972 1692
-222.952 337.972 1692
-218.906 337.972 1692
-214.86 337.972 1692
-211.063 338.372 1694
-207.012 338.372 1694
-203.081 338.572 1695
-199.028 338.572 1695
-195.205 338.971 1697
-191.372 339.371 1699
-187.309 339.371 1699
-183.462 339.77 1701
-179.394 339.77 1701
-175.43 339.97 1702
-171.36 339.97 1702
-167.29 339.97 1702
-163.22 339.97 1702
-159.15 339.97 1702
-155.08 339.97 1702
-151.01 339.97 1702
-146.94 339.97 1702
-142.87 339.97 1702
-138.8 339.97 1702
-134.73 339.97 1702
-130.66 339.97 1702
-126.59 339.97 1702
-122.448 339.77 1701
-118.38 339.77 1701
-114.178 339.371 1699
-110.763 341.368 1709
-106.677 341.368 1709
-233.454 776.817 3889
-224.154 776.817 3889
-214.854 776.817 3889
-205.554 776.817 3889
-196.255 776.817 3889
-186.09 773.222 3871
-176.833 773.222 3871
-167.186 771.424 3862
-157.951 771.424 3862
-148.369 769.626 3853
-139.156 769.626 3853
-129.639 767.828 3844
-120.446 767.828 3844
-110.502 762.635 3818
-101.372 762.635 3818
-91.6136 757.442 3792
-82.5457 757.442 3792
-73.1291 753.846 3774
-64.1043 753.846 3774
-55.0796 753.846 3774
-45.7497 748.852 3749
-36.6179 745.457 3732
-27.6936 745.457 3732
-18.729 743.859 3724
-9.69452 734.071 3675
-0.898341 727.48 3642
7.76146 722.885 3619
16.4156 722.885 3619
25.0697 722.885 3619
33.7238 722.885 3619
42.378 722.885 3619
51.0321 722.885 3619
59.6862 722.885 3619
68.3403 722.885 3619
77.1647 724.483 3627
85.8379 724.483 3627
94.5112 724.483 3627
103.184 724.483 3627
111.858 724.483 3627
120.531 724.483 3627
128.919 722.885 3619
137.573 722.885 3619
146.227 722.885 3619
154.882 722.885 3619
163.174 721.287 3611
171.809 721.287 3611
180.444 721.287 3611
189.079 721.287 3611
197.276 719.689 3603
205.435 718.091 3595
214.032 718.091 3595
222.195 716.693 3588
230.775 716.693 3588
239.355 716.693 3588
