927.985 1202.29 2397
933.717 1202.29 2397
936.706 1198.78 2390
939.661 1195.27 2383
941.392 1190.25 2373
947.067 1190.25 2373
949.931 1186.74 2366
953.165 1183.73 2360
960.028 1185.24 2363
965.678 1185.24 2363
975.439 1190.25 2373
981.114 1190.25 2373
988.036 1191.76 2376
995.391 1193.76 2380
1001.08 1193.76 2380
1006.77 1193.76 2380
1012.46 1193.76 2380
1018.16 1193.76 2380
1023.85 1193.76 2380
1027.81 1191.76 2376
1033.49 1191.76 2376
1042.23 1195.27 2383
1051.01 1198.78 2390
1056.73 1198.78 2390
1063.77 1200.28 2393
1075.75 1207.31 2407
1081.51 1207.31 2407
1087.27 1207.31 2407
1093.02 1207.31 2407
1098.78 1207.31 2407
1104.53 1207.31 2407
1101.06 1197.27 2387
1104.92 1195.27 2383
1117.14 1202.29 2397
1122.87 1202.29 2397
1128.6 1202.29 2397
1134.34 1202.29 2397
1143.4 1205.8 2404
1165.88 1223.36 2439
1171.71 1223.36 2439
1177.54 1223.36 2439
1183.37 1223.36 2439
1170.19 1203.8 2400
1175.93 1203.8 2400
1171.82 1193.76 2380
1177.51 1193.76 2380
1183.2 1193.76 2380
1190.39 1195.27 2383
1199.61 1198.78 2390
1205.32 1198.78 2390
1216.1 1203.8 2400
1228.97 1210.82 2414
1243.95 1219.85 2432
1249.76 1219.85 2432
1262.81 1226.87 2446
1268.66 1226.87 2446
1274.51 1226.87 2446
1280.36 1226.87 2446
1275.16 1216.33 2425
1273.57 1209.31 2411
1279.33 1209.31 2411
1268.57 1193.76 2380
1272.12 1191.76 2376
1270.81 1185.24 2363
1276.46 1185.24 2363
1283.74 1186.74 2366
1289.4 1186.74 2366
1298.89 1190.25 2373
1304.56 1190.25 2373
1319.62 1198.78 2390
1325.34 1198.78 2390
1331.06 1198.78 2390
1346.28 1207.31 2407
1373.94 1226.87 2446
1379.79 1226.87 2446
1385.64 1226.87 2446
1391.49 1226.87 2446
1397.34 1226.87 2446
1396.88 1221.35 2435
1396.94 1216.33 2425
1464.76 1234.39 2461
1470.64 1234.39 2461
1476.53 1234.39 2461
1475.79 1228.87 2450
1474.99 1223.36 2439
1478.4 1221.35 2435
1484.22 1221.35 2435
1490.04 1221.35 2435
1495.86 1221.35 2435
1501.69 1221.35 2435
1507.51 1221.35 2435
1513.33 1221.35 2435
1514.79 1217.84 2428
1520.6 1217.84 2428
1526.4 1217.84 2428
1532.21 1217.84 2428
1529.15 1210.82 2414
1534.92 1210.82 2414
1540.69 1210.82 2414
1546.46 1210.82 2414
1543.23 1203.8 2400
1542.52 1198.78 2390
1554.71 1203.8 2400
1560.45 1203.8 2400
1566.19 1203.8 2400
1571.93 1203.8 2400
1575.7 1202.29 2397
1576.81 1198.78 2390
1582.52 1198.78 2390
1586.25 1197.27 2387
1582.62 1190.25 2373
1588.29 1190.25 2373
1603.37 1197.27 2387
1609.08 1197.27 2387
1614.79 1197.27 2387
1620.49 1197.27 2387
1623.48 1195.27 2383
1629.18 1195.27 2383
1634.87 1195.27 2383
1652.28 1203.8 2400
1670.45 1212.82 2418
1698.42 1228.87 2450
1704.28 1228.87 2450
1710.13 1228.87 2450
1715.99 1228.87 2450
1721.85 1228.87 2450
1715.02 1219.85 2432
1746.31 1237.9 2468
1754.34 1239.41 2471
1765.94 1243.42 2479
1771.87 1243.42 2479
1782.82 1246.93 2486
1796.68 1252.45 2497
1802.65 1252.45 2497
1808.62 1252.45 2497
1814.59 1252.45 2497
1835.44 1254.45 2501
1841.42 1254.45 2501
1847.4 1254.45 2501
1853.38 1254.45 2501
1859.36 1254.45 2501
1857.14 1248.94 2490
1851.87 1241.41 2475
1857.79 1241.41 2475
1863.71 1241.41 2475
1869.63 1241.41 2475
1875.55 1241.41 2475
1814.57 1197.27 2387
-1877.71 1272.04 2524
-1871.67 1272.04 2524
-1882.64 1283.63 2547
-1879.5 1285.65 2551
-1873.4 1285.65 2551
-1867.29 1285.65 2551
-1872.87 1293.71 2567
-1866.73 1293.71 2567
-1860.59 1293.71 2567
-1831.34 1277.58 2535
-1803.67 1262.46 2505
-1802.71 1265.99 2512
-1796.7 1265.99 2512
-1790.69 1265.99 2512
-1801.03 1277.58 2535
-1794.96 1277.58 2535
-1788.9 1277.58 2535
-1782.84 1277.58 2535
-1776.78 1277.58 2535
-1768.62 1276.07 2532
-1762.57 1276.07 2532
-1756.51 1276.07 2532
-1736.63 1265.99 2512
-1718.22 1256.92 2494
-1706.76 1252.89 2486
-1700.82 1252.89 2486
-1694.88 1252.89 2486
-1688.93 1252.89 2486
-1682.99 1252.89 2486
-1677.04 1252.89 2486
-1671.1 1252.89 2486
-1663.14 1251.37 2483
-1657.2 1251.37 2483
-1651.27 1251.37 2483
-1645.33 1251.37 2483
-1639.39 1251.37 2483
-1630.82 1249.36 2479
-1624.89 1249.36 2479
-1613.74 1245.33 2471
-1607.83 1245.33 2471
-1599.98 1243.81 2468
-1594.08 1243.81 2468
-1583.67 1240.29 2461
-1568.17 1232.73 2446
-1560.4 1231.22 2443
-1554.56 1231.22 2443
-1548.72 1231.22 2443
-1542.88 1231.22 2443
-1530.12 1225.67 2432
-1533.07 1232.73 2446
-1527.23 1232.73 2446
-1536.93 1245.33 2471
-1531.02 1245.33 2471
-1525.11 1245.33 2471
-1514.9 1241.8 2464
-1235.57 1245.33 2471
-1229.66 1245.33 2471
-1227.72 1249.36 2479
-1221.79 1249.36 2479
-1219.29 1252.89 2486
-1213.35 1252.89 2486
-1207.4 1252.89 2486
-1200.01 1251.37 2483
-1195.51 1252.89 2486
-1189.57 1252.89 2486
-1183.62 1252.89 2486
-1177.68 1252.89 2486
-1171.73 1252.89 2486
-1160.63 1247.34 2475
-1151.45 1243.81 2468
-1143.69 1241.8 2464
-1147.96 1252.89 2486
-1142.01 1252.89 2486
-1136.07 1252.89 2486
-1130.12 1252.89 2486
-1124.18 1252.89 2486
-1116.88 1251.37 2483
-1104.23 1243.81 2468
-1091.66 1236.26 2453
-1085.79 1236.26 2453
-1078.6 1234.74 2450
-1069.68 1231.22 2443
-1054.26 1220.13 2421
-1048.47 1220.13 2421
-1038.37 1215.09 2411
-1030.89 1213.07 2407
-1023.86 1211.56 2404
-1018.11 1211.56 2404
-1018.26 1218.62 2418
-1012.48 1218.62 2418
-1012.52 1225.67 2432
-1015.4 1236.26 2453
-1015.71 1243.81 2468
-1009.81 1243.81 2468
-1005.12 1245.33 2471
-1005.28 1252.89 2486
-999.336 1252.89 2486
-996.588 1256.92 2494
-997.774 1265.99 2512
-993.346 1268.01 2516
-987.33 1268.01 2516
-984.433 1272.04 2524
-978.398 1272.04 2524
-973.903 1274.05 2528
-967.858 1274.05 2528
-961.813 1274.05 2528
-952.743 1270.02 2520
-946.717 1270.02 2520
-940.691 1270.02 2520
-931.697 1265.99 2512
-924.585 1264.48 2509
-915.656 1260.45 2501
-909.676 1260.45 2501
-897.191 1251.37 2483
-886.946 1245.33 2471
-886.385 1252.89 2486
-880.441 1252.89 2486
-874.496 1252.89 2486
-868.551 1252.89 2486
-865.382 1256.92 2494
-859.418 1256.92 2494
-853.454 1256.92 2494
-849.869 1260.45 2501
-847.6 1265.99 2512
-841.593 1265.99 2512
-835.586 1265.99 2512
-829.579 1265.99 2512
-821.277 1262.46 2505
-815.287 1262.46 2505
-808.005 1260.45 2501
-792.403 1245.33 2471
-787.768 1247.34 2475
-781.849 1247.34 2475
-775.931 1247.34 2475
-537.297 870.368 1727
-533.168 870.368 1727
-529.038 870.368 1727
-523.388 867.848 1722
-518.064 865.832 1718
-512.46 863.312 1713
-508.364 863.312 1713
-503.679 862.304 1711
-499.587 862.304 1711
-495.496 862.304 1711
-491.404 862.304 1711
-487.313 862.304 1711
-483.221 862.304 1711
-478.29 860.793 1708
-474.205 860.793 1708
-469.571 859.785 1706
-465.491 859.785 1706
-461.411 859.785 1706
-457.332 859.785 1706
-453.252 859.785 1706
-449.173 859.785 1706
-445.615 860.793 1708
-441.531 860.793 1708
-437.702 861.297 1709
-433.616 861.297 1709
-430.032 862.304 1711
-426.438 863.312 1713
-422.342 863.312 1713
-418.245 863.312 1713
-414.633 864.32 1715
-412.447 868.352 1723
-408.8 869.36 1725
-404.675 869.36 1725
-401.015 870.368 1727
-397.804 872.384 1731
-393.892 872.888 1732
-389.75 872.888 1732
-386.054 873.896 1734
-381.908 873.896 1734
-379.068 876.92 1740
-374.907 876.92 1740
-370.746 876.92 1740
-366.796 877.424 1741
-363.05 878.432 1743
-358.881 878.432 1743
-355.12 879.44 1745
-351.35 880.448 1747
-347.172 880.448 1747
-342.995 880.448 1747
-338.817 880.448 1747
-333.873 878.432 1743
-329.705 878.432 1743
-325.537 878.432 1743
-321.369 878.432 1743
-315.927 874.904 1736
-311.776 874.904 1736
-306.916 872.888 1732
-302.25 871.376 1729
-298.115 871.376 1729
-293.98 871.376 1729
-289.511 870.368 1727
-285.05 869.36 1725
-280.6 868.352 1723
-276.479 868.352 1723
-272.359 868.352 1723
-268.083 867.848 1722
-263.659 866.84 1720
-259.546 866.84 1720
-255.433 866.84 1720
-251.028 865.832 1718
-246.919 865.832 1718
-242.811 865.832 1718
-238.703 865.832 1718
-234.595 865.832 1718
-230.755 866.84 1720
-227.037 868.352 1723
-223.434 870.368 1727
-219.304 870.368 1727
-215.798 872.888 1732
-211.9 873.896 1734
-207.993 874.904 1736
-203.842 874.904 1736
-199.921 875.912 1738
-195.99 876.92 1740
-192.16 878.432 1743
-187.992 878.432 1743
-184.246 880.448 1747
-180.48 882.464 1751
-176.394 882.967 1752
-172.204 882.967 1752
-168.015 882.967 1752
-220.925 1254.9 2490
-214.971 1254.9 2490
-209.016 1254.9 2490
-203.062 1254.9 2490
-197.108 1254.9 2490
-190.002 1247.34 2475
-183.265 1241.8 2464
-176.581 1236.26 2453
-170.715 1236.26 2453
-164.849 1236.26 2453
-157.817 1227.18 2435
-152.244 1229.2 2439
-146.411 1229.2 2439
-140.579 1229.2 2439
-135.354 1234.74 2450
-129.866 1238.27 2457
-124.697 1245.33 2471
-118.788 1245.33 2471
-112.879 1245.33 2471
-106.97 1245.33 2471
-101.061 1245.33 2471
-95.1521 1245.33 2471
-88.7375 1238.27 2457
-82.7272 1236.26 2453
-77.4253 1245.33 2471
-71.748 1249.36 2479
-65.8199 1249.36 2479
-59.8919 1249.36 2479
-54.0509 1251.37 2483
-48.3265 1256.92 2494
-42.3625 1256.92 2494
-36.5008 1260.45 2501
-30.6544 1265.99 2512
-24.7259 1270.02 2520
-18.6998 1270.02 2520
-12.6939 1272.04 2524
-6.65822 1272.04 2524
-0.622574 1272.04 2524
5.4045 1270.02 2520
11.3807 1264.48 2509
17.2973 1258.43 2497
23.2684 1258.43 2497
29.2395 1258.43 2497
35.1119 1254.9 2490
41.0662 1254.9 2490
47.0206 1254.9 2490
52.6558 1247.34 2475
58.5743 1247.34 2475
64.4927 1247.34 2475
70.2121 1243.81 2468
76.1138 1243.81 2468
81.8826 1241.8 2464
87.2761 1234.74 2450
92.2984 1223.66 2428
98.1045 1223.66 2428
103.483 1218.62 2418
109.265 1218.62 2418
115.38 1222.14 2425
121.179 1222.14 2425
126.978 1222.14 2425
132.777 1222.14 2425
137.947 1216.6 2414
143.72 1216.6 2414
149.492 1216.6 2414
155.972 1222.14 2425
161.771 1222.14 2425
167.57 1222.14 2425
172.583 1216.6 2414
177.617 1211.56 2404
182.831 1208.03 2397
188.563 1208.03 2397
194.295 1208.03 2397
199.443 1204.5 2390
207.562 1218.62 2418
214.226 1223.66 2428
220.032 1223.66 2428
225.838 1223.66 2428
232.694 1229.2 2439
238.526 1229.2 2439
244.359 1229.2 2439
249.781 1227.18 2435
255.604 1227.18 2435
261.856 1229.2 2439
267.688 1229.2 2439
273.521 1229.2 2439
279.353 1229.2 2439
285.185 1229.2 2439
291.018 1229.2 2439
295.511 1223.66 2428
302.186 1227.18 2435
308.515 1229.2 2439
314.347 1229.2 2439
320.18 1229.2 2439
326.547 1231.22 2443
333.341 1234.74 2450
339.615 1236.26 2453
345.481 1236.26 2453
351.347 1236.26 2453
357.213 1236.26 2453
363.079 1236.26 2453
368.945 1236.26 2453
374.81 1236.26 2453
380.211 1234.74 2450
388.276 1241.8 2464
395.287 1245.33 2471
401.196 1245.33 2471
408.423 1249.36 2479
414.351 1249.36 2479
420.958 1251.37 2483
426.895 1251.37 2483
432.833 1251.37 2483
438.77 1251.37 2483
444.708 1251.37 2483
450.646 1251.37 2483
455.112 1247.34 2475
461.031 1247.34 2475
466.949 1247.34 2475
471.53 1243.81 2468
477.432 1243.81 2468
481.179 1238.27 2457
487.055 1238.27 2457
490.121 1231.22 2443
495.151 1229.2 2439
500.984 1229.2 2439
509.102 1234.74 2450
514.961 1234.74 2450
520.819 1234.74 2450
526.678 1234.74 2450
532.537 1234.74 2450
538.395 1234.74 2450
541.81 1229.2 2439
546.071 1225.67 2432
551.887 1225.67 2432
557.702 1225.67 2432
563.518 1225.67 2432
569.334 1225.67 2432
575.149 1225.67 2432
580.965 1225.67 2432
586.781 1225.67 2432
591.622 1223.66 2428
595.705 1220.13 2421
601.495 1220.13 2421
606.531 1218.62 2418
616.619 1227.18 2435
625.253 1232.73 2446
631.102 1232.73 2446
636.952 1232.73 2446
642.801 1232.73 2446
645.733 1227.18 2435
645.936 1216.6 2414
651.709 1216.6 2414
655.575 1213.07 2407
661.331 1213.07 2407
667.087 1213.07 2407
672.843 1213.07 2407
678.599 1213.07 2407
685.492 1215.09 2411
692.117 1216.6 2414
697.89 1216.6 2414
703.662 1216.6 2414
708.553 1215.09 2411
714.319 1215.09 2411
720.084 1215.09 2411
724.645 1213.07 2407
730.401 1213.07 2407
733.099 1208.03 2397
738.831 1208.03 2397
742.388 1204.5 2390
747.165 1202.99 2387
756.027 1208.03 2397
762.712 1209.54 2400
771.973 1215.09 2411
777.739 1215.09 2411
784.479 1216.6 2414
791.561 1218.62 2418
797.343 1218.62 2418
803.125 1218.62 2418
811.249 1222.14 2425
819.407 1225.67 2432
831.33 1234.74 2450
837.189 1234.74 2450
843.047 1234.74 2450
849.946 1236.26 2453
859.649 1241.8 2464
865.541 1241.8 2464
871.434 1241.8 2464
877.326 1241.8 2464
883.218 1241.8 2464
885.141 1236.26 2453
889.917 1234.74 2450
894.313 1232.73 2446
900.162 1232.73 2446
906.011 1232.73 2446
906.641 1225.67 2432
908.33 1220.13 2421
911.476 1216.6 2414
917.249 1216.6 2414
919.198 1211.56 2404
924.947 1211.56 2404
927.985 1208.03 2397
933.717 1208.03 2397
936.706 1204.5 2390
936.9 1197.45 2376
940.202 1194.43 2370
945.869 1194.43 2370
949.931 1192.41 2366
953.165 1189.39 2360
960.028 1190.9 2363
965.678 1190.9 2363
972.562 1192.41 2366
978.22 1192.41 2366
986.789 1195.94 2373
993.718 1197.45 2376
999.399 1197.45 2376
1005.08 1197.45 2376
1010.76 1197.45 2376
1016.44 1197.45 2376
1022.13 1197.45 2376
1025.21 1194.43 2370
1030.88 1194.43 2370
1036.55 1194.43 2370
1049.69 1202.99 2387
1055.4 1202.99 2387
1062.44 1204.5 2390
1068.16 1204.5 2390
1073.87 1204.5 2390
1079.59 1204.5 2390
1078.94 1197.45 2376
1084.63 1197.45 2376
1084.34 1190.9 2363
1091.38 1192.41 2366
1097.03 1192.41 2366
1102.69 1192.41 2366
1108.35 1192.41 2366
1114.01 1192.41 2366
1119.67 1192.41 2366
1122.47 1189.39 2360
1142.45 1204.5 2390
1148.17 1204.5 2390
1153.88 1204.5 2390
1154.75 1199.46 2380
1160.44 1199.46 2380
1166.13 1199.46 2380
1171.82 1199.46 2380
1177.51 1199.46 2380
1183.2 1199.46 2380
1190.39 1200.98 2383
1199.61 1204.5 2390
1205.32 1204.5 2390
1211.04 1204.5 2390
1220.31 1208.03 2397
1234.74 1216.6 2414
1240.51 1216.6 2414
1248.35 1218.62 2418
1257.77 1222.14 2425
1263.56 1222.14 2425
1269.36 1222.14 2425
1271.48 1218.62 2418
1273.57 1215.09 2411
1279.33 1215.09 2411
1268.57 1199.46 2380
1272.12 1197.45 2376
1270.81 1190.9 2363
1276.46 1190.9 2363
1285.91 1194.43 2370
1291.58 1194.43 2370
1298.89 1195.94 2373
1306.21 1197.45 2376
1319.62 1204.5 2390
1325.34 1204.5 2390
1331.06 1204.5 2390
1346.28 1213.07 2407
1373.94 1232.73 2446
1379.79 1232.73 2446
1385.64 1232.73 2446
1391.49 1232.73 2446
1397.34 1232.73 2446
1396.88 1227.18 2435
1396.94 1222.14 2425
1464.76 1240.29 2461
1470.64 1240.29 2461
1476.53 1240.29 2461
1475.79 1234.74 2450
1474.99 1229.2 2439
1469.9 1220.13 2421
1484.22 1227.18 2435
1490.04 1227.18 2435
1495.86 1227.18 2435
1501.69 1227.18 2435
1507.51 1227.18 2435
1513.33 1227.18 2435
1512.92 1222.14 2425
1518.72 1222.14 2425
1524.52 1222.14 2425
1530.31 1222.14 2425
1520.28 1209.54 2400
1530.47 1213.07 2407
1536.22 1213.07 2407
1541.98 1213.07 2407
1543.23 1209.54 2400
1529.61 1194.43 2370
1537.22 1195.94 2373
1542.9 1195.94 2373
1548.57 1195.94 2373
1554.24 1195.94 2373
1557.95 1194.43 2370
1560.98 1192.41 2366
1566.63 1192.41 2366
1572.29 1192.41 2366
1569.28 1185.86 2353
1570.22 1182.33 2346
1587.25 1190.9 2363
1592.9 1190.9 2363
1598.55 1190.9 2363
1604.2 1190.9 2363
1614.62 1194.43 2370
1622.34 1195.94 2373
1628.01 1195.94 2373
1640.57 1200.98 2383
1658.02 1209.54 2400
1678.31 1220.13 2421
1684.1 1220.13 2421
1694.78 1223.66 2428
1700.58 1223.66 2428
1709.2 1225.67 2432
1715.02 1225.67 2432
1741.35 1240.29 2461
1752.21 1243.81 2468
1758.11 1243.81 2468
1764.01 1243.81 2468
1777.8 1249.36 2479
1788.77 1252.89 2486
1802.65 1258.43 2497
1808.62 1258.43 2497
1814.59 1258.43 2497
1827.37 1254.9 2490
1833.32 1254.9 2490
1839.28 1254.9 2490
1834.12 1247.34 2475
1840.04 1247.34 2475
1829.55 1236.26 2453
1803.99 1215.09 2411
1809.75 1215.09 2411
1815.52 1215.09 2411
1821.28 1215.09 2411
1824.02 1213.07 2407
1814.57 1202.99 2387
-1859.08 1257.32 2483
-1855.38 1258.84 2486
-1877.71 1278.08 2524
-1871.67 1278.08 2524
-1882.64 1289.73 2547
-1879.5 1291.76 2551
-1873.4 1291.76 2551
-1867.29 1291.76 2551
-1872.87 1299.86 2567
-1866.73 1299.86 2567
-1860.59 1299.86 2567
-1831.34 1283.65 2535
-1811.59 1274.03 2516
-1802.71 1272.01 2512
-1796.7 1272.01 2512
-1790.69 1272.01 2512
-1801.03 1283.65 2535
-1794.96 1283.65 2535
-1788.9 1283.65 2535
-1782.84 1283.65 2535
-1776.78 1283.65 2535
-1768.62 1282.13 2532
-1762.57 1282.13 2532
-1756.51 1282.13 2532
-1736.63 1272.01 2512
-1718.22 1262.89 2494
-1706.76 1258.84 2486
-1700.82 1258.84 2486
-1694.88 1258.84 2486
-1688.93 1258.84 2486
-1682.99 1258.84 2486
-1677.04 1258.84 2486
-1671.1 1258.84 2486
-1663.14 1257.32 2483
-1657.2 1257.32 2483
-1651.27 1257.32 2483
-1645.33 1257.32 2483
-1639.39 1257.32 2483
-1630.82 1255.3 2479
-1624.89 1255.3 2479
-1613.74 1251.25 2471
-1607.83 1251.25 2471
-1599.98 1249.73 2468
-1594.08 1249.73 2468
-1583.67 1246.18 2461
-1568.17 1238.59 2446
-1560.4 1237.07 2443
-1554.56 1237.07 2443
-1548.72 1237.07 2443
-1542.88 1237.07 2443
-1530.12 1231.5 2432
-1533.07 1238.59 2446
-1527.23 1238.59 2446
-1536.93 1251.25 2471
-1531.02 1251.25 2471
-1525.11 1251.25 2471
-1228.92 1238.59 2446
-1228.57 1244.16 2457
-1222.7 1244.16 2457
-1220.29 1247.7 2464
-1217.84 1251.25 2471
-1211.94 1251.25 2471
-1206.03 1251.25 2471
-1200.12 1251.25 2471
-1196.14 1253.27 2475
-1192.15 1255.3 2479
-1186.22 1255.3 2479
-1180.29 1255.3 2479
-1174.36 1255.3 2479
-1168.44 1255.3 2479
-1158.76 1251.25 2471
-1148.18 1246.18 2461
-1143.69 1247.7 2464
-1144.72 1255.3 2479
-1138.8 1255.3 2479
-1134.7 1257.32 2483
-1128.76 1257.32 2483
-1122.82 1257.32 2483
-1113.28 1253.27 2475
-1101.1 1246.18 2461
-1090.32 1240.61 2450
-1084.46 1240.61 2450
-1075.52 1237.07 2443
-1060.05 1225.93 2421
-1049.9 1220.86 2411
-1044.14 1220.86 2411
-1036.65 1218.84 2407
-1027.9 1215.29 2400
-1020.88 1213.77 2397
-1015.15 1213.77 2397
-1010.68 1215.29 2400
-1004.94 1215.29 2400
-1006.69 1224.41 2418
-1011.26 1237.07 2443
-1009.53 1242.13 2453
-1003.67 1242.13 2453
-997.802 1242.13 2453
-1000.83 1253.27 2475
-996.522 1255.3 2479
-990.594 1255.3 2479
-990.624 1262.89 2494
-984.66 1262.89 2494
-981.443 1266.44 2501
-975.463 1266.44 2501
-969.482 1266.44 2501
-967.739 1272.01 2512
-961.732 1272.01 2512
-955.725 1272.01 2512
-947.072 1268.46 2505
-941.082 1268.46 2505
-935.091 1268.46 2505
-929.101 1268.46 2505
-915.004 1257.32 2483
-903.574 1249.73 2468
-897.673 1249.73 2468
-890.326 1247.7 2464
-881.921 1244.16 2457
-879.967 1249.73 2468
-874.066 1249.73 2468
-868.164 1249.73 2468
-862.262 1249.73 2468
-856.36 1249.73 2468
-850.459 1249.73 2468
-844.557 1249.73 2468
-843.752 1257.32 2483
-841.526 1262.89 2494
-837.908 1266.44 2501
-831.927 1266.44 2501
-825.946 1266.44 2501
-819.966 1266.44 2501
-813.985 1266.44 2501
-799.605 1253.27 2475
-791.441 1249.73 2468
-785.54 1249.73 2468
-779.638 1249.73 2468
-773.736 1249.73 2468
-767.834 1249.73 2468
-531.624 871.973 1722
-527.506 871.973 1722
-523.388 871.973 1722
-516.557 867.416 1713
-511.862 866.403 1711
-507.77 866.403 1711
-503.679 866.403 1711
-499.003 865.39 1709
-495.496 866.403 1711
-491.404 866.403 1711
-487.313 866.403 1711
-483.221 866.403 1711
-478.29 864.884 1708
-474.205 864.884 1708
-470.121 864.884 1708
-466.037 864.884 1708
-461.952 864.884 1708
-457.868 864.884 1708
-453.784 864.884 1708
-449.699 864.884 1708
-445.615 864.884 1708
-441.531 864.884 1708
-437.702 865.39 1709
-433.616 865.39 1709
-430.032 866.403 1711
-426.438 867.416 1713
-422.342 867.416 1713
-418.245 867.416 1713
-414.633 868.429 1715
-412.447 872.48 1723
-408.8 873.492 1725
-404.675 873.492 1725
-401.015 874.505 1727
-397.804 876.531 1731
-393.892 877.037 1732
-389.75 877.037 1732
-385.609 877.037 1732
-381.908 878.05 1734
-378.632 880.075 1738
-374.476 880.075 1738
-370.746 881.088 1740
-366.796 881.594 1741
-363.05 882.607 1743
-358.881 882.607 1743
-355.12 883.62 1745
-351.35 884.633 1747
-347.172 884.633 1747
-342.995 884.633 1747
-338.817 884.633 1747
-334.256 883.62 1745
-330.084 883.62 1745
-325.537 882.607 1743
-321.369 882.607 1743
-315.927 879.062 1736
-311.776 879.062 1736
-306.916 877.037 1732
-302.25 875.518 1729
-297.77 874.505 1727
-293.64 874.505 1727
-289.175 873.492 1725
-285.05 873.492 1725
-280.6 872.48 1723
-276.319 871.973 1722
-272.201 871.973 1722
-267.772 870.961 1720
-263.659 870.961 1720
-259.546 870.961 1720
-255.433 870.961 1720
-251.028 869.948 1718
-246.632 868.935 1716
-242.528 868.935 1716
-238.703 869.948 1718
-234.595 869.948 1718
-230.755 870.961 1720
-227.037 872.48 1723
-223.434 874.505 1727
-219.304 874.505 1727
-215.798 877.037 1732
-211.9 878.05 1734
-207.993 879.062 1736
-203.842 879.062 1736
-199.921 880.075 1738
-195.99 881.088 1740
-192.16 882.607 1743
-187.992 882.607 1743
-184.246 884.633 1747
-180.48 886.658 1751
-176.394 887.164 1752
-172.204 887.164 1752
-168.015 887.164 1752
-220.925 1260.87 2490
-214.971 1260.87 2490
-209.016 1260.87 2490
-203.062 1260.87 2490
-197.108 1260.87 2490
-190.002 1253.27 2475
-182.744 1244.16 2457
-176.365 1240.61 2450
-170.506 1240.61 2450
-163.908 1235.04 2439
-157.363 1229.47 2428
-151.557 1229.47 2428
-145.991 1231.5 2432
-140.579 1235.04 2439
-134.747 1235.04 2439
-129.866 1244.16 2457
-124.343 1247.7 2464
-118.451 1247.7 2464
-112.559 1247.7 2464
-106.667 1247.7 2464
-100.488 1244.16 2457
-94.613 1244.16 2457
-88.5931 1242.13 2453
-82.7272 1242.13 2453
-76.8613 1242.13 2453
-71.3138 1247.7 2464
-65.4217 1247.7 2464
-59.6261 1249.73 2468
-53.7897 1251.25 2471
-48.0358 1255.3 2479
-42.1078 1255.3 2479
-36.3986 1262.89 2494
-30.5201 1266.44 2501
-24.5395 1266.44 2501
-18.5588 1266.44 2501
-12.5782 1266.44 2501
-6.59755 1266.44 2501
-0.6169 1266.44 2501
5.34874 1262.89 2494
11.2945 1260.87 2490
17.1172 1251.25 2471
23.0261 1251.25 2471
28.935 1251.25 2471
34.8017 1249.73 2468
40.7034 1249.73 2468
46.6051 1249.73 2468
52.3579 1246.18 2461
58.2429 1246.18 2461
64.1279 1246.18 2461
69.7853 1242.13 2453
75.6512 1242.13 2453
81.4174 1240.61 2450
86.7417 1233.02 2435
91.9183 1224.41 2418
97.7005 1224.41 2418
103.183 1220.86 2411
108.949 1220.86 2411
114.714 1220.86 2411
120.479 1220.86 2411
126.245 1220.86 2411
132.01 1220.86 2411
137.147 1215.29 2400
142.886 1215.29 2400
148.625 1215.29 2400
154.171 1213.77 2397
159.903 1213.77 2397
165.635 1213.77 2397
171.081 1211.75 2393
175.843 1205.17 2380
181.001 1201.62 2373
186.675 1201.62 2373
192.35 1201.62 2373
198.024 1201.62 2373
205.158 1210.23 2390
211.491 1213.77 2397
217.495 1215.29 2400
223.234 1215.29 2400
230.309 1222.38 2414
236.081 1222.38 2414
241.854 1222.38 2414
247.627 1222.38 2414
253.819 1224.41 2418
260.353 1227.95 2425
266.152 1227.95 2425
271.951 1227.95 2425
277.75 1227.95 2425
283.548 1227.95 2425
289.705 1229.47 2428
295.511 1229.47 2428
302.186 1233.02 2435
308.515 1235.04 2439
314.347 1235.04 2439
320.18 1235.04 2439
326.547 1237.07 2443
333.341 1240.61 2450
339.615 1242.13 2453
345.481 1242.13 2453
351.347 1242.13 2453
357.213 1242.13 2453
363.079 1242.13 2453
368.945 1242.13 2453
374.81 1242.13 2453
380.211 1240.61 2450
388.276 1247.7 2464
395.287 1251.25 2471
401.196 1251.25 2471
408.423 1255.3 2479
414.351 1255.3 2479
420.958 1257.32 2483
426.895 1257.32 2483
432.833 1257.32 2483
438.77 1257.32 2483
444.708 1257.32 2483
450.646 1257.32 2483
455.112 1253.27 2475
461.031 1253.27 2475
466.949 1253.27 2475
471.53 1249.73 2468
477.432 1249.73 2468
481.179 1244.16 2457
487.055 1244.16 2457
490.121 1237.07 2443
495.151 1235.04 2439
500.984 1235.04 2439
509.102 1240.61 2450
514.961 1240.61 2450
520.819 1240.61 2450
526.678 1240.61 2450
532.537 1240.61 2450
538.395 1240.61 2450
541.81 1235.04 2439
546.071 1231.5 2432
551.887 1231.5 2432
557.702 1231.5 2432
563.518 1231.5 2432
569.334 1231.5 2432
575.149 1231.5 2432
580.965 1231.5 2432
586.781 1231.5 2432
591.622 1229.47 2428
595.705 1225.93 2421
601.495 1225.93 2421
606.531 1224.41 2418
616.619 1233.02 2435
625.253 1238.59 2446
631.102 1238.59 2446
636.952 1238.59 2446
642.801 1238.59 2446
645.733 1233.02 2435
645.936 1222.38 2414
651.709 1222.38 2414
655.575 1218.84 2407
661.331 1218.84 2407
667.087 1218.84 2407
672.843 1218.84 2407
678.599 1218.84 2407
685.492 1220.86 2411
692.117 1222.38 2414
697.89 1222.38 2414
703.662 1222.38 2414
708.553 1220.86 2411
714.319 1220.86 2411
720.084 1220.86 2411
724.645 1218.84 2407
730.401 1218.84 2407
733.099 1213.77 2397
738.831 1213.77 2397
742.388 1210.23 2390
747.165 1208.71 2387
756.027 1213.77 2397
762.712 1215.29 2400
771.973 1220.86 2411
777.739 1220.86 2411
784.479 1222.38 2414
791.561 1224.41 2418
797.343 1224.41 2418
803.125 1224.41 2418
811.249 1227.95 2425
819.407 1231.5 2432
831.33 1240.61 2450
837.189 1240.61 2450
843.047 1240.61 2450
849.946 1242.13 2453
857.207 1244.16 2457
863.082 1244.16 2457
868.958 1244.16 2457
873.409 1242.13 2453
879.275 1242.13 2453
884.058 1240.61 2450
888.464 1238.59 2446
890.291 1233.02 2435
896.114 1233.02 2435
901.937 1233.02 2435
906.641 1231.5 2432
908.33 1225.93 2421
911.476 1222.38 2414
917.249 1222.38 2414
919.198 1217.32 2404
924.947 1217.32 2404
927.985 1213.77 2397
933.717 1213.77 2397
933.962 1206.69 2383
936.9 1203.14 2376
938.615 1198.08 2366
944.273 1198.08 2366
948.726 1196.56 2363
951.55 1193.01 2356
958.809 1195.04 2360
964.452 1195.04 2360
970.096 1195.04 2360
975.739 1195.04 2360
981.383 1195.04 2360
992.463 1201.62 2373
998.138 1201.62 2373
1003.81 1201.62 2373
1009.49 1201.62 2373
1013.88 1200.1 2370
1019.55 1200.1 2370
1023.48 1198.08 2366
1029.14 1198.08 2366
1034.8 1198.08 2366
1042.21 1200.1 2370
1047.88 1200.1 2370
1053.55 1200.1 2370
1059.22 1200.1 2370
1064.88 1200.1 2370
1070.55 1200.1 2370
1074.4 1198.08 2366
1077.32 1195.04 2360
1081.13 1193.01 2356
1086.76 1193.01 2356
1092.4 1193.01 2356
1098.03 1193.01 2356
1100.85 1189.98 2350
1106.47 1189.98 2350
1105.94 1183.39 2337
1112.96 1184.91 2340
1128.11 1195.04 2360
1135.2 1196.56 2363
1140.85 1196.56 2363
1149.9 1200.1 2370
1157.03 1201.62 2373
1162.7 1201.62 2373
1168.37 1201.62 2373
1175.53 1203.14 2376
1183.2 1205.17 2380
1190.39 1206.69 2383
1198.1 1208.71 2387
1203.81 1208.71 2387
1209.52 1208.71 2387
1216.75 1210.23 2390
1224 1211.75 2393
1229.72 1211.75 2393
1241.12 1217.32 2404
1252.06 1222.38 2414
1257.83 1222.38 2414
1263.61 1222.38 2414
1265.7 1218.84 2407
1266.17 1213.77 2397
1271.9 1213.77 2397
1268.57 1205.17 2380
1272.12 1203.14 2376
1270.81 1196.56 2363
1276.46 1196.56 2363
1285.91 1200.1 2370
1291.58 1200.1 2370
1298.89 1201.62 2373
1306.21 1203.14 2376
1319.62 1210.23 2390
1325.34 1210.23 2390
1331.06 1210.23 2390
1342.36 1215.29 2400
1352.03 1218.84 2407
1357.79 1218.84 2407
1373.74 1227.95 2425
1379.54 1227.95 2425
1385.34 1227.95 2425
1391.14 1227.95 2425
1396.94 1227.95 2425
1355.31 1186.43 2343
1360.91 1186.43 2343
1451.66 1235.04 2439
1457.5 1235.04 2439
1463.33 1235.04 2439
1458.32 1225.93 2421
1462.29 1224.41 2418
1468.07 1224.41 2418
1467.15 1218.84 2407
1475.36 1220.86 2411
1481.12 1220.86 2411
1491.2 1224.41 2418
1496.99 1224.41 2418
1502.77 1224.41 2418
1501.69 1218.84 2407
1507.44 1218.84 2407
1508.8 1215.29 2400
1514.54 1215.29 2400
1515.84 1211.75 2393
1519.66 1210.23 2390
1525.37 1210.23 2390
1513.79 1196.56 2363
1519.44 1196.56 2363
1523.16 1195.04 2360
1528.8 1195.04 2360
1536.39 1196.56 2363
1542.04 1196.56 2363
1547.7 1196.56 2363
1553.35 1196.56 2363
1557.02 1195.04 2360
1562.66 1195.04 2360
1563.65 1191.49 2353
1560.61 1184.91 2340
1568.21 1186.43 2343
1578.52 1189.98 2350
1584.14 1189.98 2350
1589.76 1189.98 2350
1597.41 1191.49 2353
1607.81 1195.04 2360
1620.29 1200.1 2370
1625.96 1200.1 2370
1631.62 1200.1 2370
1649.03 1208.71 2387
1663.76 1215.29 2400
1669.49 1215.29 2400
1687.8 1224.41 2418
1693.58 1224.41 2418
1706.39 1229.47 2428
1712.2 1229.47 2428
1735.69 1242.13 2453
1747.24 1246.18 2461
1753.12 1246.18 2461
1759.01 1246.18 2461
1774.93 1253.27 2475
1788.77 1258.84 2486
1802.65 1264.41 2497
1808.62 1264.41 2497
1814.59 1264.41 2497
1800.22 1242.13 2453
1806.08 1242.13 2453
1811.95 1242.13 2453
1817.81 1242.13 2453
1823.68 1242.13 2453
1798.22 1220.86 2411
1793.51 1213.77 2397
1796.24 1211.75 2393
1801.96 1211.75 2393
1807.68 1211.75 2393
1818.71 1215.29 2400
1824.45 1215.29 2400
1830.19 1215.29 2400
1815.27 1201.62 2373
-1859.08 1263.27 2483
-1855.38 1264.8 2486
-1877.71 1284.13 2524
-1871.67 1284.13 2524
-1865.64 1284.13 2524
-1870.65 1291.76 2539
-1864.58 1291.76 2539
-1858.51 1291.76 2539
-1847.33 1288.2 2532
-1841.28 1288.2 2532
-1835.22 1288.2 2532
-1823.39 1284.13 2524
-1811.59 1280.06 2516
-1802.71 1278.03 2512
-1796.7 1278.03 2512
-1785.7 1274.46 2505
-1779.71 1274.46 2505
-1765.93 1268.87 2494
-1788.9 1289.73 2535
-1782.84 1289.73 2535
-1776.78 1289.73 2535
-1768.62 1288.2 2532
-1762.57 1288.2 2532
-1756.51 1288.2 2532
-1729.02 1272.43 2501
-1712.71 1264.8 2486
-1699.21 1259.2 2475
-1693.29 1259.2 2475
-1687.38 1259.2 2475
-1686.89 1263.27 2483
-1680.95 1263.27 2483
-1675.02 1263.27 2483
-1669.08 1263.27 2483
-1663.14 1263.27 2483
-1651.87 1259.2 2475
-1645.95 1259.2 2475
-1637.38 1257.17 2471
-1631.47 1257.17 2471
-1625.56 1257.17 2471
-1619.65 1257.17 2471
-1611.78 1255.64 2468
-1605.88 1255.64 2468
-1595.44 1252.08 2461
-1589.56 1252.08 2461
-1578.52 1248.01 2453
-1559.19 1237.32 2432
-1560.4 1242.92 2443
-1554.56 1242.92 2443
-1548.72 1242.92 2443
-1542.88 1242.92 2443
-1530.12 1237.32 2432
-1533.07 1244.45 2446
-1527.23 1244.45 2446
-1536.93 1257.17 2471
-1531.02 1257.17 2471
-1525.11 1257.17 2471
-1275.75 1205.78 2370
-1270.08 1205.78 2370
-1264.41 1205.78 2370
-1258.74 1205.78 2370
-1253.08 1205.78 2370
-1207.74 1205.78 2370
-1202.07 1205.78 2370
-1196.4 1205.78 2370
-1228.92 1244.45 2446
-1228.57 1250.04 2457
-1222.7 1250.04 2457
-1220.29 1253.6 2464
-1217.84 1257.17 2471
-1211.94 1257.17 2471
-1206.03 1257.17 2471
-1200.12 1257.17 2471
-1196.14 1259.2 2475
-1192.15 1261.24 2479
-1186.22 1261.24 2479
-1180.29 1261.24 2479
-1174.36 1261.24 2479
-1168.44 1261.24 2479
-1158.76 1257.17 2471
-1148.18 1252.08 2461
-1143.69 1253.6 2464
-1144.72 1261.24 2479
-1138.8 1261.24 2479
-1134.7 1263.27 2483
-1128.76 1263.27 2483
-1122.82 1263.27 2483
-1113.28 1259.2 2475
-1101.1 1252.08 2461
-1090.32 1246.48 2450
-1084.46 1246.48 2450
-1075.52 1242.92 2443
-1060.05 1231.73 2421
-1049.9 1226.64 2411
-1044.14 1226.64 2411
-1036.65 1224.6 2407
-1027.9 1221.04 2400
-1020.88 1219.52 2397
-1015.15 1219.52 2397
-1010.68 1221.04 2400
-1004.94 1221.04 2400
-1006.69 1230.2 2418
-1011.26 1242.92 2443
-1009.53 1248.01 2453
-1003.67 1248.01 2453
-997.802 1248.01 2453
-1000.83 1259.2 2475
-996.522 1261.24 2479
-990.594 1261.24 2479
-990.624 1268.87 2494
-984.66 1268.87 2494
-981.443 1272.43 2501
-975.463 1272.43 2501
-969.482 1272.43 2501
-961.96 1270.39 2497
-955.989 1270.39 2497
-945.833 1264.8 2486
-939.888 1264.8 2486
-929.811 1259.2 2475
-923.893 1259.2 2475
-913.894 1253.6 2464
-908.002 1253.6 2464
-891.493 1238.85 2435
-885.67 1238.85 2435
-876.234 1233.76 2425
-870.435 1233.76 2425
-871.054 1242.92 2443
-866.274 1244.45 2446
-860.425 1244.45 2446
-854.576 1244.45 2446
-847.686 1242.92 2443
-841.844 1242.92 2443
-834.633 1240.88 2439
-834.917 1250.04 2457
-837.815 1263.27 2483
-834.222 1266.83 2490
-828.268 1266.83 2490
-822.314 1266.83 2490
-816.359 1266.83 2490
-810.405 1266.83 2490
-798.312 1257.17 2471
-790.159 1253.6 2464
-785.54 1255.64 2468
-783.113 1261.24 2479
-777.185 1261.24 2479
-771.257 1261.24 2479
-528.228 870.502 1711
-524.137 870.502 1711
-520.045 870.502 1711
-515.35 869.484 1709
-510.965 868.976 1708
-506.88 868.976 1708
-502.796 868.976 1708
-499.003 869.484 1709
-495.496 870.502 1711
-491.404 870.502 1711
-487.313 870.502 1711
-483.221 870.502 1711
-478.29 868.976 1708
-474.205 868.976 1708
-470.121 868.976 1708
-466.037 868.976 1708
-461.952 868.976 1708
-457.868 868.976 1708
-453.784 868.976 1708
-449.699 868.976 1708
-445.615 868.976 1708
-441.531 868.976 1708
-437.702 869.484 1709
-433.616 869.484 1709
-430.032 870.502 1711
-426.438 871.519 1713
-422.342 871.519 1713
-418.245 871.519 1713
-414.633 872.537 1715
-412.447 876.607 1723
-408.8 877.625 1725
-404.675 877.625 1725
-401.015 878.642 1727
-397.804 880.677 1731
-393.892 881.186 1732
-389.75 881.186 1732
-386.054 882.204 1734
-381.908 882.204 1734
-378.632 884.239 1738
-374.476 884.239 1738
-370.746 885.256 1740
-366.796 885.765 1741
-363.05 886.782 1743
-358.881 886.782 1743
-355.12 887.8 1745
-351.35 888.818 1747
-347.172 888.818 1747
-342.995 888.818 1747
-338.817 888.818 1747
-334.256 887.8 1745
-330.084 887.8 1745
-325.911 887.8 1745
-321.369 886.782 1743
-315.927 883.221 1736
-311.776 883.221 1736
-307.27 882.204 1734
-302.599 880.677 1731
-297.77 878.642 1727
-293.64 878.642 1727
-289.175 877.625 1725
-285.05 877.625 1725
-280.6 876.607 1723
-276.319 876.098 1722
-272.201 876.098 1722
-267.772 875.081 1720
-263.659 875.081 1720
-259.546 875.081 1720
-255.433 875.081 1720
-251.028 874.063 1718
-246.632 873.046 1716
-242.528 873.046 1716
-238.703 874.063 1718
-234.595 874.063 1718
-230.755 875.081 1720
-227.037 876.607 1723
-223.434 878.642 1727
-219.304 878.642 1727
-215.798 881.186 1732
-211.9 882.204 1734
-207.993 883.221 1736
-203.842 883.221 1736
-199.921 884.239 1738
-195.99 885.256 1740
-192.16 886.782 1743
-187.992 886.782 1743
-184.246 888.818 1747
-180.48 890.853 1751
-176.394 891.361 1752
-172.204 891.361 1752
-168.015 891.361 1752
-220.925 1266.83 2490
-214.971 1266.83 2490
-209.016 1266.83 2490
-203.062 1266.83 2490
-197.108 1266.83 2490
-190.002 1259.2 2475
-182.744 1250.04 2457
-176.365 1246.48 2450
-170.506 1246.48 2450
-163.908 1240.88 2439
-157.363 1235.29 2428
-151.37 1233.76 2425
-145.751 1235.29 2428
-140.348 1238.85 2435
-134.526 1238.85 2435
-129.866 1250.04 2457
-124.343 1253.6 2464
-118.451 1253.6 2464
-112.559 1253.6 2464
-106.667 1253.6 2464
-100.325 1248.01 2453
-94.4589 1248.01 2453
-88.4847 1246.48 2450
-82.3899 1242.92 2443
-76.642 1244.45 2446
-71.3138 1253.6 2464
-65.4217 1253.6 2464
-59.6261 1255.64 2468
-53.7897 1257.17 2471
-48.0358 1261.24 2479
-42.1078 1261.24 2479
-36.2381 1263.27 2483
-30.4347 1268.87 2494
-24.4708 1268.87 2494
-18.5069 1268.87 2494
-12.543 1268.87 2494
-6.57908 1268.87 2494
-0.615174 1268.87 2494
5.33158 1264.8 2486
11.2265 1259.2 2475
17.0964 1255.64 2468
22.9982 1255.64 2468
28.8531 1253.6 2464
34.7029 1252.08 2461
40.5879 1252.08 2461
46.4729 1252.08 2461
52.2728 1250.04 2457
58.0536 1248.01 2453
63.8413 1246.48 2450
69.5862 1244.45 2446
75.4353 1244.45 2446
80.9189 1238.85 2435
86.243 1231.73 2421
91.6522 1226.64 2411
97.4176 1226.64 2411
102.883 1223.08 2404
108.632 1223.08 2404
114.381 1223.08 2404
120.13 1223.08 2404
125.669 1221.04 2400
131.408 1221.04 2400
136.576 1215.96 2390
142.291 1215.96 2390
147.573 1212.39 2383
153.078 1210.87 2380
158.769 1210.87 2380
164.461 1210.87 2380
169.866 1208.83 2376
175.326 1207.31 2373
180.467 1203.74 2366
185.889 1202.22 2363
191.539 1202.22 2363
196.94 1200.69 2360
203.098 1203.74 2366
209.373 1207.31 2373
215.682 1210.87 2380
221.374 1210.87 2380
227.733 1214.43 2387
234.028 1217.48 2393
240.451 1221.04 2400
246.19 1221.04 2400
252.35 1223.08 2404
258.098 1223.08 2404
264.944 1228.17 2414
270.717 1228.17 2414
276.948 1230.2 2418
282.73 1230.2 2418
288.87 1231.73 2421
294.659 1231.73 2421
300.945 1233.76 2425
306.744 1233.76 2425
312.543 1233.76 2425
318.342 1233.76 2425
324.542 1235.29 2428
331.3 1238.85 2435
337.123 1238.85 2435
342.946 1238.85 2435
350.917 1246.48 2450
356.776 1246.48 2450
362.635 1246.48 2450
368.493 1246.48 2450
373.282 1242.92 2443
378.504 1240.88 2439
386.069 1246.48 2450
392.408 1248.01 2453
398.274 1248.01 2453
406.611 1255.64 2468
412.513 1255.64 2468
418.414 1255.64 2468
424.316 1255.64 2468
430.218 1255.64 2468
436.12 1255.64 2468
442.021 1255.64 2468
447.923 1255.64 2468
451.802 1250.04 2457
457.678 1250.04 2457
463.553 1250.04 2457
469.428 1250.04 2457
474.53 1248.01 2453
476.871 1238.85 2435
482.694 1238.85 2435
483.702 1226.64 2411
488.655 1224.6 2407
491.535 1217.48 2393
498.089 1219.52 2397
503.821 1219.52 2397
509.553 1219.52 2397
515.93 1221.04 2400
521.669 1221.04 2400
527.408 1221.04 2400
533.147 1221.04 2400
538.886 1221.04 2400
542.356 1215.96 2390
548.759 1217.48 2393
554.481 1217.48 2393
561.14 1219.52 2397
567.582 1221.04 2400
573.321 1221.04 2400
579.06 1221.04 2400
584.068 1219.52 2397
588.078 1215.96 2390
596.277 1221.04 2400
602.016 1221.04 2400
611.301 1228.17 2414
622.441 1238.85 2435
628.264 1238.85 2435
634.087 1238.85 2435
639.91 1238.85 2435
639.368 1226.64 2411
644.063 1224.6 2407
649.819 1224.6 2407
650.128 1214.43 2387
655.836 1214.43 2387
664.315 1219.52 2397
670.047 1219.52 2397
675.779 1219.52 2397
682.364 1221.04 2400
689.25 1223.08 2404
694.999 1223.08 2404
700.747 1223.08 2404
706.496 1223.08 2404
711.06 1221.04 2400
716.799 1221.04 2400
722.538 1221.04 2400
727.367 1219.52 2397
730.958 1215.96 2390
736.673 1215.96 2390
739.282 1210.87 2380
744.973 1210.87 2380
752.873 1214.43 2387
762.712 1221.04 2400
769.732 1223.08 2404
775.481 1223.08 2404
782.204 1224.6 2407
790.252 1228.17 2414
796.024 1228.17 2414
801.797 1228.17 2414
807.569 1228.17 2414
817.048 1233.76 2425
825.222 1237.32 2432
831.038 1237.32 2432
843.047 1246.48 2450
849.946 1248.01 2453
857.207 1250.04 2457
863.082 1250.04 2457
868.958 1250.04 2457
873.409 1248.01 2453
879.275 1248.01 2453
884.058 1246.48 2450
888.464 1244.45 2446
890.291 1238.85 2435
896.114 1238.85 2435
901.937 1238.85 2435
906.641 1237.32 2432
908.33 1231.73 2421
911.476 1228.17 2414
917.249 1228.17 2414
919.198 1223.08 2404
924.947 1223.08 2404
927.985 1219.52 2397
933.717 1219.52 2397
933.962 1212.39 2383
936.9 1208.83 2376
938.615 1203.74 2366
944.273 1203.74 2366
948.726 1202.22 2363
951.55 1198.66 2356
958.809 1200.69 2360
964.452 1200.69 2360
970.096 1200.69 2360
975.739 1200.69 2360
981.383 1200.69 2360
992.463 1207.31 2373
998.138 1207.31 2373
1003.81 1207.31 2373
1009.49 1207.31 2373
1013.88 1205.78 2370
1019.55 1205.78 2370
1023.48 1203.74 2366
1029.14 1203.74 2366
1034.8 1203.74 2366
1042.21 1205.78 2370
1047.88 1205.78 2370
1053.55 1205.78 2370
1059.22 1205.78 2370
1064.88 1205.78 2370
1070.55 1205.78 2370
1074.4 1203.74 2366
1077.32 1200.69 2360
1081.13 1198.66 2356
1086.76 1198.66 2356
1092.4 1198.66 2356
1098.03 1198.66 2356
1100.85 1195.6 2350
1106.47 1195.6 2350
1105.94 1188.99 2337
1112.96 1190.52 2340
1128.11 1200.69 2360
1135.2 1202.22 2363
1140.85 1202.22 2363
1149.9 1205.78 2370
1157.03 1207.31 2373
1162.7 1207.31 2373
1168.37 1207.31 2373
1175.53 1208.83 2376
1183.2 1210.87 2380
1190.39 1212.39 2383
1198.1 1214.43 2387
1203.81 1214.43 2387
1209.52 1214.43 2387
1216.75 1215.96 2390
1224 1217.48 2393
1229.72 1217.48 2393
1241.12 1223.08 2404
1252.06 1228.17 2414
1257.83 1228.17 2414
1263.61 1228.17 2414
1265.7 1224.6 2407
1266.17 1219.52 2397
1271.9 1219.52 2397
1268.57 1210.87 2380
1272.12 1208.83 2376
1270.81 1202.22 2363
1276.46 1202.22 2363
1285.91 1205.78 2370
1291.58 1205.78 2370
1298.89 1207.31 2373
1306.21 1208.83 2376
1319.62 1215.96 2390
1325.34 1215.96 2390
1331.06 1215.96 2390
1342.36 1221.04 2400
1352.03 1224.6 2407
1357.79 1224.6 2407
1373.74 1233.76 2425
1379.54 1233.76 2425
1385.34 1233.76 2425
1391.14 1233.76 2425
1396.94 1233.76 2425
1355.31 1192.04 2343
1360.91 1192.04 2343
1353.1 1180.34 2320
1358.64 1180.34 2320
1415.01 1214.43 2387
1436.78 1228.17 2414
1442.56 1228.17 2414
1448.33 1228.17 2414
1454.1 1228.17 2414
1455.64 1224.6 2407
1449.25 1214.43 2387
1450.69 1210.87 2380
1456.39 1210.87 2380
1462.08 1210.87 2380
1467.77 1210.87 2380
1473.46 1210.87 2380
1479.15 1210.87 2380
1484.84 1210.87 2380
1490.53 1210.87 2380
1496.23 1210.87 2380
1501.92 1210.87 2380
1505.07 1208.83 2376
1500.58 1200.69 2360
1506.23 1200.69 2360
1502.9 1193.57 2346
1508.51 1193.57 2346
1514.12 1193.57 2346
1515.84 1190.52 2340
1525.34 1193.57 2346
1535.52 1197.13 2353
1541.15 1197.13 2353
1546.77 1197.13 2353
1547.78 1193.57 2346
1553.39 1193.57 2346
1555.01 1190.52 2340
1555.94 1186.96 2333
1561.52 1186.96 2333
1573.82 1192.04 2343
1581.44 1193.57 2346
1587.05 1193.57 2346
1595.38 1195.6 2350
1605.08 1198.66 2356
1615.5 1202.22 2363
1621.15 1202.22 2363
1631.62 1205.78 2370
1639.36 1207.31 2373
1656.82 1215.96 2390
1662.54 1215.96 2390
1670.35 1217.48 2393
1683.77 1223.08 2404
1696.55 1228.17 2414
1702.32 1228.17 2414
1735.69 1248.01 2453
1747.24 1252.08 2461
1753.12 1252.08 2461
1759.01 1252.08 2461
1774.93 1259.2 2475
1788.77 1264.8 2486
1800.49 1268.87 2494
1806.45 1268.87 2494
1812.41 1268.87 2494
1801.61 1257.17 2471
1807.52 1257.17 2471
1800.22 1248.01 2453
1806.08 1248.01 2453
1811.95 1248.01 2453
1817.81 1248.01 2453
1823.68 1248.01 2453
1798.22 1226.64 2411
1790.52 1217.48 2393
1796.24 1217.48 2393
1801.96 1217.48 2393
1807.68 1217.48 2393
1818.71 1221.04 2400
1824.45 1221.04 2400
1830.19 1221.04 2400
1815.27 1207.31 2373
-1859.08 1269.22 2483
-1855.38 1270.75 2486
-1874.73 1288.13 2520
-1868.71 1288.13 2520
-1862.68 1288.13 2520
-1856.66 1288.13 2520
-1850.63 1288.13 2520
-1844.6 1288.13 2520
-1838.58 1288.13 2520
-1832.55 1288.13 2520
-1826.53 1288.13 2520
-1820.5 1288.13 2520
-1811.59 1286.09 2516
-1802.71 1284.04 2512
-1796.7 1284.04 2512
-1777.86 1274.84 2494
-1761.24 1267.17 2479
-1747.52 1261.55 2468
-1741.62 1261.55 2468
-1735.72 1261.55 2468
-1736.11 1274.84 2494
-1730.15 1274.84 2494
-1724.19 1274.84 2494
-1712.71 1270.75 2486
-1689.6 1257.97 2461
-1683.72 1257.97 2461
-1667.6 1250.31 2446
-1654.28 1244.68 2435
-1670.8 1261.55 2468
-1664.9 1261.55 2468
-1659 1261.55 2468
-1650.42 1259.51 2464
-1649.2 1263.08 2471
-1643.29 1263.08 2471
-1637.38 1263.08 2471
-1631.47 1263.08 2471
-1625.56 1263.08 2471
-1619.65 1263.08 2471
-1609.17 1259.51 2464
-1603.28 1259.51 2464
-1590.25 1253.88 2453
-1584.39 1253.88 2453
-1574.02 1250.31 2446
-1559.19 1243.15 2432
-1553.38 1243.15 2432
-1547.56 1243.15 2432
-1541.75 1243.15 2432
-1535.93 1243.15 2432
-1530.12 1243.15 2432
-1524.3 1243.15 2432
-1518.48 1243.15 2432
-1512.67 1243.15 2432
-1482.69 1223.21 2393
-1476.97 1223.21 2393
-1275.75 1211.46 2370
-1270.08 1211.46 2370
-1264.41 1211.46 2370
-1258.74 1211.46 2370
-1253.08 1211.46 2370
-1207.74 1211.46 2370
-1202.07 1211.46 2370
-1196.4 1211.46 2370
-1228.92 1250.31 2446
-1225.07 1252.35 2450
-1219.21 1252.35 2450
-1216.82 1255.93 2457
-1210.94 1255.93 2457
-1208.5 1259.51 2464
-1202.61 1259.51 2464
-1196.72 1259.51 2464
-1192.76 1261.55 2468
-1186.86 1261.55 2468
-1180.96 1261.55 2468
-1175.05 1261.55 2468
-1169.15 1261.55 2468
-1163.25 1261.55 2468
-1155.47 1259.51 2464
-1144.45 1253.88 2453
-1140.44 1255.93 2457
-1137.8 1259.51 2464
-1131.9 1259.51 2464
-1127.84 1261.55 2468
-1121.94 1261.55 2468
-1116.04 1261.55 2468
-1108.34 1259.51 2464
-1097.52 1253.88 2453
-1088.54 1250.31 2446
-1082.69 1250.31 2446
-1070.68 1243.15 2432
-1056.98 1233.95 2414
-1049.9 1232.42 2411
-1044.14 1232.42 2411
-1033.63 1226.79 2400
-1027.9 1226.79 2400
-1019.18 1223.21 2393
-1010.91 1220.15 2387
-1006.47 1221.68 2390
-1000.75 1221.68 2390
-1000.87 1228.84 2404
-1002.15 1237.53 2421
-1006.65 1250.31 2446
-1000.8 1250.31 2446
-994.955 1250.31 2446
-999.215 1263.08 2471
-993.306 1263.08 2471
-987.397 1263.08 2471
-984.666 1267.17 2479
-978.738 1267.17 2479
-972.81 1267.17 2479
-962.592 1261.55 2468
-952.426 1255.93 2457
-957.723 1270.75 2486
-951.778 1270.75 2486
-945.833 1270.75 2486
-939.888 1270.75 2486
-929.811 1265.13 2475
-923.893 1265.13 2475
-913.894 1259.51 2464
-908.002 1259.51 2464
-891.493 1244.68 2435
-885.67 1244.68 2435
-876.234 1239.57 2425
-870.435 1239.57 2425
-871.054 1248.77 2443
-866.274 1250.31 2446
-860.425 1250.31 2446
-854.576 1250.31 2446
-847.686 1248.77 2443
-841.844 1248.77 2443
-834.633 1246.73 2439
-834.917 1255.93 2457
-837.815 1269.22 2483
-834.222 1272.8 2490
-828.268 1272.8 2490
-822.314 1272.8 2490
-816.359 1272.8 2490
-810.405 1272.8 2490
-798.312 1263.08 2471
-791.441 1261.55 2468
-789.041 1267.17 2479
-784.376 1269.22 2483
-778.439 1269.22 2483
-772.501 1269.22 2483
-528.228 874.601 1711
-524.137 874.601 1711
-520.045 874.601 1711
-515.35 873.578 1709
-510.965 873.067 1708
-506.88 873.067 1708
-502.796 873.067 1708
-499.003 873.578 1709
-495.496 874.601 1711
-491.404 874.601 1711
-487.313 874.601 1711
-483.221 874.601 1711
-478.29 873.067 1708
-474.205 873.067 1708
-470.121 873.067 1708
-466.037 873.067 1708
-461.952 873.067 1708
-457.868 873.067 1708
-453.784 873.067 1708
-449.699 873.067 1708
-445.615 873.067 1708
-441.531 873.067 1708
-437.702 873.578 1709
-433.616 873.578 1709
-430.032 874.601 1711
-426.438 875.623 1713
-422.342 875.623 1713
-418.245 875.623 1713
-414.633 876.645 1715
-412.447 880.735 1723
-408.8 881.757 1725
-404.675 881.757 1725
-401.015 882.779 1727
-398.034 885.335 1732
-394.347 886.357 1734
-390.201 886.357 1734
-386.054 886.357 1734
-382.348 887.38 1736
-379.068 889.424 1740
-374.907 889.424 1740
-370.959 889.935 1741
-367.218 890.958 1743
-363.466 891.98 1745
-359.293 891.98 1745
-355.527 893.003 1747
-352.154 895.047 1751
-347.967 895.047 1751
-343.78 895.047 1751
-339.593 895.047 1751
-334.256 891.98 1745
-330.084 891.98 1745
-325.911 891.98 1745
-321.738 891.98 1745
-315.927 887.38 1736
-311.776 887.38 1736
-307.27 886.357 1734
-302.599 884.824 1731
-297.77 882.779 1727
-293.64 882.779 1727
-289.175 881.757 1725
-285.05 881.757 1725
-280.6 880.735 1723
-276.319 880.223 1722
-272.201 880.223 1722
-267.772 879.201 1720
-263.659 879.201 1720
-259.546 879.201 1720
-255.433 879.201 1720
-251.028 878.179 1718
-246.632 877.156 1716
-242.528 877.156 1716
-238.703 878.179 1718
-234.595 878.179 1718
-230.755 879.201 1720
-227.037 880.735 1723
-223.434 882.779 1727
-219.304 882.779 1727
-215.798 885.335 1732
-211.9 886.357 1734
-207.993 887.38 1736
-203.842 887.38 1736
-199.691 887.38 1736
-195.99 889.424 1740
-192.16 890.958 1743
-187.992 890.958 1743
-184.667 895.047 1751
-180.48 895.047 1751
-176.293 895.047 1751
-172.106 895.047 1751
-167.919 895.047 1751
-220.925 1272.8 2490
-214.971 1272.8 2490
-209.016 1272.8 2490
-203.062 1272.8 2490
-197.108 1272.8 2490
-189.695 1263.08 2471
-182.744 1255.93 2457
-176.077 1250.31 2446
-170.228 1250.31 2446
-163.169 1241.1 2428
-156.909 1237.53 2421
-151.12 1237.53 2421
-145.571 1239.57 2425
-139.945 1241.1 2428
-134.139 1241.1 2428
-128.544 1243.15 2432
-123.99 1255.93 2457
-118.115 1255.93 2457
-112.239 1255.93 2457
-106.191 1253.88 2453
-100.038 1250.31 2446
-94.1894 1250.31 2446
-88.0874 1246.73 2439
-82.255 1246.73 2439
-76.548 1248.77 2443
-71.227 1257.97 2461
-65.342 1257.97 2461
-59.5295 1259.51 2464
-53.6373 1259.51 2464
-47.8808 1263.08 2471
-41.9719 1263.08 2471
-36.2381 1269.22 2483
-30.3859 1272.8 2490
-24.4316 1272.8 2490
-18.4772 1272.8 2490
-12.5028 1270.75 2486
-6.55798 1270.75 2486
-0.613201 1270.75 2486
5.30799 1265.13 2475
11.1947 1261.55 2468
16.9718 1252.35 2450
22.8305 1252.35 2450
28.6891 1252.35 2450
34.5901 1253.88 2453
40.456 1253.88 2453
46.3219 1253.88 2453
52.1239 1252.35 2450
57.8879 1250.31 2446
63.5547 1246.73 2439
69.1879 1243.15 2432
75.0036 1243.15 2432
80.4537 1237.53 2421
85.8868 1232.42 2411
91.2341 1226.79 2400
96.9732 1226.79 2400
102.712 1226.79 2400
108.316 1225.26 2397
114.048 1225.26 2397
119.78 1225.26 2397
125.302 1223.21 2393
130.86 1221.68 2390
135.776 1214.52 2376
141.457 1214.52 2376
146.953 1212.99 2373
152.435 1211.46 2370
157.635 1207.88 2363
163.079 1206.35 2360
168.722 1206.35 2360
174.07 1204.3 2356
179.475 1202.77 2353
185.102 1202.77 2353
190.729 1202.77 2353
196.355 1202.77 2353
202.24 1204.3 2356
208.491 1207.88 2363
214.142 1207.88 2363
219.792 1207.88 2363
226.111 1211.46 2370
232.365 1214.52 2376
238.448 1216.57 2380
244.139 1216.57 2380
250.565 1220.15 2387
256.273 1220.15 2387
263.079 1225.26 2397
268.811 1225.26 2397
274.543 1225.26 2397
280.274 1225.26 2397
286.006 1225.26 2397
291.738 1225.26 2397
297.47 1225.26 2397
303.202 1225.26 2397
308.934 1225.26 2397
314.666 1225.26 2397
320.398 1225.26 2397
326.538 1226.79 2400
332.277 1226.79 2400
340.974 1237.53 2421
346.764 1237.53 2421
352.553 1237.53 2421
358.342 1237.53 2421
364.132 1237.53 2421
369.462 1235.99 2418
374.158 1232.42 2411
383.706 1244.68 2435
389.529 1244.68 2435
395.351 1244.68 2435
402.492 1248.77 2443
408.334 1248.77 2443
415.363 1252.35 2450
421.222 1252.35 2450
427.08 1252.35 2450
432.939 1252.35 2450
438.798 1252.35 2450
443.93 1250.31 2446
445.918 1239.57 2425
451.717 1239.57 2425
457.516 1239.57 2425
463.315 1239.57 2425
469.114 1239.57 2425
471.387 1230.37 2407
477.143 1230.37 2407
482.297 1228.84 2404
484.595 1220.15 2387
490.303 1220.15 2387
496.634 1221.68 2390
502.98 1223.21 2393
508.702 1223.21 2393
514.425 1223.21 2393
520.147 1223.21 2393
525.869 1223.21 2393
529.37 1218.1 2383
535.069 1218.1 2383
539.179 1214.52 2376
547.383 1220.15 2387
553.091 1220.15 2387
558.799 1220.15 2387
564.507 1220.15 2387
