-2356.39 752.539 3595
-2358.24 755.888 3611
-2349.61 755.888 3611
-2346.16 757.563 3619
-2337.51 757.563 3619
-2328.85 757.563 3619
-2320.2 757.563 3619
-2311.54 757.563 3619
-2302.89 757.563 3619
-2299.31 759.237 3627
-2290.63 759.237 3627
-2281.96 759.237 3627
-2278.3 760.912 3635
-2273.98 762.377 3642
-2270.25 764.052 3650
-2266.48 765.727 3658
-2257.73 765.727 3658
-2248.98 765.727 3658
-2240.23 765.727 3658
-2231.49 765.727 3658
-2213.02 762.377 3642
-2209.15 764.052 3650
-2210.67 767.611 3667
-2201.9 767.611 3667
-2197.92 769.285 3675
-2189.13 769.285 3675
-2185.09 770.96 3683
-2176.28 770.96 3683
-2167.47 770.96 3683
-2163.35 772.634 3691
-2163.87 775.984 3707
-2155 775.984 3707
-2151.35 777.868 3716
-2147.07 779.542 3724
-2138.17 779.542 3724
-2129.26 779.542 3724
-2120.36 779.542 3724
-2111.45 779.542 3724
-2111.58 782.892 3740
-2102.64 782.892 3740
-2108.25 788.334 3766
-2118.2 795.451 3800
-2109.11 795.451 3800
-2100.02 795.451 3800
-2090.94 795.451 3800
-2081.85 795.451 3800
-2072.76 795.451 3800
-2059.33 793.777 3792
-2031.34 786.45 3757
-1995.86 793.777 3792
-1986.79 793.777 3792
-1977.72 793.777 3792
-1968.65 793.777 3792
-1959.58 793.777 3792
-1932.51 786.45 3757
-1919.43 784.776 3749
-1905.88 782.892 3740
-1896.94 782.892 3740
-1879.92 779.542 3724
-1837.85 765.727 3658
-1817.61 760.912 3635
-1808.91 760.912 3635
-1792.3 757.563 3619
-1764.42 749.399 3580
-1744.58 744.584 3557
-1743.39 747.724 3572
-1734.85 747.724 3572
-1726.31 747.724 3572
-1721.62 749.399 3580
-1716.88 751.073 3588
-1708.3 751.073 3588
-1699.72 751.073 3588
-1691.14 751.073 3588
-1693.35 755.888 3611
-1695.91 760.912 3635
-1687.22 760.912 3635
-1678.53 760.912 3635
-1673.05 762.377 3642
-1664.34 762.377 3642
-1655.63 762.377 3642
-1646.92 762.377 3642
-1638.21 762.377 3642
-1633.08 764.052 3650
-1624.36 764.052 3650
-1626.69 769.285 3675
-1624.95 772.634 3691
-1619.63 774.309 3699
-1610.78 774.309 3699
-1601.94 774.309 3699
-1593.09 774.309 3699
-1584.24 774.309 3699
-1571.99 772.634 3691
-1556.39 769.285 3675
-1547.6 769.285 3675
-1538.81 769.285 3675
-1530.03 769.285 3675
-1521.24 769.285 3675
-1515.74 770.96 3683
-1513.48 774.309 3699
-1504.64 774.309 3699
-1505.9 779.542 3724
-1496.99 779.542 3724
-1491.29 781.217 3732
-1482.36 781.217 3732
-1476.6 782.892 3740
-1488.06 793.777 3792
-1478.99 793.777 3792
-1469.92 793.777 3792
-1440.82 782.892 3740
-626.334 360.465 1722
-622.216 360.465 1722
-619.175 361.093 1725
-615.05 361.093 1725
-610.925 361.093 1725
-606.097 360.674 1723
-601.627 360.465 1722
-596.815 360.046 1720
-592.702 360.046 1720
-586.878 359 1715
-580.738 357.744 1709
-576.314 357.534 1708
-572.23 357.534 1708
-567.48 357.116 1706
-562.74 356.697 1704
-558.01 356.278 1702
-553.94 356.278 1702
-548.9 355.65 1699
-544.196 355.232 1697
-539.183 354.604 1694
-535.132 354.604 1694
-531.081 354.604 1694
-525.786 353.767 1690
-521.745 353.767 1690
-517.704 353.767 1690
-512.75 353.139 1687
-507.51 352.301 1683
-503.486 352.301 1683
-499.461 352.301 1683
-495.142 352.092 1682
-491.12 352.092 1682
-487.387 352.301 1683
-483.363 352.301 1683
-479.338 352.301 1683
-475.314 352.301 1683
-471.289 352.301 1683
-467.264 352.301 1683
-463.24 352.301 1683
-458.942 352.092 1682
-454.92 352.092 1682
-451.166 352.301 1683
-447.673 352.72 1685
-443.644 352.72 1685
-439.614 352.72 1685
-436.102 353.139 1687
-432.58 353.557 1689
-428.541 353.557 1689
-424.754 353.767 1690
-421.708 354.604 1694
-417.657 354.604 1694
-413.606 354.604 1694
-409.555 354.604 1694
-405.505 354.604 1694
-401.454 354.604 1694
-397.403 354.604 1694
-394.049 355.232 1697
-390.45 355.65 1699
-386.842 356.069 1701
-382.775 356.069 1701
-378.93 356.278 1702
-375.741 357.116 1706
-372.315 357.744 1709
-368.228 357.744 1709
-364.567 358.162 1711
-360.897 358.581 1713
-357.426 359.209 1716
-353.322 359.209 1716
-349.626 359.628 1718
-345.92 360.046 1720
-342.204 360.465 1722
-338.086 360.465 1722
-334.55 361.093 1725
-331.192 361.93 1729
-327.624 362.558 1732
-323.483 362.558 1732
-319.71 362.977 1734
-315.563 362.977 1734
-311.776 363.396 1736
-307.625 363.396 1736
-303.823 363.814 1738
-299.667 363.814 1738
-295.851 364.233 1740
-291.69 364.233 1740
-287.529 364.233 1740
-283.368 364.233 1740
-279.207 364.233 1740
-275.046 364.233 1740
-270.886 364.233 1740
-266.725 364.233 1740
-262.564 364.233 1740
-258.848 364.861 1743
-254.68 364.861 1743
-250.8 365.28 1745
-246.627 365.28 1745
-242.454 365.28 1745
-238.281 365.28 1745
-234.377 365.698 1747
-230.463 366.117 1749
-226.539 366.536 1751
-222.352 366.536 1751
-218.788 367.582 1756
-214.589 367.582 1756
-210.39 367.582 1756
-206.19 367.582 1756
-202.451 368.42 1760
-198.581 369.048 1763
-195.247 370.722 1771
-191.012 370.722 1771
-186.988 371.141 1773
-182.954 371.56 1775
-179.213 372.606 1780
-174.956 372.606 1780
-171.083 373.443 1784
-167.191 374.281 1788
-163.28 375.118 1792
-158.995 375.118 1792
-154.71 375.118 1792
-150.76 375.955 1796
-146.466 375.955 1796
-142.171 375.955 1796
-138.03 376.374 1798
-133.879 376.793 1800
-129.718 377.211 1802
-125.409 377.211 1802
-121.234 377.63 1804
-117.245 378.677 1809
-113.044 379.095 1811
-108.713 379.095 1811
-104.498 379.514 1813
-100.162 379.514 1813
-95.8267 379.514 1813
-91.4913 379.514 1813
-87.1558 379.514 1813
-82.8204 379.514 1813
-146.675 797.335 3809
-142.767 827.479 3953
-133.315 827.479 3953
-123.862 827.479 3953
-114.409 827.479 3953
-104.956 827.479 3953
-90.768 786.45 3757
-81.7838 786.45 3757
-72.4703 782.892 3740
-63.5268 782.892 3740
-53.985 774.309 3699
-44.7491 767.611 3667
-35.9801 767.611 3667
-27.2112 767.611 3667
-18.3568 764.052 3650
-9.54679 757.563 3619
-0.885022 751.073 3588
7.69497 751.073 3588
16.275 751.073 3588
24.7995 749.399 3580
33.3604 749.399 3580
41.7456 746.259 3565
50.2706 746.259 3565
58.6637 744.584 3557
67.1695 744.584 3557
75.6754 744.584 3557
84.1813 744.584 3557
92.6871 744.584 3557
101.193 744.584 3557
109.699 744.584 3557
118.205 744.584 3557
126.711 744.584 3557
135.216 744.584 3557
143.722 744.584 3557
152.228 744.584 3557
160.373 742.91 3549
168.859 742.91 3549
177.346 742.91 3549
185.833 742.91 3549
194.319 742.91 3549
201.949 739.77 3534
210.4 739.77 3534
218.851 739.77 3534
227.302 739.77 3534
235.753 739.77 3534
245.24 742.91 3549
253.727 742.91 3549
262.213 742.91 3549
270.7 742.91 3549
279.187 742.91 3549
287.674 742.91 3549
296.16 742.91 3549
304.647 742.91 3549
313.84 744.584 3557
322.345 744.584 3557
331.595 746.259 3565
340.12 746.259 3565
348.645 746.259 3565
356.369 744.584 3557
364.875 744.584 3557
371.806 741.444 3542
379.417 739.77 3534
387.1 738.304 3527
395.534 738.304 3527
401.448 733.699 3505
408.076 730.559 3490
415.586 729.094 3483
421.238 724.489 3461
429.514 724.489 3461
435.134 720.093 3440
441.556 717.162 3426
448.829 715.697 3419
457.005 715.697 3419
460.419 708.37 3384
464.773 702.718 3357
470.829 699.788 3343
478.823 699.788 3343
483.905 695.601 3323
489.927 692.88 3310
497.842 692.88 3310
505.757 692.88 3310
513.672 692.88 3310
521.588 692.88 3310
529.503 692.88 3310
537.418 692.88 3310
547.475 695.601 3323
555.421 695.601 3323
563.368 695.601 3323
572.517 697.067 3330
581.701 698.532 3337
589.68 698.532 3337
598.735 699.788 3343
606.729 699.788 3343
614.723 699.788 3343
621.6 698.532 3337
633.353 702.718 3357
642.527 703.974 3363
650.569 703.974 3363
658.611 703.974 3363
668.04 705.44 3370
676.099 705.44 3370
684.158 705.44 3370
692.216 705.44 3370
698.82 703.974 3363
708.334 705.44 3370
717.88 706.905 3377
725.956 706.905 3377
734.031 706.905 3377
742.107 706.905 3377
748.627 705.44 3370
756.686 705.44 3370
764.744 705.44 3370
772.803 705.44 3370
780.862 705.44 3370
788.921 705.44 3370
796.979 705.44 3370
805.038 705.44 3370
813.097 705.44 3370
821.155 705.44 3370
827.492 703.974 3363
835.534 703.974 3363
845.331 705.44 3370
858.708 709.836 3391
866.817 709.836 3391
878.538 712.766 3405
892.149 717.162 3426
904.021 720.093 3440
912.247 720.093 3440
926.092 724.489 3461
938.418 727.629 3476
952.45 732.025 3497
960.812 732.025 3497
975.549 736.839 3520
990.116 741.444 3542
1000.56 742.91 3549
1009.05 742.91 3549
1024.13 747.724 3572
1037.29 751.073 3588
1052.58 755.888 3611
1065.92 759.237 3627
1074.59 759.237 3627
1087.74 762.377 3642
1098.86 764.052 3650
1115.17 769.285 3675
1123.96 769.285 3675
1135.22 770.96 3683
1144.02 770.96 3683
1155.33 772.634 3691
1164.16 772.634 3691
1172.99 772.634 3691
1181.81 772.634 3691
1190.64 772.634 3691
1199.47 772.634 3691
1205.67 770.96 3683
1211.84 769.285 3675
1220.63 769.285 3675
1229.42 769.285 3675
1240.9 770.96 3683
1249.71 770.96 3683
1258.52 770.96 3683
1264.57 769.285 3675
1273.36 769.285 3675
1282.15 769.285 3675
1290.94 769.285 3675
1296.89 767.611 3667
1302.46 765.727 3658
1308.34 764.052 3650
1314.18 762.377 3642
1322.89 762.377 3642
1331.6 762.377 3642
1337.73 760.912 3635
1343.46 759.237 3627
1355.12 760.912 3635
1363.81 760.912 3635
1375.14 762.377 3642
1383.85 762.377 3642
1392.56 762.377 3642
1401.27 762.377 3642
1407.27 760.912 3635
1412.85 759.237 3627
1421.52 759.237 3627
1427.04 757.563 3619
1432.52 755.888 3611
1437.96 754.213 3603
1446.58 754.213 3603
1455.19 754.213 3603
1454.46 749.399 3580
1463.02 749.399 3580
1468.3 747.724 3572
1476.84 747.724 3572
1482.47 746.259 3565
1487.65 744.584 3557
1496.15 744.584 3557
1504.66 744.584 3557
1509.76 742.91 3549
1518.25 742.91 3549
1526.74 742.91 3549
1538.68 744.584 3557
1547.19 744.584 3557
1572.32 752.539 3595
1587.95 755.888 3611
1600.12 757.563 3619
1615.89 760.912 3635
1627.71 762.377 3642
1658.43 772.634 3691
1693.46 784.776 3749
1702.42 784.776 3749
1742.89 799.219 3818
1755.69 800.894 3826
1777.29 806.546 3853
1790.68 808.43 3862
1799.91 808.43 3862
1834.45 819.734 3916
1848.05 821.617 3925
1862.17 823.711 3935
1871.58 823.711 3935
1880.98 823.711 3935
1890.39 823.711 3935
1899.8 823.711 3935
1900 819.734 3916
1891.81 812.198 3880
1879.04 802.778 3835
1888.21 802.778 3835
1876.1 793.777 3792
1851.37 779.542 3724
1851.78 775.984 3707
1860.64 775.984 3707
1853.37 769.285 3675
1837.84 759.237 3627
1834.29 754.213 3603
1831.14 749.399 3580
1839.7 749.399 3580
1840.52 746.259 3565
1852.68 747.724 3572
1869.55 751.073 3588
1878.13 751.073 3588
1886.71 751.073 3588
1895.29 751.073 3588
1907.59 752.539 3595
1924.71 755.888 3611
1933.35 755.888 3611
1954.89 760.912 3635
1976.01 765.727 3658
2007 774.309 3699
2033.83 781.217 3732
2042.75 781.217 3732
2074.77 790.009 3774
2117.47 802.778 3835
2156.59 814.082 3889
2175.91 817.85 3907
2200.92 823.711 3935
2226.05 829.572 3963
2240.61 831.456 3972
2250.11 831.456 3972
2259.61 831.456 3972
2269.1 831.456 3972
2278.6 831.456 3972
2288.1 831.456 3972
2303.38 833.549 3982
2318.13 835.433 3991
2333.51 837.526 4001
2343.08 837.526 4001
2357.94 839.41 4010
2373.43 841.504 4020
2383.04 841.504 4020
2392.66 841.504 4020
2408.24 843.597 4030
2417.88 843.597 4030
2432.94 845.481 4039
2442.6 845.481 4039
2452.26 845.481 4039
2461.91 845.481 4039
2471.57 845.481 4039
2481.23 845.481 4039
2490.89 845.481 4039
2500.55 845.481 4039
2498.4 841.504 4020
2508.01 841.504 4020
2517.62 841.504 4020
2539.18 845.481 4039
2555.15 847.574 4049
2564.83 847.574 4049
2574.52 847.574 4049
2584.2 847.574 4049
2593.88 847.574 4049
2603.56 847.574 4049
2600.98 843.597 4030
2604.14 841.504 4020
2601.4 837.526 4001
2610.97 837.526 4001
2613.99 835.433 3991
2611.04 831.456 3972
2614.6 829.572 3963
2617.46 827.479 3953
2626.91 827.479 3953
2599.68 815.966 3898
2572.86 804.662 3844
2552.5 795.451 3800
2561.58 795.451 3800
2547.67 788.334 3766
2545.13 784.776 3749
2525.49 775.984 3707
532.327 151.345 723
534.056 151.345 723
535.784 151.345 723
537.513 151.345 723
538.496 151.136 722
539.475 150.926 721
541.949 151.136 722
543.676 151.136 722
545.402 151.136 722
547.129 151.136 722
548.856 151.136 722
550.582 151.136 722
551.544 150.926 721
-2361.48 667.78 3154
-2353.94 667.78 3154
-2337.47 665.239 3142
-2325.5 663.969 3136
-2318 663.969 3136
-2310.5 663.969 3136
-2303.01 663.969 3136
-2282.33 660.158 3118
-2266.85 657.829 3107
-2276.14 662.699 3130
-2268.66 662.699 3130
-2274.18 666.51 3148
-2301.21 676.672 3196
-2320.12 684.506 3233
-2312.39 684.506 3233
-2313.93 687.259 3246
-2333.16 695.304 3284
-2386.2 713.513 3370
-2378.15 713.513 3370
-2379.93 716.477 3384
-2456.65 742.095 3505
-2448.27 742.095 3505
-2455.2 746.753 3527
-2446.77 746.753 3527
-2469.44 756.281 3572
-2460.9 756.281 3572
-2457.85 757.975 3580
-2454.76 759.669 3588
-2446.18 759.669 3588
-2437.6 759.669 3588
-2429.02 759.669 3588
-2415.05 757.975 3580
-2406.49 757.975 3580
-2387.88 754.799 3565
-2384.03 756.281 3572
-2380.8 757.975 3580
-2377.54 759.669 3588
-2368.96 759.669 3588
-2364.99 761.151 3595
-2356.39 761.151 3595
-2347.8 761.151 3595
-2339.2 761.151 3595
-2340.97 764.538 3611
-2337.51 766.232 3619
-2328.85 766.232 3619
-2320.2 766.232 3619
-2311.54 766.232 3619
-2302.89 766.232 3619
-2299.31 767.926 3627
-2290.63 767.926 3627
-2286.99 769.62 3635
-2278.3 769.62 3635
-2278.98 772.796 3650
-2270.25 772.796 3650
-2266.48 774.489 3658
-2257.73 774.489 3658
-2248.98 774.489 3658
-2240.23 774.489 3658
-2231.49 774.489 3658
-2213.02 771.102 3642
-2209.15 772.796 3650
-2215.49 778.089 3675
-2206.7 778.089 3675
-2197.92 778.089 3675
-2189.13 778.089 3675
-2185.09 779.782 3683
-2176.28 779.782 3683
-2167.47 779.782 3683
-2163.35 781.476 3691
-2159.2 783.17 3699
-2150.35 783.17 3699
-2151.35 786.769 3716
-2142.46 786.769 3716
-2133.58 786.769 3716
-2124.69 786.769 3716
-2110.68 784.864 3707
-2101.82 784.864 3707
-2102.55 788.463 3724
-2093.64 788.463 3724
-2084.74 788.463 3724
-2113.74 802.86 3792
-2109.11 804.554 3800
-2100.02 804.554 3800
-2090.94 804.554 3800
-2077.47 802.86 3792
-2068.4 802.86 3792
-2045.21 797.356 3766
-2031.34 795.45 3757
-2013.2 791.851 3740
-2004.26 791.851 3740
-1991.12 800.955 3783
-1982.07 800.955 3783
-1973.03 800.955 3783
-1950.48 795.45 3757
-1941.5 795.45 3757
-1923.77 791.851 3740
-1910.73 790.157 3732
-1901.81 790.157 3732
-1892.88 790.157 3732
-1879.92 788.463 3724
-1842.38 776.395 3667
-1825.11 772.796 3650
-1816.38 772.796 3650
-1796.26 767.926 3627
-1771.81 761.151 3595
-1759.78 759.669 3588
-1751.2 759.669 3588
-1742.62 759.669 3588
-1734.04 759.669 3588
-1725.46 759.669 3588
-1716.88 759.669 3588
-1704.5 757.975 3580
-1688.83 754.799 3565
-1680.3 754.799 3565
-1685.85 761.151 3595
-1684.71 764.538 3611
-1676.08 764.538 3611
-1674.83 767.926 3627
-1666.16 767.926 3627
-1657.49 767.926 3627
-1648.81 767.926 3627
-1640.14 767.926 3627
-1631.47 767.926 3627
-1629.5 771.102 3642
-1620.8 771.102 3642
-1615.63 772.796 3650
-1614.38 776.395 3667
-1609.12 778.089 3675
-1600.33 778.089 3675
-1591.54 778.089 3675
-1582.75 778.089 3675
-1573.97 778.089 3675
-1561.77 776.395 3667
-1545.8 772.796 3650
-1537.07 772.796 3650
-1528.35 772.796 3650
-1519.62 772.796 3650
-1510.89 772.796 3650
-1505.45 774.489 3658
-1500.39 776.395 3667
-1491.62 776.395 3667
-1486.09 778.089 3675
-1477.3 778.089 3675
-1474.9 781.476 3691
-1466.08 781.476 3691
-1467.12 786.769 3716
-1467.65 791.851 3740
-1458.71 791.851 3740
-1449.77 791.851 3740
-1440.82 791.851 3740
-619.175 365.225 1725
-615.05 365.225 1725
-610.925 365.225 1725
-606.8 365.225 1725
-601.627 364.59 1722
-596.815 364.167 1720
-592.702 364.167 1720
-586.878 363.108 1715
-580.738 361.838 1709
-576.651 361.838 1709
-572.565 361.838 1709
-568.145 361.626 1708
-562.74 360.779 1704
-558.01 360.356 1702
-553.94 360.356 1702
-549.546 360.144 1701
-544.837 359.72 1699
-540.138 359.297 1697
-536.08 359.297 1697
-531.395 358.874 1695
-527.031 358.662 1694
-521.745 357.815 1690
-517.704 357.815 1690
-513.358 357.603 1689
-508.716 357.18 1687
-503.486 356.333 1683
-499.461 356.333 1683
-496.025 356.756 1685
-491.996 356.756 1685
-487.966 356.756 1685
-483.937 356.756 1685
-479.908 356.756 1685
-475.878 356.756 1685
-471.849 356.756 1685
-467.82 356.756 1685
-463.79 356.756 1685
-459.215 356.333 1683
-455.732 356.756 1685
-451.702 356.756 1685
-448.204 357.18 1687
-444.17 357.18 1687
-440.136 357.18 1687
-436.619 357.603 1689
-432.836 357.815 1690
-428.795 357.815 1690
-425.759 358.662 1694
-421.708 358.662 1694
-417.904 358.874 1695
-413.85 358.874 1695
-410.281 359.297 1697
-406.223 359.297 1697
-402.165 359.297 1697
-398.107 359.297 1697
-394.977 360.144 1701
-390.91 360.144 1701
-387.524 360.779 1704
-383.45 360.779 1704
-379.82 361.203 1706
-376.401 361.838 1709
-372.75 362.261 1711
-368.659 362.261 1711
-364.993 362.685 1713
-361.529 363.32 1716
-357.842 363.743 1718
-353.734 363.743 1718
-350.44 364.59 1722
-346.925 365.225 1725
-342.8 365.225 1725
-338.675 365.225 1725
-335.326 366.072 1729
-332.149 367.131 1734
-328.381 367.554 1736
-324.23 367.554 1736
-320.447 367.978 1738
-316.291 367.978 1738
-312.135 367.978 1738
-307.979 367.978 1738
-304.347 368.613 1741
-300.184 368.613 1741
-296.021 368.613 1741
-291.858 368.613 1741
-287.694 368.613 1741
-283.531 368.613 1741
-279.689 369.036 1743
-275.521 369.036 1743
-271.353 369.036 1743
-267.185 369.036 1743
-263.017 369.036 1743
-259.146 369.46 1745
-254.973 369.46 1745
-250.8 369.46 1745
-246.91 369.883 1747
-243.01 370.307 1749
-238.828 370.307 1749
-234.645 370.307 1749
-230.726 370.73 1751
-226.669 370.942 1752
-222.479 370.942 1752
-218.788 371.789 1756
-214.589 371.789 1756
-210.629 372.212 1758
-206.425 372.212 1758
-202.451 372.636 1760
-198.581 373.271 1763
-195.247 374.965 1771
-191.012 374.965 1771
-186.988 375.388 1773
-182.954 375.812 1775
-179.213 376.87 1780
-174.956 376.87 1780
-171.083 377.717 1784
-167.191 378.564 1788
-163.28 379.411 1792
-158.995 379.411 1792
-154.71 379.411 1792
-150.76 380.258 1796
-146.466 380.258 1796
-142.171 380.258 1796
-138.183 381.105 1800
-133.879 381.105 1800
-129.718 381.528 1802
-125.409 381.528 1802
-121.234 381.952 1804
-117.374 383.434 1811
-113.044 383.434 1811
-108.713 383.434 1811
-104.382 383.434 1811
-100.052 383.434 1811
-95.721 383.434 1811
-91.3904 383.434 1811
-87.0597 383.434 1811
-146.675 806.46 3809
-137.567 806.46 3809
-128.458 806.46 3809
-119.35 806.46 3809
-109.749 802.86 3792
-100.681 802.86 3792
-90.768 795.45 3757
-81.0655 788.463 3724
-71.5208 781.476 3691
-62.6945 781.476 3691
-53.518 776.395 3667
-44.7491 776.395 3667
-35.7348 771.102 3642
-27.0257 771.102 3642
-18.2412 767.926 3627
-9.48348 761.151 3595
-0.885022 759.669 3588
7.67782 757.975 3580
16.2387 757.975 3580
24.7995 757.975 3580
33.2859 756.281 3572
41.7456 754.799 3565
50.2706 754.799 3565
58.6637 753.105 3557
67.0185 751.411 3549
75.5052 751.411 3549
83.9919 751.411 3549
92.4787 751.411 3549
100.965 751.411 3549
109.236 749.929 3542
117.706 749.929 3542
126.176 749.929 3542
134.646 749.929 3542
143.116 749.929 3542
151.586 749.929 3542
160.056 749.929 3542
168.526 749.929 3542
176.996 749.929 3542
184.681 746.753 3527
193.115 746.753 3527
201.549 746.753 3527
209.983 746.753 3527
218.851 748.235 3534
227.302 748.235 3534
235.753 748.235 3534
244.203 748.235 3534
252.654 748.235 3534
261.105 748.235 3534
269.556 748.235 3534
278.636 749.929 3542
287.674 751.411 3549
296.16 751.411 3549
304.647 751.411 3549
313.134 751.411 3549
321.621 751.411 3549
330.851 753.105 3557
339.357 753.105 3557
347.863 753.105 3557
356.369 753.105 3557
364.875 753.105 3557
371.806 749.929 3542
380.276 749.929 3542
386.332 745.271 3520
394.749 745.271 3520
401.448 742.095 3505
408.076 738.92 3490
415.586 737.438 3483
421.238 732.78 3461
429.514 732.78 3461
435.134 728.333 3440
441.556 725.369 3426
448.829 723.887 3419
457.005 723.887 3419
460.419 716.477 3384
464.773 710.76 3357
470.829 707.796 3343
478.823 707.796 3343
483.905 703.562 3323
489.927 700.809 3310
497.842 700.809 3310
505.757 700.809 3310
513.672 700.809 3310
521.588 700.809 3310
529.503 700.809 3310
537.418 700.809 3310
546.487 702.291 3317
554.419 702.291 3317
562.35 702.291 3317
571.314 703.562 3323
580.48 705.044 3330
588.444 705.044 3330
597.66 706.526 3337
605.64 706.526 3337
613.62 706.526 3337
620.296 705.044 3330
633.353 710.76 3357
641.38 710.76 3357
650.569 712.031 3363
658.611 712.031 3363
666.653 712.031 3363
674.694 712.031 3363
682.736 712.031 3363
690.778 712.031 3363
698.82 712.031 3363
706.862 712.031 3363
716.392 713.513 3370
724.451 713.513 3370
732.51 713.513 3370
740.568 713.513 3370
748.627 713.513 3370
756.686 713.513 3370
764.744 713.513 3370
772.803 713.513 3370
779.24 712.031 3363
787.282 712.031 3363
795.324 712.031 3363
803.366 712.031 3363
811.408 712.031 3363
819.45 712.031 3363
826.015 710.76 3357
834.043 710.76 3357
843.575 712.031 3363
855.163 714.995 3377
863.238 714.995 3377
876.732 719.441 3398
890.326 723.887 3419
902.181 726.851 3433
910.39 726.851 3433
922.346 729.815 3447
938.418 735.955 3476
950.543 738.92 3490
958.889 738.92 3490
973.331 743.578 3512
985.923 746.753 3527
998.586 749.929 3542
1009.05 751.411 3549
1017.53 751.411 3549
1034.98 757.975 3580
1052.58 764.538 3611
1065.92 767.926 3627
1074.59 767.926 3627
1087.74 771.102 3642
1098.86 772.796 3650
1115.17 778.089 3675
1123.96 778.089 3675
1132.75 778.089 3675
1144.02 779.782 3683
1155.33 781.476 3691
1164.16 781.476 3691
1172.99 781.476 3691
1181.81 781.476 3691
1190.64 781.476 3691
1199.47 781.476 3691
1205.67 779.782 3683
1211.84 778.089 3675
1220.63 778.089 3675
1229.42 778.089 3675
1240.9 779.782 3683
1249.71 779.782 3683
1258.52 779.782 3683
1264.57 778.089 3675
1273.36 778.089 3675
1282.15 778.089 3675
1290.94 778.089 3675
1296.89 776.395 3667
1302.46 774.489 3658
1308.34 772.796 3650
1314.18 771.102 3642
1322.89 771.102 3642
1331.6 771.102 3642
1337.73 769.62 3635
1343.46 767.926 3627
1355.12 769.62 3635
1363.81 769.62 3635
1375.14 771.102 3642
1383.85 771.102 3642
1392.56 771.102 3642
1401.27 771.102 3642
1407.27 769.62 3635
1412.85 767.926 3627
1421.52 767.926 3627
1427.04 766.232 3619
1432.52 764.538 3611
1437.96 762.844 3603
1446.58 762.844 3603
1455.19 762.844 3603
1454.46 757.975 3580
1463.02 757.975 3580
1468.3 756.281 3572
1476.84 756.281 3572
1482.47 754.799 3565
1487.65 753.105 3557
1496.15 753.105 3557
1504.66 753.105 3557
1509.76 751.411 3549
1515.26 749.929 3542
1526.74 751.411 3549
1535.22 751.411 3549
1543.71 751.411 3549
1572.32 761.151 3595
1587.95 764.538 3611
1600.12 766.232 3619
1615.89 769.62 3635
1627.71 771.102 3642
1658.43 781.476 3691
1693.46 793.756 3749
1702.42 793.756 3749
1742.89 808.365 3818
1755.69 810.059 3826
1777.29 815.776 3853
1790.68 817.681 3862
1799.91 817.681 3862
1834.45 829.114 3916
1848.05 831.02 3925
1862.17 833.137 3935
1871.58 833.137 3935
1880.98 833.137 3935
1890.39 833.137 3935
1899.8 833.137 3935
1900 829.114 3916
1891.81 821.492 3880
1879.04 811.965 3835
1888.21 811.965 3835
1876.1 802.86 3792
1851.37 788.463 3724
1851.78 784.864 3707
1860.64 784.864 3707
1853.37 778.089 3675
1833.78 766.232 3619
1834.29 762.844 3603
1823.47 754.799 3565
1831.99 754.799 3565
1840.52 754.799 3565
1852.68 756.281 3572
1861.22 756.281 3572
1869.76 756.281 3572
1878.3 756.281 3572
1891.07 757.975 3580
1903.87 759.669 3588
1924.71 764.538 3611
1933.35 764.538 3611
1954.89 769.62 3635
1976.01 774.489 3658
1998.32 779.782 3683
2033.83 790.157 3732
2042.75 790.157 3732
2074.77 799.049 3774
2117.47 811.965 3835
2156.59 823.398 3889
2175.91 827.209 3907
2200.92 833.137 3935
2226.05 839.065 3963
2240.61 840.971 3972
2250.11 840.971 3972
2259.61 840.971 3972
2269.1 840.971 3972
2278.6 840.971 3972
2288.1 840.971 3972
2303.38 843.088 3982
2318.13 844.994 3991
2333.51 847.111 4001
2343.08 847.111 4001
2357.94 849.016 4010
2373.43 851.134 4020
2383.04 851.134 4020
2392.66 851.134 4020
2408.24 853.251 4030
2417.88 853.251 4030
2432.94 855.156 4039
2442.6 855.156 4039
2452.26 855.156 4039
2461.91 855.156 4039
2471.57 855.156 4039
2481.23 855.156 4039
2490.89 855.156 4039
2500.55 855.156 4039
2498.4 851.134 4020
2508.01 851.134 4020
2517.62 851.134 4020
2539.18 855.156 4039
2555.15 857.274 4049
2564.83 857.274 4049
2574.52 857.274 4049
2584.2 857.274 4049
2593.88 857.274 4049
2603.56 857.274 4049
2600.98 853.251 4030
2604.14 851.134 4020
2601.4 847.111 4001
2610.97 847.111 4001
2613.99 844.994 3991
2611.04 840.971 3972
2614.6 839.065 3963
2617.46 836.948 3953
2626.91 836.948 3953
2599.68 825.303 3898
2572.86 813.87 3844
2552.5 804.554 3800
2561.58 804.554 3800
2547.67 797.356 3766
2545.13 793.756 3749
2525.49 784.864 3707
532.327 153.077 723
534.056 153.077 723
535.784 153.077 723
537.513 153.077 723
537.751 152.654 721
539.475 152.654 721
541.199 152.654 721
542.923 152.654 721
544.647 152.654 721
546.371 152.654 721
548.095 152.654 721
549.819 152.654 721
551.544 152.654 721
-2356.98 674.051 3148
-2349.46 674.051 3148
-2337.47 672.766 3142
-2325.5 671.481 3136
-2318 671.481 3136
-2310.5 671.481 3136
-2303.01 671.481 3136
-2282.33 667.627 3118
-2266.85 665.272 3107
-2276.14 670.197 3130
-2268.66 670.197 3130
-2274.18 674.051 3148
-2301.21 684.329 3196
-2320.12 692.251 3233
-2312.39 692.251 3233
-2313.93 695.035 3246
-2333.16 703.171 3284
-2386.2 721.585 3370
-2378.15 721.585 3370
-2379.93 724.583 3384
-2456.65 750.492 3505
-2448.27 750.492 3505
-2455.2 755.202 3527
-2446.77 755.202 3527
-2469.44 764.838 3572
-2460.9 764.838 3572
-2457.85 766.551 3580
-2454.76 768.264 3588
-2446.18 768.264 3588
-2437.6 768.264 3588
-2429.02 768.264 3588
-2415.05 766.551 3580
-2406.49 766.551 3580
-2387.88 763.339 3565
-2384.03 764.838 3572
-2380.8 766.551 3580
-2377.54 768.264 3588
-2368.96 768.264 3588
-2364.99 769.763 3595
-2356.39 769.763 3595
-2347.8 769.763 3595
-2339.2 769.763 3595
-2340.97 773.188 3611
-2337.51 774.901 3619
-2328.85 774.901 3619
-2320.2 774.901 3619
-2311.54 774.901 3619
-2302.89 774.901 3619
-2299.31 776.614 3627
-2290.63 776.614 3627
-2286.99 778.327 3635
-2278.3 778.327 3635
-2278.98 781.539 3650
-2270.25 781.539 3650
-2266.48 783.252 3658
-2257.73 783.252 3658
-2248.98 783.252 3658
-2240.23 783.252 3658
-2231.49 783.252 3658
-2213.02 779.826 3642
-2209.15 781.539 3650
-2215.49 786.892 3675
-2206.7 786.892 3675
-2197.92 786.892 3675
-2189.13 786.892 3675
-2185.09 788.605 3683
-2176.28 788.605 3683
-2167.47 788.605 3683
-2163.35 790.318 3691
-2159.2 792.031 3699
-2150.35 792.031 3699
-2151.35 795.671 3716
-2142.46 795.671 3716
-2133.58 795.671 3716
-2124.69 795.671 3716
-2110.68 793.744 3707
-2101.82 793.744 3707
-2102.55 797.384 3724
-2093.64 797.384 3724
-2084.74 797.384 3724
-2113.74 811.944 3792
-2109.11 813.657 3800
-2100.02 813.657 3800
-2090.94 813.657 3800
-2077.47 811.944 3792
-2068.4 811.944 3792
-2045.21 806.377 3766
-2031.34 804.45 3757
-2022.35 804.45 3757
-2013.37 804.45 3757
-2004.39 804.45 3757
-2004.92 811.944 3792
-1995.86 811.944 3792
-1986.79 811.944 3792
-1973.03 810.017 3783
-1950.48 804.45 3757
-1941.5 804.45 3757
-1928.4 802.737 3749
-1919.43 802.737 3749
-1901.81 799.097 3732
-1892.88 799.097 3732
-1879.92 797.384 3724
-1846.39 786.892 3675
-1833.61 785.179 3667
-1824.84 785.179 3667
-1800.22 778.327 3635
-1775.76 771.475 3603
-1759.78 768.264 3588
-1751.2 768.264 3588
-1742.62 768.264 3588
-1737.43 769.763 3595
-1728.83 769.763 3595
-1720.23 769.763 3595
-1704.5 766.551 3580
-1692.14 764.838 3572
-1680.3 763.339 3565
-1685.85 769.763 3595
-1684.71 773.188 3611
-1676.08 773.188 3611
-1674.83 776.614 3627
-1666.16 776.614 3627
-1657.49 776.614 3627
-1648.81 776.614 3627
-1640.14 776.614 3627
-1631.47 776.614 3627
-1629.5 779.826 3642
-1620.8 779.826 3642
-1615.63 781.539 3650
-1614.38 785.179 3667
-1609.12 786.892 3675
-1600.33 786.892 3675
-1591.54 786.892 3675
-1582.75 786.892 3675
-1573.97 786.892 3675
-1561.77 785.179 3667
-1545.8 781.539 3650
-1537.07 781.539 3650
-1528.35 781.539 3650
-1519.62 781.539 3650
-1510.89 781.539 3650
-1505.45 783.252 3658
-1500.39 785.179 3667
-1491.62 785.179 3667
-1486.09 786.892 3675
-1477.3 786.892 3675
-1474.9 790.318 3691
-1466.08 790.318 3691
-1467.12 795.671 3716
-1467.65 800.81 3740
-1458.71 800.81 3740
-1449.77 800.81 3740
-1440.82 800.81 3740
-626.334 368.715 1722
-622.216 368.715 1722
-619.175 369.358 1725
-615.05 369.358 1725
-610.925 369.358 1725
-606.8 369.358 1725
-601.627 368.715 1722
-596.815 368.287 1720
-592.702 368.287 1720
-586.878 367.216 1715
-581.418 366.36 1711
-576.651 365.932 1709
-572.565 365.932 1709
-568.145 365.717 1708
-563.401 365.289 1706
-558.665 364.861 1704
-554.59 364.861 1704
-549.546 364.219 1701
-544.837 363.79 1699
-540.138 363.362 1697
-536.08 363.362 1697
-532.022 363.362 1697
-527.031 362.72 1694
-522.98 362.72 1694
-518.929 362.72 1694
-513.662 361.863 1690
-509.319 361.649 1689
-504.682 361.221 1687
-500.648 361.221 1687
-496.614 361.221 1687
-492.58 361.221 1687
-488.546 361.221 1687
-485.086 361.649 1689
-481.047 361.649 1689
-477.008 361.649 1689
-472.409 361.221 1687
-468.375 361.221 1687
-464.891 361.649 1689
-460.852 361.649 1689
-456.814 361.649 1689
-452.775 361.649 1689
-449.001 361.863 1690
-444.96 361.863 1690
-440.919 361.863 1690
-437.395 362.292 1692
-433.861 362.72 1694
-429.81 362.72 1694
-426.01 362.934 1695
-422.455 363.362 1697
-418.89 363.79 1699
-414.827 363.79 1699
-411.248 364.219 1701
-407.18 364.219 1701
-403.113 364.219 1701
-399.045 364.219 1701
-395.674 364.861 1704
-391.599 364.861 1704
-388.434 365.717 1708
-384.35 365.717 1708
-380.488 365.932 1709
-377.282 366.788 1713
-373.622 367.216 1715
-369.521 367.216 1715
-366.059 367.859 1718
-362.372 368.287 1720
-358.675 368.715 1722
-354.558 368.715 1722
-351.05 369.358 1725
-347.73 370.214 1729
-343.595 370.214 1729
-339.461 370.214 1729
-336.296 371.285 1734
-332.915 372.141 1738
-329.138 372.569 1740
-324.977 372.569 1740
-321 372.783 1741
-316.837 372.783 1741
-312.674 372.783 1741
-308.511 372.783 1741
-304.697 373.212 1743
-300.874 373.64 1745
-296.701 373.64 1745
-292.528 373.64 1745
-288.355 373.64 1745
-284.182 373.64 1745
-280.331 374.068 1747
-276.153 374.068 1747
-271.975 374.068 1747
-267.798 374.068 1747
-263.318 373.64 1745
-259.146 373.64 1745
-254.973 373.64 1745
-251.375 374.496 1749
-247.192 374.496 1749
-243.01 374.496 1749
-238.828 374.496 1749
-234.914 374.925 1751
-230.726 374.925 1751
-226.669 375.139 1752
-222.479 375.139 1752
-218.788 375.995 1756
-214.833 376.424 1758
-210.629 376.424 1758
-206.425 376.424 1758
-202.451 376.852 1760
-198.806 377.922 1765
-195.247 379.207 1771
-191.012 379.207 1771
-186.988 379.635 1773
-182.954 380.064 1775
-179.213 381.134 1780
-174.956 381.134 1780
-171.083 381.991 1784
-167.191 382.847 1788
-163.28 383.704 1792
-158.995 383.704 1792
-154.882 384.132 1794
-150.76 384.56 1796
-146.792 385.417 1800
-142.487 385.417 1800
-138.183 385.417 1800
-134.027 385.845 1802
-129.862 386.273 1804
-125.548 386.273 1804
-121.302 386.487 1805
-117.633 388.628 1815
-113.293 388.628 1815
-108.953 388.628 1815
-104.613 388.628 1815
-100.273 388.628 1815
-95.9324 388.628 1815
-91.5922 388.628 1815
-87.252 388.628 1815
-146.02 811.944 3792
-136.953 811.944 3792
-127.885 811.944 3792
-118.817 811.944 3792
-109.489 810.017 3783
-100.442 810.017 3783
-90.164 799.097 3732
-80.5213 792.031 3699
-71.3658 788.605 3683
-62.5586 788.605 3683
-53.518 785.179 3667
-44.5416 781.539 3650
-35.7348 779.826 3642
-27.0257 779.826 3642
-18.2412 776.614 3627
-9.48348 769.763 3595
-0.885022 768.264 3588
7.67782 766.551 3580
16.2387 766.551 3580
24.7441 764.838 3572
33.2859 764.838 3572
41.652 761.626 3557
50.1578 761.626 3557
58.5317 759.913 3549
67.0185 759.913 3549
75.3563 758.414 3542
83.8263 758.414 3542
92.2963 758.414 3542
100.766 758.414 3542
109.236 758.414 3542
117.706 758.414 3542
125.891 756.701 3534
134.342 756.701 3534
142.793 756.701 3534
151.244 756.701 3534
159.695 756.701 3534
168.146 756.701 3534
176.247 755.202 3527
184.314 753.703 3520
192.732 753.703 3520
201.149 753.703 3520
209.566 753.703 3520
217.984 753.703 3520
226.851 755.202 3527
235.286 755.202 3527
243.72 755.202 3527
252.154 755.202 3527
261.105 756.701 3534
269.556 756.701 3534
278.007 756.701 3534
287.106 758.414 3542
295.576 758.414 3542
304.046 758.414 3542
313.134 759.913 3549
321.621 759.913 3549
330.851 761.626 3557
339.357 761.626 3557
347.863 761.626 3557
356.369 761.626 3557
364.875 761.626 3557
372.541 759.913 3549
380.276 758.414 3542
386.332 753.703 3520
394.749 753.703 3520
401.448 750.492 3505
407.257 745.781 3483
415.586 745.781 3483
421.238 741.07 3461
429.514 741.07 3461
435.134 736.574 3440
441.556 733.576 3426
448.829 732.077 3419
457.005 732.077 3419
460.419 724.583 3384
464.773 718.802 3357
469.984 714.519 3337
477.964 714.519 3337
483.031 710.237 3317
489.927 708.738 3310
496.789 707.239 3303
504.688 707.239 3303
512.586 707.239 3303
520.485 707.239 3303
529.503 708.738 3310
537.418 708.738 3310
546.487 710.237 3317
554.419 710.237 3317
562.35 710.237 3317
571.314 711.522 3323
580.48 713.021 3330
588.444 713.021 3330
597.66 714.519 3337
605.64 714.519 3337
613.62 714.519 3337
621.6 714.519 3337
633.353 718.802 3357
641.38 718.802 3357
649.408 718.802 3357
657.436 718.802 3357
666.653 720.087 3363
674.694 720.087 3363
682.736 720.087 3363
690.778 720.087 3363
697.574 718.802 3357
705.601 718.802 3357
714.904 720.087 3363
722.946 720.087 3363
730.988 720.087 3363
739.03 720.087 3363
747.072 720.087 3363
755.114 720.087 3363
763.156 720.087 3363
769.822 718.802 3357
777.85 718.802 3357
785.877 718.802 3357
793.905 718.802 3357
801.932 718.802 3357
809.96 718.802 3357
817.988 718.802 3357
822.57 715.804 3343
830.565 715.804 3343
842.07 718.802 3357
851.617 720.087 3363
859.659 720.087 3363
874.926 726.082 3391
888.503 730.578 3412
900.341 733.576 3426
908.534 733.576 3426
920.473 736.574 3440
936.258 742.569 3468
950.543 747.28 3490
958.889 747.28 3490
973.331 751.991 3512
985.923 755.202 3527
998.586 758.414 3542
1009.05 759.913 3549
1017.53 759.913 3549
1034.98 766.551 3580
1050.25 771.475 3603
1063.56 774.901 3619
1072.22 774.901 3619
1087.74 779.826 3642
1098.86 781.539 3650
1115.17 786.892 3675
1123.96 786.892 3675
1132.75 786.892 3675
1144.02 788.605 3683
1155.33 790.318 3691
1164.16 790.318 3691
1172.99 790.318 3691
1181.81 790.318 3691
1190.64 790.318 3691
1199.47 790.318 3691
1205.67 788.605 3683
1214.48 788.605 3683
1223.29 788.605 3683
1232.1 788.605 3683
1240.9 788.605 3683
1249.71 788.605 3683
1258.52 788.605 3683
1267.32 788.605 3683
1276.13 788.605 3683
1282.15 786.892 3675
1290.94 786.892 3675
1299.72 786.892 3675
1305.66 785.179 3667
1311.21 783.252 3658
1317.07 781.539 3650
1325.79 781.539 3650
1331.6 779.826 3642
1337.73 778.327 3635
1346.42 778.327 3635
1355.12 778.327 3635
1363.81 778.327 3635
1375.14 779.826 3642
1383.85 779.826 3642
1392.56 779.826 3642
1401.27 779.826 3642
1407.27 778.327 3635
1412.85 776.614 3627
1421.52 776.614 3627
1427.04 774.901 3619
1432.52 773.188 3611
1437.96 771.475 3603
1446.58 771.475 3603
1455.19 771.475 3603
1454.46 766.551 3580
1463.02 766.551 3580
1468.3 764.838 3572
1476.84 764.838 3572
1482.47 763.339 3565
1487.65 761.626 3557
1492.79 759.913 3549
1501.28 759.913 3549
1506.79 758.414 3542
1515.26 758.414 3542
1526.74 759.913 3549
1535.22 759.913 3549
1543.71 759.913 3549
1572.32 769.763 3595
1591.47 774.901 3619
1610.29 779.826 3642
1619 779.826 3642
1642.46 786.892 3675
1676.86 799.097 3732
1704.75 808.09 3774
1713.78 808.09 3774
1750.65 821.151 3835
1768.08 825.006 3853
1802.2 836.568 3907
1811.54 836.568 3907
1820.89 836.568 3907
1843.35 842.563 3935
1856.99 844.491 3944
1870.68 846.418 3953
1880.14 846.418 3953
1889.59 846.418 3953
1890.39 842.563 3935
1899.8 842.563 3935
1900 838.495 3916
1891.81 830.787 3880
1879.04 821.151 3835
1888.21 821.151 3835
1876.1 811.944 3792
1851.37 797.384 3724
1851.78 793.744 3707
1860.64 793.744 3707
1853.37 786.892 3675
1837.84 776.614 3627
1834.29 771.475 3603
1823.47 763.339 3565
1835.59 764.838 3572
1844.13 764.838 3572
1856.82 766.551 3580
1865.39 766.551 3580
1873.95 766.551 3580
1882.51 766.551 3580
1891.07 766.551 3580
1911.83 771.475 3603
1933.24 776.614 3627
1941.91 776.614 3627
1962.96 781.539 3650
1985.19 786.892 3675
2011.34 793.744 3707
2033.83 799.097 3732
2061.36 806.377 3766
2094.01 815.584 3809
2132.38 826.933 3862
2141.62 826.933 3862
2180.93 838.495 3916
2200.92 842.563 3935
2231.11 850.486 3972
2240.61 850.486 3972
2250.11 850.486 3972
2259.61 850.486 3972
2269.1 850.486 3972
2284.34 852.627 3982
2293.86 852.627 3982
2303.38 852.627 3982
2318.13 854.554 3991
2333.51 856.695 4001
2343.08 856.695 4001
2363.82 860.764 4020
2373.43 860.764 4020
2388.97 862.905 4030
2398.61 862.905 4030
2408.24 862.905 4030
2411.88 860.764 4020
2421.49 860.764 4020
2431.11 860.764 4020
2440.72 860.764 4020
2450.33 860.764 4020
2466.07 862.905 4030
2475.7 862.905 4030
2485.34 862.905 4030
2488.79 860.764 4020
2492.18 858.622 4010
2508.01 860.764 4020
2517.62 860.764 4020
2539.18 864.832 4039
2555.15 866.973 4049
2564.83 866.973 4049
2574.52 866.973 4049
2584.2 866.973 4049
2593.88 866.973 4049
2603.56 866.973 4049
2600.98 862.905 4030
2604.14 860.764 4020
2601.4 856.695 4001
2610.97 856.695 4001
2613.99 854.554 3991
2623.53 854.554 3991
2633.07 854.554 3991
2624.08 848.559 3963
2633.55 848.559 3963
2617.69 840.422 3925
2602.98 832.714 3889
2569.96 819.224 3826
2579.11 819.224 3826
2553.08 808.09 3774
2556.68 806.377 3766
2565.68 806.377 3766
533.317 154.595 722
535.043 154.595 722
536.77 154.595 722
537.751 154.381 721
539.475 154.381 721
541.199 154.381 721
542.923 154.381 721
544.647 154.381 721
546.371 154.381 721
548.095 154.381 721
549.819 154.381 721
550.779 154.167 720
-2356.98 681.592 3148
-2349.46 681.592 3148
-2337.47 680.293 3142
-2325.5 678.994 3136
-2318 678.994 3136
-2310.5 678.994 3136
-2303.01 678.994 3136
-2277.94 673.797 3112
-2266.85 672.715 3107
-2276.14 677.695 3130
-2268.66 677.695 3130
-2274.18 681.592 3148
-2301.21 691.985 3196
-2306.49 695.882 3214
-2298.8 695.882 3214
-2308.94 701.295 3239
-2328.9 709.739 3278
-2381.25 728.143 3363
-2373.21 728.143 3363
-2379.93 732.69 3384
-2451.04 757.156 3497
-2442.68 757.156 3497
-2455.2 763.651 3527
-2446.77 763.651 3527
-2469.44 773.395 3572
-2460.9 773.395 3572
-2457.85 775.127 3580
-2449.29 775.127 3580
-2446.18 776.859 3588
-2437.6 776.859 3588
-2429.02 776.859 3588
-2415.05 775.127 3580
-2406.49 775.127 3580
-2387.88 771.879 3565
-2384.03 773.395 3572
-2375.48 773.395 3572
-2377.54 776.859 3588
-2368.96 776.859 3588
-2364.99 778.374 3595
-2356.39 778.374 3595
-2347.8 778.374 3595
-2339.2 778.374 3595
-2340.97 781.839 3611
-2332.34 781.839 3611
-2328.85 783.571 3619
-2320.2 783.571 3619
-2311.54 783.571 3619
-2302.89 783.571 3619
-2299.31 785.303 3627
-2290.63 785.303 3627
-2286.99 787.035 3635
-2278.3 787.035 3635
-2278.98 790.283 3650
-2270.25 790.283 3650
-2266.48 792.015 3658
-2257.73 792.015 3658
-2248.98 792.015 3658
-2240.23 792.015 3658
-2231.49 792.015 3658
-2213.02 788.551 3642
-2209.15 790.283 3650
-2215.49 795.696 3675
-2206.7 795.696 3675
-2197.92 795.696 3675
-2189.13 795.696 3675
-2180.34 795.696 3675
-2171.55 795.696 3675
-2162.76 795.696 3675
-2158.67 797.428 3683
-2149.86 797.428 3683
-2141.05 797.428 3683
-2141.51 800.892 3699
-2132.66 800.892 3699
-2123.82 800.892 3699
-2114.97 800.892 3699
-2101.57 799.16 3691
-2092.74 799.16 3691
-2088.43 800.892 3699
-2079.59 800.892 3699
-2080.26 804.573 3716
-2075.83 806.305 3724
-2099.67 819.079 3783
-2090.63 819.079 3783
-2081.58 819.079 3783
-2063.22 815.399 3766
-2054.22 815.399 3766
-2031.09 809.769 3740
-2022.15 809.769 3740
-2022.35 813.45 3757
-2013.37 813.45 3757
-2004.39 813.45 3757
-2004.92 821.028 3792
-1995.86 821.028 3792
-1986.79 821.028 3792
-1968.33 817.131 3774
-1950.48 813.45 3757
-1941.5 813.45 3757
-1928.4 811.718 3749
-1919.43 811.718 3749
-1901.81 808.037 3732
-1892.88 808.037 3732
-1879.92 806.305 3724
-1846.39 795.696 3675
-1833.61 793.964 3667
-1824.84 793.964 3667
-1800.22 787.035 3635
-1775.76 780.107 3603
-1759.78 776.859 3588
-1751.2 776.859 3588
-1742.62 776.859 3588
-1737.43 778.374 3595
-1728.83 778.374 3595
-1720.23 778.374 3595
-1704.5 775.127 3580
-1692.14 773.395 3572
-1680.3 771.879 3565
-1685.85 778.374 3595
-1684.71 781.839 3611
-1676.08 781.839 3611
-1667.44 781.839 3611
-1658.81 781.839 3611
-1650.17 781.839 3611
-1641.54 781.839 3611
-1636.52 783.571 3619
-1627.87 783.571 3619
-1619.21 783.571 3619
-1610.56 783.571 3619
-1608.99 787.035 3635
-1606.9 790.283 3650
-1601.67 792.015 3658
-1592.93 792.015 3658
-1584.18 792.015 3658
-1575.43 792.015 3658
-1566.68 792.015 3658
-1551.12 788.551 3642
-1539.45 787.035 3635
-1530.76 787.035 3635
-1522.06 787.035 3635
-1513.37 787.035 3635
-1504.68 787.035 3635
-1492.69 785.303 3627
-1493.43 790.283 3650
-1484.7 790.283 3650
-1482.85 793.964 3667
-1474.08 793.964 3667
-1465.31 793.964 3667
-1456.54 793.964 3667
-1447.77 793.964 3667
-1458.23 804.573 3716
-1449.35 804.573 3716
-1440.46 804.573 3716
-1431.58 804.573 3716
-626.334 372.84 1722
-622.216 372.84 1722
-619.175 373.49 1725
-615.05 373.49 1725
-610.925 373.49 1725
-606.8 373.49 1725
-601.627 372.84 1722
-596.121 371.974 1718
-592.013 371.974 1718
-586.878 371.325 1715
-581.418 370.459 1711
-576.651 370.026 1709
-572.565 370.026 1709
-568.145 369.809 1708
-563.401 369.376 1706
-558.665 368.943 1704
-554.59 368.943 1704
-549.546 368.293 1701
-544.837 367.86 1699
-540.138 367.427 1697
-536.08 367.427 1697
-532.022 367.427 1697
-527.031 366.778 1694
-522.98 366.778 1694
-518.929 366.778 1694
-513.662 365.912 1690
-509.319 365.695 1689
-504.682 365.262 1687
-500.648 365.262 1687
-496.614 365.262 1687
-492.58 365.262 1687
-488.546 365.262 1687
-485.086 365.695 1689
-481.047 365.695 1689
-477.008 365.695 1689
-472.409 365.262 1687
-468.375 365.262 1687
-464.891 365.695 1689
-460.852 365.695 1689
-456.814 365.695 1689
-453.579 366.345 1692
-449.533 366.345 1692
-445.487 366.345 1692
-441.962 366.778 1694
-437.912 366.778 1694
-434.117 366.994 1695
-430.064 366.994 1695
-426.01 366.994 1695
-422.953 367.86 1699
-419.383 368.293 1701
-415.315 368.293 1701
-411.49 368.51 1702
-407.42 368.51 1702
-403.824 368.943 1704
-399.749 368.943 1704
-395.674 368.943 1704
-392.518 369.809 1708
-388.662 370.026 1709
-384.575 370.026 1709
-381.379 370.892 1713
-377.723 371.325 1715
-374.275 371.974 1718
-370.167 371.974 1718
-366.485 372.407 1720
-363.004 373.057 1723
-359.717 373.923 1727
-355.587 373.923 1727
-352.271 374.789 1731
-348.735 375.438 1734
-344.589 375.438 1734
-340.442 375.438 1734
-337.072 376.305 1738
-334.256 377.82 1745
-330.084 377.82 1745
-325.911 377.82 1745
-322.107 378.253 1747
-317.929 378.253 1747
-313.751 378.253 1747
-309.574 378.253 1747
-306.095 379.119 1751
-301.908 379.119 1751
-297.721 379.119 1751
-293.534 379.119 1751
-289.347 379.119 1751
-284.834 378.686 1749
-280.651 378.686 1749
-276.469 378.686 1749
-272.287 378.686 1749
-268.104 378.686 1749
-263.62 378.253 1747
-259.443 378.253 1747
-255.265 378.253 1747
-251.375 378.686 1749
-247.192 378.686 1749
-243.288 379.119 1751
-239.101 379.119 1751
-234.914 379.119 1751
-230.858 379.336 1752
-226.669 379.336 1752
-222.479 379.336 1752
-219.037 380.635 1758
-214.833 380.635 1758
-210.629 380.635 1758
-206.425 380.635 1758
-202.451 381.068 1760
-198.806 382.15 1765
-195.467 383.883 1773
-191.227 383.883 1773
-187.199 384.316 1775
-183.16 384.749 1777
-179.414 385.831 1782
-175.153 385.831 1782
-171.275 386.697 1786
-167.378 387.563 1790
-163.28 387.996 1792
-158.995 387.996 1792
-155.055 388.862 1796
-150.928 389.295 1798
-146.792 389.728 1800
-142.487 389.728 1800
-138.337 390.161 1802
-134.176 390.595 1804
-129.934 390.811 1805
-125.618 390.811 1805
-121.57 391.677 1809
-117.763 393.409 1817
-113.543 393.842 1819
-109.193 393.842 1819
-104.843 393.842 1819
-100.494 393.842 1819
-96.2496 394.275 1821
-92.0968 395.141 1825
-87.7327 395.141 1825
-83.3686 395.141 1825
-146.02 821.028 3792
-136.953 821.028 3792
-127.885 821.028 3792
-118.817 821.028 3792
-109.489 819.079 3783
-100.442 819.079 3783
-90.164 808.037 3732
-80.5213 800.892 3699
-71.3658 797.428 3683
-62.5586 797.428 3683
-53.518 793.964 3667
-44.5416 790.283 3650
-35.7348 788.551 3642
-27.0257 788.551 3642
-18.2412 785.303 3627
-9.48348 778.374 3595
-0.885022 776.859 3588
7.67782 775.127 3580
16.2387 775.127 3580
24.7441 773.395 3572
33.2859 773.395 3572
41.652 770.147 3557
50.1578 770.147 3557
58.5317 768.415 3549
67.0185 768.415 3549
75.3563 766.899 3542
83.8263 766.899 3542
92.2963 766.899 3542
100.766 766.899 3542
109.236 766.899 3542
117.706 766.899 3542
125.891 765.167 3534
134.342 765.167 3534
142.793 765.167 3534
151.244 765.167 3534
159.695 765.167 3534
168.146 765.167 3534
176.247 763.651 3527
184.314 762.136 3520
192.732 762.136 3520
201.149 762.136 3520
209.566 762.136 3520
217.984 762.136 3520
226.851 763.651 3527
235.286 763.651 3527
243.72 763.651 3527
252.154 763.651 3527
261.105 765.167 3534
269.556 765.167 3534
278.007 765.167 3534
287.106 766.899 3542
295.576 766.899 3542
304.046 766.899 3542
313.134 768.415 3549
321.621 768.415 3549
330.851 770.147 3557
339.357 770.147 3557
347.863 770.147 3557
356.369 770.147 3557
364.875 770.147 3557
372.541 768.415 3549
380.276 766.899 3542
386.332 762.136 3520
394.749 762.136 3520
401.448 758.888 3505
407.257 754.125 3483
415.586 754.125 3483
421.238 749.361 3461
429.514 749.361 3461
435.134 744.814 3440
441.556 741.783 3426
448.829 740.268 3419
457.005 740.268 3419
460.419 732.69 3384
464.773 726.844 3357
469.984 722.513 3337
477.964 722.513 3337
483.031 718.183 3317
489.927 716.667 3310
496.789 715.152 3303
504.688 715.152 3303
512.586 715.152 3303
520.485 715.152 3303
529.503 716.667 3310
537.418 716.667 3310
546.487 718.183 3317
554.419 718.183 3317
562.35 718.183 3317
571.314 719.482 3323
580.48 720.998 3330
588.444 720.998 3330
597.66 722.513 3337
605.64 722.513 3337
613.62 722.513 3337
621.6 722.513 3337
633.353 726.844 3357
641.38 726.844 3357
649.408 726.844 3357
657.436 726.844 3357
666.653 728.143 3363
674.694 728.143 3363
682.736 728.143 3363
690.778 728.143 3363
697.574 726.844 3357
705.601 726.844 3357
714.904 728.143 3363
722.946 728.143 3363
730.988 728.143 3363
739.03 728.143 3363
747.072 728.143 3363
755.114 728.143 3363
763.156 728.143 3363
769.822 726.844 3357
777.85 726.844 3357
785.877 726.844 3357
790.594 723.812 3343
798.588 723.812 3343
806.582 723.812 3343
814.576 723.812 3343
822.57 723.812 3343
830.565 723.812 3343
838.559 723.812 3343
850.098 726.844 3357
858.126 726.844 3357
873.12 732.69 3384
886.68 737.236 3405
900.341 741.783 3426
908.534 741.783 3426
920.473 744.814 3440
936.258 750.877 3468
948.636 754.125 3483
956.965 754.125 3483
973.331 760.404 3512
985.923 763.651 3527
998.586 766.899 3542
1007.06 766.899 3542
1017.53 768.415 3549
1034.98 775.127 3580
1050.25 780.107 3603
1063.56 783.571 3619
1072.22 783.571 3619
1087.74 788.551 3642
1098.86 790.283 3650
1115.17 795.696 3675
1123.96 795.696 3675
1132.75 795.696 3675
1144.02 797.428 3683
1155.33 799.16 3691
1164.16 799.16 3691
1172.99 799.16 3691
1181.81 799.16 3691
1190.64 799.16 3691
1199.47 799.16 3691
1208.29 799.16 3691
1214.48 797.428 3683
1223.29 797.428 3683
1232.1 797.428 3683
1243.6 799.16 3691
1252.42 799.16 3691
1261.25 799.16 3691
1267.32 797.428 3683
1276.13 797.428 3683
1284.94 797.428 3683
1293.75 797.428 3683
1299.72 795.696 3675
1305.66 793.964 3667
1314.43 793.964 3667
1317.07 790.283 3650
1325.79 790.283 3650
1334.52 790.283 3650
1337.73 787.035 3635
1346.42 787.035 3635
1357.73 788.551 3642
1366.43 788.551 3642
1375.14 788.551 3642
1383.85 788.551 3642
1392.56 788.551 3642
1401.27 788.551 3642
1407.27 787.035 3635
1409.73 783.571 3619
1418.38 783.571 3619
1423.88 781.839 3611
1429.34 780.107 3603
1437.96 780.107 3603
1440.55 776.859 3588
1449.13 776.859 3588
1454.46 775.127 3580
1459.76 773.395 3572
1465.42 771.879 3565
1473.94 771.879 3565
1475.82 768.415 3549
1484.3 768.415 3549
1489.85 766.899 3542
1498.32 766.899 3542
1500.4 763.651 3527
1508.84 763.651 3527
1523.73 766.899 3542
1535.22 768.415 3549
1543.71 768.415 3549
1572.32 778.374 3595
1591.47 783.571 3619
1610.29 788.551 3642
1619 788.551 3642
1642.46 795.696 3675
1676.86 808.037 3732
1724.63 826.657 3818
1733.76 826.657 3818
1758.86 834.235 3853
1788.73 843.979 3898
1806.35 847.876 3916
1815.72 847.876 3916
1833.94 851.99 3935
1847.56 853.938 3944
1856.99 853.938 3944
1875.42 858.052 3963
1884.89 858.052 3963
1894.37 858.052 3963
