1229.16 1267.87 2780
1221.58 1253.27 2748
1236.65 1261.94 2767
1243.26 1261.94 2767
1260.27 1272.43 2790
1266.94 1272.43 2790
1273.61 1272.43 2790
1280.29 1272.43 2790
1237.52 1217.24 2669
1243.91 1217.24 2669
1250.29 1217.24 2669
1256.67 1217.24 2669
1316.44 1207.66 2648
1322.77 1207.66 2648
1329.1 1207.66 2648
1354.6 1225 2686
1381.29 1243.24 2726
1387.81 1243.24 2726
1394.33 1243.24 2726
1400.85 1243.24 2726
1407.37 1243.24 2726
1413.88 1243.24 2726
1370.9 1199.91 2631
1360.44 1185.32 2599
1364.03 1183.04 2594
1370.23 1183.04 2594
1370.07 1177.56 2582
1371.98 1173.92 2574
1378.13 1173.92 2574
1395.04 1183.04 2594
1401.25 1183.04 2594
1407.45 1183.04 2594
1413.65 1183.04 2594
1415.48 1179.39 2586
1421.66 1179.39 2586
1427.85 1179.39 2586
1434.03 1179.39 2586
1431.86 1172.55 2571
1438.01 1172.55 2571
1437.41 1167.07 2559
1441.28 1165.25 2555
1451.92 1168.9 2563
1460.32 1170.72 2567
1466.46 1170.72 2567
1481.21 1177.56 2582
1491.99 1181.21 2590
1512.64 1192.61 2615
1521.22 1194.44 2619
1527.48 1194.44 2619
1543.12 1201.74 2635
1549.42 1201.74 2635
1555.72 1201.74 2635
1562.02 1201.74 2635
1546.89 1185.32 2599
1557.89 1188.97 2607
1568.92 1192.61 2615
1575.18 1192.61 2615
1586.27 1196.26 2623
1599.83 1201.74 2635
1606.13 1201.74 2635
1612.43 1201.74 2635
1621.8 1204.02 2640
1628.11 1204.02 2640
1634.43 1204.02 2640
1640.74 1204.02 2640
1647.05 1204.02 2640
1647.73 1199.91 2631
1654.02 1199.91 2631
1655.26 1196.26 2623
1659 1194.44 2619
1660.18 1190.79 2611
1663.87 1188.97 2607
1670.1 1188.97 2607
1671.19 1185.32 2599
1674.18 1183.04 2594
1677.79 1181.21 2590
1683.99 1181.21 2590
1684.96 1177.56 2582
1691.13 1177.56 2582
1697.31 1177.56 2582
1706.12 1179.39 2586
1717.6 1183.04 2594
1723.81 1183.04 2594
1744.01 1192.61 2615
1750.27 1192.61 2615
1756.52 1192.61 2615
1754.68 1187.14 2603
1760.91 1187.14 2603
1758.31 1181.21 2590
1764.5 1181.21 2590
1767.96 1179.39 2586
1783.06 1185.32 2599
1828.52 1211.31 2656
1834.87 1211.31 2656
1841.22 1211.31 2656
1847.57 1211.31 2656
1884.34 1163.43 2551
1890.44 1163.43 2551
1899.51 1165.25 2555
1905.62 1165.25 2555
1911.73 1165.25 2555
1911.84 1161.6 2547
1917.93 1161.6 2547
1924.02 1161.6 2547
-1740.53 1178.71 2571
-1734.38 1178.71 2571
-1749.74 1193.38 2603
-1743.52 1193.38 2603
-1742.63 1197.04 2611
-1736.39 1197.04 2611
-1735.45 1200.71 2619
-1734.47 1204.38 2627
-1736.74 1210.34 2640
-1730.42 1210.34 2640
-1731.95 1215.84 2652
-1725.61 1215.84 2652
-1738.71 1229.6 2682
-1732.3 1229.6 2682
-1725.89 1229.6 2682
-1719.47 1229.6 2682
-1713.06 1229.6 2682
-1698.37 1223.64 2669
-1691.99 1223.64 2669
-1677.4 1217.68 2656
-1674.19 1219.97 2661
-1667.83 1219.97 2661
-1661.47 1219.97 2661
-1668.17 1229.6 2682
-1661.75 1229.6 2682
-1655.34 1229.6 2682
-1612.65 1202.55 2623
-1606.38 1202.55 2623
-1610.48 1210.34 2640
-1604.16 1210.34 2640
-1597.85 1210.34 2640
-1432.93 1204.38 2627
-1426.65 1204.38 2627
-1420.37 1204.38 2627
-1414.09 1204.38 2627
-1426.03 1219.97 2661
-1435.67 1233.72 2691
-1436.14 1239.68 2704
-1429.67 1239.68 2704
-1453.73 1266.27 2762
-1447.13 1266.27 2762
-1440.52 1266.27 2762
-1421.98 1255.73 2739
-1343.08 1191.54 2599
-1330.18 1185.58 2586
-1323.99 1185.58 2586
-1311.7 1180.08 2574
-1291.85 1167.7 2547
-1279.7 1162.2 2535
-1268.11 1157.16 2524
-1262.07 1157.16 2524
-1256.04 1157.16 2524
-1246.04 1153.49 2516
-1200.89 1162.2 2535
-1211.8 1178.71 2571
-1205.65 1178.71 2571
-1199.5 1178.71 2571
-1189.64 1175.04 2563
-1183.51 1175.04 2563
-1177.38 1175.04 2563
-1174.91 1178.71 2571
-1175.58 1185.58 2586
-1178.89 1195.21 2607
-1172.66 1195.21 2607
-1175.37 1204.38 2627
-1169.09 1204.38 2627
-1166.35 1208.05 2635
-1160.05 1208.05 2635
-1165.13 1219.97 2661
-1166.17 1227.76 2678
-1171.03 1239.68 2704
-1164.56 1239.68 2704
-1159.81 1241.52 2708
-1161 1249.77 2726
-1167.61 1263.98 2757
-1161.02 1263.98 2757
-1156.52 1266.27 2762
-1149.91 1266.27 2762
-1149.1 1272.69 2776
-1142.46 1272.69 2776
-1135.83 1272.69 2776
-1129.19 1272.69 2776
-1122.55 1272.69 2776
-1106.67 1262.15 2753
-1096.49 1258.02 2744
-1084.36 1251.6 2730
-1077.84 1251.6 2730
-1071.31 1251.6 2730
-1063.22 1249.77 2726
-1053.21 1245.64 2717
-1046.71 1245.64 2717
-1023.37 1225.47 2673
-1012.41 1219.97 2661
-1001.14 1214.01 2648
-1004.2 1225.47 2673
-997.804 1225.47 2673
-1002.91 1239.68 2704
-999.76 1243.81 2713
-993.273 1243.81 2713
-986.785 1243.81 2713
-973.794 1235.56 2695
-958.017 1223.64 2669
-951.634 1223.64 2669
-943.835 1221.8 2665
-936.055 1219.97 2661
-929.692 1219.97 2661
-923.329 1219.97 2661
-916.965 1219.97 2661
-910.602 1219.97 2661
-898.462 1212.17 2644
-892.14 1212.17 2644
-887.157 1214.01 2648
-880.825 1214.01 2648
-874.493 1214.01 2648
-868.161 1214.01 2648
-861.828 1214.01 2648
-854.204 1212.17 2644
-843.712 1206.21 2631
-836.148 1204.38 2627
-829.866 1204.38 2627
-817.314 1195.21 2607
-811.08 1195.21 2607
-804.845 1195.21 2607
-798.611 1195.21 2607
-785.994 1185.58 2586
-538.714 845.863 1845
-534.302 845.863 1845
-529.89 845.863 1845
-524.908 844.946 1843
-519.936 844.029 1841
-515.534 844.029 1841
-511.131 844.029 1841
-506.729 844.029 1841
-502.326 844.029 1841
-498.465 844.946 1843
-494.058 844.946 1843
-489.651 844.946 1843
-485.243 844.946 1843
-479.271 842.195 1837
-474.878 842.195 1837
-469.461 840.361 1833
-464.063 838.527 1829
-457.678 834.86 1821
-453.324 834.86 1821
-447.983 833.026 1817
-443.15 832.109 1815
-436.875 828.441 1807
-432.554 828.441 1807
-426.1 824.315 1798
-418.986 818.814 1786
-413.321 816.063 1780
-409.065 816.063 1780
-400.715 807.81 1762
-395.151 805.06 1756
-388.503 800.017 1745
-381.908 794.973 1734
-377.761 794.973 1734
-371.675 790.847 1725
-367.124 789.93 1723
-362.793 789.472 1722
-358.884 789.93 1723
-354.764 789.93 1723
-350.643 789.93 1723
-346.925 790.847 1725
-342.8 790.847 1725
-338.675 790.847 1725
-334.55 790.847 1725
-330.425 790.847 1725
-326.679 791.764 1727
-322.549 791.764 1727
-318.419 791.764 1727
-314.653 792.681 1729
-310.519 792.681 1729
-306.384 792.681 1729
-302.25 792.681 1729
-298.46 793.598 1731
-294.491 794.057 1732
-290.349 794.057 1732
-286.538 794.973 1734
-282.391 794.973 1734
-278.886 796.807 1738
-275.046 797.724 1740
-270.886 797.724 1740
-266.725 797.724 1740
-262.715 798.183 1741
-258.848 799.1 1743
-254.68 799.1 1743
-251.087 800.933 1747
-247.475 802.767 1751
-243.427 803.226 1752
-239.237 803.226 1752
-235.316 804.143 1754
-231.649 805.977 1758
-228.609 810.103 1767
-224.384 810.103 1767
-220.906 812.854 1773
-217.399 815.604 1779
-213.505 816.98 1782
-209.243 816.98 1782
-205.672 819.73 1788
-201.847 821.564 1792
-198.223 824.315 1798
-193.924 824.315 1798
-190.046 826.149 1802
-185.737 826.149 1802
-181.73 827.524 1805
-177.414 827.524 1805
-173.289 828.441 1807
-169.529 831.192 1813
-165.74 833.943 1819
-161.391 833.943 1819
-157.386 835.777 1823
-153.027 835.777 1823
-148.667 835.777 1823
-177.257 1167.7 2547
-171.166 1167.7 2547
-165.594 1171.37 2555
-159.984 1175.04 2563
-154.515 1180.08 2574
-148.36 1180.08 2574
-142.647 1183.75 2582
-137.107 1189.25 2594
-130.904 1189.25 2594
-124.701 1189.25 2594
-118.315 1187.42 2590
-111.948 1185.58 2586
-105.764 1185.58 2586
-99.1183 1180.08 2574
-92.9631 1180.08 2574
-86.8079 1180.08 2574
-80.6527 1180.08 2574
-74.4975 1180.08 2574
-68.3423 1180.08 2574
-62.2837 1181.92 2578
-56.3801 1187.42 2590
-50.2642 1189.25 2594
-44.0611 1189.25 2594
-37.9894 1193.38 2603
-31.7649 1193.38 2603
-25.5403 1193.38 2603
-19.3157 1193.38 2603
-13.0912 1193.38 2603
-6.85607 1191.54 2599
-0.641073 1191.54 2599
5.57392 1191.54 2599
11.6755 1180.08 2574
17.81 1178.71 2571
24.0605 1183.75 2582
30.2348 1183.75 2582
36.4656 1185.58 2586
42.6495 1185.58 2586
48.8334 1185.58 2586
55.0173 1185.58 2586
60.7516 1176.87 2567
66.89 1176.87 2567
73.0285 1176.87 2567
79.167 1176.87 2567
85.3055 1176.87 2567
91.6933 1180.08 2574
98.1526 1183.75 2582
104.327 1183.75 2582
111.229 1191.54 2599
117.805 1195.21 2607
124.991 1204.38 2627
131.273 1204.38 2627
137.555 1204.38 2627
143.837 1204.38 2627
150.347 1206.21 2631
157.413 1212.17 2644
163.736 1212.17 2644
170.573 1215.84 2652
177.515 1219.97 2661
185.053 1227.76 2678
191.457 1227.76 2678
198.156 1229.6 2682
204.57 1229.6 2682
210.983 1229.6 2682
217.397 1229.6 2682
223.059 1225.47 2673
228.421 1219.97 2661
234.784 1219.97 2661
239.969 1214.01 2648
245.557 1210.34 2640
251.012 1206.21 2631
257.303 1206.21 2631
263.194 1204.38 2627
269.476 1204.38 2627
275.338 1202.55 2623
281.61 1202.55 2623
287.444 1200.71 2619
294.155 1202.55 2623
300.886 1204.38 2627
308.103 1208.05 2635
314.404 1208.05 2635
320.705 1208.05 2635
327.627 1210.34 2640
334.952 1214.01 2648
341.284 1214.01 2648
347.616 1214.01 2648
352.879 1210.34 2640
358.512 1208.05 2635
364.813 1208.05 2635
371.114 1208.05 2635
381.139 1219.97 2661
388.667 1223.64 2669
395.642 1225.47 2673
402.034 1225.47 2673
408.426 1225.47 2673
414.197 1223.64 2669
421.997 1227.76 2678
428.401 1227.76 2678
436.916 1233.72 2691
444.01 1235.56 2695
451.959 1239.68 2704
458.425 1239.68 2704
464.891 1239.68 2704
471.357 1239.68 2704
477.823 1239.68 2704
484.289 1239.68 2704
489.122 1235.56 2695
491.521 1225.47 2673
502.011 1235.56 2695
510.154 1239.68 2704
519.103 1245.64 2717
525.601 1245.64 2717
532.098 1245.64 2717
531.657 1229.6 2682
537.268 1227.76 2678
539.205 1217.68 2656
543.914 1214.01 2648
550.246 1214.01 2648
554.896 1210.34 2640
556.745 1200.71 2619
563.008 1200.71 2619
569.271 1200.71 2619
572.897 1195.21 2607
579.131 1195.21 2607
587.161 1198.88 2615
594.322 1200.71 2619
600.585 1200.71 2619
610.555 1208.05 2635
616.856 1208.05 2635
625.286 1212.17 2644
631.608 1212.17 2644
637.931 1212.17 2644
644.254 1212.17 2644
650.576 1212.17 2644
656.899 1212.17 2644
662.218 1210.34 2640
666.252 1206.21 2631
677.912 1215.84 2652
687.607 1221.8 2665
693.98 1221.8 2665
700.353 1221.8 2665
706.726 1221.8 2665
713.099 1221.8 2665
714.882 1214.01 2648
721.214 1214.01 2648
726.447 1212.17 2644
732.77 1212.17 2644
736.577 1208.05 2635
739.495 1202.55 2623
743.493 1198.88 2615
749.746 1198.88 2615
754.843 1197.04 2611
761.086 1197.04 2611
767.33 1197.04 2611
773.574 1197.04 2611
783.401 1202.55 2623
789.674 1202.55 2623
798.374 1206.21 2631
804.665 1206.21 2631
810.957 1206.21 2631
817.248 1206.21 2631
823.54 1206.21 2631
828.57 1204.38 2627
836.123 1206.21 2631
842.414 1206.21 2631
869.351 1235.56 2695
875.796 1235.56 2695
882.24 1235.56 2695
875.824 1217.68 2656
883.836 1219.97 2661
895.887 1227.76 2678
915.431 1245.64 2717
921.928 1245.64 2717
935.943 1255.73 2739
947.31 1262.15 2753
953.893 1262.15 2753
960.477 1262.15 2753
958.98 1251.6 2730
954.545 1237.39 2699
960.999 1237.39 2699
961.36 1229.6 2682
967.773 1229.6 2682
982.178 1239.68 2704
988.644 1239.68 2704
1006.52 1253.89 2735
1013.06 1253.89 2735
1019.6 1253.89 2735
1019.39 1245.64 2717
1025.88 1245.64 2717
1032.38 1245.64 2717
1038.88 1245.64 2717
1035.37 1233.72 2691
1041.81 1233.72 2691
1041.23 1225.47 2673
1040.96 1217.68 2656
1042.58 1212.17 2644
1048.9 1212.17 2644
1055.22 1212.17 2644
1054.72 1204.38 2627
1067.87 1212.17 2644
1074.19 1212.17 2644
1082.15 1214.01 2648
1088.48 1214.01 2648
1096.47 1215.84 2652
1109.88 1223.64 2669
1121.7 1229.6 2682
1128.11 1229.6 2682
1151.02 1247.48 2721
1167.31 1258.02 2744
1173.87 1258.02 2744
1180.44 1258.02 2744
1192.62 1263.98 2757
1209.22 1274.52 2780
1215.87 1274.52 2780
1222.51 1274.52 2780
1229.16 1274.52 2780
1221.58 1259.85 2748
1236.65 1268.56 2767
1243.26 1268.56 2767
1260.27 1279.11 2790
1266.94 1279.11 2790
1273.61 1279.11 2790
1280.29 1279.11 2790
1208.08 1200.71 2619
1237.52 1223.64 2669
1243.91 1223.64 2669
1250.29 1223.64 2669
1256.67 1223.64 2669
1316.44 1214.01 2648
1322.77 1214.01 2648
1329.1 1214.01 2648
1354.6 1231.43 2686
1381.29 1249.77 2726
1387.81 1249.77 2726
1394.33 1249.77 2726
1400.85 1249.77 2726
1407.37 1249.77 2726
1413.88 1249.77 2726
1370.9 1206.21 2631
1360.44 1191.54 2599
1364.03 1189.25 2594
1370.23 1189.25 2594
1372.19 1185.58 2586
1371.98 1180.08 2574
1378.13 1180.08 2574
1395.04 1189.25 2594
1401.25 1189.25 2594
1407.45 1189.25 2594
1413.65 1189.25 2594
1415.48 1185.58 2586
1421.66 1185.58 2586
1427.85 1185.58 2586
1434.03 1185.58 2586
1431.86 1178.71 2571
1438.01 1178.71 2571
1430.67 1167.7 2547
1436.76 1167.7 2547
1447.39 1171.37 2555
1453.5 1171.37 2555
1464.18 1175.04 2563
1470.31 1175.04 2563
1485.08 1181.92 2578
1495.87 1185.58 2586
1518.9 1198.88 2615
1525.15 1198.88 2615
1533.75 1200.71 2619
1540.01 1200.71 2619
1546.27 1200.71 2619
1537.71 1189.25 2594
1543.92 1189.25 2594
1547.73 1187.42 2590
1564.12 1195.21 2607
1570.36 1195.21 2607
1576.59 1195.21 2607
1592.54 1202.55 2623
1598.81 1202.55 2623
1605.08 1202.55 2623
1608.9 1200.71 2619
1628.11 1210.34 2640
1634.43 1210.34 2640
1640.74 1210.34 2640
1641.44 1206.21 2631
1647.73 1206.21 2631
1654.02 1206.21 2631
1657.79 1204.38 2627
1661.54 1202.55 2623
1662.72 1198.88 2615
1658.76 1191.54 2599
1664.98 1191.54 2599
1667.98 1189.25 2594
1671.6 1187.42 2590
1677.79 1187.42 2590
1683.99 1187.42 2590
1684.96 1183.75 2582
1691.13 1183.75 2582
1697.31 1183.75 2582
1706.12 1185.58 2586
1726.21 1195.21 2607
1732.44 1195.21 2607
1744.01 1198.88 2615
1750.27 1198.88 2615
1756.52 1198.88 2615
1762.77 1198.88 2615
1763.61 1195.21 2607
1758.31 1187.42 2590
1764.5 1187.42 2590
1767.96 1185.58 2586
1761.11 1176.87 2567
1828.52 1217.68 2656
1834.87 1217.68 2656
1841.22 1217.68 2656
1847.57 1217.68 2656
1878.24 1169.54 2551
1884.34 1169.54 2551
1890.44 1169.54 2551
1896.54 1169.54 2551
1902.64 1169.54 2551
1911.73 1171.37 2555
1917.84 1171.37 2555
1923.95 1171.37 2555
1930.06 1171.37 2555
-1740.53 1184.87 2571
-1734.38 1184.87 2571
-1749.74 1199.61 2603
-1743.52 1199.61 2603
-1742.63 1203.3 2611
-1736.39 1203.3 2611
-1735.45 1206.99 2619
-1734.47 1210.67 2627
-1736.74 1216.66 2640
-1730.42 1216.66 2640
-1731.95 1222.19 2652
-1725.61 1222.19 2652
-1738.71 1236.02 2682
-1732.3 1236.02 2682
-1725.89 1236.02 2682
-1719.47 1236.02 2682
-1713.06 1236.02 2682
-1698.37 1230.03 2669
-1691.99 1230.03 2669
-1677.4 1224.04 2656
-1674.19 1226.34 2661
-1667.83 1226.34 2661
-1661.47 1226.34 2661
-1668.17 1236.02 2682
-1661.75 1236.02 2682
-1655.34 1236.02 2682
-1612.65 1208.83 2623
-1606.38 1208.83 2623
-1610.48 1216.66 2640
-1604.16 1216.66 2640
-1597.85 1216.66 2640
-1432.93 1210.67 2627
-1426.65 1210.67 2627
-1420.37 1210.67 2627
-1414.09 1210.67 2627
-1409.95 1212.52 2631
-1419.66 1226.34 2661
-1429.23 1240.17 2691
-1422.8 1240.17 2691
-1441.63 1262.29 2739
-1435.08 1262.29 2739
-1428.53 1262.29 2739
-1421.98 1262.29 2739
-1343.08 1197.77 2599
-1330.18 1191.78 2586
-1323.99 1191.78 2586
-1311.7 1186.25 2574
-1291.85 1173.8 2547
-1279.7 1168.27 2535
-1273.64 1168.27 2535
-1267.57 1168.27 2535
-1256.04 1163.2 2524
-1246.04 1159.52 2516
-1200.89 1168.27 2535
-1211.8 1184.87 2571
-1205.65 1184.87 2571
-1199.5 1184.87 2571
-1193.35 1184.87 2571
-1187.21 1184.87 2571
-1177.38 1181.18 2563
-1174.91 1184.87 2571
-1175.58 1191.78 2586
-1178.89 1201.46 2607
-1172.66 1201.46 2607
-1175.37 1210.67 2627
-1169.09 1210.67 2627
-1166.35 1214.36 2635
-1160.05 1214.36 2635
-1165.13 1226.34 2661
-1166.17 1234.18 2678
-1171.03 1246.16 2704
-1164.56 1246.16 2704
-1159.81 1248 2708
-1161 1256.3 2726
-1167.61 1270.58 2757
-1161.02 1270.58 2757
-1156.52 1272.89 2762
-1149.91 1272.89 2762
-1149.1 1279.34 2776
-1142.46 1279.34 2776
-1135.83 1279.34 2776
-1129.19 1279.34 2776
-1122.55 1279.34 2776
-1106.67 1268.74 2753
-1096.49 1264.59 2744
-1084.36 1258.14 2730
-1077.84 1258.14 2730
-1071.31 1258.14 2730
-1063.22 1256.3 2726
-1053.21 1252.15 2717
-1046.71 1252.15 2717
-1023.37 1231.87 2673
-1012.41 1226.34 2661
-1001.14 1220.35 2648
-1004.2 1231.87 2673
-997.804 1231.87 2673
-1002.91 1246.16 2704
-999.76 1250.31 2713
-993.273 1250.31 2713
-986.785 1250.31 2713
-973.794 1242.01 2695
-958.017 1230.03 2669
-951.634 1230.03 2669
-943.835 1228.19 2665
-936.055 1226.34 2661
-929.692 1226.34 2661
-923.329 1226.34 2661
-916.965 1226.34 2661
-910.602 1226.34 2661
-898.462 1218.51 2644
-892.14 1218.51 2644
-887.157 1220.35 2648
-880.825 1220.35 2648
-874.493 1220.35 2648
-868.161 1220.35 2648
-861.828 1220.35 2648
-854.204 1218.51 2644
-843.712 1212.52 2631
-836.148 1210.67 2627
-829.866 1210.67 2627
-817.314 1201.46 2607
-811.08 1201.46 2607
-804.845 1201.46 2607
-798.611 1201.46 2607
-785.994 1191.78 2586
-781.017 1193.62 2590
-774.823 1193.62 2590
-768.63 1193.62 2590
-538.714 850.282 1845
-534.302 850.282 1845
-529.89 850.282 1845
-524.908 849.361 1843
-519.936 848.439 1841
-515.534 848.439 1841
-511.131 848.439 1841
-506.729 848.439 1841
-502.872 849.361 1843
-498.465 849.361 1843
-494.058 849.361 1843
-489.651 849.361 1843
-485.243 849.361 1843
-479.793 847.517 1839
-475.395 847.517 1839
-469.973 845.674 1835
-464.063 842.909 1829
-458.684 841.065 1825
-454.319 841.065 1825
-448.476 838.3 1819
-443.638 837.378 1817
-436.875 832.77 1807
-432.554 832.77 1807
-426.574 829.544 1800
-419.924 824.935 1790
-413.786 821.248 1782
-409.525 821.248 1782
-401.852 814.336 1767
-395.601 810.188 1758
-388.503 804.197 1745
-381.908 799.127 1734
-377.761 799.127 1734
-372.106 795.901 1727
-367.124 794.058 1723
-363.004 794.058 1723
-358.884 794.058 1723
-354.764 794.058 1723
-350.643 794.058 1723
-346.925 794.98 1725
-342.8 794.98 1725
-338.675 794.98 1725
-334.55 794.98 1725
-330.425 794.98 1725
-326.679 795.901 1727
-322.549 795.901 1727
-318.419 795.901 1727
-314.653 796.823 1729
-310.519 796.823 1729
-306.384 796.823 1729
-302.25 796.823 1729
-298.46 797.745 1731
-294.491 798.206 1732
-290.349 798.206 1732
-286.538 799.127 1734
-282.391 799.127 1734
-278.886 800.971 1738
-275.046 801.892 1740
-270.886 801.892 1740
-266.878 802.353 1741
-262.715 802.353 1741
-259.146 804.197 1745
-254.973 804.197 1745
-251.375 806.04 1749
-247.475 806.962 1751
-243.705 808.344 1754
-239.51 808.344 1754
-235.584 809.266 1756
-232.176 812.031 1762
-229.127 816.179 1771
-224.892 816.179 1771
-221.155 818.022 1775
-217.522 820.327 1780
-213.744 822.17 1784
-209.478 822.17 1784
-205.672 824.014 1788
-201.847 825.857 1792
-198.223 828.622 1798
-193.924 828.622 1798
-190.046 830.466 1802
-185.737 830.466 1802
-181.73 831.848 1805
-177.414 831.848 1805
-173.289 832.77 1807
-169.529 835.535 1813
-165.74 838.3 1819
-161.391 838.3 1819
-157.386 840.144 1823
-153.027 840.144 1823
-148.667 840.144 1823
-182.268 1166.89 2532
-176.422 1168.27 2535
-170.36 1168.27 2535
-164.817 1171.96 2543
-159.235 1175.65 2551
-153.615 1179.33 2559
-147.495 1179.33 2559
-142.039 1184.87 2571
-136.05 1186.25 2574
-129.894 1186.25 2574
-123.739 1186.25 2574
-117.447 1184.87 2571
-111.126 1183.02 2567
-104.987 1183.02 2567
-98.6947 1181.18 2563
-92.7103 1183.02 2567
-86.5718 1183.02 2567
-80.4334 1183.02 2567
-74.2949 1183.02 2567
-68.1564 1183.02 2567
-62.1146 1184.87 2571
-55.9665 1184.87 2571
-50.0316 1189.93 2582
-43.8573 1189.93 2582
-37.6829 1189.93 2582
-31.5086 1189.93 2582
-25.3343 1189.93 2582
-19.1599 1189.93 2582
-12.9453 1186.25 2574
-6.78221 1184.87 2571
-0.634167 1184.87 2571
5.51387 1184.87 2571
11.6438 1183.02 2567
17.6437 1173.8 2547
23.7343 1173.8 2547
29.825 1173.8 2547
35.9156 1173.8 2547
42.0063 1173.8 2547
48.0969 1173.8 2547
54.1025 1171.96 2543
60.2782 1173.8 2547
66.4731 1175.65 2551
72.6871 1177.49 2555
78.7969 1177.49 2555
85.1725 1181.18 2563
91.3015 1181.18 2563
98.0006 1188.09 2578
104.165 1188.09 2578
110.501 1189.93 2582
117.444 1197.77 2599
124.039 1201.46 2607
130.673 1205.14 2615
136.927 1205.14 2615
143.399 1206.99 2619
149.662 1206.99 2619
156.401 1210.67 2627
162.683 1210.67 2627
170.058 1218.51 2644
176.648 1220.35 2648
184.431 1230.03 2669
190.813 1230.03 2669
197.196 1230.03 2669
203.578 1230.03 2669
209.96 1230.03 2669
216.343 1230.03 2669
221.307 1222.19 2652
227.305 1220.35 2648
233.637 1220.35 2648
239.244 1216.66 2640
243.976 1208.83 2623
249.867 1206.99 2619
256.13 1206.99 2619
262.393 1206.99 2619
268.655 1206.99 2619
274.498 1205.14 2615
280.752 1205.14 2615
286.566 1203.3 2611
292.361 1201.46 2607
299.053 1203.3 2611
305.297 1203.3 2611
311.541 1203.3 2611
317.784 1203.3 2611
324.028 1203.3 2611
330.272 1203.3 2611
336.515 1203.3 2611
342.759 1203.3 2611
349.003 1203.3 2611
355.246 1203.3 2611
361.49 1203.3 2611
367.734 1203.3 2611
375.696 1208.83 2623
383.716 1214.36 2635
391.349 1218.51 2644
397.672 1218.51 2644
403.995 1218.51 2644
410.317 1218.51 2644
417.9 1222.19 2652
424.242 1222.19 2652
434.805 1234.18 2678
442.527 1237.86 2686
450.455 1242.01 2695
456.899 1242.01 2695
463.344 1242.01 2695
471.357 1246.16 2704
477.823 1246.16 2704
484.289 1246.16 2704
486.037 1234.18 2678
491.521 1231.87 2673
497.913 1231.87 2673
510.154 1246.16 2704
516.62 1246.16 2704
523.086 1246.16 2704
521.914 1228.19 2665
528.287 1228.19 2665
532.052 1222.19 2652
536.769 1218.51 2644
538.778 1208.83 2623
545.051 1208.83 2623
550.482 1206.99 2619
552.494 1197.77 2599
558.709 1197.77 2599
564.924 1197.77 2599
570.04 1195.46 2594
576.243 1195.46 2594
583.569 1197.77 2599
592.507 1203.3 2611
598.75 1203.3 2611
605.921 1205.14 2615
612.174 1205.14 2615
618.427 1205.14 2615
626.592 1208.83 2623
632.864 1208.83 2623
639.137 1208.83 2623
645.409 1208.83 2623
651.681 1208.83 2623
657.954 1208.83 2623
666.252 1212.52 2631
674.844 1216.66 2640
685.285 1224.04 2656
691.637 1224.04 2656
697.988 1224.04 2656
704.339 1224.04 2656
710.691 1224.04 2656
714.882 1220.35 2648
720.125 1218.51 2644
720.678 1208.83 2623
726.95 1208.83 2623
732.104 1206.99 2619
737.239 1205.14 2615
741.218 1201.46 2607
747.452 1201.46 2607
753.686 1201.46 2607
759.92 1201.46 2607
766.155 1201.46 2607
772.389 1201.46 2607
782.207 1206.99 2619
788.47 1206.99 2619
795.946 1208.83 2623
802.219 1208.83 2623
808.491 1208.83 2623
814.763 1208.83 2623
821.036 1208.83 2623
826.047 1206.99 2619
832.309 1206.99 2619
837.292 1205.14 2615
848.706 1212.52 2631
854.998 1212.52 2631
862.599 1214.36 2635
868.9 1214.36 2635
878.19 1218.51 2644
890.2 1226.34 2661
896.563 1226.34 2661
902.926 1226.34 2661
920.908 1242.01 2695
927.352 1242.01 2695
933.797 1242.01 2695
940.241 1242.01 2695
946.686 1242.01 2695
942.52 1228.19 2665
954.946 1236.02 2682
961.36 1236.02 2682
967.773 1236.02 2682
974.187 1236.02 2682
980.6 1236.02 2682
987.014 1236.02 2682
983.797 1224.04 2656
988.657 1222.19 2652
994.998 1222.19 2652
1001.34 1222.19 2652
1004.64 1218.51 2644
1010.96 1218.51 2644
1009.21 1208.83 2623
1015.48 1208.83 2623
1020.19 1206.99 2619
1026.46 1206.99 2619
1027.99 1201.46 2607
1032.64 1199.61 2603
1040.46 1201.46 2607
1046.69 1201.46 2607
1052.92 1201.46 2607
1060.78 1203.3 2611
1070.3 1206.99 2619
1076.56 1206.99 2619
1086.13 1210.67 2627
1099.48 1218.51 2644
1116.26 1230.03 2669
1122.64 1230.03 2669
1134.52 1236.02 2682
1146.47 1242.01 2695
1164.03 1253.99 2721
1170.54 1253.99 2721
1187 1264.59 2744
1193.56 1264.59 2744
1200.12 1264.59 2744
1206.68 1264.59 2744
1207.05 1258.14 2730
1206.03 1250.31 2713
1226.37 1264.59 2744
1232.93 1264.59 2744
1241.3 1266.44 2748
1247.87 1266.44 2748
1254.44 1266.44 2748
1230.73 1236.02 2682
1208.08 1206.99 2619
1214.34 1206.99 2619
1220.6 1206.99 2619
1226.87 1206.99 2619
1233.13 1206.99 2619
1314.45 1218.51 2644
1320.77 1218.51 2644
1327.09 1218.51 2644
1333.42 1218.51 2644
1341.77 1220.35 2648
1387.81 1256.3 2726
1394.33 1256.3 2726
1400.85 1256.3 2726
1362.97 1216.66 2640
1369.28 1216.66 2640
1362.57 1205.14 2615
1360.44 1197.77 2599
1364.03 1195.46 2594
1370.23 1195.46 2594
1372.19 1191.78 2586
1371.98 1186.25 2574
1374.39 1183.02 2567
1395.04 1195.46 2594
1401.25 1195.46 2594
1407.45 1195.46 2594
1413.65 1195.46 2594
1415.48 1191.78 2586
1421.66 1191.78 2586
1421.22 1186.25 2574
1423.49 1183.02 2567
1425.18 1179.33 2559
1431.3 1179.33 2559
1430.67 1173.8 2547
1436.76 1173.8 2547
1447.39 1177.49 2555
1453.5 1177.49 2555
1464.18 1181.18 2563
1470.31 1181.18 2563
1485.08 1188.09 2578
1495.87 1191.78 2586
1518.9 1205.14 2615
1525.15 1205.14 2615
1533.75 1206.99 2619
1540.01 1206.99 2619
1546.27 1206.99 2619
1537.71 1195.46 2594
1543.92 1195.46 2594
1547.73 1193.62 2590
1564.12 1201.46 2607
1570.36 1201.46 2607
1576.59 1201.46 2607
1592.54 1208.83 2623
1598.81 1208.83 2623
1605.08 1208.83 2623
1608.9 1206.99 2619
1628.11 1216.66 2640
1634.43 1216.66 2640
1640.74 1216.66 2640
1641.44 1212.52 2631
1647.73 1212.52 2631
1654.02 1212.52 2631
1657.79 1210.67 2627
1661.54 1208.83 2623
1662.72 1205.14 2615
1658.76 1197.77 2599
1664.98 1197.77 2599
1667.98 1195.46 2594
1671.6 1193.62 2590
1677.79 1193.62 2590
1683.99 1193.62 2590
1684.96 1189.93 2582
1691.13 1189.93 2582
1697.31 1189.93 2582
1706.12 1191.78 2586
1726.21 1201.46 2607
1732.44 1201.46 2607
1744.01 1205.14 2615
1750.27 1205.14 2615
1756.52 1205.14 2615
1762.77 1205.14 2615
1763.61 1201.46 2607
1758.31 1193.62 2590
1764.5 1193.62 2590
1767.96 1191.78 2586
1761.11 1183.02 2567
1828.52 1224.04 2656
1834.87 1224.04 2656
1841.22 1224.04 2656
1847.57 1224.04 2656
1802.65 1150.76 2497
1808.62 1150.76 2497
1820.41 1154.45 2505
1831.5 1157.67 2512
1840.43 1159.52 2516
1846.45 1159.52 2516
1878.24 1175.65 2551
1884.34 1175.65 2551
1890.44 1175.65 2551
1896.54 1175.65 2551
1902.64 1175.65 2551
1911.73 1177.49 2555
1917.84 1177.49 2555
1923.95 1177.49 2555
1930.06 1177.49 2555
-1740.53 1191.02 2571
-1734.38 1191.02 2571
-1743.69 1201.68 2594
-1737.49 1201.68 2594
-1737.29 1205.85 2603
-1731.07 1205.85 2603
-1732.8 1211.41 2615
-1734.47 1216.97 2627
-1736.74 1222.99 2640
-1730.42 1222.99 2640
-1731.95 1228.55 2652
-1725.61 1228.55 2652
-1725.1 1232.72 2661
-1718.74 1232.72 2661
-1717.52 1236.42 2669
-1711.14 1236.42 2669
-1704.76 1236.42 2669
-1698.37 1236.42 2669
-1691.99 1236.42 2669
-1677.4 1230.4 2656
-1674.19 1232.72 2661
-1667.83 1232.72 2661
-1661.47 1232.72 2661
-1668.17 1242.45 2682
-1661.75 1242.45 2682
-1655.34 1242.45 2682
-1623.1 1222.99 2640
-1616.79 1222.99 2640
-1610.48 1222.99 2640
-1604.16 1222.99 2640
-1597.85 1222.99 2640
-1551.75 1192.41 2574
-1545.59 1192.41 2574
-1539.44 1192.41 2574
-1426.39 1211.41 2615
-1426.65 1216.97 2627
-1420.37 1216.97 2627
-1414.09 1216.97 2627
-1407.81 1216.97 2627
-1399.39 1215.11 2623
-1413.3 1232.72 2661
-1406.94 1232.72 2661
-1423.21 1252.64 2704
-1416.74 1252.64 2704
-1410.27 1252.64 2704
-1387.71 1238.28 2673
-1338.43 1199.83 2590
-1324.01 1192.41 2574
-1317.85 1192.41 2574
-1306.09 1187.32 2563
-1291.85 1179.91 2547
-1279.7 1174.35 2535
-1273.64 1174.35 2535
-1267.57 1174.35 2535
-1256.04 1169.25 2524
-1211.8 1191.02 2571
-1205.65 1191.02 2571
-1199.5 1191.02 2571
-1193.35 1191.02 2571
-1187.21 1191.02 2571
-1177.38 1187.32 2563
-1174.91 1191.02 2571
-1175.58 1197.97 2586
-1178.89 1207.7 2607
-1172.66 1207.7 2607
-1175.37 1216.97 2627
-1169.09 1216.97 2627
-1162.81 1216.97 2627
-1156.53 1216.97 2627
-1146.74 1213.26 2619
-1160.51 1234.57 2665
-1161.5 1242.45 2682
-1155.09 1242.45 2682
-1159.81 1254.49 2708
-1157.17 1258.66 2717
-1154.48 1262.83 2726
-1147.96 1262.83 2726
-1154.42 1277.19 2757
-1147.83 1277.19 2757
-1143.31 1279.51 2762
-1136.7 1279.51 2762
-1130.1 1279.51 2762
-1123.49 1279.51 2762
-1116.89 1279.51 2762
-1103.05 1271.17 2744
-1089.29 1262.83 2726
-1080.79 1260.51 2721
-1074.28 1260.51 2721
-1067.78 1260.51 2721
-1054.64 1252.64 2704
-1036.16 1238.28 2673
-1029.76 1238.28 2673
-1020.31 1234.57 2665
-1007.47 1226.69 2648
-999.624 1224.84 2644
-996.307 1228.55 2652
-989.965 1228.55 2652
-989.928 1236.42 2669
-983.546 1236.42 2669
-977.164 1236.42 2669
-970.781 1236.42 2669
-958.256 1228.55 2652
-949.043 1224.84 2644
-942.72 1224.84 2644
-936.398 1224.84 2644
-930.075 1224.84 2644
-923.753 1224.84 2644
-917.43 1224.84 2644
-911.107 1224.84 2644
-903.416 1222.99 2640
-892.685 1216.97 2627
-887.753 1218.82 2631
-885.817 1224.84 2644
-879.494 1224.84 2644
-873.172 1224.84 2644
-861.276 1216.97 2627
-854.994 1216.97 2627
-848.712 1216.97 2627
-838.582 1211.41 2615
-828.509 1205.85 2603
-822.284 1205.85 2603
-814.806 1204 2599
-804.546 1197.97 2586
-798.362 1197.97 2586
-792.178 1197.97 2586
-785.994 1197.97 2586
-781.017 1199.83 2590
-774.823 1199.83 2590
-768.63 1199.83 2590
-536.962 851.923 1839
-532.564 851.923 1839
-528.166 851.923 1839
-523.769 851.923 1839
-518.806 850.996 1837
-515.534 852.849 1841
-511.131 852.849 1841
-506.729 852.849 1841
-502.872 853.776 1843
-498.465 853.776 1843
-494.058 853.776 1843
-489.651 853.776 1843
-485.243 853.776 1843
-480.836 853.776 1843
-476.429 853.776 1843
-470.997 851.923 1839
-465.078 849.143 1833
-459.186 846.364 1827
-454.817 846.364 1827
-449.955 845.437 1825
-445.103 844.511 1823
-438.809 840.805 1815
-434.469 840.805 1815
-428.233 837.099 1807
-421.331 832.003 1796
-415.643 829.223 1790
-411.363 829.223 1790
-403.671 822.274 1775
-397.627 818.568 1767
-390.507 812.546 1754
-383.229 806.061 1740
-379.068 806.061 1740
-372.968 801.891 1731
-367.976 800.038 1727
-363.004 798.185 1723
-358.884 798.185 1723
-354.764 798.185 1723
-350.643 798.185 1723
-346.925 799.112 1725
-342.8 799.112 1725
-338.675 799.112 1725
-334.55 799.112 1725
-330.425 799.112 1725
-326.679 800.038 1727
-322.549 800.038 1727
-318.419 800.038 1727
-314.653 800.965 1729
-310.519 800.965 1729
-306.384 800.965 1729
-302.25 800.965 1729
-298.46 801.891 1731
-294.491 802.355 1732
-290.349 802.355 1732
-286.538 803.281 1734
-282.391 803.281 1734
-278.886 805.134 1738
-275.046 806.061 1740
-270.886 806.061 1740
-266.878 806.524 1741
-263.017 807.45 1743
-259.146 808.377 1745
-254.973 808.377 1745
-251.375 810.23 1749
-247.616 811.62 1752
-243.705 812.546 1754
-239.51 812.546 1754
-235.584 813.473 1756
-232.176 816.252 1762
-229.385 821.348 1773
-225.146 821.348 1773
-221.404 823.201 1777
-217.766 825.517 1782
-213.984 827.37 1786
-209.713 827.37 1786
-205.902 829.223 1790
-202.298 832.003 1796
-198.444 833.856 1800
-194.14 833.856 1800
-190.257 835.709 1804
-186.046 836.172 1805
-181.73 836.172 1805
-177.414 836.172 1805
-173.481 838.025 1809
-169.903 841.731 1817
-165.923 843.584 1821
-161.568 843.584 1821
-157.386 844.511 1823
-153.027 844.511 1823
-148.667 844.511 1823
-188.323 1172.96 2532
-182.268 1172.96 2532
-176.422 1174.35 2535
-170.36 1174.35 2535
-164.817 1178.05 2543
-159.235 1181.76 2551
-153.615 1185.46 2559
-147.495 1185.46 2559
-142.039 1191.02 2571
-136.05 1192.41 2574
-129.894 1192.41 2574
-123.739 1192.41 2574
-117.447 1191.02 2571
-111.126 1189.17 2567
-104.987 1189.17 2567
-98.6947 1187.32 2563
-92.7103 1189.17 2567
-86.5718 1189.17 2567
-80.4334 1189.17 2567
-74.2949 1189.17 2567
-68.1564 1189.17 2567
-62.1146 1191.02 2571
-55.9665 1191.02 2571
-50.0316 1196.12 2582
-43.8573 1196.12 2582
-37.6829 1196.12 2582
-31.5086 1196.12 2582
-25.3343 1196.12 2582
-19.1599 1196.12 2582
-12.9453 1192.41 2574
-6.78221 1191.02 2571
-0.634167 1191.02 2571
5.51387 1191.02 2571
11.6438 1189.17 2567
17.6437 1179.91 2547
23.7343 1179.91 2547
29.825 1179.91 2547
35.9156 1179.91 2547
41.8744 1176.2 2539
48.0214 1178.05 2543
54.1025 1178.05 2543
60.1836 1178.05 2543
66.2647 1178.05 2543
72.4595 1179.91 2547
78.5502 1179.91 2547
84.9067 1183.61 2555
91.3015 1187.32 2563
97.5824 1189.17 2567
103.721 1189.17 2567
110.501 1196.12 2582
117.037 1199.83 2590
123.659 1204 2599
129.874 1204 2599
136.089 1204 2599
142.304 1204 2599
149.205 1209.55 2611
155.686 1211.41 2615
161.94 1211.41 2615
169.222 1218.82 2631
176.114 1222.99 2640
182.98 1226.69 2648
189.312 1226.69 2648
195.94 1228.55 2652
202.281 1228.55 2652
208.623 1228.55 2652
214.965 1228.55 2652
219.888 1220.67 2635
225.159 1215.11 2623
231.431 1215.11 2623
237.341 1213.26 2619
242.488 1207.7 2607
249.104 1209.55 2611
255.347 1209.55 2611
261.591 1209.55 2611
267.835 1209.55 2611
273.659 1207.7 2607
279.893 1207.7 2607
285.249 1204 2599
291.464 1204 2599
297.106 1201.68 2594
303.309 1201.68 2594
309.512 1201.68 2594
315.715 1201.68 2594
320.925 1197.97 2586
326.097 1194.27 2578
332.262 1194.27 2578
338.427 1194.27 2578
343.656 1191.02 2571
348.716 1187.32 2563
355.398 1189.17 2567
361.537 1189.17 2567
369.251 1194.27 2578
375.416 1194.27 2578
381.58 1194.27 2578
387.745 1194.27 2578
393.91 1194.27 2578
401.316 1197.97 2586
409.549 1204 2599
415.764 1204 2599
422.628 1205.85 2603
433.466 1218.82 2631
441.262 1222.99 2640
447.575 1222.99 2640
455.263 1226.69 2648
462.293 1228.55 2652
468.634 1228.55 2652
474.976 1228.55 2652
481.318 1228.55 2652
487.66 1228.55 2652
494.001 1228.55 2652
504.305 1238.28 2673
510.697 1238.28 2673
517.089 1238.28 2673
514.472 1216.97 2627
520.754 1216.97 2627
526.234 1215.11 2623
531.694 1213.26 2619
536.314 1209.55 2611
542.557 1209.55 2611
545.228 1201.68 2594
551.431 1201.68 2594
557.634 1201.68 2594
563.837 1201.68 2594
567.403 1196.12 2582
573.577 1196.12 2582
577.955 1192.41 2574
588.649 1201.68 2594
594.852 1201.68 2594
603.14 1205.85 2603
609.365 1205.85 2603
615.59 1205.85 2603
621.814 1205.85 2603
628.039 1205.85 2603
639.137 1215.11 2623
645.409 1215.11 2623
651.681 1215.11 2623
657.954 1215.11 2623
663.213 1213.26 2619
672.544 1218.82 2631
681.157 1222.99 2640
687.47 1222.99 2640
694.834 1224.84 2644
701.157 1224.84 2644
707.48 1224.84 2644
710.293 1218.82 2631
714.405 1215.11 2623
719.579 1213.26 2619
725.841 1213.26 2619
730.986 1211.41 2615
733.856 1205.85 2603
738.944 1204 2599
746.305 1205.85 2603
752.53 1205.85 2603
758.755 1205.85 2603
763.804 1204 2599
771.204 1205.85 2603
779.818 1209.55 2611
786.061 1209.55 2611
794.732 1213.26 2619
800.995 1213.26 2619
807.258 1213.26 2619
812.278 1211.41 2615
818.532 1211.41 2615
823.523 1209.55 2611
829.767 1209.55 2611
836.011 1209.55 2611
842.254 1209.55 2611
849.798 1211.41 2615
858.67 1215.11 2623
864.943 1215.11 2623
872.544 1216.97 2627
878.826 1216.97 2627
892.183 1226.69 2648
898.515 1226.69 2648
907.581 1230.4 2656
913.932 1230.4 2656
920.284 1230.4 2656
926.635 1230.4 2656
931.581 1228.55 2652
929.081 1216.97 2627
928.242 1207.7 2607
934.476 1207.7 2607
940.71 1207.7 2607
951.303 1213.26 2619
957.566 1213.26 2619
963.829 1213.26 2619
970.092 1213.26 2619
974.863 1211.41 2615
984.118 1215.11 2623
990.39 1215.11 2623
996.663 1215.11 2623
1001.41 1213.26 2619
1001.51 1205.85 2603
1007.74 1205.85 2603
1013.96 1205.85 2603
1018.62 1204 2599
1024.83 1204 2599
1031.05 1204 2599
1037.26 1204 2599
1043.48 1204 2599
1051.31 1205.85 2603
1059.16 1207.7 2607
1065.39 1207.7 2607
1071.63 1207.7 2607
1082.82 1213.26 2619
1092.41 1216.97 2627
1104.13 1222.99 2640
1110.44 1222.99 2640
1129.02 1236.42 2669
1142.64 1244.3 2686
1149.06 1244.3 2686
1155.48 1244.3 2686
1171.42 1254.49 2708
1180.07 1256.81 2713
1186.56 1256.81 2713
1193.05 1256.81 2713
1199.54 1256.81 2713
1198.02 1248.47 2695
1204.47 1248.47 2695
1210.91 1248.47 2695
1217.36 1248.47 2695
1223.8 1248.47 2695
1230.25 1248.47 2695
1230.73 1242.45 2682
1208.08 1213.26 2619
1214.34 1213.26 2619
1220.6 1213.26 2619
1226.87 1213.26 2619
1233.13 1213.26 2619
1285.86 1204 2599
1309.98 1220.67 2635
1316.28 1220.67 2635
1322.58 1220.67 2635
1326.86 1218.82 2631
1333.15 1218.82 2631
1339.44 1218.82 2631
1345.74 1218.82 2631
1352.03 1218.82 2631
1356.25 1216.97 2627
1362.54 1216.97 2627
1358.4 1207.7 2607
1360.44 1204 2599
1364.03 1201.68 2594
1370.23 1201.68 2594
1372.19 1197.97 2586
1371.98 1192.41 2574
1374.39 1189.17 2567
1392.89 1199.83 2590
1401.25 1201.68 2594
1407.45 1201.68 2594
1413.65 1201.68 2594
1413.29 1196.12 2582
1419.46 1196.12 2582
1421.22 1192.41 2574
1421.27 1187.32 2563
1422.95 1183.61 2555
1429.06 1183.61 2555
1430.67 1179.91 2547
1434.51 1178.05 2543
1440.59 1178.05 2543
1451.22 1181.76 2551
1459.61 1183.61 2555
1465.72 1183.61 2555
1476.44 1187.32 2563
1487.19 1191.02 2571
1497.41 1194.27 2578
1503.57 1194.27 2578
1509.74 1194.27 2578
1518.25 1196.12 2582
1524.43 1196.12 2582
1530.6 1196.12 2582
1536.77 1196.12 2582
1545.34 1197.97 2586
1553.92 1199.83 2590
1560.12 1199.83 2590
1571.75 1204 2599
1582.83 1207.7 2607
1589.06 1207.7 2607
1595.29 1207.7 2607
1606.44 1211.41 2615
1612.7 1211.41 2615
1621.43 1213.26 2619
1627.69 1213.26 2619
1638.94 1216.97 2627
1645.22 1216.97 2627
1651.51 1216.97 2627
1657.79 1216.97 2627
1661.54 1215.11 2623
1662.72 1211.41 2615
1658.76 1204 2599
1664.98 1204 2599
1667.98 1201.68 2594
1671.6 1199.83 2590
1677.79 1199.83 2590
1683.99 1199.83 2590
1684.96 1196.12 2582
1691.13 1196.12 2582
1697.31 1196.12 2582
1706.12 1197.97 2586
1726.21 1207.7 2607
1732.44 1207.7 2607
1744.01 1211.41 2615
1750.27 1211.41 2615
1756.52 1211.41 2615
1762.77 1211.41 2615
1763.61 1207.7 2607
1758.31 1199.83 2590
1764.5 1199.83 2590
1767.96 1197.97 2586
1758.36 1187.32 2563
1753.48 1179.91 2547
1834.87 1230.4 2656
1841.22 1230.4 2656
1847.57 1230.4 2656
1802.65 1156.74 2497
1808.62 1156.74 2497
1820.41 1160.45 2505
1831.5 1163.69 2512
1840.43 1165.55 2516
1846.45 1165.55 2516
1878.24 1181.76 2551
1884.34 1181.76 2551
1890.44 1181.76 2551
1896.54 1181.76 2551
1902.64 1181.76 2551
1911.73 1183.61 2555
1917.84 1183.61 2555
1923.95 1183.61 2555
1930.06 1183.61 2555
-1764.9 1213.95 2607
-1758.67 1213.95 2607
-1752.43 1213.95 2607
-1732.13 1204.17 2586
-1737.29 1212.08 2603
-1731.07 1212.08 2603
-1732.8 1217.67 2615
-1734.47 1223.26 2627
-1730.82 1225.12 2631
-1724.53 1225.12 2631
-1726.72 1231.18 2644
-1720.4 1231.18 2644
-1719.26 1234.9 2652
-1712.92 1234.9 2652
-1706.58 1234.9 2652
-1706.01 1239.09 2661
-1702.2 1240.95 2665
-1695.83 1240.95 2665
-1689.46 1240.95 2665
-1677.4 1236.76 2656
-1671.05 1236.76 2656
-1664.7 1236.76 2656
-1658.34 1236.76 2656
-1668.17 1248.87 2682
-1661.75 1248.87 2682
-1655.34 1248.87 2682
-1623.1 1229.31 2640
-1616.79 1229.31 2640
-1607.43 1226.98 2635
-1601.13 1226.98 2635
-1594.82 1226.98 2635
-1551.75 1198.58 2574
-1545.59 1198.58 2574
-1539.44 1198.58 2574
-1531.5 1197.18 2571
-1400.21 1195.32 2567
-1397.87 1198.58 2574
-1393.88 1200.44 2578
-1387.71 1200.44 2578
-1385.83 1204.17 2586
-1381.78 1206.03 2590
-1384.62 1213.95 2607
-1378.39 1213.95 2607
-1393.73 1233.04 2648
-1387.4 1233.04 2648
-1381.07 1233.04 2648
-1365.91 1225.12 2631
-1336.36 1204.17 2586
-1318.35 1193.46 2563
-1312.22 1193.46 2563
-1304.05 1191.6 2559
-1291.85 1186.01 2547
-1279.7 1180.42 2535
-1273.64 1180.42 2535
-1267.57 1180.42 2535
-1256.04 1175.3 2524
-1218.87 1204.17 2586
-1212.68 1204.17 2586
-1206.5 1204.17 2586
-1198.46 1202.31 2582
-1192.29 1202.31 2582
-1181.06 1197.18 2571
-1174.91 1197.18 2571
-1175.58 1204.17 2586
-1177.08 1212.08 2603
-1170.86 1212.08 2603
-1171.79 1219.53 2619
-1165.53 1219.53 2619
-1159.27 1219.53 2619
-1153.01 1219.53 2619
-1146.74 1219.53 2619
-1140.48 1219.53 2619
-1135.95 1221.4 2623
-1129.68 1221.4 2623
-1130.69 1229.31 2640
-1135.02 1240.95 2665
-1135.85 1248.87 2682
-1129.43 1248.87 2682
-1123.02 1248.87 2682
-1116.61 1248.87 2682
-1110.19 1248.87 2682
-1103.78 1248.87 2682
-1099 1250.73 2686
-1092.58 1250.73 2686
-1086.16 1250.73 2686
-1079.73 1250.73 2686
-1061.32 1236.76 2656
-1046.63 1226.98 2635
-1040.33 1226.98 2635
-1034.03 1226.98 2635
-1029.68 1229.31 2640
-1023.36 1229.31 2640
-1017.05 1229.31 2640
-1008.82 1226.98 2635
-1002.52 1226.98 2635
-996.221 1226.98 2635
-991.799 1229.31 2640
-985.485 1229.31 2640
-983.623 1234.9 2652
-977.281 1234.9 2652
-970.94 1234.9 2652
-963.143 1233.04 2648
-950.668 1225.12 2631
-941.505 1221.4 2623
-935.233 1221.4 2623
-928.96 1221.4 2623
-922.688 1221.4 2623
-916.416 1221.4 2623
-910.143 1221.4 2623
-903.871 1221.4 2623
-896.23 1219.53 2619
-885.889 1213.95 2607
-878.305 1212.08 2603
-873.421 1213.95 2607
-867.187 1213.95 2607
-860.953 1213.95 2607
-854.718 1213.95 2607
-848.484 1213.95 2607
-842.25 1213.95 2607
-833.451 1210.22 2599
-825.644 1207.89 2594
-819.441 1207.89 2594
-811.984 1206.03 2590
-804.546 1204.17 2586
-798.362 1204.17 2586
-793.404 1206.03 2590
-787.21 1206.03 2590
-781.017 1206.03 2590
-774.823 1206.03 2590
-768.63 1206.03 2590
-530.247 852.603 1831
-525.869 852.603 1831
-521.49 852.603 1831
-517.677 853.534 1833
-514.414 855.397 1837
-511.686 858.191 1843
-507.279 858.191 1843
-502.872 858.191 1843
-499.006 859.122 1845
-494.594 859.122 1845
-490.182 859.122 1845
-485.77 859.122 1845
-480.836 858.191 1843
-476.429 858.191 1843
-470.997 856.328 1839
-465.078 853.534 1833
-459.186 850.74 1827
-454.817 850.74 1827
-449.955 849.809 1825
-445.103 848.878 1823
-438.809 845.152 1815
-434.469 845.152 1815
-428.233 841.427 1807
-421.331 836.305 1796
-415.643 833.511 1790
-411.363 833.511 1790
-403.671 826.526 1775
-397.627 822.801 1767
-390.507 816.748 1754
-383.229 810.229 1740
-379.068 810.229 1740
-372.968 806.038 1731
-367.976 804.175 1727
-363.004 802.313 1723
-358.884 802.313 1723
-354.764 802.313 1723
-350.643 802.313 1723
-346.523 802.313 1723
-342.403 802.313 1723
-338.283 802.313 1723
-334.162 802.313 1723
-330.425 803.244 1725
-326.679 804.175 1727
-322.549 804.175 1727
-318.419 804.175 1727
-314.289 804.175 1727
-310.519 805.107 1729
-306.384 805.107 1729
-302.25 805.107 1729
-298.46 806.038 1731
-294.321 806.038 1731
-290.349 806.504 1732
-286.207 806.504 1732
-282.391 807.435 1734
-278.886 809.297 1738
-275.046 810.229 1740
-270.886 810.229 1740
-266.878 810.694 1741
-263.017 811.626 1743
-259.146 812.557 1745
-254.973 812.557 1745
-251.375 814.42 1749
-247.616 815.817 1752
-243.705 816.748 1754
-239.51 816.748 1754
-235.584 817.679 1756
-232.176 820.473 1762
-229.385 825.595 1773
-225.146 825.595 1773
-221.404 827.458 1777
-217.766 829.786 1782
-213.984 831.649 1786
-209.713 831.649 1786
-205.902 833.511 1790
-202.298 836.305 1796
-198.444 838.168 1800
-194.14 838.168 1800
-190.257 840.03 1804
-186.046 840.496 1805
-181.73 840.496 1805
-177.414 840.496 1805
-173.481 842.359 1809
-169.903 846.084 1817
-165.923 847.946 1821
-161.568 847.946 1821
-157.213 847.946 1821
-152.859 847.946 1821
-148.504 847.946 1821
-188.323 1179.02 2532
-182.268 1179.02 2532
-176.422 1180.42 2535
-170.36 1180.42 2535
-164.557 1182.28 2539
-158.735 1184.14 2543
-153.135 1187.87 2551
-147.034 1187.87 2551
-141.597 1193.46 2563
-135.891 1197.18 2571
-129.743 1197.18 2571
-123.595 1197.18 2571
-117.264 1195.32 2567
-110.953 1193.46 2563
-104.824 1193.46 2563
-98.3867 1189.73 2555
-92.2769 1189.73 2555
-86.1671 1189.73 2555
-80.0574 1189.73 2555
-73.9476 1189.73 2555
-67.6254 1186.01 2547
-61.6314 1187.87 2551
-55.7053 1191.6 2559
-49.741 1195.32 2567
-43.6025 1195.32 2567
-37.5224 1197.18 2571
-31.3744 1197.18 2571
-25.2263 1197.18 2571
-19.0486 1195.32 2567
-12.9101 1195.32 2567
-6.77166 1195.32 2567
-0.63318 1195.32 2567
5.48814 1191.6 2559
11.5531 1186.01 2547
17.5883 1182.28 2539
23.6598 1182.28 2539
29.7313 1182.28 2539
35.8028 1182.28 2539
41.8744 1182.28 2539
48.0214 1184.14 2543
54.1025 1184.14 2543
60.1836 1184.14 2543
66.2647 1184.14 2543
72.4595 1186.01 2547
78.5502 1186.01 2547
84.9067 1189.73 2555
91.3015 1193.46 2563
97.5824 1195.32 2567
103.721 1195.32 2567
110.501 1202.31 2582
117.037 1206.03 2590
123.659 1210.22 2599
129.874 1210.22 2599
136.089 1210.22 2599
142.304 1210.22 2599
149.205 1215.81 2611
155.686 1217.67 2615
161.94 1217.67 2615
169.222 1225.12 2631
176.114 1229.31 2640
182.98 1233.04 2648
189.312 1233.04 2648
195.94 1234.9 2652
202.281 1234.9 2652
208.623 1234.9 2652
214.965 1234.9 2652
219.888 1226.98 2635
225.159 1221.4 2623
231.431 1221.4 2623
237.341 1219.53 2619
242.488 1213.95 2607
249.104 1215.81 2611
255.347 1215.81 2611
261.591 1215.81 2611
267.835 1215.81 2611
273.659 1213.95 2607
279.893 1213.95 2607
285.249 1210.22 2599
291.464 1210.22 2599
297.106 1207.89 2594
303.309 1207.89 2594
309.512 1207.89 2594
315.715 1207.89 2594
320.925 1204.17 2586
326.097 1200.44 2578
332.262 1200.44 2578
338.427 1200.44 2578
343.656 1197.18 2571
348.716 1193.46 2563
355.398 1195.32 2567
361.537 1195.32 2567
369.251 1200.44 2578
375.416 1200.44 2578
381.58 1200.44 2578
387.745 1200.44 2578
393.91 1200.44 2578
401.316 1204.17 2586
409.549 1210.22 2599
415.764 1210.22 2599
422.628 1212.08 2603
433.466 1225.12 2631
441.262 1229.31 2640
447.575 1229.31 2640
455.263 1233.04 2648
462.293 1234.9 2652
468.634 1234.9 2652
474.976 1234.9 2652
481.318 1234.9 2652
487.66 1234.9 2652
494.001 1234.9 2652
504.305 1244.68 2673
510.697 1244.68 2673
517.089 1244.68 2673
514.472 1223.26 2627
520.754 1223.26 2627
526.234 1221.4 2623
531.694 1219.53 2619
536.314 1215.81 2611
542.557 1215.81 2611
545.228 1207.89 2594
551.431 1207.89 2594
557.634 1207.89 2594
563.837 1207.89 2594
567.403 1202.31 2582
573.577 1202.31 2582
577.955 1198.58 2574
588.649 1207.89 2594
594.852 1207.89 2594
603.14 1212.08 2603
609.365 1212.08 2603
615.59 1212.08 2603
621.814 1212.08 2603
628.039 1212.08 2603
639.137 1221.4 2623
645.409 1221.4 2623
651.681 1221.4 2623
657.954 1221.4 2623
663.213 1219.53 2619
672.544 1225.12 2631
681.157 1229.31 2640
687.47 1229.31 2640
693.783 1229.31 2640
697.71 1225.12 2631
704.001 1225.12 2631
708.133 1221.4 2623
708.958 1212.08 2603
715.183 1212.08 2603
721.407 1212.08 2603
727.632 1212.08 2603
729.063 1204.17 2586
735.247 1204.17 2586
741.431 1204.17 2586
747.615 1204.17 2586
753.799 1204.17 2586
759.983 1204.17 2586
768.537 1207.89 2594
777.428 1212.08 2603
783.653 1212.08 2603
792.305 1215.81 2611
798.549 1215.81 2611
804.792 1215.81 2611
811.036 1215.81 2611
817.28 1215.81 2611
822.262 1213.95 2607
828.496 1213.95 2607
832.169 1210.22 2599
838.383 1210.22 2599
845.898 1212.08 2603
853.432 1213.95 2607
859.667 1213.95 2607
867.229 1215.81 2611
873.473 1215.81 2611
883.76 1221.4 2623
890.032 1221.4 2623
896.305 1221.4 2623
906.706 1226.98 2635
913.007 1226.98 2635
919.308 1226.98 2635
921.394 1221.4 2623
919.178 1210.22 2599
919.34 1202.31 2582
925.515 1202.31 2582
930.246 1200.44 2578
939.316 1204.17 2586
945.5 1204.17 2586
951.684 1204.17 2586
957.868 1204.17 2586
967.034 1207.89 2594
976.614 1212.08 2603
982.839 1212.08 2603
989.063 1212.08 2603
991.847 1207.89 2594
996.511 1206.03 2590
1002.7 1206.03 2590
1007.34 1204.17 2586
1013.52 1204.17 2586
1021.28 1206.03 2590
1029.06 1207.89 2594
1035.27 1207.89 2594
1041.47 1207.89 2594
1047.67 1207.89 2594
1055.91 1210.22 2599
1062.12 1210.22 2599
1068.34 1210.22 2599
1077.86 1213.95 2607
1089.09 1219.53 2619
1097.02 1221.4 2623
1103.29 1221.4 2623
1112.95 1225.12 2631
1128.17 1234.9 2652
1134.52 1234.9 2652
1140.86 1234.9 2652
1145.47 1233.04 2648
1151.8 1233.04 2648
1158.13 1233.04 2648
1164.47 1233.04 2648
1165.05 1226.98 2635
1171.35 1226.98 2635
1189.27 1239.09 2661
1195.64 1239.09 2661
1202 1239.09 2661
1204.28 1234.9 2652
1208.79 1233.04 2648
1215.12 1233.04 2648
1185.94 1197.18 2571
1200.9 1206.03 2590
1207.09 1206.03 2590
1213.28 1206.03 2590
1219.48 1206.03 2590
1223.59 1186.01 2547
1229.68 1186.01 2547
1235.77 1186.01 2547
1245.76 1189.73 2555
1257.75 1195.32 2567
1263.89 1195.32 2567
1285.86 1210.22 2599
1300.03 1217.67 2615
1308.28 1219.53 2619
1314.55 1219.53 2619
1320.81 1219.53 2619
1325.05 1217.67 2615
1331.3 1217.67 2615
1337.55 1217.67 2615
1343.81 1217.67 2615
1345.93 1213.95 2607
1352.16 1213.95 2607
1358.4 1213.95 2607
1357.83 1207.89 2594
1364.03 1207.89 2594
1370.23 1207.89 2594
1372.19 1204.17 2586
1368.25 1195.32 2567
1374.39 1195.32 2567
1384.29 1198.58 2574
1399.09 1206.03 2590
1405.28 1206.03 2590
1411.47 1206.03 2590
1413.29 1202.31 2582
1419.46 1202.31 2582
1415.15 1193.46 2563
1416.84 1189.73 2555
1418.49 1186.01 2547
1424.58 1186.01 2547
1426.18 1182.28 2539
1432.25 1182.28 2539
1438.32 1182.28 2539
1444.4 1182.28 2539
1455.04 1186.01 2547
1461.13 1186.01 2547
1469.52 1187.87 2551
1487.19 1197.18 2571
1495.08 1198.58 2574
1501.24 1198.58 2574
1509.74 1200.44 2578
1515.9 1200.44 2578
1522.06 1200.44 2578
1528.23 1200.44 2578
1534.39 1200.44 2578
1533.99 1195.32 2567
1546.72 1200.44 2578
1552.89 1200.44 2578
1559.05 1200.44 2578
1572.5 1206.03 2590
1578.7 1206.03 2590
1584.89 1206.03 2590
1591.08 1206.03 2590
1607.76 1213.95 2607
1614 1213.95 2607
1620.23 1213.95 2607
1626.46 1213.95 2607
1619.55 1204.17 2586
1648.99 1221.4 2623
1655.26 1221.4 2623
1661.54 1221.4 2623
1662.72 1217.67 2615
1658.76 1210.22 2599
1664.98 1210.22 2599
1667.98 1207.89 2594
1671.6 1206.03 2590
1672.61 1202.31 2582
1678.78 1202.31 2582
1682.35 1200.44 2578
1681.31 1195.32 2567
1682.19 1191.6 2559
1696.22 1197.18 2571
1714.95 1206.03 2590
1721.15 1206.03 2590
1738.68 1213.95 2607
1744.91 1213.95 2607
1751.15 1213.95 2607
1754.68 1212.08 2603
1749.41 1204.17 2586
1750.16 1200.44 2578
1756.33 1200.44 2578
