-1491.9 1020.82 3426
-1480.67 1018.74 3419
-1466.47 1014.56 3405
-1458.33 1014.56 3405
-1447.2 1012.48 3398
-1442.04 1014.56 3405
-1436.85 1016.65 3412
-1437.48 1022.91 3433
-1429.27 1022.91 3433
-1421.06 1022.91 3433
-1418.62 1027.08 3447
-1416.1 1031.25 3461
-1407.82 1031.25 3461
-1402.38 1033.34 3468
-1397.3 1035.72 3476
-1391.79 1037.81 3483
-1383.46 1037.81 3483
-1375.13 1037.81 3483
-1369.55 1039.89 3490
-1367.05 1044.36 3505
-1358.67 1044.36 3505
-1350.29 1044.36 3505
-1347.65 1048.83 3520
-1339.23 1048.83 3520
-1330.82 1048.83 3520
-1322.4 1048.83 3520
-1313.98 1048.83 3520
-1305.56 1048.83 3520
-1297.15 1048.83 3520
-1283.24 1044.36 3505
-1271.95 1041.98 3497
-1261.05 1039.89 3490
-1252.71 1039.89 3490
-1241.87 1037.81 3483
-1233.54 1037.81 3483
-1222.75 1035.72 3476
-1214.43 1035.72 3476
-1206.12 1035.72 3476
-1190.23 1029.16 3454
-1177.18 1024.99 3440
-1168.95 1024.99 3440
-1156 1020.82 3426
-1140.77 1014.56 3405
-1118.66 1002.05 3363
-1110.62 1002.05 3363
-1102.58 1002.05 3363
-588.113 538.419 1807
-584.438 539.015 1809
-581.395 540.207 1813
-577.06 540.207 1813
-572.724 540.207 1813
-568.389 540.207 1813
-564.053 540.207 1813
-559.718 540.207 1813
-554.157 539.015 1809
-549.831 539.015 1809
-544.902 538.419 1807
-540.581 538.419 1807
-536.26 538.419 1807
-530.467 536.93 1802
-526.158 536.93 1802
-521.27 536.334 1800
-516.965 536.334 1800
-512.091 535.738 1798
-506.662 534.546 1794
-501.812 533.95 1792
-497.527 533.95 1792
-491.59 532.162 1786
-484.318 528.885 1775
-478.992 527.693 1771
-474.757 527.693 1771
-469.459 526.501 1767
-462.337 523.223 1756
-456.834 521.733 1751
-452.646 521.733 1751
-447.435 520.542 1747
-440.466 517.264 1736
-435.31 516.072 1732
-429.425 513.986 1725
-425.3 513.986 1725
-419.954 512.497 1720
-414.149 510.411 1713
-408.856 508.921 1708
-404.772 508.921 1708
-399.28 507.133 1702
-394.049 505.643 1697
-388.382 503.558 1690
-384.341 503.558 1690
-380.074 503.26 1689
-374.477 501.174 1682
-370.014 500.578 1680
-365.997 500.578 1680
-361.333 499.684 1677
-356.471 498.492 1673
-352.259 498.194 1672
-348.261 498.194 1672
-343.851 497.598 1670
-339.247 496.705 1667
-335.261 496.705 1667
-331.473 497.003 1668
-327.484 497.003 1668
-323.496 497.003 1668
-319.507 497.003 1668
-316.275 498.194 1672
-312.277 498.194 1672
-308.278 498.194 1672
-304.462 498.492 1673
-300.461 498.492 1673
-297.17 499.684 1677
-293.159 499.684 1677
-290.011 501.174 1682
-286.499 502.068 1685
-283.14 503.26 1689
-279.101 503.26 1689
-275.225 503.558 1690
-271.826 504.75 1694
-267.933 505.047 1695
-263.88 505.047 1695
-260.746 506.835 1701
-257.735 508.921 1708
-254.096 509.815 1711
-250.005 509.815 1711
-246.632 511.305 1716
-243.094 512.497 1720
-239.397 513.39 1723
-235.277 513.39 1723
-232.23 515.774 1731
-228.486 516.668 1734
-224.857 517.86 1738
-220.701 517.86 1738
-216.794 518.456 1740
-213.244 519.946 1745
-209.311 520.542 1747
-205.134 520.542 1747
-201.416 521.733 1751
-198.243 524.415 1760
-195.908 529.48 1777
-191.659 529.48 1777
-187.726 530.374 1780
-183.882 531.566 1784
-180.421 533.95 1792
-176.136 533.95 1792
-172.426 535.738 1798
-168.688 537.525 1804
-164.374 537.525 1804
-160.06 537.525 1804
-115.151 1095.01 3675
-106.363 1095.01 3675
-97.5749 1095.01 3675
-88.3762 1089.95 3658
-79.4546 1087.57 3650
-70.5714 1085.18 3642
-61.8622 1085.18 3642
-53.1531 1085.18 3642
-44.444 1085.18 3642
-35.7348 1085.18 3642
-27.0257 1085.18 3642
-18.2814 1083.1 3635
-9.54679 1078.33 3619
-0.892668 1078.33 3619
7.76146 1078.33 3619
16.4156 1078.33 3619
25.0143 1075.94 3611
33.5747 1073.56 3603
42.1906 1073.56 3603
50.8065 1073.56 3603
59.2904 1071.18 3595
67.6039 1066.71 3580
75.9945 1064.32 3572
84.5363 1064.32 3572
93.078 1064.32 3572
101.421 1062.24 3565
109.946 1062.24 3565
118.471 1062.24 3565
126.996 1062.24 3565
135.216 1059.85 3557
143.722 1059.85 3557
152.228 1059.85 3557
160.056 1055.39 3542
168.526 1055.39 3542
176.596 1053 3534
185.047 1053 3534
193.936 1055.39 3542
202.406 1055.39 3542
210.876 1055.39 3542
219.346 1055.39 3542
227.816 1055.39 3542
236.286 1055.39 3542
244.203 1053 3534
253.226 1055.39 3542
262.213 1057.47 3549
270.7 1057.47 3549
279.816 1059.85 3557
288.322 1059.85 3557
298.08 1064.32 3572
306.621 1064.32 3572
315.869 1066.71 3580
324.43 1066.71 3580
335.874 1075.94 3611
344.509 1075.94 3611
354.709 1080.71 3627
363.382 1080.71 3627
372.055 1080.71 3627
380.729 1080.71 3627
388.543 1078.33 3619
391.27 1062.24 3565
399.795 1062.24 3565
402.25 1046.45 3512
408.076 1039.89 3490
412.961 1031.25 3461
419.534 1027.08 3447
427.776 1027.08 3447
434.248 1022.91 3433
440.653 1018.74 3419
445.154 1010.39 3391
453.262 1010.39 3391
459.467 1006.22 3377
463.804 998.176 3350
469.984 994.303 3337
477.964 994.303 3337
483.905 990.131 3323
490.963 988.344 3317
497.842 986.258 3310
505.757 986.258 3310
512.586 984.172 3303
520.485 984.172 3303
528.383 984.172 3303
535.307 982.384 3297
543.191 982.384 3297
551.076 982.384 3297
558.96 982.384 3297
566.844 982.384 3297
574.728 982.384 3297
582.612 982.384 3297
590.496 982.384 3297
598.38 982.384 3297
607.368 984.172 3303
615.266 984.172 3303
623.165 984.172 3303
631.063 984.172 3303
638.962 984.172 3303
646.86 984.172 3303
656.146 986.258 3310
668.074 992.217 3330
676.037 992.217 3330
684 992.217 3330
691.963 992.217 3330
701.397 994.303 3337
710.653 996.091 3343
718.647 996.091 3343
726.641 996.091 3343
733.317 994.303 3337
741.296 994.303 3337
750.623 996.091 3343
758.617 996.091 3343
768.217 998.176 3350
776.228 998.176 3350
784.238 998.176 3350
792.249 998.176 3350
800.26 998.176 3350
811.408 1002.05 3363
819.45 1002.05 3363
827.492 1002.05 3363
835.534 1002.05 3363
843.575 1002.05 3363
851.617 1002.05 3363
859.659 1002.05 3363
869.507 1004.14 3370
879.389 1006.22 3377
892.983 1012.48 3398
901.109 1012.48 3398
920.473 1024.99 3440
932.478 1029.16 3454
942.645 1031.25 3461
950.921 1031.25 3461
965.294 1037.81 3483
975.58 1039.89 3490
998.586 1055.39 3542
1007.06 1055.39 3542
1022.12 1062.24 3565
1034.98 1066.71 3580
1043.54 1066.71 3580
1058.86 1073.56 3603
1067.48 1073.56 3603
1085.65 1083.1 3635
1103.98 1092.63 3667
1112.75 1092.63 3667
1121.52 1092.63 3667
1130.28 1092.63 3667
1141.54 1095.01 3675
1150.33 1095.01 3675
1159.11 1095.01 3675
1167.9 1095.01 3675
1176.69 1095.01 3675
1185.48 1095.01 3675
1191.67 1092.63 3667
1200.44 1092.63 3667
1203.6 1087.57 3650
1212.33 1087.57 3650
1221.06 1087.57 3650
1229.78 1087.57 3650
1235.8 1085.18 3642
1244.51 1085.18 3642
1253.22 1085.18 3642
1261.92 1085.18 3642
1268.19 1083.1 3635
1276.88 1083.1 3635
1285.58 1083.1 3635
1294.27 1083.1 3635
1305.47 1085.18 3642
1314.18 1085.18 3642
1322.89 1085.18 3642
1331.6 1085.18 3642
1340.31 1085.18 3642
1351.98 1087.57 3650
1360.71 1087.57 3650
1369.44 1087.57 3650
1378.16 1087.57 3650
1386.89 1087.57 3650
1395.62 1087.57 3650
1404.35 1087.57 3650
1404.17 1080.71 3627
1406.61 1075.94 3611
1415.25 1075.94 3611
1417.57 1071.18 3595
1423.39 1069.09 3588
1428.78 1066.71 3580
1434.13 1064.32 3572
1442.67 1064.32 3572
1451.21 1064.32 3572
1450.36 1057.47 3549
1452.68 1053 3534
1461.13 1053 3534
1463.76 1048.83 3520
1468.83 1046.45 3512
1470.92 1041.98 3497
1479.28 1041.98 3497
1484.66 1039.89 3490
1496 1041.98 3497
1504.37 1041.98 3497
1519.22 1046.45 3512
1527.62 1046.45 3512
1542.58 1050.92 3527
1570.8 1064.32 3572
1586.41 1069.09 3588
1594.99 1069.09 3588
1624.58 1083.1 3635
1640.01 1087.57 3650
1648.74 1087.57 3650
1665.19 1092.63 3667
1673.96 1092.63 3667
1686.4 1095.01 3675
1695.19 1095.01 3675
1703.97 1095.01 3675
1748.58 1089.95 3658
1757.32 1089.95 3658
1766.07 1089.95 3658
1770.94 1087.57 3650
1738.22 1062.24 3565
1724.7 1048.83 3520
1697.17 1027.08 3447
1705.41 1027.08 3447
1710.18 1024.99 3440
1707.91 1018.74 3419
1709.06 1014.56 3405
1717.2 1014.56 3405
1701.02 1000.26 3357
1709.05 1000.26 3357
1713.5 998.176 3350
1728.19 1002.05 3363
1736.23 1002.05 3363
1758.8 1010.39 3391
1781.5 1018.74 3419
1789.67 1018.74 3419
1797.85 1018.74 3419
1806.02 1018.74 3419
1803.06 1012.48 3398
1803.72 1008.31 3384
1811.81 1008.31 3384
1819.9 1008.31 3384
1824.21 1006.22 3377
1828.49 1004.14 3370
1836.55 1004.14 3370
1844.61 1004.14 3370
2072.01 1080.71 3627
2080.69 1080.71 3627
2089.36 1080.71 3627
2135.05 1099.78 3691
2158.4 1107.23 3716
2167.29 1107.23 3716
2176.17 1107.23 3716
2185.06 1107.23 3716
2188.63 1104.55 3707
2197.5 1104.55 3707
2177.2 1089.95 3658
2176.38 1085.18 3642
2176.09 1080.71 3627
2193.8 1085.18 3642
2222.47 1095.01 3675
2231.26 1095.01 3675
2249.8 1099.78 3691
2288.61 1114.38 3740
2297.55 1114.38 3740
2306.49 1114.38 3740
2370.76 1132.26 3800
2379.84 1132.26 3800
2388.93 1132.26 3800
-2374.95 952.738 3172
-2367.37 952.738 3172
-2355.32 950.935 3166
-2347.75 950.935 3166
-2335.74 949.133 3160
-2328.19 949.133 3160
-2316.22 947.331 3154
-2313.07 949.133 3160
-2305.52 949.133 3160
-2306.69 952.738 3172
-2299.1 952.738 3172
-2308.85 959.946 3196
-2305.53 961.748 3202
-2311.51 967.455 3221
-2303.81 967.455 3221
-2300.38 969.257 3227
-2328.9 984.576 3278
-2338.76 992.085 3303
-2330.86 992.085 3303
-2341.95 1000.19 3330
-2343.1 1004.1 3343
-2368.64 1018.52 3391
-2365.4 1020.62 3398
-2362.13 1022.72 3405
-2363.67 1026.93 3419
-2355.49 1026.93 3419
-2347.32 1026.93 3419
-2339.14 1026.93 3419
-2335.74 1029.03 3426
-2327.54 1029.03 3426
-2319.35 1029.03 3426
-2306.44 1026.93 3419
-2293.56 1024.82 3412
-2285.4 1024.82 3412
-2277.24 1024.82 3412
-2269.08 1024.82 3412
-2274.83 1031.13 3433
-2271.25 1033.23 3440
-2263.02 1033.23 3440
-2259.38 1035.34 3447
-2260.28 1039.54 3461
-2261.77 1044.05 3476
-2253.46 1044.05 3476
-2254.19 1048.25 3490
-2255.49 1052.76 3505
-2247.11 1052.76 3505
-2238.73 1052.76 3505
-2225.26 1050.35 3497
-2226.4 1054.86 3512
-2223.06 1057.26 3520
-2214.64 1057.26 3520
-2215 1061.47 3534
-2211.54 1063.87 3542
-2203.07 1063.87 3542
-2194.6 1063.87 3542
-2195.39 1068.38 3557
-2196.11 1072.88 3572
-2187.57 1072.88 3572
-2179.02 1072.88 3572
-2170.48 1072.88 3572
-2171.62 1077.69 3588
-2163.04 1077.69 3588
-2154.46 1077.69 3588
-2145.88 1077.69 3588
-2132.54 1075.28 3580
-2123.98 1075.28 3580
-2115.42 1075.28 3580
-2102.15 1072.88 3572
-2089.5 1070.78 3565
-2080.98 1070.78 3565
-2072.45 1070.78 3565
-2067.98 1072.88 3572
-2059.44 1072.88 3572
-2050.9 1072.88 3572
-2042.36 1072.88 3572
-2029.83 1070.78 3565
-2021.3 1070.78 3565
-2012.78 1070.78 3565
-1999.76 1068.38 3557
-1986.77 1065.97 3549
-1974.38 1063.87 3542
-1965.91 1063.87 3542
-1957.44 1063.87 3542
-1952.82 1065.97 3549
-1948.72 1068.38 3557
-1944.58 1070.78 3565
-1936.05 1070.78 3565
-1931.31 1072.88 3572
-1935.15 1079.79 3595
-1930.84 1082.19 3603
-1922.23 1082.19 3603
-1922.11 1087 3619
-1917.68 1089.4 3627
-1913.22 1091.8 3635
-1904.53 1091.8 3635
-1895.84 1091.8 3635
-1890.78 1093.91 3642
-1903.26 1106.22 3683
-1894.45 1106.22 3683
-1889.74 1108.62 3691
-1889.07 1113.43 3707
-1880.2 1113.43 3707
-1871.34 1113.43 3707
-1862.47 1113.43 3707
-1841.61 1106.22 3683
-1832.8 1106.22 3683
-1823.99 1106.22 3683
-1815.19 1106.22 3683
-1806.38 1106.22 3683
-1797.57 1106.22 3683
-1784.88 1103.82 3675
-1767.87 1098.71 3658
-1748.07 1091.8 3635
-1739.37 1091.8 3635
-1726.87 1089.4 3627
-1710.62 1084.59 3611
-1701.98 1084.59 3611
-1693.35 1084.59 3611
-1677.25 1079.79 3595
-1665.4 1077.69 3588
-1649.44 1072.88 3572
-1606.44 1050.35 3497
-1598.08 1050.35 3497
-1570.17 1037.44 3454
-1552.41 1031.13 3433
-1544.2 1031.13 3433
-1535.99 1031.13 3433
-1527.78 1031.13 3433
-1519.58 1031.13 3433
-1502.12 1024.82 3412
-1493.96 1024.82 3412
-1479.71 1020.62 3398
-1471.58 1020.62 3398
-1463.45 1020.62 3398
-1455.33 1020.62 3398
-1447.2 1020.62 3398
-1442.04 1022.72 3405
-1436.85 1024.82 3412
-1434.55 1029.03 3426
-1426.36 1029.03 3426
-1421.06 1031.13 3433
-1418.62 1035.34 3447
-1416.1 1039.54 3461
-1407.82 1039.54 3461
-1405.61 1044.05 3476
-1397.3 1044.05 3476
-1391.79 1046.15 3483
-1383.46 1046.15 3483
-1380.66 1050.35 3497
-1372.29 1050.35 3497
-1367.05 1052.76 3505
-1358.67 1052.76 3505
-1356.07 1057.26 3520
-1350.33 1059.36 3527
-1341.9 1059.36 3527
-1333.46 1059.36 3527
-1325.03 1059.36 3527
-1313.98 1057.26 3520
-1305.56 1057.26 3520
-1297.15 1057.26 3520
-1283.24 1052.76 3505
-1271.95 1050.35 3497
-1261.05 1048.25 3490
-1252.71 1048.25 3490
-1241.87 1046.15 3483
-1231.06 1044.05 3476
-1222.75 1044.05 3476
-1214.43 1044.05 3476
-1200.92 1039.54 3461
-1185.4 1033.23 3440
-1172.39 1029.03 3426
-1164.19 1029.03 3426
-1151.28 1024.82 3412
-1136.08 1018.52 3391
-1107.68 1000.19 3330
-1099.72 1000.19 3330
-1089.46 998.092 3323
-586.486 541.246 1802
-584.438 543.349 1809
-580.112 543.349 1809
-575.787 543.349 1809
-571.461 543.349 1809
-567.135 543.349 1809
-562.809 543.349 1809
-558.483 543.349 1809
-554.157 543.349 1809
-549.831 543.349 1809
-544.902 542.748 1807
-540.581 542.748 1807
-536.26 542.748 1807
-529.878 540.646 1800
-525.574 540.646 1800
-520.691 540.045 1798
-516.391 540.045 1798
-511.522 539.444 1796
-506.662 538.843 1794
-501.252 537.642 1790
-496.972 537.642 1790
-491.04 535.84 1784
-483.772 532.536 1773
-477.91 530.734 1767
-473.684 530.734 1767
-468.13 529.232 1762
-462.337 527.43 1756
-456.312 525.327 1749
-452.129 525.327 1749
-447.435 524.727 1747
-440.466 521.423 1736
-435.31 520.221 1732
-429.425 518.119 1725
-425.3 518.119 1725
-419.954 516.617 1720
-414.149 514.514 1713
-408.856 513.013 1708
-404.772 513.013 1708
-399.28 511.21 1702
-393.584 509.108 1695
-388.152 507.306 1689
-384.113 507.306 1689
-379.624 506.705 1687
-374.477 505.203 1682
-370.014 504.603 1680
-365.997 504.603 1680
-360.902 503.101 1675
-356.471 502.5 1673
-352.259 502.2 1672
-348.261 502.2 1672
-343.851 501.599 1670
-339.45 500.998 1668
-335.462 500.998 1668
-331.87 501.599 1670
-327.877 501.599 1670
-323.883 501.599 1670
-320.273 502.2 1672
-316.275 502.2 1672
-312.463 502.5 1673
-308.463 502.5 1673
-304.826 503.101 1675
-301.18 503.701 1677
-297.347 504.002 1678
-293.334 504.002 1678
-290.184 505.504 1683
-287.179 507.306 1689
-283.308 507.606 1690
-279.267 507.606 1690
-275.225 507.606 1690
-271.986 509.108 1695
-267.933 509.108 1695
-263.88 509.108 1695
-260.746 510.91 1701
-257.735 513.013 1708
-254.096 513.914 1711
-250.005 513.914 1711
-246.632 515.415 1716
-243.094 516.617 1720
-239.397 517.518 1723
-235.277 517.518 1723
-232.23 519.921 1731
-228.486 520.822 1734
-225.116 522.624 1740
-220.955 522.624 1740
-216.794 522.624 1740
-213.244 524.126 1745
-209.551 525.327 1749
-205.368 525.327 1749
-201.761 526.829 1754
-199.031 530.734 1767
-196.239 534.638 1780
-191.982 534.638 1780
-187.726 534.638 1780
-183.882 535.84 1784
-181.025 540.045 1798
-176.726 540.045 1798
-173.001 541.847 1804
-168.688 541.847 1804
-164.374 541.847 1804
-160.06 541.847 1804
-105.639 1096.31 3650
-96.9111 1096.31 3650
-88.1829 1096.31 3650
-79.2805 1093.91 3642
-70.4357 1091.8 3635
-61.8622 1093.91 3642
-53.1531 1093.91 3642
-44.444 1093.91 3642
-35.6662 1091.8 3635
-26.9738 1091.8 3635
-18.2814 1091.8 3635
-9.5679 1089.4 3627
-0.894641 1089.4 3627
7.77861 1089.4 3627
16.4519 1089.4 3627
25.1251 1089.4 3627
33.6493 1084.59 3611
42.1906 1082.19 3603
50.8065 1082.19 3603
59.4223 1082.19 3603
67.7549 1077.69 3588
76.1647 1075.28 3580
84.7256 1075.28 3580
93.078 1072.88 3572
101.62 1072.88 3572
110.161 1072.88 3572
118.703 1072.88 3572
126.996 1070.78 3565
135.521 1070.78 3565
143.722 1068.38 3557
152.228 1068.38 3557
160.734 1068.38 3557
168.526 1063.87 3542
176.996 1063.87 3542
185.833 1065.97 3549
194.319 1065.97 3549
202.806 1065.97 3549
211.293 1065.97 3549
219.78 1065.97 3549
228.266 1065.97 3549
236.286 1063.87 3542
244.756 1063.87 3542
253.226 1063.87 3542
262.213 1065.97 3549
270.7 1065.97 3549
279.816 1068.38 3557
288.97 1070.78 3565
298.08 1072.88 3572
306.621 1072.88 3572
315.869 1075.28 3580
324.43 1075.28 3580
335.874 1084.59 3611
344.509 1084.59 3611
354.709 1089.4 3627
363.382 1089.4 3627
372.055 1089.4 3627
380.729 1089.4 3627
388.543 1087 3619
391.27 1070.78 3565
399.795 1070.78 3565
402.25 1054.86 3512
408.076 1048.25 3490
412.961 1039.54 3461
417.83 1031.13 3433
426.039 1031.13 3433
433.363 1029.03 3426
439.751 1024.82 3412
444.235 1016.41 3384
452.327 1016.41 3384
458.514 1012.21 3370
463.804 1006.2 3350
468.998 1000.19 3330
476.961 1000.19 3330
483.031 996.29 3317
490.963 996.29 3317
497.842 994.187 3310
505.757 994.187 3310
512.586 992.085 3303
519.539 990.282 3297
527.423 990.282 3297
535.307 990.282 3297
543.191 990.282 3297
551.076 990.282 3297
558.96 990.282 3297
566.844 990.282 3297
574.728 990.282 3297
582.612 990.282 3297
590.496 990.282 3297
598.38 990.282 3297
607.368 992.085 3303
615.266 992.085 3303
623.165 992.085 3303
631.063 992.085 3303
638.962 992.085 3303
646.86 992.085 3303
656.146 994.187 3310
668.074 1000.19 3330
676.037 1000.19 3330
684 1000.19 3330
691.963 1000.19 3330
701.397 1002.3 3337
710.653 1004.1 3343
718.647 1004.1 3343
726.641 1004.1 3343
733.317 1002.3 3337
741.296 1002.3 3337
750.623 1004.1 3343
758.617 1004.1 3343
768.217 1006.2 3350
776.228 1006.2 3350
784.238 1006.2 3350
792.249 1006.2 3350
800.26 1006.2 3350
811.408 1010.11 3363
819.45 1010.11 3363
827.492 1010.11 3363
835.534 1010.11 3363
843.575 1010.11 3363
851.617 1010.11 3363
859.659 1010.11 3363
869.507 1012.21 3370
879.389 1014.31 3377
892.983 1020.62 3398
901.109 1020.62 3398
920.473 1033.23 3440
932.478 1037.44 3454
942.645 1039.54 3461
950.921 1039.54 3461
965.294 1046.15 3483
975.58 1048.25 3490
998.586 1063.87 3542
1007.06 1063.87 3542
1022.12 1070.78 3565
1032.67 1072.88 3572
1043.54 1075.28 3580
1058.86 1082.19 3603
1067.48 1082.19 3603
1085.65 1091.8 3635
1101.27 1098.71 3658
1112.75 1101.42 3667
1121.52 1101.42 3667
1130.28 1101.42 3667
1139.05 1101.42 3667
1147.82 1101.42 3667
1156.59 1101.42 3667
1162.5 1098.71 3658
1171.25 1098.71 3658
1179.99 1098.71 3658
1186.14 1096.31 3650
1194.87 1096.31 3650
1200.96 1093.91 3642
1209.67 1093.91 3642
1218.38 1093.91 3642
1224.73 1091.8 3635
1233.42 1091.8 3635
1242.11 1091.8 3635
1250.81 1091.8 3635
1259.5 1091.8 3635
1268.19 1091.8 3635
1276.88 1091.8 3635
1285.58 1091.8 3635
1294.27 1091.8 3635
1305.47 1093.91 3642
1314.18 1093.91 3642
1322.89 1093.91 3642
1331.6 1093.91 3642
1340.31 1093.91 3642
1351.98 1096.31 3650
1360.71 1096.31 3650
1369.44 1096.31 3650
1378.16 1096.31 3650
1386.89 1096.31 3650
1395.62 1096.31 3650
1404.35 1096.31 3650
1404.17 1089.4 3627
1406.61 1084.59 3611
1415.25 1084.59 3611
1417.57 1079.79 3595
1423.39 1077.69 3588
1428.78 1075.28 3580
1434.13 1072.88 3572
1442.67 1072.88 3572
1451.21 1072.88 3572
1450.36 1065.97 3549
1449.8 1059.36 3527
1458.23 1059.36 3527
1460.43 1054.86 3512
1462.56 1050.35 3497
1467.97 1048.25 3490
1476.32 1048.25 3490
1484.66 1048.25 3490
1490.02 1046.15 3483
1504.37 1050.35 3497
1512.73 1050.35 3497
1521.09 1050.35 3497
1536.01 1054.86 3512
1554.09 1061.47 3534
1579.34 1072.88 3572
1587.88 1072.88 3572
1596.42 1072.88 3572
1608.56 1075.28 3580
1627.51 1082.19 3603
1636.13 1082.19 3603
1644.74 1082.19 3603
1653.36 1082.19 3603
1701.6 1063.87 3542
1710.07 1063.87 3542
1718.54 1063.87 3542
1716.28 1057.26 3520
1671.78 1024.82 3412
1662.71 1014.31 3377
1670.78 1014.31 3377
1678.86 1014.31 3377
1669.95 1004.1 3343
1677.94 1004.1 3343
1689.47 1006.2 3350
1697.48 1006.2 3350
1705.49 1006.2 3350
1713.5 1006.2 3350
1728.19 1010.11 3363
1736.23 1010.11 3363
1758.8 1018.52 3391
1781.5 1026.93 3419
1789.67 1026.93 3419
1797.85 1026.93 3419
1806.02 1026.93 3419
1803.06 1020.62 3398
1803.72 1016.41 3384
1811.81 1016.41 3384
1819.9 1016.41 3384
1824.21 1014.31 3377
1828.49 1012.21 3370
1836.55 1012.21 3370
1844.61 1012.21 3370
2072.01 1089.4 3627
2080.69 1089.4 3627
2089.36 1089.4 3627
2135.05 1108.62 3691
2158.4 1116.13 3716
2167.29 1116.13 3716
2176.17 1116.13 3716
2185.06 1116.13 3716
2188.63 1113.43 3707
2197.5 1113.43 3707
2177.2 1098.71 3658
2176.38 1093.91 3642
2176.09 1089.4 3627
2193.8 1093.91 3642
2222.47 1103.82 3675
2231.26 1103.82 3675
2249.8 1108.62 3691
2288.61 1123.34 3740
2297.55 1123.34 3740
2306.49 1123.34 3740
2370.76 1141.36 3800
2379.84 1141.36 3800
2388.93 1141.36 3800
-2374.95 960.336 3172
-2367.37 960.336 3172
-2355.32 958.52 3166
-2347.75 958.52 3166
-2335.74 956.703 3160
-2328.19 956.703 3160
-2316.22 954.887 3154
-2313.07 956.703 3160
-2305.52 956.703 3160
-2306.69 960.336 3172
-2299.1 960.336 3172
-2308.85 967.602 3196
-2305.53 969.419 3202
-2311.51 975.171 3221
-2303.81 975.171 3221
-2300.38 976.988 3227
-2328.9 992.428 3278
-2338.76 999.997 3303
-2330.86 999.997 3303
-2341.95 1008.17 3330
-2343.1 1012.11 3343
-2368.64 1026.64 3391
-2365.4 1028.76 3398
-2362.13 1030.88 3405
-2363.67 1035.12 3419
-2355.49 1035.12 3419
-2347.32 1035.12 3419
-2339.14 1035.12 3419
-2330.96 1035.12 3419
-2322.79 1035.12 3419
-2314.61 1035.12 3419
-2301.72 1033 3412
-2293.56 1033 3412
-2285.4 1033 3412
-2267.89 1028.76 3398
-2269.08 1033 3412
-2270.2 1037.24 3426
-2271.25 1041.47 3440
-2263.02 1041.47 3440
-2259.38 1043.59 3447
-2255.71 1045.71 3454
-2256.56 1049.95 3468
-2248.27 1049.95 3468
-2254.19 1056.61 3490
-2245.84 1056.61 3490
-2237.49 1056.61 3490
-2229.15 1056.61 3490
-2225.26 1058.73 3497
-2226.4 1063.27 3512
-2223.06 1065.69 3520
-2214.64 1065.69 3520
-2215 1069.93 3534
-2211.54 1072.36 3542
-2203.07 1072.36 3542
-2194.6 1072.36 3542
-2195.39 1076.9 3557
-2196.11 1081.44 3572
-2187.57 1081.44 3572
-2179.02 1081.44 3572
-2170.48 1081.44 3572
-2171.62 1086.28 3588
-2163.04 1086.28 3588
-2154.46 1086.28 3588
-2145.88 1086.28 3588
-2132.54 1083.86 3580
-2123.98 1083.86 3580
-2115.42 1083.86 3580
-2102.15 1081.44 3572
-2089.5 1079.32 3565
-2080.98 1079.32 3565
-2072.45 1079.32 3565
-2067.98 1081.44 3572
-2059.44 1081.44 3572
-2050.9 1081.44 3572
-2042.36 1081.44 3572
-2029.83 1079.32 3565
-2021.3 1079.32 3565
-2012.78 1079.32 3565
-1999.76 1076.9 3557
-1986.77 1074.47 3549
-1974.38 1072.36 3542
-1965.91 1072.36 3542
-1957.44 1072.36 3542
-1952.82 1074.47 3549
-1948.72 1076.9 3557
-1944.58 1079.32 3565
-1936.05 1079.32 3565
-1931.31 1081.44 3572
-1935.15 1088.4 3595
-1930.84 1090.82 3603
-1922.23 1090.82 3603
-1922.11 1095.67 3619
-1917.68 1098.09 3627
-1913.22 1100.51 3635
-1904.53 1100.51 3635
-1895.84 1100.51 3635
-1890.78 1102.63 3642
-1903.26 1115.04 3683
-1894.45 1115.04 3683
-1889.74 1117.47 3691
-1889.07 1122.31 3707
-1880.2 1122.31 3707
-1871.34 1122.31 3707
-1862.47 1122.31 3707
-1841.61 1115.04 3683
-1832.8 1115.04 3683
-1823.99 1115.04 3683
-1815.19 1115.04 3683
-1806.38 1115.04 3683
-1797.57 1115.04 3683
-1784.88 1112.62 3675
-1767.87 1107.47 3658
-1748.07 1100.51 3635
-1739.37 1100.51 3635
-1726.87 1098.09 3627
-1718.2 1098.09 3627
-1705.76 1095.67 3619
-1697.1 1095.67 3619
-1680.98 1090.82 3603
-1668.65 1088.4 3595
-1649.44 1081.44 3572
-1606.44 1058.73 3497
-1598.08 1058.73 3497
-1570.17 1045.71 3454
-1552.41 1039.35 3433
-1544.2 1039.35 3433
-1535.99 1039.35 3433
-1527.78 1039.35 3433
-1519.58 1039.35 3433
-1502.12 1033 3412
-1493.96 1033 3412
-1479.71 1028.76 3398
-1471.58 1028.76 3398
-1463.45 1028.76 3398
-1455.33 1028.76 3398
-1447.2 1028.76 3398
-1442.04 1030.88 3405
-1436.85 1033 3412
-1434.55 1037.24 3426
-1426.36 1037.24 3426
-1421.06 1039.35 3433
-1418.62 1043.59 3447
-1416.1 1047.83 3461
-1407.82 1047.83 3461
-1405.61 1052.37 3476
-1397.3 1052.37 3476
-1391.79 1054.49 3483
-1383.46 1054.49 3483
-1380.66 1058.73 3497
-1372.29 1058.73 3497
-1367.05 1061.15 3505
-1358.67 1061.15 3505
-1356.07 1065.69 3520
-1350.33 1067.81 3527
-1341.9 1067.81 3527
-1333.46 1067.81 3527
-1325.03 1067.81 3527
-1313.98 1065.69 3520
-1305.56 1065.69 3520
-1297.15 1065.69 3520
-1283.24 1061.15 3505
-1271.95 1058.73 3497
-1261.05 1056.61 3490
-1252.71 1056.61 3490
-1241.87 1054.49 3483
-1231.06 1052.37 3476
-1222.75 1052.37 3476
-1214.43 1052.37 3476
-1200.92 1047.83 3461
-1185.4 1041.47 3440
-1172.39 1037.24 3426
-1164.19 1037.24 3426
-1156 1037.24 3426
-1136.08 1026.64 3391
-1107.68 1008.17 3330
-1099.72 1008.17 3330
-1089.46 1006.05 3323
-587.137 546.168 1804
-585.084 548.288 1811
-580.754 548.288 1811
-576.423 548.288 1811
-572.092 548.288 1811
-567.762 548.288 1811
-563.431 548.288 1811
-559.101 548.288 1811
-554.77 548.288 1811
-550.439 548.288 1811
-545.505 547.682 1809
-541.18 547.682 1809
-536.854 547.682 1809
-530.467 545.563 1802
-525.574 544.957 1800
-520.691 544.352 1798
-516.391 544.352 1798
-511.522 543.746 1796
-506.662 543.141 1794
-501.252 541.93 1790
-496.972 541.93 1790
-491.04 540.113 1784
-483.772 536.783 1773
-477.91 534.967 1767
-473.684 534.967 1767
-468.13 533.453 1762
-462.337 531.636 1756
-456.312 529.517 1749
-452.129 529.517 1749
-447.435 528.911 1747
-440.466 525.581 1736
-435.31 524.37 1732
-429.425 522.251 1725
-425.3 522.251 1725
-419.954 520.737 1720
-414.149 518.618 1713
-408.856 517.104 1708
-404.772 517.104 1708
-399.045 514.985 1701
-393.584 513.168 1695
-388.152 511.352 1689
-384.113 511.352 1689
-379.624 510.746 1687
-374.032 508.627 1680
-369.574 508.021 1678
-365.561 508.021 1678
-360.471 506.508 1673
-356.471 506.508 1673
-352.259 506.205 1672
-348.261 506.205 1672
-344.263 506.205 1672
-339.45 504.994 1668
-335.864 505.599 1670
-331.87 505.599 1670
-327.877 505.599 1670
-323.883 505.599 1670
-320.273 506.205 1672
-316.464 506.508 1673
-312.837 507.113 1675
-308.831 507.113 1675
-304.826 507.113 1675
-301.359 508.021 1678
-297.701 508.627 1680
-293.684 508.627 1680
-290.529 510.141 1685
-287.349 511.655 1690
-283.308 511.655 1690
-279.267 511.655 1690
-275.551 512.26 1692
-271.986 513.168 1695
-267.933 513.168 1695
-263.88 513.168 1695
-260.746 514.985 1701
-257.735 517.104 1708
-254.096 518.012 1711
-250.005 518.012 1711
-246.632 519.526 1716
-243.094 520.737 1720
-239.397 521.645 1723
-235.277 521.645 1723
-232.23 524.067 1731
-228.486 524.976 1734
-225.116 526.792 1740
-220.955 526.792 1740
-216.794 526.792 1740
-213.244 528.306 1745
-209.79 530.122 1751
-205.603 530.122 1751
-201.761 531.031 1754
-199.256 535.572 1769
-196.239 538.902 1780
-191.982 538.902 1780
-187.726 538.902 1780
-183.882 540.113 1784
-181.025 544.352 1798
-176.726 544.352 1798
-173.001 546.168 1804
-168.688 546.168 1804
-164.374 546.168 1804
-160.06 546.168 1804
-61.7433 1100.51 3635
-53.0509 1100.51 3635
-44.3585 1100.51 3635
-35.6662 1100.51 3635
-26.9738 1100.51 3635
-18.2814 1100.51 3635
-9.589 1100.51 3635
-0.896615 1100.51 3635
7.79577 1100.51 3635
16.4882 1100.51 3635
25.1251 1098.09 3627
33.7238 1095.67 3619
42.378 1095.67 3619
51.0321 1095.67 3619
59.4223 1090.82 3603
67.8871 1088.4 3595
76.3349 1086.28 3588
85.0806 1088.4 3595
93.6773 1088.4 3595
102.274 1088.4 3595
110.655 1086.28 3588
119.235 1086.28 3588
127.53 1083.86 3580
136.091 1083.86 3580
144.046 1079.32 3565
152.571 1079.32 3565
161.096 1079.32 3565
169.24 1076.9 3557
177.346 1074.47 3549
185.833 1074.47 3549
194.319 1074.47 3549
202.806 1074.47 3549
211.769 1076.9 3557
220.275 1076.9 3557
228.781 1076.9 3557
236.753 1074.47 3549
244.756 1072.36 3542
253.226 1072.36 3542
262.213 1074.47 3549
270.7 1074.47 3549
279.816 1076.9 3557
288.97 1079.32 3565
298.08 1081.44 3572
306.621 1081.44 3572
315.869 1083.86 3580
324.43 1083.86 3580
335.874 1093.25 3611
344.509 1093.25 3611
354.709 1098.09 3627
363.382 1098.09 3627
372.055 1098.09 3627
380.729 1098.09 3627
388.543 1095.67 3619
391.27 1079.32 3565
399.795 1079.32 3565
402.25 1063.27 3512
408.076 1056.61 3490
412.961 1047.83 3461
417.83 1039.35 3433
426.039 1039.35 3433
433.363 1037.24 3426
439.751 1033 3412
443.316 1022.4 3377
451.391 1022.4 3377
457.562 1018.16 3363
462.835 1012.11 3343
468.998 1008.17 3330
476.961 1008.17 3330
483.031 1004.24 3317
490.963 1004.24 3317
497.842 1002.12 3310
505.757 1002.12 3310
512.586 999.997 3303
519.539 998.18 3297
526.303 996.061 3290
534.171 996.061 3290
543.191 998.18 3297
551.076 998.18 3297
558.96 998.18 3297
566.844 998.18 3297
574.728 998.18 3297
582.612 998.18 3297
590.496 998.18 3297
599.469 999.997 3303
607.368 999.997 3303
615.266 999.997 3303
623.165 999.997 3303
631.063 999.997 3303
640.316 1002.12 3310
648.231 1002.12 3310
657.534 1004.24 3317
668.074 1008.17 3330
676.037 1008.17 3330
684 1008.17 3330
693.418 1010.29 3337
702.659 1012.11 3343
710.653 1012.11 3343
718.647 1012.11 3343
726.641 1012.11 3343
734.635 1012.11 3343
742.629 1012.11 3343
753.767 1016.35 3357
761.794 1016.35 3357
771.198 1018.16 3363
779.24 1018.16 3363
787.282 1018.16 3363
793.905 1016.35 3357
803.366 1018.16 3363
813.097 1020.28 3370
821.155 1020.28 3370
829.214 1020.28 3370
839.012 1022.4 3377
847.087 1022.4 3377
855.163 1022.4 3377
861.449 1020.28 3370
869.507 1020.28 3370
881.212 1024.52 3384
894.823 1030.88 3405
902.965 1030.88 3405
920.473 1041.47 3440
932.478 1045.71 3454
942.645 1047.83 3461
950.921 1047.83 3461
965.294 1054.49 3483
975.58 1056.61 3490
998.586 1072.36 3542
1007.06 1072.36 3542
1022.12 1079.32 3565
1032.67 1081.44 3572
1043.54 1083.86 3580
1056.51 1088.4 3595
1065.11 1088.4 3595
1085.65 1100.51 3635
1101.27 1107.47 3658
1110.02 1107.47 3658
1118.76 1107.47 3658
1127.51 1107.47 3658
1136.26 1107.47 3658
1145.01 1107.47 3658
1151.23 1105.05 3650
1159.96 1105.05 3650
1168.69 1105.05 3650
1177.41 1105.05 3650
1183.54 1102.63 3642
1192.25 1102.63 3642
1200.96 1102.63 3642
1209.67 1102.63 3642
1216.04 1100.51 3635
1224.73 1100.51 3635
1230.71 1098.09 3627
1239.38 1098.09 3627
1245.3 1095.67 3619
1253.96 1095.67 3619
1262.61 1095.67 3619
1271.26 1095.67 3619
1282.75 1098.09 3627
1291.42 1098.09 3627
1302.96 1100.51 3635
1314.18 1102.63 3642
1322.89 1102.63 3642
1331.6 1102.63 3642
1340.31 1102.63 3642
1351.98 1105.05 3650
1360.71 1105.05 3650
1369.44 1105.05 3650
1378.16 1105.05 3650
1386.89 1105.05 3650
1395.62 1105.05 3650
1404.35 1105.05 3650
1404.17 1098.09 3627
1409.73 1095.67 3619
1418.38 1095.67 3619
1417.57 1088.4 3595
1423.39 1086.28 3588
1428.78 1083.86 3580
1434.13 1081.44 3572
1442.67 1081.44 3572
1451.21 1081.44 3572
1447.5 1072.36 3542
1449.8 1067.81 3527
1458.23 1067.81 3527
1457.52 1061.15 3505
1459.63 1056.61 3490
1467.97 1056.61 3490
1476.32 1056.61 3490
1481.69 1054.49 3483
1490.02 1054.49 3483
1498.34 1054.49 3483
1506.67 1054.49 3483
1521.09 1058.73 3497
1529.45 1058.73 3497
1544.41 1063.27 3512
1562.54 1069.93 3534
1577.66 1074.47 3549
1586.14 1074.47 3549
1594.63 1074.47 3549
1603.12 1074.47 3549
1611.6 1074.47 3549
1616.9 1072.36 3542
1635.78 1030.88 3405
1643.92 1030.88 3405
1652.06 1030.88 3405
1660.21 1030.88 3405
1647.77 1018.16 3363
1649.41 1014.23 3350
1657.42 1014.23 3350
1649.03 1004.24 3317
1656.96 1004.24 3317
1664.89 1004.24 3317
1675.85 1006.05 3323
1683.8 1006.05 3323
1691.74 1006.05 3323
1713.5 1014.23 3350
1721.51 1014.23 3350
1729.52 1014.23 3350
1744.27 1018.16 3363
1752.32 1018.16 3363
1760.36 1018.16 3363
1768.4 1018.16 3363
1776.44 1018.16 3363
1773.87 1012.11 3343
1774.94 1008.17 3330
1782.9 1008.17 3330
1783.87 1004.24 3317
1791.8 1004.24 3317
1799.73 1004.24 3317
1807.67 1004.24 3317
1800.82 996.061 3290
2135.05 1117.47 3691
2158.4 1125.03 3716
2167.29 1125.03 3716
2176.17 1125.03 3716
2179.77 1122.31 3707
2174.46 1115.04 3683
2183.27 1115.04 3683
2177.2 1107.47 3658
2167.42 1098.09 3627
2171.29 1095.67 3619
2179.95 1095.67 3619
2202.51 1102.63 3642
2211.22 1102.63 3642
2240.04 1112.62 3675
2248.83 1112.62 3675
2257.62 1112.62 3675
-2374.95 967.935 3172
-2367.37 967.935 3172
-2359.78 967.935 3172
-2347.75 966.104 3166
-2335.74 964.273 3160
-2328.19 964.273 3160
-2320.63 964.273 3160
-2313.07 964.273 3160
-2309.9 966.104 3166
-2315.41 971.596 3184
-2307.8 971.596 3184
-2304.52 973.427 3190
-2305.53 977.089 3202
-2306.49 980.751 3214
-2298.8 980.751 3214
-2300.38 984.718 3227
-2328.9 1000.28 3278
-2338.76 1007.91 3303
-2330.86 1007.91 3303
-2341.95 1016.15 3330
-2348.01 1022.25 3350
-2340 1022.25 3350
-2370.27 1039.03 3405
-2371.84 1043.31 3419
-2373.35 1047.58 3433
-2365.14 1047.58 3433
-2356.93 1047.58 3433
-2348.72 1047.58 3433
-2340.51 1047.58 3433
-2318.03 1041.17 3412
-2309.87 1041.17 3412
-2292.27 1036.9 3398
-2274.73 1032.63 3384
-2266.64 1032.63 3384
-2258.55 1032.63 3384
-2264.42 1039.03 3405
-2270.2 1045.44 3426
-2271.25 1049.71 3440
-2263.02 1049.71 3440
-2259.38 1051.85 3447
-2255.71 1053.99 3454
-2252.01 1056.12 3461
-2243.73 1056.12 3461
-2249.66 1062.84 3483
-2245.84 1064.97 3490
-2237.49 1064.97 3490
-2229.15 1064.97 3490
-2220.8 1064.97 3490
-2216.9 1067.11 3497
-2218.01 1071.69 3512
-2209.61 1071.69 3512
-2206.22 1074.13 3520
-2202.18 1076.26 3527
-2203.07 1080.84 3542
-2194.6 1080.84 3542
-2190.45 1082.98 3549
-2186.88 1085.42 3557
-2183.28 1087.86 3565
-2174.75 1087.86 3565
-2166.23 1087.86 3565
-2161.94 1089.99 3572
-2153.4 1089.99 3572
-2144.86 1089.99 3572
-2136.31 1089.99 3572
-2127.77 1089.99 3572
-2119.23 1089.99 3572
-2106.55 1087.86 3565
-2098.03 1087.86 3565
-2080.13 1082.98 3549
-2076.31 1085.42 3557
-2067.8 1085.42 3557
-2059.3 1085.42 3557
-2050.79 1085.42 3557
-2042.29 1085.42 3557
-2033.78 1085.42 3557
-2025.27 1085.42 3557
-2016.77 1085.42 3557
-2008.26 1085.42 3557
-1991.32 1080.84 3542
-1982.85 1080.84 3542
-1974.38 1080.84 3542
-1965.91 1080.84 3542
-1957.44 1080.84 3542
-1948.97 1080.84 3542
-1948.72 1085.42 3557
-1944.58 1087.86 3565
-1936.05 1087.86 3565
-1931.31 1089.99 3572
-1931.38 1094.88 3588
-1926.56 1097.01 3595
-1917.96 1097.01 3595
-1922.11 1104.34 3619
-1913.45 1104.34 3619
-1904.8 1104.34 3619
-1896.15 1104.34 3619
-1887.49 1104.34 3619
-1887.14 1109.22 3635
-1903.26 1123.87 3683
-1894.45 1123.87 3683
-1889.74 1126.31 3691
-1889.07 1131.19 3707
-1880.2 1131.19 3707
-1871.34 1131.19 3707
-1862.47 1131.19 3707
-1841.61 1123.87 3683
-1832.8 1123.87 3683
-1823.99 1123.87 3683
-1815.19 1123.87 3683
-1806.38 1123.87 3683
-1797.57 1123.87 3683
-1780.99 1118.98 3667
-1767.87 1116.24 3658
-1744.22 1106.78 3627
-1735.55 1106.78 3627
-1726.87 1106.78 3627
-1718.2 1106.78 3627
-1705.76 1104.34 3619
-1697.1 1104.34 3619
-1680.98 1099.45 3603
-1668.65 1097.01 3595
-1638.82 1082.98 3549
-1600.01 1062.84 3483
-1591.68 1062.84 3483
-1563.8 1049.71 3440
-1546.08 1043.31 3419
-1537.91 1043.31 3419
-1529.73 1043.31 3419
-1515.32 1039.03 3405
-1507.18 1039.03 3405
-1489.79 1032.63 3384
-1484.77 1034.76 3391
-1476.66 1034.76 3391
-1471.58 1036.9 3398
-1463.45 1036.9 3398
-1455.33 1036.9 3398
-1447.2 1036.9 3398
-1442.04 1039.03 3405
-1436.85 1041.17 3412
-1434.55 1045.44 3426
-1426.36 1045.44 3426
-1421.06 1047.58 3433
-1418.62 1051.85 3447
-1416.1 1056.12 3461
-1407.82 1056.12 3461
-1405.61 1060.7 3476
-1397.3 1060.7 3476
-1391.79 1062.84 3483
-1383.46 1062.84 3483
-1380.66 1067.11 3497
-1372.29 1067.11 3497
-1367.05 1069.55 3505
-1358.67 1069.55 3505
-1356.07 1074.13 3520
-1350.33 1076.26 3527
-1341.9 1076.26 3527
-1333.46 1076.26 3527
-1325.03 1076.26 3527
-1313.98 1074.13 3520
-1305.56 1074.13 3520
-1297.15 1074.13 3520
-1280.31 1067.11 3497
-1271.95 1067.11 3497
-1261.05 1064.97 3490
-1252.71 1064.97 3490
-1241.87 1062.84 3483
-1231.06 1060.7 3476
-1222.75 1060.7 3476
-1214.43 1060.7 3476
-1200.92 1056.12 3461
-1182.99 1047.58 3433
-1172.39 1045.44 3426
-1164.19 1045.44 3426
-1156 1045.44 3426
-1126.7 1026.22 3363
-591.451 550.49 1804
-587.137 550.49 1804
-585.084 552.626 1811
-580.754 552.626 1811
-576.423 552.626 1811
-572.092 552.626 1811
-567.762 552.626 1811
-563.431 552.626 1811
-559.101 552.626 1811
-554.77 552.626 1811
-550.439 552.626 1811
-545.505 552.016 1809
-541.18 552.016 1809
-536.854 552.016 1809
-530.467 549.88 1802
-525.574 549.269 1800
-521.27 549.269 1800
-516.965 549.269 1800
-511.522 548.049 1796
-505.533 546.218 1790
-500.692 545.608 1788
-496.416 545.608 1788
-489.939 543.166 1780
-482.681 539.81 1769
-476.557 537.674 1762
-472.344 537.674 1762
-466.536 535.843 1756
-461.284 534.622 1752
-455.79 533.096 1747
-451.612 533.096 1747
-446.41 531.876 1743
-440.466 529.74 1736
-435.31 528.519 1732
-429.425 526.383 1725
-425.3 526.383 1725
-419.954 524.857 1720
-414.149 522.721 1713
-408.856 521.196 1708
-404.772 521.196 1708
-399.045 519.06 1701
-393.584 517.229 1695
-388.152 515.398 1689
-384.113 515.398 1689
-379.624 514.787 1687
-374.032 512.651 1680
-369.574 512.041 1678
-365.561 512.041 1678
-360.471 510.515 1673
-356.471 510.515 1673
-352.259 510.21 1672
-348.261 510.21 1672
-344.263 510.21 1672
-339.45 508.99 1668
-335.864 509.6 1670
-331.87 509.6 1670
-327.877 509.6 1670
-323.883 509.6 1670
-320.273 510.21 1672
-316.464 510.515 1673
-312.837 511.126 1675
-308.831 511.126 1675
-304.826 511.126 1675
-301.359 512.041 1678
-297.701 512.651 1680
-293.684 512.651 1680
-290.529 514.177 1685
-287.349 515.703 1690
-283.643 516.313 1692
-279.597 516.313 1692
-275.551 516.313 1692
-271.986 517.229 1695
-267.933 517.229 1695
-263.88 517.229 1695
-260.746 519.06 1701
-257.735 521.196 1708
-254.096 522.111 1711
-250.005 522.111 1711
-246.632 523.637 1716
-243.094 524.857 1720
-239.397 525.773 1723
-235.277 525.773 1723
-232.23 528.214 1731
-228.75 529.74 1736
-225.116 530.96 1740
-220.955 530.96 1740
-216.919 531.266 1741
-213.244 532.486 1745
-209.79 534.317 1751
-205.603 534.317 1751
-201.991 535.843 1756
-199.482 540.42 1771
-196.239 543.166 1780
-191.982 543.166 1780
-187.726 543.166 1780
-183.882 544.387 1784
-181.025 548.659 1798
-176.726 548.659 1798
-173.001 550.49 1804
-170.09 555.067 1819
-166.105 556.288 1823
-161.745 556.288 1823
-157.386 556.288 1823
-61.7433 1109.22 3635
-53.0509 1109.22 3635
-44.3585 1109.22 3635
-35.6662 1109.22 3635
-26.9738 1109.22 3635
-18.2814 1109.22 3635
-9.589 1109.22 3635
-0.896615 1109.22 3635
7.79577 1109.22 3635
16.4882 1109.22 3635
25.1251 1106.78 3627
33.7984 1106.78 3627
42.378 1104.34 3619
51.0321 1104.34 3619
59.6862 1104.34 3619
68.0382 1099.45 3603
76.4839 1097.01 3595
85.0806 1097.01 3595
93.6773 1097.01 3595
102.274 1097.01 3595
110.871 1097.01 3595
119.468 1097.01 3595
128.064 1097.01 3595
136.661 1097.01 3595
144.975 1094.88 3588
153.555 1094.88 3588
161.773 1092.44 3580
169.954 1089.99 3572
178.495 1089.99 3572
187.037 1089.99 3572
195.579 1089.99 3572
204.121 1089.99 3572
212.246 1087.86 3565
220.771 1087.86 3565
229.296 1087.86 3565
237.821 1087.86 3565
245.793 1085.42 3557
254.299 1085.42 3557
262.804 1085.42 3557
271.31 1085.42 3557
280.445 1087.86 3565
289.538 1089.99 3572
298.747 1092.44 3580
307.308 1092.44 3580
315.869 1092.44 3580
325.155 1094.88 3588
335.874 1101.9 3611
344.509 1101.9 3611
353.926 1104.34 3619
362.581 1104.34 3619
371.235 1104.34 3619
379.889 1104.34 3619
386.825 1099.45 3603
390.392 1085.42 3557
398.898 1085.42 3557
401.448 1069.55 3505
406.439 1060.7 3476
412.961 1056.12 3461
417.83 1047.58 3433
426.039 1047.58 3433
431.592 1041.17 3412
436.142 1032.63 3384
441.478 1026.22 3363
449.52 1026.22 3363
454.841 1020.12 3343
462.004 1018.28 3337
468.012 1014.01 3323
475.958 1014.01 3323
483.031 1012.18 3317
489.927 1010.05 3310
497.842 1010.05 3310
505.757 1010.05 3310
512.586 1007.91 3303
519.539 1006.08 3297
526.303 1003.94 3290
534.171 1003.94 3290
543.191 1006.08 3297
551.076 1006.08 3297
558.96 1006.08 3297
566.844 1006.08 3297
574.728 1006.08 3297
582.612 1006.08 3297
591.571 1007.91 3303
599.469 1007.91 3303
608.655 1010.05 3310
616.57 1010.05 3310
624.485 1010.05 3310
632.401 1010.05 3310
640.316 1010.05 3310
648.231 1010.05 3310
657.534 1012.18 3317
668.074 1016.15 3330
677.458 1018.28 3337
685.438 1018.28 3337
693.418 1018.28 3337
704.13 1022.25 3350
712.141 1022.25 3350
720.152 1022.25 3350
728.162 1022.25 3350
734.635 1020.12 3343
744.184 1022.25 3350
755.114 1026.22 3363
763.156 1026.22 3363
772.803 1028.35 3370
780.862 1028.35 3370
788.921 1028.35 3370
796.979 1028.35 3370
805.038 1028.35 3370
814.786 1030.49 3377
824.567 1032.63 3384
832.659 1032.63 3384
840.751 1032.63 3384
848.843 1032.63 3384
856.935 1032.63 3384
865.027 1032.63 3384
873.12 1032.63 3384
883.035 1034.76 3391
894.823 1039.03 3405
902.965 1039.03 3405
920.473 1049.71 3440
932.478 1053.99 3454
942.645 1056.12 3461
950.921 1056.12 3461
965.294 1062.84 3483
975.58 1064.97 3490
998.586 1080.84 3542
1007.06 1080.84 3542
1017.53 1082.98 3549
1030.65 1087.86 3565
1043.54 1092.44 3580
1056.51 1097.01 3595
1065.11 1097.01 3595
1083.26 1106.78 3627
1098.86 1113.8 3650
1107.59 1113.8 3650
1116.32 1113.8 3650
1125.04 1113.8 3650
1133.77 1113.8 3650
1142.5 1113.8 3650
1151.23 1113.8 3650
1155.19 1109.22 3635
1163.88 1109.22 3635
1172.58 1109.22 3635
1181.27 1109.22 3635
1189.96 1109.22 3635
1198.65 1109.22 3635
1207.35 1109.22 3635
1216.04 1109.22 3635
1222.03 1106.78 3627
1227.99 1104.34 3619
1236.65 1104.34 3619
1242.55 1101.9 3611
1251.18 1101.9 3611
1257.03 1099.45 3603
1265.64 1099.45 3603
1279.92 1104.34 3619
1288.57 1104.34 3619
1300.09 1106.78 3627
1311.65 1109.22 3635
1322.89 1111.35 3642
1331.6 1111.35 3642
1340.31 1111.35 3642
1351.98 1113.8 3650
1360.71 1113.8 3650
1369.44 1113.8 3650
1378.16 1113.8 3650
1386.89 1113.8 3650
1395.62 1113.8 3650
1404.35 1113.8 3650
1404.17 1106.78 3627
1409.73 1104.34 3619
1418.38 1104.34 3619
1417.57 1097.01 3595
1423.39 1094.88 3588
1428.78 1092.44 3580
1434.13 1089.99 3572
1442.67 1089.99 3572
1451.21 1089.99 3572
1447.5 1080.84 3542
1449.8 1076.26 3527
1458.23 1076.26 3527
1457.52 1069.55 3505
1459.63 1064.97 3490
1465.03 1062.84 3483
1473.36 1062.84 3483
1481.69 1062.84 3483
1490.02 1062.84 3483
1491.89 1058.26 3468
1500.18 1058.26 3468
1511.96 1060.7 3476
1520.27 1060.7 3476
1537.82 1067.11 3497
1562.54 1078.4 3534
1570.99 1078.4 3534
1579.44 1078.4 3534
1587.89 1078.4 3534
1596.34 1078.4 3534
1604.79 1078.4 3534
1610.05 1076.26 3527
1618.97 1028.35 3370
1630.4 1030.49 3377
1638.48 1030.49 3377
1646.55 1030.49 3377
1651.2 1028.35 3370
1649.41 1022.25 3350
1657.42 1022.25 3350
1658.97 1018.28 3337
1656.96 1012.18 3317
1664.89 1012.18 3317
1675.85 1014.01 3323
1683.8 1014.01 3323
1695.31 1016.15 3330
1706.85 1018.28 3337
1725.11 1024.39 3357
1733.13 1024.39 3357
1744.27 1026.22 3363
1763.26 1032.63 3384
1771.35 1032.63 3384
1779.44 1032.63 3384
1787.53 1032.63 3384
1777.59 1022.25 3350
1774.94 1016.15 3330
1782.9 1016.15 3330
1790.86 1016.15 3330
1791.8 1012.18 3317
1792.14 1007.91 3303
1800.04 1007.91 3303
1800.82 1003.94 3290
2158.4 1133.94 3716
2167.29 1133.94 3716
2176.17 1133.94 3716
2179.77 1131.19 3707
2174.46 1123.87 3683
2183.27 1123.87 3683
2177.2 1116.24 3658
2167.42 1106.78 3627
2166.49 1101.9 3611
2179.95 1104.34 3619
2188.6 1104.34 3619
2197.26 1104.34 3619
2205.91 1104.34 3619
-2379.45 977.379 3178
-2371.85 977.379 3178
-2359.78 975.533 3172
-2352.2 975.533 3172
-2340.18 973.688 3166
-2332.61 973.688 3166
-2325.04 973.688 3166
-2326.25 977.379 3178
-2318.65 977.379 3178
-2315.41 979.224 3184
-2307.8 979.224 3184
-2308.85 982.914 3196
-2309.85 986.605 3208
-2306.49 988.45 3214
-2298.8 988.45 3214
-2308.94 996.139 3239
-2328.9 1008.13 3278
-2348.68 1020.13 3317
-2340.74 1020.13 3317
-2356.02 1030.28 3350
-2362.03 1036.43 3370
-2353.97 1036.43 3370
-2380.02 1051.5 3419
-2381.56 1055.8 3433
-2387.86 1062.26 3454
-2379.61 1062.26 3454
-2371.35 1062.26 3454
-2353.51 1057.96 3440
-2345.28 1057.96 3440
-2332.3 1055.8 3433
-2309.87 1049.34 3412
-2292.27 1045.04 3398
-2274.73 1040.73 3384
-2271.33 1042.89 3391
-2263.22 1042.89 3391
-2264.42 1047.19 3405
-2274.83 1055.8 3433
-2275.87 1060.11 3447
-2267.63 1060.11 3447
-2263.97 1062.26 3454
-2255.71 1062.26 3454
-2252.01 1064.41 3461
-2243.73 1064.41 3461
-2249.66 1071.18 3483
-2245.84 1073.33 3490
-2237.49 1073.33 3490
-2229.15 1073.33 3490
-2216.35 1071.18 3483
-2212.46 1073.33 3490
-2213.59 1077.95 3505
-2205.2 1077.95 3505
-2206.22 1082.56 3520
-2202.18 1084.71 3527
-2198.1 1086.86 3534
-2189.65 1086.86 3534
-2190.45 1091.48 3549
-2181.97 1091.48 3549
-2173.48 1091.48 3549
-2164.99 1091.48 3549
-2161.37 1093.94 3557
-2157.7 1096.4 3565
-2149.18 1096.4 3565
-2140.65 1096.4 3565
-2132.13 1096.4 3565
-2123.6 1096.4 3565
-2115.08 1096.4 3565
-2106.55 1096.4 3565
-2088.61 1091.48 3549
-2076.02 1089.32 3542
-2067.55 1089.32 3542
-2059.08 1089.32 3542
-2059.3 1093.94 3557
-2050.79 1093.94 3557
-2042.29 1093.94 3557
-2033.78 1093.94 3557
-2020.72 1091.48 3549
-2008.26 1089.32 3542
-1999.79 1089.32 3542
-1991.32 1089.32 3542
-1978.37 1086.86 3534
-1974.38 1089.32 3542
-1965.91 1089.32 3542
-1957.44 1089.32 3542
-1948.97 1089.32 3542
-1944.34 1091.48 3549
-1940.21 1093.94 3557
-1931.71 1093.94 3557
-1927.53 1096.4 3565
-1922.77 1098.55 3572
-1926.56 1105.62 3595
-1917.96 1105.62 3595
-1922.11 1113.01 3619
-1913.45 1113.01 3619
-1904.8 1113.01 3619
-1896.15 1113.01 3619
-1883.32 1110.55 3611
-1878.84 1113.01 3619
-1899.12 1130.23 3675
-1890.33 1130.23 3675
-1885.64 1132.69 3683
-1884.99 1137.61 3699
-1876.14 1137.61 3699
-1867.3 1137.61 3699
-1858.45 1137.61 3699
-1841.61 1132.69 3683
-1832.8 1132.69 3683
-1823.99 1132.69 3683
-1811.24 1130.23 3675
-1802.45 1130.23 3675
-1793.67 1130.23 3675
-1776.62 1125 3658
-1760.14 1120.08 3642
-1744.22 1115.47 3627
-1735.55 1115.47 3627
-1726.87 1115.47 3627
-1718.2 1115.47 3627
-1705.76 1113.01 3619
-1697.1 1113.01 3619
-1680.98 1108.09 3603
-1668.65 1105.62 3595
-1638.82 1091.48 3549
-1596.79 1069.03 3476
-1588.48 1069.03 3476
-1560.62 1055.8 3433
-1536.59 1045.04 3398
-1528.46 1045.04 3398
-1520.33 1045.04 3398
-1512.21 1045.04 3398
-1500.98 1042.89 3391
-1486.71 1038.58 3377
-1481.7 1040.73 3384
-1473.61 1040.73 3384
-1471.58 1045.04 3398
-1463.45 1045.04 3398
-1455.33 1045.04 3398
-1447.2 1045.04 3398
-1442.04 1047.19 3405
-1436.85 1049.34 3412
-1431.62 1051.5 3419
-1423.44 1051.5 3419
-1418.17 1053.65 3426
-1418.62 1060.11 3447
-1416.1 1064.41 3461
-1407.82 1064.41 3461
-1402.38 1066.57 3468
-1397.3 1069.03 3476
-1391.79 1071.18 3483
-1383.46 1071.18 3483
-1380.66 1075.49 3497
-1372.29 1075.49 3497
-1367.05 1077.95 3505
-1358.67 1077.95 3505
-1356.07 1082.56 3520
-1350.33 1084.71 3527
-1341.9 1084.71 3527
-1333.46 1084.71 3527
-1325.03 1084.71 3527
-1313.98 1082.56 3520
-1305.56 1082.56 3520
-1294.2 1080.1 3512
-1280.31 1075.49 3497
-1266.85 1071.18 3483
-1258.52 1071.18 3483
-1250.2 1071.18 3483
-1241.87 1071.18 3483
-1233.54 1071.18 3483
-1219.93 1066.57 3468
-1211.64 1066.57 3468
-1200.92 1064.41 3461
-1182.99 1055.8 3433
-1172.39 1053.65 3426
-1164.19 1053.65 3426
-1156 1053.65 3426
-591.779 555.119 1805
-587.462 555.119 1805
-585.731 557.579 1813
-582.036 558.194 1815
-577.696 558.194 1815
-573.356 558.194 1815
-567.762 556.964 1811
-563.431 556.964 1811
-559.101 556.964 1811
-554.77 556.964 1811
-550.439 556.964 1811
-546.109 556.964 1811
-541.778 556.964 1811
-537.447 556.964 1811
-531.056 554.811 1804
-526.158 554.196 1802
-521.27 553.581 1800
-516.965 553.581 1800
-511.522 552.351 1796
-505.533 550.506 1790
-500.132 549.276 1786
-495.861 549.276 1786
-489.113 546.508 1777
-481.044 542.202 1763
-476.557 541.895 1762
-472.344 541.895 1762
-466.005 539.434 1754
-461.284 538.819 1752
-455.268 536.666 1745
-451.095 536.666 1745
-445.898 535.436 1741
-439.959 533.283 1734
-435.058 532.361 1731
-429.425 530.515 1725
-425.3 530.515 1725
-419.954 528.978 1720
-414.149 526.825 1713
-408.856 525.287 1708
-404.772 525.287 1708
-399.045 523.134 1701
-393.584 521.289 1695
-388.152 519.444 1689
-384.113 519.444 1689
-379.624 518.829 1687
-374.032 516.676 1680
-369.574 516.061 1678
-365.561 516.061 1678
-360.471 514.523 1673
-356.257 514.216 1672
-352.259 514.216 1672
-348.261 514.216 1672
-344.263 514.216 1672
-339.45 512.985 1668
-335.864 513.6 1670
-331.87 513.6 1670
-327.877 513.6 1670
-323.883 513.6 1670
-320.273 514.216 1672
-316.464 514.523 1673
-312.837 515.138 1675
-308.831 515.138 1675
-304.826 515.138 1675
-301.359 516.061 1678
-297.701 516.676 1680
-293.684 516.676 1680
-290.529 518.214 1685
-287.349 519.751 1690
-283.643 520.366 1692
-279.597 520.366 1692
-275.551 520.366 1692
-271.986 521.289 1695
-267.933 521.289 1695
-263.88 521.289 1695
-260.746 523.134 1701
-257.735 525.287 1708
-253.799 525.595 1709
-249.712 525.595 1709
-246.632 527.747 1716
-243.094 528.978 1720
-239.397 529.9 1723
-235.277 529.9 1723
-231.962 531.746 1729
-228.75 533.898 1736
-225.116 535.129 1740
-220.955 535.129 1740
-216.919 535.436 1741
-213.244 536.666 1745
-209.79 538.512 1751
-205.603 538.512 1751
-201.991 540.049 1756
-199.482 544.662 1771
-196.239 547.43 1780
-191.982 547.43 1780
-187.726 547.43 1780
-183.882 548.661 1784
-180.622 551.736 1794
-176.332 551.736 1794
-173.001 554.811 1804
-170.09 559.425 1819
-166.105 560.655 1823
