1872.31 -929.709 4059
1882.02 -929.709 4059
1896.39 -932 4069
1906.12 -932 4069
1915.85 -932 4069
1925.58 -932 4069
1935.31 -932 4069
2952.98 -909.782 3972
2962.48 -909.782 3972
2971.97 -909.782 3972
3010 -918.486 4010
3041.42 -925.128 4039
3051.08 -925.128 4039
3060.74 -925.128 4039
3070.4 -925.128 4039
3057.94 -918.486 4010
3067.53 -918.486 4010
-2447.79 -816.632 3603
-2439.18 -816.632 3603
-2430.56 -816.632 3603
-2421.95 -816.632 3603
-2413.33 -816.632 3603
-2404.72 -816.632 3603
-2396.1 -816.632 3603
-2387.48 -816.632 3603
-2378.87 -816.632 3603
-2360.38 -813.232 3588
-2346.56 -811.419 3580
-2343.22 -813.232 3588
-2339.2 -814.819 3595
-2330.6 -814.819 3595
-2322.01 -814.819 3595
-2308.9 -813.232 3588
-2300.32 -813.232 3588
-2291.74 -813.232 3588
-2278.07 -811.419 3580
-2254.93 -806.206 3557
-2246.43 -806.206 3557
-2209.61 -796.006 3512
-2206.22 -797.82 3520
-2197.81 -797.82 3520
-2189.39 -797.82 3520
-547.971 -368.085 1624
-544.087 -368.085 1624
-540.204 -368.085 1624
-535.99 -367.858 1623
-531.453 -367.405 1621
-527.577 -367.405 1621
-523.701 -367.405 1621
-519.824 -367.405 1621
-515.948 -367.405 1621
-510.176 -366.045 1615
-506.314 -366.045 1615
-500.897 -364.912 1610
-496.121 -364.232 1607
-492.278 -364.232 1607
-488.435 -364.232 1607
-483.688 -363.552 1604
-478.954 -362.872 1601
-474.236 -362.192 1598
-470.414 -362.192 1598
-465.133 -361.059 1593
-460.455 -360.379 1590
-456.366 -360.152 1589
-452.566 -360.152 1589
-447.919 -359.472 1586
-443.286 -358.792 1583
-437.28 -356.979 1575
-432.688 -356.299 1572
-428.928 -356.299 1572
-424.358 -355.619 1569
-420.606 -355.619 1569
-417.385 -356.072 1571
-413.629 -356.072 1571
-409.872 -356.072 1571
-406.115 -356.072 1571
-402.358 -356.072 1571
-398.602 -356.072 1571
-394.845 -356.072 1571
-391.337 -356.299 1572
-388.071 -356.752 1574
-385.284 -357.659 1578
-381.51 -357.659 1578
-377.737 -357.659 1578
-374.674 -358.339 1581
-370.894 -358.339 1581
-367.113 -358.339 1581
-363.792 -358.792 1583
-360.689 -359.472 1586
-357.796 -360.379 1590
-353.994 -360.379 1590
-350.853 -361.059 1593
-348.133 -362.192 1598
-345.604 -363.552 1604
-341.769 -363.552 1604
-338.565 -364.232 1607
-335.764 -365.365 1612
-333.556 -367.178 1620
-329.682 -367.178 1620
-327.015 -368.538 1626
-324.319 -369.898 1632
-321.987 -371.711 1640
-318.065 -371.711 1640
-315.484 -373.298 1647
-312.681 -374.658 1653
-310.409 -376.698 1662
-306.435 -376.698 1662
-303.552 -378.058 1668
-300.821 -379.644 1675
-297.347 -380.324 1678
-293.334 -380.324 1678
-290.184 -381.458 1683
-286.159 -381.458 1683
-283.14 -382.817 1689
-279.101 -382.817 1689
-275.225 -383.044 1690
-271.826 -383.951 1694
-267.775 -383.951 1694
-263.724 -383.951 1694
-260.133 -384.631 1697
-256.679 -385.537 1701
-252.76 -385.764 1702
-248.69 -385.764 1702
-244.907 -386.217 1704
-241.398 -387.124 1708
-237.452 -387.35 1709
-233.366 -387.35 1709
-229.815 -388.257 1713
-225.983 -388.71 1715
-221.882 -388.71 1715
-217.781 -388.71 1715
-214.552 -390.297 1722
-211.289 -391.884 1729
-207.394 -392.337 1731
-203.255 -392.337 1731
-199.116 -392.337 1731
-408.251 -877.375 3871
-398.994 -877.375 3871
-389.738 -877.375 3871
-382.25 -881.455 3889
-372.95 -881.455 3889
-363.651 -881.455 3889
-354.351 -881.455 3889
-345.051 -881.455 3889
-335.751 -881.455 3889
-326.451 -881.455 3889
-317.152 -881.455 3889
-307.852 -881.455 3889
-298.552 -881.455 3889
-286.575 -873.295 3853
-276.713 -871.255 3844
-268.147 -873.295 3853
-260.143 -877.375 3871
-250.887 -877.375 3871
-241.63 -877.375 3871
-232.373 -877.375 3871
-222.079 -873.295 3853
-212.865 -873.295 3853
-201.802 -865.362 3818
-191.763 -861.283 3800
-181.859 -857.43 3783
-172.813 -857.43 3783
-163.031 -853.576 3766
-153.657 -851.536 3757
-145.327 -855.39 3774
-136.628 -857.43 3783
-127.581 -857.43 3783
-119.35 -863.322 3809
-110.241 -863.322 3809
-101.584 -867.176 3826
-92.435 -867.176 3826
-84.0695 -875.335 3862
-75.0087 -877.375 3871
-65.752 -877.375 3871
-56.4952 -877.375 3871
-47.1287 -875.335 3862
-37.5402 -867.176 3826
-28.6582 -875.335 3862
-19.423 -875.335 3862
-10.259 -881.455 3889
-0.970613 -891.881 3935
8.47777 -895.961 3953
17.9306 -895.961 3953
27.4527 -898.227 3963
36.9294 -898.227 3963
46.4062 -898.227 3963
55.8829 -898.227 3963
64.436 -885.534 3907
73.439 -881.455 3889
82.1643 -875.335 3862
91.3995 -875.335 3862
100.4 -873.295 3853
108.846 -867.176 3826
116.946 -859.469 3792
126.014 -859.469 3792
134.156 -853.576 3766
142.173 -847.683 3740
150.793 -845.87 3732
161.173 -853.576 3766
170.178 -853.576 3766
179.565 -855.39 3774
189.489 -859.469 3792
198.976 -861.283 3800
208.063 -861.283 3800
218.635 -867.176 3826
227.784 -867.176 3826
238.048 -871.255 3844
247.24 -871.255 3844
260.035 -883.495 3898
269.978 -885.534 3907
281.323 -891.881 3935
290.732 -891.881 3935
300.142 -891.881 3935
309.552 -891.881 3935
318.962 -891.881 3935
328.372 -891.881 3935
333.833 -881.455 3889
341.544 -877.375 3871
352.432 -881.455 3889
361.732 -881.455 3889
371.032 -881.455 3889
380.332 -881.455 3889
390.533 -883.495 3898
401.701 -887.574 3916
411.065 -887.574 3916
420.43 -887.574 3916
429.794 -887.574 3916
439.158 -887.574 3916
448.523 -887.574 3916
457.887 -887.574 3916
468.325 -889.614 3925
477.711 -889.614 3925
487.097 -889.614 3925
496.483 -889.614 3925
503.549 -885.534 3907
514.073 -887.574 3916
523.437 -887.574 3916
532.802 -887.574 3916
1779.63 -922.252 4069
1789.36 -922.252 4069
1799.09 -922.252 4069
1774.14 -904.573 3991
1783.69 -904.573 3991
1806.26 -911.146 4020
1824.46 -915.453 4039
1834.11 -915.453 4039
1852.9 -919.986 4059
1876.37 -926.785 4089
1886.15 -926.785 4089
1895.93 -926.785 4089
1896.39 -922.252 4069
1906.12 -922.252 4069
1915.85 -922.252 4069
1925.58 -922.252 4069
2934.88 -891.881 3935
2944.29 -891.881 3935
2995.73 -904.573 3991
3019.59 -908.88 4010
3029.17 -908.88 4010
3038.76 -908.88 4010
3048.35 -908.88 4010
3051.08 -906.84 4001
3060.65 -906.84 4001
-2442.36 -806.207 3595
-2433.76 -806.207 3595
-2425.17 -806.207 3595
-2421.95 -808.001 3603
-2413.33 -808.001 3603
-2404.72 -808.001 3603
-2396.1 -808.001 3603
-2387.48 -808.001 3603
-2378.87 -808.001 3603
-2360.38 -804.637 3588
-2346.56 -802.843 3580
-2343.22 -804.637 3588
-2334.64 -804.637 3588
-2326.06 -804.637 3588
-2317.48 -804.637 3588
-2308.9 -804.637 3588
-2300.32 -804.637 3588
-2286.63 -802.843 3580
-2278.07 -802.843 3580
-2254.93 -797.685 3557
-2246.43 -797.685 3557
-2205.2 -786.024 3505
-2206.22 -789.387 3520
-2197.81 -789.387 3520
-2189.39 -789.387 3520
-547.971 -364.195 1624
-544.087 -364.195 1624
-540.204 -364.195 1624
-536.32 -364.195 1624
-531.453 -363.522 1621
-528.228 -363.97 1623
-524.347 -363.97 1623
-520.466 -363.97 1623
-516.585 -363.97 1623
-511.124 -362.849 1618
-507.255 -362.849 1618
-501.519 -361.504 1612
-497.047 -361.055 1610
-492.278 -360.382 1607
-488.435 -360.382 1607
-484.291 -360.158 1606
-479.553 -359.485 1603
-474.532 -358.588 1599
-470.709 -358.588 1599
-465.717 -357.691 1595
-461.324 -357.243 1593
-456.653 -356.57 1590
-452.851 -356.57 1590
-447.919 -355.673 1586
-443.566 -355.224 1584
-437.835 -353.655 1577
-433.513 -353.206 1575
-429.747 -353.206 1575
-425.169 -352.533 1572
-420.606 -351.861 1569
-417.385 -352.309 1571
-413.629 -352.309 1571
-409.872 -352.309 1571
-406.115 -352.309 1571
-402.358 -352.309 1571
-398.602 -352.309 1571
-394.845 -352.309 1571
-391.337 -352.533 1572
-388.071 -352.982 1574
-385.04 -353.655 1577
-381.269 -353.655 1577
-377.737 -353.879 1578
-373.963 -353.879 1578
-370.894 -354.552 1581
-367.113 -354.552 1581
-363.332 -354.552 1581
-360.689 -355.673 1586
-357.796 -356.57 1590
-353.994 -356.57 1590
-350.853 -357.243 1593
-348.133 -358.364 1598
-345.604 -359.71 1604
-341.769 -359.71 1604
-338.565 -360.382 1607
-335.764 -361.504 1612
-333.556 -363.298 1620
-329.682 -363.298 1620
-327.015 -364.643 1626
-324.319 -365.989 1632
-321.987 -367.783 1640
-318.065 -367.783 1640
-315.484 -369.353 1647
-312.681 -370.698 1653
-310.409 -372.716 1662
-306.435 -372.716 1662
-303.552 -374.062 1668
-301.18 -376.08 1677
-297.347 -376.305 1678
-293.334 -376.305 1678
-290.184 -377.426 1683
-286.159 -377.426 1683
-283.14 -378.771 1689
-279.101 -378.771 1689
-275.225 -378.996 1690
-271.826 -379.893 1694
-267.775 -379.893 1694
-263.724 -379.893 1694
-260.133 -380.565 1697
-256.679 -381.463 1701
-252.76 -381.687 1702
-248.69 -381.687 1702
-244.907 -382.135 1704
-241.539 -383.257 1709
-237.452 -383.257 1709
-233.366 -383.257 1709
-229.815 -384.154 1713
-225.983 -384.602 1715
-221.882 -384.602 1715
-217.781 -384.602 1715
-214.925 -386.845 1725
-211.656 -388.415 1732
-207.754 -388.863 1734
-203.607 -388.863 1734
-199.461 -388.863 1734
-411.099 -874.157 3898
-401.777 -874.157 3898
-392.456 -874.157 3898
-383.135 -874.157 3898
-373.813 -874.157 3898
-364.492 -874.157 3898
-354.351 -872.139 3889
-343.454 -868.102 3871
-334.197 -868.102 3871
-324.941 -868.102 3871
-315.684 -868.102 3871
-305.002 -864.065 3853
-295.788 -864.065 3853
-285.905 -862.047 3844
-276.065 -860.029 3835
-266.895 -860.029 3835
-258.934 -864.065 3853
-249.72 -864.065 3853
-240.506 -864.065 3853
-231.293 -864.065 3853
-220.062 -856.216 3818
-210.932 -856.216 3818
-200.85 -852.18 3800
-190.905 -848.367 3783
-181.426 -846.349 3774
-172.402 -846.349 3774
-162.641 -842.537 3757
-153.33 -840.742 3749
-144.673 -842.537 3757
-136.014 -844.555 3766
-127.008 -844.555 3766
-118.535 -848.367 3783
-109.489 -848.367 3783
-101.372 -856.216 3818
-92.2417 -856.216 3818
-83.6777 -862.047 3844
-74.8343 -866.084 3862
-65.5991 -866.084 3862
-56.3639 -866.084 3862
-46.909 -862.047 3844
-37.8935 -866.084 3862
-28.8586 -872.139 3889
-19.5588 -872.139 3889
-10.3804 -882.454 3935
-0.975053 -886.491 3953
8.49921 -888.734 3963
17.9759 -888.734 3963
27.515 -890.752 3972
37.0133 -890.752 3972
46.5115 -890.752 3972
56.0098 -890.752 3972
65.508 -890.752 3972
73.7789 -876.175 3907
82.7387 -872.139 3889
92.0385 -872.139 3889
101.104 -870.12 3880
109.614 -864.065 3853
117.193 -852.18 3800
126.28 -852.18 3800
134.441 -846.349 3774
143.161 -844.555 3766
152.167 -844.555 3766
161.515 -846.349 3774
170.54 -846.349 3774
180.802 -852.18 3800
189.889 -852.18 3800
200.337 -858.01 3826
209.486 -858.01 3826
219.15 -860.029 3835
228.32 -860.029 3835
240.278 -870.12 3880
249.556 -870.12 3880
261.236 -878.194 3916
271.913 -882.454 3935
281.966 -884.473 3944
292.062 -886.491 3953
301.515 -886.491 3953
311.755 -888.734 3963
321.231 -888.734 3963
330.708 -888.734 3963
337.781 -882.454 3935
343.133 -872.139 3889
354.064 -876.175 3907
363.406 -876.175 3907
372.749 -876.175 3907
384.83 -882.454 3935
394.24 -882.454 3935
403.65 -882.454 3935
412.01 -880.212 3925
421.396 -880.212 3925
429.794 -878.194 3916
439.158 -878.194 3916
448.523 -878.194 3916
458.939 -880.212 3925
469.518 -882.454 3935
478.928 -882.454 3935
488.338 -882.454 3935
497.748 -882.454 3935
507.157 -882.454 3935
516.567 -882.454 3935
524.64 -880.212 3925
534.026 -880.212 3925
1779.63 -912.505 4069
1789.36 -912.505 4069
1799.09 -912.505 4069
1774.14 -895.013 3991
1783.69 -895.013 3991
1806.26 -901.516 4020
1824.46 -905.777 4039
1834.11 -905.777 4039
1862.03 -914.748 4079
1876.37 -916.99 4089
1886.15 -916.99 4089
1895.93 -916.99 4089
3005.28 -895.013 3991
3014.82 -895.013 3991
3024.37 -895.013 3991
3033.91 -895.013 3991
3022.1 -888.734 3963
3031.58 -888.734 3963
-2442.36 -797.595 3595
-2433.76 -797.595 3595
-2430.56 -799.37 3603
-2427.32 -801.145 3611
-2424.05 -802.92 3619
-2415.39 -802.92 3619
-2406.74 -802.92 3619
-2398.09 -802.92 3619
-2389.43 -802.92 3619
-2364.99 -797.595 3595
-2351.8 -796.042 3588
-2353.02 -799.37 3603
-2344.4 -799.37 3603
-2335.79 -799.37 3603
-2327.17 -799.37 3603
-2308.9 -796.042 3588
-2300.32 -796.042 3588
-2291.74 -796.042 3588
-2278.07 -794.267 3580
-2254.93 -789.164 3557
-2246.43 -789.164 3557
-2205.2 -777.627 3505
-2210.61 -782.508 3527
-2202.18 -782.508 3527
-2193.74 -782.508 3527
-547.971 -360.304 1624
-544.087 -360.304 1624
-540.204 -360.304 1624
-536.32 -360.304 1624
-532.109 -360.082 1623
-528.553 -360.304 1624
-524.67 -360.304 1624
-520.786 -360.304 1624
-516.903 -360.304 1624
-511.756 -359.417 1620
-507.882 -359.417 1620
-501.83 -357.864 1613
-497.664 -357.642 1612
-493.197 -357.198 1610
-489.347 -357.198 1610
-484.291 -356.311 1606
-479.553 -355.645 1603
-475.126 -355.202 1601
-471.297 -355.202 1601
-466.009 -354.092 1596
-461.903 -353.87 1595
-457.227 -353.205 1592
-453.42 -353.205 1592
-448.201 -352.095 1587
-444.126 -351.874 1586
-437.835 -349.877 1577
-433.513 -349.433 1575
-429.747 -349.433 1575
-425.169 -348.768 1572
-421.142 -348.546 1571
-417.385 -348.546 1571
-413.629 -348.546 1571
-409.872 -348.546 1571
-406.115 -348.546 1571
-402.358 -348.546 1571
-398.602 -348.546 1571
-394.845 -348.546 1571
-391.337 -348.768 1572
-388.071 -349.211 1574
-385.04 -349.877 1577
-381.269 -349.877 1577
-377.737 -350.099 1578
-373.963 -350.099 1578
-370.659 -350.542 1580
-366.881 -350.542 1580
-363.332 -350.764 1581
-360.689 -351.874 1586
-357.571 -352.539 1589
-353.772 -352.539 1589
-350.633 -353.205 1592
-348.133 -354.536 1598
-345.604 -355.867 1604
-341.769 -355.867 1604
-338.565 -356.533 1607
-335.764 -357.642 1612
-333.556 -359.417 1620
-329.682 -359.417 1620
-327.015 -360.748 1626
-324.319 -362.079 1632
-321.987 -363.854 1640
-318.065 -363.854 1640
-315.484 -365.407 1647
-312.681 -366.738 1653
-310.409 -368.735 1662
-306.435 -368.735 1662
-303.552 -370.066 1668
-301.18 -372.063 1677
-297.347 -372.285 1678
-293.334 -372.285 1678
-290.011 -373.172 1682
-286.159 -373.394 1683
-283.14 -374.725 1689
-279.101 -374.725 1689
-275.063 -374.725 1689
-271.826 -375.835 1694
-267.775 -375.835 1694
-263.724 -375.835 1694
-260.133 -376.5 1697
-256.377 -376.944 1699
-252.611 -377.388 1701
-248.544 -377.388 1701
-244.907 -378.053 1704
-241.539 -379.163 1709
-237.452 -379.163 1709
-233.366 -379.163 1709
-229.815 -380.05 1713
-225.983 -380.494 1715
-221.882 -380.494 1715
-217.781 -380.494 1715
-215.424 -383.6 1729
-212.145 -385.153 1736
-207.993 -385.153 1736
-203.842 -385.153 1736
-199.691 -385.153 1736
-411.099 -864.819 3898
-401.777 -864.819 3898
-392.456 -864.819 3898
-383.135 -864.819 3898
-373.813 -864.819 3898
-364.492 -864.819 3898
-354.351 -862.822 3889
-343.454 -858.829 3871
-334.197 -858.829 3871
-324.941 -858.829 3871
-315.684 -858.829 3871
-305.002 -854.835 3853
-295.788 -854.835 3853
-285.236 -850.842 3835
-276.065 -850.842 3835
-266.895 -850.842 3835
-258.934 -854.835 3853
-249.72 -854.835 3853
-240.506 -854.835 3853
-231.293 -854.835 3853
-219.543 -845.073 3809
-210.434 -845.073 3809
-200.85 -843.077 3800
-190.905 -839.305 3783
-181.042 -835.533 3766
-172.036 -835.533 3766
-162.295 -831.762 3749
-152.962 -829.765 3740
-144.365 -831.762 3749
-136.303 -837.308 3774
-127.278 -837.308 3774
-118.817 -841.302 3792
-109.981 -843.077 3800
-101.823 -850.842 3835
-92.6524 -850.842 3835
-84.2654 -858.829 3871
-75.0087 -858.829 3871
-65.752 -858.829 3871
-56.4952 -858.829 3871
-47.0188 -854.835 3853
-38.2467 -864.819 3898
-28.9922 -866.816 3907
-19.6493 -866.816 3907
-10.4543 -879.24 3963
-0.97974 -881.237 3972
8.53996 -883.456 3982
18.0621 -883.456 3982
27.6466 -885.452 3991
37.1903 -885.452 3991
46.734 -885.452 3991
56.2777 -885.452 3991
65.673 -883.456 3982
75.0063 -881.237 3972
84.1003 -877.022 3953
93.5532 -877.022 3953
101.338 -862.822 3889
110.382 -860.826 3880
118.272 -850.842 3835
127.443 -850.842 3835
135.367 -843.077 3800
144.15 -841.302 3792
152.167 -835.533 3766
161.515 -837.308 3774
170.54 -837.308 3774
180.802 -843.077 3800
189.889 -843.077 3800
200.337 -848.845 3826
209.486 -848.845 3826
219.15 -850.842 3835
228.856 -852.839 3844
240.278 -860.826 3880
249.556 -860.826 3880
261.836 -870.81 3925
272.535 -875.025 3944
281.966 -875.025 3944
292.062 -877.022 3953
301.515 -877.022 3953
311.755 -879.24 3963
321.231 -879.24 3963
330.708 -879.24 3963
337.781 -873.028 3935
343.927 -864.819 3898
355.695 -870.81 3925
365.081 -870.81 3925
374.466 -870.81 3925
385.71 -875.025 3944
395.142 -875.025 3944
404.573 -875.025 3944
412.01 -870.81 3925
421.396 -870.81 3925
429.794 -868.813 3916
439.158 -868.813 3916
448.523 -868.813 3916
458.939 -870.81 3925
469.518 -873.028 3935
478.928 -873.028 3935
488.338 -873.028 3935
497.748 -873.028 3935
507.157 -873.028 3935
516.567 -873.028 3935
525.977 -873.028 3935
534.026 -870.81 3925
1760.16 -902.758 4069
1769.9 -902.758 4069
1779.63 -902.758 4069
1789.36 -902.758 4069
1799.09 -902.758 4069
1774.14 -885.452 3991
1783.69 -885.452 3991
1806.26 -891.886 4020
1824.46 -896.102 4039
1834.11 -896.102 4039
1862.03 -904.976 4079
1876.37 -907.195 4089
1886.15 -907.195 4089
1895.93 -907.195 4089
3005.28 -885.452 3991
3014.82 -885.452 3991
3024.37 -885.452 3991
3033.91 -885.452 3991
3022.1 -879.24 3963
3031.58 -879.24 3963
-2453.23 -792.495 3611
-2444.59 -792.495 3611
-2435.96 -792.495 3611
-2427.32 -792.495 3611
-2434.76 -797.762 3635
-2426.07 -797.762 3635
-2417.38 -797.762 3635
-2408.69 -797.762 3635
-2400 -797.762 3635
-2380.78 -794.25 3619
-2361.64 -790.739 3603
-2358.24 -792.495 3611
-2349.61 -792.495 3611
-2340.97 -792.495 3611
-2327.17 -790.739 3603
-2308.9 -787.447 3588
-2300.32 -787.447 3588
-2291.74 -787.447 3588
-2278.07 -785.691 3580
-2254.93 -780.643 3557
-2246.43 -780.643 3557
-2205.2 -769.231 3505
-2210.61 -774.059 3527
-2202.18 -774.059 3527
-2193.74 -774.059 3527
-549.32 -357.292 1628
-545.427 -357.292 1628
-541.534 -357.292 1628
-537.641 -357.292 1628
-533.748 -357.292 1628
-529.204 -356.853 1626
-525.316 -356.853 1626
-521.428 -356.853 1626
-516.903 -356.414 1624
-511.756 -355.536 1620
-507.882 -355.536 1620
-501.83 -354 1613
-497.973 -354 1613
-493.81 -353.78 1612
-489.955 -353.78 1612
-484.291 -352.464 1606
-479.553 -351.805 1603
-475.126 -351.366 1601
-471.297 -351.366 1601
-466.009 -350.269 1596
-461.903 -350.05 1595
-457.227 -349.391 1592
-453.42 -349.391 1592
-448.201 -348.294 1587
-444.126 -348.074 1586
-438.112 -346.319 1578
-433.513 -345.66 1575
-429.747 -345.66 1575
-425.71 -345.441 1574
-421.41 -345.002 1572
-417.651 -345.002 1572
-413.892 -345.002 1572
-410.133 -345.002 1572
-406.374 -345.002 1572
-402.615 -345.002 1572
-398.855 -345.002 1572
-395.096 -345.002 1572
-391.337 -345.002 1572
-388.071 -345.441 1574
-385.04 -346.099 1577
-381.269 -346.099 1577
-377.737 -346.319 1578
-373.963 -346.319 1578
-370.659 -346.758 1580
-366.881 -346.758 1580
-363.332 -346.977 1581
-360.689 -348.074 1586
-357.571 -348.733 1589
-353.772 -348.733 1589
-350.633 -349.391 1592
-348.133 -350.708 1598
-345.604 -352.025 1604
-341.769 -352.025 1604
-338.565 -352.683 1607
-335.764 -353.78 1612
-333.556 -355.536 1620
-329.682 -355.536 1620
-327.015 -356.853 1626
-324.319 -358.17 1632
-321.987 -359.926 1640
-318.065 -359.926 1640
-315.484 -361.462 1647
-312.681 -362.779 1653
-310.409 -364.754 1662
-306.435 -364.754 1662
-303.552 -366.071 1668
-301.18 -368.046 1677
-297.347 -368.265 1678
-293.334 -368.265 1678
-290.011 -369.143 1682
-286.159 -369.363 1683
-283.14 -370.679 1689
-279.101 -370.679 1689
-275.063 -370.679 1689
-271.826 -371.777 1694
-267.775 -371.777 1694
-263.724 -371.777 1694
-260.133 -372.435 1697
-256.377 -372.874 1699
-252.611 -373.313 1701
-248.544 -373.313 1701
-244.907 -373.971 1704
-241.539 -375.069 1709
-237.452 -375.069 1709
-233.366 -375.069 1709
-229.815 -375.947 1713
-225.983 -376.386 1715
-221.882 -376.386 1715
-217.781 -376.386 1715
-215.424 -379.458 1729
-212.145 -380.994 1736
-208.233 -381.433 1738
-204.077 -381.433 1738
-199.921 -381.433 1738
-412.048 -857.457 3907
-402.705 -857.457 3907
-393.362 -857.457 3907
-384.019 -857.457 3907
-374.677 -857.457 3907
-365.334 -857.457 3907
-354.351 -853.506 3889
-343.454 -849.556 3871
-334.197 -849.556 3871
-324.941 -849.556 3871
-315.684 -849.556 3871
-305.002 -845.606 3853
-295.788 -845.606 3853
-285.236 -841.655 3835
-276.065 -841.655 3835
-266.895 -841.655 3835
-258.934 -845.606 3853
-249.72 -845.606 3853
-240.506 -845.606 3853
-231.293 -845.606 3853
-219.543 -835.949 3809
-210.434 -835.949 3809
-200.85 -833.974 3800
-190.905 -830.243 3783
-181.042 -826.512 3766
-172.036 -826.512 3766
-162.295 -822.781 3749
-152.962 -820.806 3740
-144.365 -822.781 3749
-136.303 -828.268 3774
-127.278 -828.268 3774
-118.817 -832.218 3792
-110.502 -837.924 3818
-101.823 -841.655 3835
-92.6524 -841.655 3835
-84.2654 -849.556 3871
-75.0087 -849.556 3871
-65.752 -849.556 3871
-56.4952 -849.556 3871
-47.2385 -849.556 3871
-38.2467 -855.482 3898
-29.2667 -865.577 3944
-19.8354 -865.577 3944
-10.478 -871.722 3972
-0.982206 -873.917 3982
8.55926 -875.892 3991
18.103 -875.892 3991
27.6466 -875.892 3991
37.1903 -875.892 3991
46.734 -875.892 3991
56.2777 -875.892 3991
65.673 -873.917 3982
75.0063 -871.722 3972
84.5046 -871.722 3972
94.0028 -871.722 3972
103.006 -867.552 3953
111.662 -861.407 3925
119.66 -851.531 3880
128.939 -851.531 3880
137.576 -847.581 3862
144.454 -833.974 3800
153.541 -833.974 3800
163.398 -837.924 3818
172.528 -837.924 3818
182.039 -839.68 3826
192.087 -843.63 3844
202.222 -847.581 3862
211.457 -847.581 3862
220.692 -847.581 3862
229.928 -847.581 3862
240.278 -851.531 3880
249.556 -851.531 3880
263.104 -865.577 3944
273.157 -867.552 3953
282.61 -867.552 3953
292.062 -867.552 3953
301.515 -867.552 3953
311.755 -869.747 3963
321.231 -869.747 3963
330.708 -869.747 3963
337.781 -863.602 3935
345.515 -859.432 3916
357.417 -865.577 3944
366.848 -865.577 3944
376.279 -865.577 3944
386.591 -867.552 3953
396.043 -867.552 3953
405.496 -867.552 3953
414.004 -865.577 3944
422.469 -863.602 3935
430.782 -861.407 3925
440.167 -861.407 3925
449.553 -861.407 3925
458.939 -861.407 3925
469.518 -863.602 3935
478.928 -863.602 3935
488.338 -863.602 3935
498.886 -865.577 3944
508.317 -865.577 3944
517.749 -865.577 3944
527.18 -865.577 3944
534.026 -861.407 3925
1760.16 -893.01 4069
1769.9 -893.01 4069
1779.63 -893.01 4069
1789.36 -893.01 4069
1799.09 -893.01 4069
1795.48 -886.426 4039
1792.18 -880.062 4010
1810.75 -884.451 4030
1828.97 -888.621 4049
1838.65 -888.621 4049
1862.03 -895.205 4079
1876.37 -897.4 4089
1886.15 -897.4 4089
1895.93 -897.4 4089
2984.19 -869.747 3963
2993.67 -869.747 3963
3003.15 -869.747 3963
3012.62 -869.747 3963
3014.47 -867.552 3953
3023.93 -867.552 3953
-2453.23 -783.844 3611
-2444.59 -783.844 3611
-2435.96 -783.844 3611
-2443.46 -789.054 3635
-2434.76 -789.054 3635
-2426.07 -789.054 3635
-2417.38 -789.054 3635
-2408.69 -789.054 3635
-2400 -789.054 3635
-2386.04 -787.318 3627
-2372.12 -785.581 3619
-2363.47 -785.581 3619
-2354.81 -785.581 3619
-2346.16 -785.581 3619
-2332.34 -783.844 3611
-2318.56 -782.108 3603
-2309.94 -782.108 3603
-2301.32 -782.108 3603
-2283.16 -778.852 3588
-2254.93 -772.122 3557
-2246.43 -772.122 3557
-2205.2 -760.835 3505
-2210.61 -765.61 3527
-2202.18 -765.61 3527
-2193.74 -765.61 3527
-549.32 -353.392 1628
-545.427 -353.392 1628
-541.534 -353.392 1628
-537.641 -353.392 1628
-533.748 -353.392 1628
-529.204 -352.958 1626
-525.316 -352.958 1626
-521.428 -352.958 1626
-516.903 -352.524 1624
-511.756 -351.655 1620
-507.882 -351.655 1620
-501.83 -350.136 1613
-497.973 -350.136 1613
-493.81 -349.919 1612
-489.955 -349.919 1612
-484.291 -348.616 1606
-479.553 -347.965 1603
-475.126 -347.531 1601
-471.297 -347.531 1601
-466.009 -346.446 1596
-461.903 -346.229 1595
-457.227 -345.577 1592
-453.42 -345.577 1592
-448.201 -344.492 1587
-444.126 -344.275 1586
-438.112 -342.538 1578
-433.513 -341.887 1575
-429.747 -341.887 1575
-425.71 -341.67 1574
-421.41 -341.236 1572
-417.651 -341.236 1572
-413.892 -341.236 1572
-410.133 -341.236 1572
-406.374 -341.236 1572
-402.615 -341.236 1572
-398.855 -341.236 1572
-395.096 -341.236 1572
-391.337 -341.236 1572
-388.071 -341.67 1574
-385.04 -342.321 1577
-381.269 -342.321 1577
-377.737 -342.538 1578
-373.963 -342.538 1578
-370.659 -342.973 1580
-366.881 -342.973 1580
-363.332 -343.19 1581
-360.689 -344.275 1586
-357.571 -344.926 1589
-353.772 -344.926 1589
-350.633 -345.577 1592
-348.133 -346.88 1598
-345.604 -348.182 1604
-341.769 -348.182 1604
-338.565 -348.834 1607
-335.764 -349.919 1612
-332.938 -351.004 1617
-329.072 -351.004 1617
-326.411 -352.307 1623
-324.12 -354.043 1631
-321.791 -355.78 1639
-317.871 -355.78 1639
-315.101 -357.082 1645
-312.681 -358.819 1653
-310.035 -360.338 1660
-306.066 -360.338 1660
-303.552 -362.075 1668
-300.461 -363.16 1673
-297.17 -364.029 1677
-293.159 -364.029 1677
-290.011 -365.114 1682
-286.159 -365.331 1683
-282.805 -366.199 1687
-278.771 -366.199 1687
-275.063 -366.633 1689
-271.826 -367.719 1694
-267.775 -367.719 1694
-263.724 -367.719 1694
-260.133 -368.37 1697
-256.377 -368.804 1699
-252.611 -369.238 1701
-248.544 -369.238 1701
-244.907 -369.889 1704
-241.398 -370.758 1708
-237.452 -370.975 1709
-233.366 -370.975 1709
-229.815 -371.843 1713
-225.983 -372.277 1715
-221.882 -372.277 1715
-217.781 -372.277 1715
-215.424 -375.316 1729
-212.145 -376.836 1736
-208.233 -377.27 1738
-204.077 -377.27 1738
-199.921 -377.27 1738
-412.048 -848.097 3907
-402.705 -848.097 3907
-393.362 -848.097 3907
-384.019 -848.097 3907
-374.677 -848.097 3907
-365.334 -848.097 3907
-353.531 -842.237 3880
-342.655 -838.329 3862
-333.42 -838.329 3862
-324.185 -838.329 3862
-314.216 -836.376 3853
-303.577 -832.468 3835
-294.407 -832.468 3835
-284.567 -830.515 3826
-275.418 -830.515 3826
-266.895 -832.468 3835
-258.329 -834.422 3844
-249.137 -834.422 3844
-239.945 -834.422 3844
-230.752 -834.422 3844
-219.543 -826.824 3809
-210.434 -826.824 3809
-200.427 -823.134 3792
-190.451 -819.227 3774
-181.042 -817.49 3766
-172.036 -817.49 3766
-162.295 -813.8 3749
-152.962 -811.847 3740
-144.365 -813.8 3749
-136.303 -819.227 3774
-127.278 -819.227 3774
-118.817 -823.134 3792
-110.502 -828.778 3818
-101.823 -832.468 3835
-92.6524 -832.468 3835
-84.2654 -840.283 3871
-75.0087 -840.283 3871
-65.752 -840.283 3871
-56.4952 -840.283 3871
-47.2385 -840.283 3871
-38.2467 -846.144 3898
-29.2667 -856.129 3944
-19.8354 -856.129 3944
-10.478 -862.207 3972
-0.982206 -864.378 3982
8.55926 -866.331 3991
18.103 -866.331 3991
27.6466 -866.331 3991
37.1903 -866.331 3991
46.734 -866.331 3991
56.2777 -866.331 3991
65.673 -864.378 3982
75.0063 -862.207 3972
84.5046 -862.207 3972
94.0028 -862.207 3972
103.006 -858.083 3953
111.662 -852.005 3925
119.66 -842.237 3880
128.939 -842.237 3880
137.576 -838.329 3862
144.454 -824.871 3800
153.541 -824.871 3800
163.398 -828.778 3818
172.528 -828.778 3818
182.039 -830.515 3826
192.087 -834.422 3844
202.222 -838.329 3862
211.457 -838.329 3862
220.692 -838.329 3862
229.928 -838.329 3862
240.278 -842.237 3880
249.556 -842.237 3880
263.104 -856.129 3944
273.157 -858.083 3953
282.61 -858.083 3953
292.062 -858.083 3953
301.515 -858.083 3953
310.26 -856.129 3944
319.691 -856.129 3944
329.123 -856.129 3944
336.15 -850.051 3916
345.515 -850.051 3916
357.417 -856.129 3944
366.848 -856.129 3944
376.279 -856.129 3944
386.591 -858.083 3953
396.043 -858.083 3953
405.496 -858.083 3953
414.004 -856.129 3944
422.469 -854.175 3935
430.782 -852.005 3925
440.167 -852.005 3925
449.553 -852.005 3925
458.939 -852.005 3925
469.518 -854.175 3935
478.928 -854.175 3935
488.338 -854.175 3935
498.886 -856.129 3944
508.317 -856.129 3944
517.749 -856.129 3944
527.18 -856.129 3944
534.026 -852.005 3925
1760.16 -883.263 4069
1769.9 -883.263 4069
1779.63 -883.263 4069
1776.16 -876.751 4039
1785.82 -876.751 4039
1795.48 -876.751 4039
1792.18 -870.456 4010
1810.75 -874.797 4030
1828.97 -878.922 4049
1838.65 -878.922 4049
1862.03 -885.434 4079
1876.37 -887.604 4089
1886.15 -887.604 4089
1895.93 -887.604 4089
2974.72 -860.253 3963
2990.97 -862.207 3972
3000.47 -862.207 3972
3009.97 -862.207 3972
3019.47 -862.207 3972
3022.1 -860.253 3963
3031.58 -860.253 3963
-2453.23 -775.194 3611
-2444.59 -775.194 3611
-2435.96 -775.194 3611
-2443.46 -780.346 3635
-2434.76 -780.346 3635
-2426.07 -780.346 3635
-2417.38 -780.346 3635
-2408.69 -780.346 3635
-2400 -780.346 3635
-2386.04 -778.629 3627
-2372.12 -776.912 3619
-2363.47 -776.912 3619
-2354.81 -776.912 3619
-2346.16 -776.912 3619
-2332.34 -775.194 3611
-2318.56 -773.477 3603
-2309.94 -773.477 3603
-2301.32 -773.477 3603
-2283.16 -770.257 3588
-2249.86 -761.884 3549
-2241.37 -761.884 3549
-2200.17 -750.721 3497
-2191.81 -750.721 3497
-2183.45 -750.721 3497
-2175.08 -750.721 3497
-553.032 -351.854 1639
-549.113 -351.854 1639
-545.193 -351.854 1639
-538.632 -350.136 1631
-533.748 -349.492 1628
-529.855 -349.492 1628
-525.962 -349.492 1628
-522.069 -349.492 1628
-517.539 -349.063 1626
-512.072 -347.989 1621
-508.195 -347.989 1621
-502.452 -346.701 1615
-497.973 -346.272 1613
-494.116 -346.272 1613
-490.259 -346.272 1613
-485.195 -345.413 1609
-480.45 -344.769 1606
-475.719 -344.125 1603
-471.886 -344.125 1603
-466.885 -343.267 1599
-462.193 -342.623 1596
-458.089 -342.408 1595
-454.275 -342.408 1595
-449.613 -341.764 1592
-444.406 -340.69 1587
-438.668 -339.188 1580
-434.064 -338.544 1577
-430.293 -338.544 1577
-425.981 -338.114 1575
-421.41 -337.47 1572
-417.651 -337.47 1572
-413.892 -337.47 1572
-410.133 -337.47 1572
-406.374 -337.47 1572
-402.615 -337.47 1572
-398.855 -337.47 1572
-395.096 -337.47 1572
-391.337 -337.47 1572
-388.071 -337.9 1574
-385.04 -338.544 1577
-381.269 -338.544 1577
-377.497 -338.544 1577
-373.963 -338.758 1578
-370.659 -339.188 1580
-366.881 -339.188 1580
-363.332 -339.402 1581
-360.689 -340.476 1586
-357.571 -341.12 1589
-353.772 -341.12 1589
-350.633 -341.764 1592
-347.697 -342.623 1596
-345.389 -344.125 1603
-341.555 -344.125 1603
-338.565 -344.984 1607
-335.347 -345.628 1610
-332.526 -346.701 1615
-328.664 -346.701 1615
-325.808 -347.775 1620
-323.127 -349.063 1626
-320.809 -350.78 1634
-316.902 -350.78 1634
-314.143 -352.068 1640
-311.546 -353.571 1647
-308.728 -354.859 1653
-304.775 -354.859 1653
-302.642 -357.006 1663
-300.282 -358.938 1672
-297.17 -360.011 1677
-293.159 -360.011 1677
-289.666 -360.655 1680
-285.989 -361.085 1682
-282.805 -362.158 1687
-278.771 -362.158 1687
-275.063 -362.587 1689
-271.505 -363.231 1692
-267.775 -363.661 1694
-263.724 -363.661 1694
-260.133 -364.305 1697
-256.075 -364.305 1697
-252.314 -364.734 1699
-248.251 -364.734 1699
-244.62 -365.378 1702
-241.398 -366.666 1708
-237.452 -366.881 1709
-233.366 -366.881 1709
-229.815 -367.74 1713
-225.983 -368.169 1715
-221.882 -368.169 1715
-217.781 -368.169 1715
-215.175 -370.745 1727
-213 -374.18 1743
-208.832 -374.18 1743
-204.664 -374.18 1743
-200.496 -374.18 1743
-412.048 -838.738 3907
-402.705 -838.738 3907
-393.362 -838.738 3907
-384.019 -838.738 3907
-374.677 -838.738 3907
-365.334 -838.738 3907
-349.431 -823.282 3835
-338.752 -819.632 3818
-329.622 -819.632 3818
-320.492 -819.632 3818
-311.362 -819.632 3818
-302.232 -819.632 3818
-293.102 -819.632 3818
-282.633 -815.768 3800
-273.546 -815.768 3800
-265.712 -819.632 3818
-256.582 -819.632 3818
-247.452 -819.632 3818
-238.322 -819.632 3818
-229.192 -819.632 3818
-219.543 -817.7 3809
-210.434 -817.7 3809
-199.952 -812.118 3783
-190.048 -808.469 3766
-180.609 -806.537 3757
-171.625 -806.537 3757
-162.295 -804.819 3749
-152.962 -802.887 3740
-144.365 -804.819 3749
-136.303 -810.186 3774
-127.278 -810.186 3774
-118.817 -814.051 3792
-110.502 -819.632 3818
-101.823 -823.282 3835
-92.6524 -823.282 3835
-84.0695 -829.078 3862
-74.8343 -829.078 3862
-65.5991 -829.078 3862
-56.3639 -829.078 3862
-47.2385 -831.01 3871
-38.2467 -836.806 3898
-29.2667 -846.681 3944
-19.8354 -846.681 3944
-10.478 -852.692 3972
-0.982206 -854.839 3982
8.55926 -856.771 3991
18.103 -856.771 3991
27.6466 -856.771 3991
37.1903 -856.771 3991
46.734 -856.771 3991
56.2777 -856.771 3991
65.673 -854.839 3982
75.0063 -852.692 3972
84.5046 -852.692 3972
94.0028 -852.692 3972
103.006 -848.613 3953
111.947 -844.749 3935
120.493 -838.738 3907
129.836 -838.738 3907
138.858 -836.806 3898
148.179 -836.806 3898
156.773 -832.942 3880
166.052 -832.942 3880
174.516 -829.078 3862
183.752 -829.078 3862
193.437 -831.01 3871
202.693 -831.01 3871
211.95 -831.01 3871
221.207 -831.01 3871
229.928 -829.078 3862
240.278 -832.942 3880
249.556 -832.942 3880
263.104 -846.681 3944
273.157 -848.613 3953
282.61 -848.613 3953
292.062 -848.613 3953
301.515 -848.613 3953
310.26 -846.681 3944
319.691 -846.681 3944
329.123 -846.681 3944
336.923 -842.602 3925
346.309 -842.602 3925
357.417 -846.681 3944
367.685 -848.613 3953
377.138 -848.613 3953
386.591 -848.613 3953
396.043 -848.613 3953
405.496 -848.613 3953
414.949 -848.613 3953
424.402 -848.613 3953
431.879 -844.749 3935
441.289 -844.749 3935
449.553 -842.602 3925
462.213 -848.613 3953
472.859 -850.76 3963
482.336 -850.76 3963
491.813 -850.76 3963
503.693 -854.839 3982
514.375 -856.771 3991
527.726 -862.997 4020
537.339 -862.997 4020
546.952 -862.997 4020
1764.49 -875.662 4079
1774.24 -875.662 4079
1784 -875.662 4079
1784.96 -871.369 4059
1794.66 -871.369 4059
1795.48 -867.075 4039
1805.14 -867.075 4039
1819.29 -869.222 4049
1838.01 -873.516 4069
1847.74 -873.516 4069
1866.6 -877.809 4089
1876.37 -877.809 4089
1886.15 -877.809 4089
3010 -860.85 4010
3019.59 -860.85 4010
3029.17 -860.85 4010
3038.76 -860.85 4010
3048.35 -860.85 4010
3043.45 -856.771 3991
3053 -856.771 3991
-2435.96 -766.544 3611
-2448.16 -773.125 3642
-2439.45 -773.125 3642
-2441.42 -776.521 3658
-2432.68 -776.521 3658
-2423.93 -776.521 3658
-2415.18 -776.521 3658
-2401.17 -774.823 3650
-2387.2 -773.125 3642
-2373.92 -771.639 3635
-2365.23 -771.639 3635
-2356.53 -771.639 3635
-2342.67 -769.94 3627
-2328.85 -768.242 3619
-2320.2 -768.242 3619
-2306.43 -766.544 3611
-2297.8 -766.544 3611
-2264.44 -758.265 3572
-2255.9 -758.265 3572
-2232.89 -753.383 3549
-2151.69 -728.758 3433
-553.369 -348.14 1640
-549.448 -348.14 1640
-545.526 -348.14 1640
-541.604 -348.14 1640
-535.06 -346.441 1632
-530.832 -346.229 1631
-526.931 -346.229 1631
-522.39 -345.805 1629
-518.176 -345.592 1628
-513.019 -344.743 1624
-509.136 -344.743 1624
-503.075 -343.257 1617
-498.59 -342.833 1615
-494.729 -342.833 1615
-490.867 -342.833 1615
-485.497 -341.771 1610
-481.348 -341.559 1609
-476.61 -340.922 1606
-472.769 -340.922 1606
-468.053 -340.285 1603
-462.772 -339.224 1598
-458.376 -338.799 1596
-454.56 -338.799 1596
-449.896 -338.162 1593
-444.966 -337.313 1589
-439.778 -336.252 1584
-434.889 -335.403 1580
-431.111 -335.403 1580
-426.522 -334.766 1577
-421.946 -334.129 1574
-418.182 -334.129 1574
-414.418 -334.129 1574
-410.133 -333.705 1572
-406.374 -333.705 1572
-402.615 -333.705 1572
-398.855 -333.705 1572
-395.096 -333.705 1572
-391.337 -333.705 1572
-387.578 -333.705 1572
-385.04 -334.766 1577
-381.269 -334.766 1577
-377.497 -334.766 1577
-373.963 -334.978 1578
-370.659 -335.403 1580
-366.881 -335.403 1580
-363.332 -335.615 1581
-360.689 -336.676 1586
-357.571 -337.313 1589
-353.772 -337.313 1589
-350.633 -337.95 1592
-347.697 -338.799 1596
-345.389 -340.285 1603
-341.555 -340.285 1603
-338.565 -341.134 1607
-335.347 -341.771 1610
-332.526 -342.833 1615
-328.664 -342.833 1615
-325.808 -343.894 1620
-322.53 -344.531 1623
-320.809 -346.866 1634
-316.902 -346.866 1634
-313.569 -347.503 1637
-311.168 -349.201 1645
-308.541 -350.687 1652
-304.591 -350.687 1652
-301.732 -351.961 1658
-299.923 -354.508 1670
-296.461 -355.145 1673
-292.46 -355.145 1673
-289.322 -356.206 1678
-285.649 -356.631 1680
-282.47 -357.692 1685
-278.44 -357.692 1685
-274.737 -358.117 1687
-271.184 -358.754 1690
-267.775 -359.603 1694
-263.724 -359.603 1694
-259.827 -359.815 1695
-256.075 -360.24 1697
-252.314 -360.664 1699
-248.251 -360.664 1699
-244.62 -361.301 1702
-241.398 -362.575 1708
-237.73 -363.212 1711
-233.639 -363.212 1711
-229.815 -363.636 1713
-225.983 -364.061 1715
-221.882 -364.061 1715
-217.781 -364.061 1715
-215.175 -366.608 1727
-213 -370.004 1743
-209.072 -370.429 1745
-204.899 -370.429 1745
-200.726 -370.429 1745
-412.048 -829.379 3907
-402.705 -829.379 3907
-393.362 -829.379 3907
-384.019 -829.379 3907
-374.677 -829.379 3907
-357.76 -812.184 3826
-347.882 -810.486 3818
-338.752 -810.486 3818
-329.622 -810.486 3818
-320.492 -810.486 3818
-311.362 -810.486 3818
-302.232 -810.486 3818
-293.102 -810.486 3818
-282.038 -804.967 3792
-272.97 -804.967 3792
-264.459 -806.665 3800
-255.372 -806.665 3800
-246.285 -806.665 3800
-237.198 -806.665 3800
-227.631 -804.967 3792
-218.563 -804.967 3792
-209.495 -804.967 3792
-199.053 -799.447 3766
-189.593 -797.537 3757
-180.225 -795.839 3749
-171.26 -795.839 3749
-161.905 -793.928 3740
-152.634 -792.23 3732
-144.018 -793.928 3740
-135.689 -797.537 3757
-126.704 -797.537 3757
-118.817 -804.967 3792
-109.981 -806.665 3800
-101.823 -814.095 3835
-92.6524 -814.095 3835
-83.4818 -814.095 3835
-74.3111 -814.095 3835
-65.1405 -814.095 3835
-55.9698 -814.095 3835
-46.909 -816.005 3844
-38.0701 -823.647 3880
-29.1999 -835.323 3935
-19.7902 -835.323 3935
-10.4543 -841.267 3963
-0.982206 -845.3 3982
8.53996 -845.3 3982
18.0621 -845.3 3982
27.5843 -845.3 3982
37.1065 -845.3 3982
46.6286 -845.3 3982
56.1508 -845.3 3982
65.508 -843.177 3972
75.0063 -843.177 3972
84.5046 -843.177 3972
94.0028 -843.177 3972
102.771 -837.233 3944
112.203 -837.233 3944
121.356 -835.323 3935
130.766 -835.323 3935
140.176 -835.323 3935
148.521 -829.379 3907
158.228 -831.289 3916
167.592 -831.289 3916
176.957 -831.289 3916
186.321 -831.289 3916
195.685 -831.289 3916
205.05 -831.289 3916
214.414 -831.289 3916
222.235 -825.558 3889
231.535 -825.558 3889
244.241 -837.233 3944
253.672 -837.233 3944
266.906 -849.333 4001
276.474 -849.333 4001
286.041 -849.333 4001
295.609 -849.333 4001
302.964 -843.177 3972
310.968 -839.144 3953
320.421 -839.144 3953
329.874 -839.144 3953
336.923 -833.2 3925
348.779 -839.144 3953
360.86 -845.3 3982
370.382 -845.3 3982
379.905 -845.3 3982
390.307 -847.211 3991
399.851 -847.211 3991
409.394 -847.211 3991
416.944 -843.177 3972
426.442 -843.177 3972
432.867 -837.233 3944
444.429 -841.267 3963
453.906 -841.267 3963
463.382 -841.267 3963
472.859 -841.267 3963
484.648 -845.3 3982
494.171 -845.3 3982
504.831 -847.211 3991
515.664 -849.333 4001
527.726 -853.367 4020
537.339 -853.367 4020
546.952 -853.367 4020
556.565 -853.367 4020
566.178 -853.367 4020
575.791 -853.367 4020
583.948 -851.244 4010
1764.49 -865.891 4079
1774.24 -865.891 4079
1784 -865.891 4079
1793.75 -865.891 4079
1803.51 -865.891 4079
1804.37 -861.646 4059
1809.61 -859.523 4049
1819.29 -859.523 4049
1838.01 -863.768 4069
1847.74 -863.768 4069
1866.6 -868.014 4089
1876.37 -868.014 4089
1886.15 -868.014 4089
3042.28 -865.891 4079
3052.04 -865.891 4079
3061.79 -865.891 4079
3064.01 -863.768 4069
3073.74 -863.768 4069
3053.92 -855.489 4030
3048.35 -851.244 4010
3043.45 -847.211 3991
3053 -847.211 3991
-2464.97 -769.647 3667
-2456.2 -769.647 3667
-2458.11 -773.006 3683
-2449.3 -773.006 3683
-2440.49 -773.006 3683
-2431.69 -773.006 3683
-2422.88 -773.006 3683
-2403.59 -769.647 3667
-2394.82 -769.647 3667
-2386.05 -769.647 3667
-2377.28 -769.647 3667
-2352.36 -764.4 3642
-2339.15 -762.931 3635
-2330.46 -762.931 3635
-2321.76 -762.931 3635
-2313.07 -762.931 3635
-2264.44 -749.708 3572
-2255.9 -749.708 3572
-2232.89 -744.881 3549
-555.057 -345.26 1645
-551.123 -345.26 1645
-547.189 -345.26 1645
-542.925 -345.051 1644
-537.682 -344.211 1640
-531.808 -342.952 1634
-527.901 -342.952 1634
-523.352 -342.532 1632
-519.131 -342.322 1631
-514.283 -341.692 1628
-510.39 -341.692 1628
-504.319 -340.223 1621
-499.208 -339.384 1617
-494.729 -338.964 1615
-490.867 -338.964 1615
-486.1 -338.334 1612
-481.348 -337.705 1609
-476.61 -337.075 1606
-472.769 -337.075 1606
-468.053 -336.445 1603
-463.641 -336.025 1601
-458.95 -335.396 1598
-455.129 -335.396 1598
-449.896 -334.346 1593
-445.806 -334.137 1592
-440.334 -332.877 1586
-435.165 -331.828 1581
-431.384 -331.828 1581
-426.522 -330.988 1577
-422.75 -330.988 1577
-418.182 -330.359 1574
-414.418 -330.359 1574
-410.655 -330.359 1574
-406.891 -330.359 1574
-403.127 -330.359 1574
-399.363 -330.359 1574
-395.599 -330.359 1574
-391.835 -330.359 1574
-387.578 -329.939 1572
-385.04 -330.988 1577
-381.269 -330.988 1577
-377.497 -330.988 1577
-373.963 -331.198 1578
-370.659 -331.618 1580
-366.881 -331.618 1580
-363.332 -331.828 1581
-360.689 -332.877 1586
-357.571 -333.507 1589
-353.772 -333.507 1589
-350.633 -334.137 1592
-347.697 -334.976 1596
-345.389 -336.445 1603
-341.555 -336.445 1603
-338.565 -337.285 1607
-335.347 -337.914 1610
-332.526 -338.964 1615
-328.664 -338.964 1615
-325.808 -340.013 1620
-322.729 -340.853 1624
-320.809 -342.952 1634
-316.902 -342.952 1634
-313.569 -343.581 1637
-311.168 -345.26 1645
-308.728 -346.939 1653
-304.775 -346.939 1653
-301.732 -347.989 1658
-299.923 -350.508 1670
-296.461 -351.137 1673
-292.46 -351.137 1673
-289.322 -352.187 1678
-285.649 -352.606 1680
-282.47 -353.656 1685
-278.44 -353.656 1685
-274.737 -354.076 1687
-271.184 -354.705 1690
-267.775 -355.545 1694
-263.724 -355.545 1694
-259.827 -355.755 1695
-256.075 -356.174 1697
-252.314 -356.594 1699
-248.251 -356.594 1699
-244.907 -357.644 1704
-241.398 -358.483 1708
-237.73 -359.113 1711
-233.639 -359.113 1711
-230.084 -359.952 1715
-225.983 -359.952 1715
-221.882 -359.952 1715
-217.781 -359.952 1715
-215.175 -362.471 1727
-213 -365.829 1743
-209.072 -366.249 1745
-204.899 -366.249 1745
-200.726 -366.249 1745
-412.048 -820.02 3907
-402.705 -820.02 3907
-393.362 -820.02 3907
-384.019 -820.02 3907
-374.677 -820.02 3907
-357.76 -803.019 3826
-347.882 -801.34 3818
-338.752 -801.34 3818
-329.622 -801.34 3818
-320.492 -801.34 3818
-311.362 -801.34 3818
-302.232 -801.34 3818
-293.102 -801.34 3818
-282.038 -795.883 3792
-272.97 -795.883 3792
-264.459 -797.562 3800
-255.372 -797.562 3800
-246.285 -797.562 3800
-237.198 -797.562 3800
-227.631 -795.883 3792
-218.563 -795.883 3792
-209.495 -795.883 3792
-199.053 -790.426 3766
-189.593 -788.537 3757
-180.225 -786.858 3749
-171.26 -786.858 3749
-161.905 -784.969 3740
-152.634 -783.29 3732
-144.018 -784.969 3740
-135.689 -788.537 3757
-126.704 -788.537 3757
-118.817 -795.883 3792
-109.981 -797.562 3800
-101.823 -804.908 3835
-92.6524 -804.908 3835
-83.4818 -804.908 3835
-74.3111 -804.908 3835
-65.1405 -804.908 3835
-55.9698 -804.908 3835
-46.909 -806.797 3844
-38.0701 -814.353 3880
-29.1999 -825.896 3935
-19.7902 -825.896 3935
-10.4543 -831.773 3963
-0.982206 -835.761 3982
8.53996 -835.761 3982
18.0621 -835.761 3982
27.5843 -835.761 3982
37.1065 -835.761 3982
46.6286 -835.761 3982
56.1508 -835.761 3982
65.508 -833.662 3972
75.0063 -833.662 3972
84.5046 -833.662 3972
94.0028 -833.662 3972
102.771 -827.785 3944
112.459 -829.674 3953
121.912 -829.674 3953
131.364 -829.674 3953
140.176 -825.896 3935
148.864 -821.909 3916
158.228 -821.909 3916
167.977 -823.798 3925
177.363 -823.798 3925
187.653 -827.785 3944
197.084 -827.785 3944
206.516 -827.785 3944
215.947 -827.785 3944
225.893 -829.674 3953
235.345 -829.674 3953
246.594 -835.761 3982
256.116 -835.761 3982
269.441 -847.724 4039
279.099 -847.724 4039
288.758 -847.724 4039
298.416 -847.724 4039
303.727 -835.761 3982
312.463 -833.662 3972
321.961 -833.662 3972
331.459 -833.662 3972
338.554 -827.785 3944
349.662 -831.773 3963
361.676 -837.65 3991
371.22 -837.65 3991
380.763 -837.65 3991
390.307 -837.65 3991
399.851 -837.65 3991
409.394 -837.65 3991
416.944 -833.662 3972
426.442 -833.662 3972
432.867 -827.785 3944
444.429 -831.773 3963
453.906 -831.773 3963
463.382 -831.773 3963
472.859 -831.773 3963
484.648 -835.761 3982
494.171 -835.761 3982
506.096 -839.749 4001
516.824 -841.638 4010
527.726 -843.737 4020
537.339 -843.737 4020
546.952 -843.737 4020
556.565 -843.737 4020
566.178 -843.737 4020
575.791 -843.737 4020
583.948 -841.638 4010
1764.49 -856.12 4079
1774.24 -856.12 4079
1784 -856.12 4079
1793.75 -856.12 4079
1803.51 -856.12 4079
1804.37 -851.922 4059
1809.61 -849.823 4049
1819.29 -849.823 4049
1838.01 -854.021 4069
1847.74 -854.021 4069
1866.6 -858.219 4089
1876.37 -858.219 4089
1886.15 -858.219 4089
3049.74 -858.219 4089
3059.52 -858.219 4089
3069.3 -858.219 4089
3071.54 -856.12 4079
3081.3 -856.12 4079
3060.74 -847.724 4039
3048.35 -841.638 4010
3043.45 -837.65 3991
3053 -837.65 3991
-2464.97 -760.863 3667
-2456.2 -760.863 3667
-2458.11 -764.183 3683
-2449.3 -764.183 3683
-2440.49 -764.183 3683
-2431.69 -764.183 3683
-2422.88 -764.183 3683
-2403.59 -760.863 3667
-2394.82 -760.863 3667
-2386.05 -760.863 3667
-2377.28 -760.863 3667
-2352.36 -755.676 3642
-2339.15 -754.223 3635
-2330.46 -754.223 3635
-2321.76 -754.223 3635
-2313.07 -754.223 3635
-2264.44 -741.152 3572
-2255.9 -741.152 3572
-2232.89 -736.379 3549
-561.709 -342.98 1653
-557.756 -342.98 1653
-553.803 -342.98 1653
-548.187 -341.942 1648
-544.246 -341.942 1648
-539.977 -341.735 1647
-534.412 -340.697 1642
-530.485 -340.697 1642
-525.917 -340.282 1640
-521.041 -339.66 1637
-515.231 -338.415 1631
-511.331 -338.415 1631
-505.253 -336.963 1624
-500.443 -336.34 1621
-495.648 -335.718 1618
-491.778 -335.718 1618
-486.402 -334.68 1613
-481.647 -334.058 1610
-476.61 -333.228 1606
-472.769 -333.228 1606
-468.053 -332.605 1603
-463.641 -332.19 1601
-458.95 -331.568 1598
-455.129 -331.568 1598
-449.896 -330.53 1593
-445.806 -330.323 1592
-440.334 -329.078 1586
-435.165 -328.04 1581
-431.384 -328.04 1581
-426.522 -327.211 1577
-422.75 -327.211 1577
-418.182 -326.588 1574
-414.418 -326.588 1574
-410.655 -326.588 1574
-406.891 -326.588 1574
-403.127 -326.588 1574
-399.363 -326.588 1574
-395.599 -326.588 1574
-391.835 -326.588 1574
-387.578 -326.173 1572
-385.04 -327.211 1577
-381.269 -327.211 1577
-377.497 -327.211 1577
-373.963 -327.418 1578
-370.19 -327.418 1578
-366.416 -327.418 1578
-363.332 -328.04 1581
-360.234 -328.663 1584
-357.121 -329.285 1587
-353.326 -329.285 1587
-350.192 -329.908 1590
-347.479 -330.945 1595
-345.389 -332.605 1603
-341.555 -332.605 1603
-338.354 -333.228 1606
-335.347 -334.058 1610
-332.526 -335.095 1615
-328.664 -335.095 1615
-325.808 -336.133 1620
-322.729 -336.963 1624
-320.809 -339.037 1634
-316.902 -339.037 1634
-313.569 -339.66 1637
-311.168 -341.32 1645
-308.728 -342.98 1653
-304.775 -342.98 1653
-301.732 -344.017 1658
-299.563 -346.092 1668
-295.929 -346.507 1670
-291.936 -346.507 1670
-289.149 -347.959 1677
-285.309 -348.167 1678
-282.47 -349.619 1685
-278.44 -349.619 1685
-274.737 -350.034 1687
-271.184 -350.657 1690
-267.459 -351.072 1692
-263.413 -351.072 1692
-259.673 -351.487 1694
-256.075 -352.109 1697
-252.314 -352.524 1699
-248.251 -352.524 1699
-244.907 -353.562 1704
-241.398 -354.392 1708
-237.73 -355.014 1711
-233.639 -355.014 1711
-230.084 -355.844 1715
-225.983 -355.844 1715
-221.882 -355.844 1715
-217.781 -355.844 1715
-215.175 -358.334 1727
-213 -361.654 1743
-209.072 -362.069 1745
-204.899 -362.069 1745
-200.726 -362.069 1745
-400.763 -788.459 3800
-391.676 -788.459 3800
-382.589 -788.459 3800
-374.387 -790.327 3809
-365.278 -790.327 3809
-356.17 -790.327 3809
-347.062 -790.327 3809
-338.752 -792.194 3818
-329.622 -792.194 3818
-320.492 -792.194 3818
-311.362 -792.194 3818
-300.807 -788.459 3800
-291.72 -788.459 3800
-281.368 -784.932 3783
-271.098 -781.404 3766
-263.902 -786.799 3792
-254.834 -786.799 3792
-245.767 -786.799 3792
-236.699 -786.799 3792
-227.091 -784.932 3783
-217.064 -781.404 3766
-208.059 -781.404 3766
-198.155 -777.877 3749
-189.19 -777.877 3749
-179.792 -776.01 3740
-170.849 -776.01 3740
-161.212 -772.69 3724
-152.307 -772.69 3724
-143.71 -774.35 3732
-135.4 -777.877 3749
-126.435 -777.877 3749
-118.253 -783.064 3774
-109.749 -786.799 3792
-101.372 -792.194 3818
-92.2417 -792.194 3818
-83.1117 -792.194 3818
-73.9817 -792.194 3818
-64.8517 -792.194 3818
-55.7217 -792.194 3818
-46.7992 -795.721 3835
-37.7168 -797.589 3844
-28.7918 -805.058 3880
-19.5136 -805.058 3880
-10.3804 -816.47 3935
-0.975053 -820.205 3953
8.47777 -820.205 3953
17.9306 -820.205 3953
27.3211 -818.338 3944
36.7524 -818.338 3944
46.1837 -818.338 3944
55.615 -818.338 3944
64.7329 -814.395 3925
74.3076 -816.47 3935
83.7174 -816.47 3935
93.3402 -818.338 3944
102.771 -818.338 3944
112.459 -820.205 3953
121.912 -820.205 3953
131.364 -820.205 3953
140.176 -816.47 3935
148.864 -812.528 3916
158.228 -812.528 3916
167.977 -814.395 3925
177.363 -814.395 3925
187.653 -818.338 3944
197.084 -818.338 3944
206.516 -818.338 3944
215.947 -818.338 3944
225.893 -820.205 3953
235.345 -820.205 3953
246.594 -826.222 3982
256.116 -826.222 3982
269.441 -838.049 4039
