-314.91 -274.163 1644
-311.168 -274.329 1645
-307.234 -274.329 1645
-303.3 -274.329 1645
-299.912 -274.83 1648
-295.972 -274.83 1648
-292.385 -275.163 1650
-288.439 -275.163 1650
-284.839 -275.497 1652
-281.058 -275.664 1653
-277.776 -276.331 1657
-273.814 -276.331 1657
-270.014 -276.497 1658
-266.852 -277.331 1663
-262.875 -277.331 1663
-258.898 -277.331 1663
-255.535 -277.998 1667
-251.548 -277.998 1667
-247.562 -277.998 1667
-243.576 -277.998 1667
-239.589 -277.998 1667
-235.744 -278.165 1668
-232.034 -278.499 1670
-228.04 -278.499 1670
-224.047 -278.499 1670
-220.448 -278.999 1673
-216.448 -278.999 1673
-212.701 -279.332 1675
-208.696 -279.332 1675
-205.057 -279.833 1678
-201.044 -279.833 1678
-197.501 -280.5 1682
-193.479 -280.5 1682
-189.795 -281 1685
-186.207 -281.667 1689
-182.275 -281.834 1690
-178.234 -281.834 1690
-174.399 -282.167 1692
-170.554 -282.501 1694
-166.798 -283.001 1697
-162.74 -283.001 1697
-159.056 -283.668 1701
-155.08 -283.835 1702
-151.187 -284.169 1704
-147.112 -284.169 1704
-143.373 -284.836 1708
-139.534 -285.336 1711
-135.838 -286.17 1716
-131.735 -286.17 1716
-127.929 -286.837 1720
-124.175 -287.671 1725
-120.19 -288.004 1727
-116.06 -288.004 1727
-112.06 -288.338 1729
-108.112 -288.838 1732
-104.211 -289.505 1736
-100.059 -289.505 1736
-96.1844 -290.339 1741
-92.2326 -291.006 1745
-88.1607 -291.339 1747
-83.983 -291.339 1747
-79.9882 -292.007 1751
-76.0174 -292.84 1756
-71.9819 -293.507 1760
-67.7732 -293.507 1760
-63.5645 -293.507 1760
-59.3558 -293.507 1760
-55.2098 -293.841 1762
-50.9963 -293.841 1762
-46.8625 -294.341 1765
-42.7868 -295.342 1771
-38.726 -296.676 1779
-34.4718 -296.676 1779
-30.2687 -297.176 1782
-26.1241 -298.51 1790
-21.8681 -298.844 1792
-17.5829 -298.844 1792
-13.3422 -299.845 1798
-9.04262 -299.845 1798
-4.74306 -299.845 1798
-0.443497 -299.845 1798
83.5046 -654.555 3925
92.8905 -654.555 3925
102.276 -654.555 3925
110.382 -647.05 3880
119.66 -647.05 3880
128.939 -647.05 3880
156.773 -647.05 3880
166.052 -647.05 3880
175.33 -647.05 3880
184.18 -645.55 3871
193.437 -645.55 3871
202.693 -645.55 3871
209.486 -638.045 3826
218.178 -636.711 3818
227.308 -636.711 3818
236.438 -636.711 3818
244.41 -633.709 3800
332.28 -628.039 3766
341.286 -628.039 3766
350.291 -628.039 3766
359.297 -628.039 3766
367.422 -626.538 3757
375.605 -625.204 3749
384.57 -625.204 3749
393.535 -625.204 3749
402.5 -625.204 3749
411.465 -625.204 3749
420.43 -625.204 3749
429.395 -625.204 3749
438.36 -625.204 3749
447.325 -625.204 3749
459.333 -629.373 3774
468.358 -629.373 3774
480.671 -633.709 3800
489.758 -633.709 3800
498.845 -633.709 3800
507.932 -633.709 3800
517.019 -633.709 3800
521.399 -628.039 3766
529.137 -626.538 3757
538.121 -626.538 3757
543.464 -622.369 3732
552.389 -622.369 3732
570.337 -632.375 3792
579.405 -632.375 3792
588.473 -632.375 3792
597.541 -632.375 3792
605.169 -630.874 3783
618.437 -635.21 3809
627.545 -635.21 3809
639.495 -638.045 3826
657.799 -647.05 3880
668.625 -648.551 3889
677.924 -648.551 3889
687.224 -648.551 3889
-678.489 -274.169 1668
-674.501 -274.169 1668
-670.512 -274.169 1668
-666.124 -274.005 1667
-662.137 -274.005 1667
-657.361 -273.676 1665
-653.38 -273.676 1665
-648.228 -273.183 1662
-643.479 -272.854 1660
-638.739 -272.526 1658
-634.774 -272.526 1658
-629.668 -272.032 1655
-624.954 -271.704 1653
-621.001 -271.704 1653
-617.048 -271.704 1653
-613.095 -271.704 1653
-609.143 -271.704 1653
-603.359 -270.882 1648
-599.418 -270.882 1648
-595.116 -270.718 1647
-589.383 -269.896 1642
-585.456 -269.896 1642
-581.53 -269.896 1642
-575.845 -269.074 1637
-570.183 -268.252 1632
-565.934 -268.088 1631
-561 -267.594 1628
-557.107 -267.594 1628
-553.213 -267.594 1628
-548.646 -267.266 1626
-544.757 -267.266 1626
-540.869 -267.266 1626
-536.32 -266.937 1624
-532.437 -266.937 1624
-528.553 -266.937 1624
-524.67 -266.937 1624
-520.786 -266.937 1624
-516.903 -266.937 1624
-513.019 -266.937 1624
-509.136 -266.937 1624
-505.253 -266.937 1624
-501.369 -266.937 1624
-497.486 -266.937 1624
-493.602 -266.937 1624
-489.719 -266.937 1624
-485.835 -266.937 1624
-481.952 -266.937 1624
-478.657 -267.266 1626
-474.769 -267.266 1626
-470.88 -267.266 1626
-467.567 -267.594 1628
-463.673 -267.594 1628
-459.78 -267.594 1628
-455.887 -267.594 1628
-451.994 -267.594 1628
-448.101 -267.594 1628
-444.208 -267.594 1628
-440.315 -267.594 1628
-436.422 -267.594 1628
-432.529 -267.594 1628
-428.11 -267.266 1626
-424.221 -267.266 1626
-420.85 -267.594 1628
-416.957 -267.594 1628
-413.064 -267.594 1628
-409.171 -267.594 1628
-405.278 -267.594 1628
-401.385 -267.594 1628
-397.736 -267.759 1629
-393.841 -267.759 1629
-389.945 -267.759 1629
-386.524 -268.088 1631
-382.858 -268.252 1632
-378.955 -268.252 1632
-375.053 -268.252 1632
-371.15 -268.252 1632
-367.248 -268.252 1632
-363.345 -268.252 1632
-359.442 -268.252 1632
-355.975 -268.581 1634
-352.068 -268.581 1634
-348.161 -268.581 1634
-344.253 -268.581 1634
-340.346 -268.581 1634
-336.439 -268.581 1634
-332.531 -268.581 1634
-329.83 -269.567 1640
-325.909 -269.567 1640
-322.38 -269.896 1642
-318.453 -269.896 1642
-314.91 -270.224 1644
-311.168 -270.389 1645
-307.234 -270.389 1645
-303.3 -270.389 1645
-299.912 -270.882 1648
-295.972 -270.882 1648
-292.385 -271.211 1650
-288.439 -271.211 1650
-284.839 -271.539 1652
-281.058 -271.704 1653
-277.776 -272.361 1657
-273.814 -272.361 1657
-270.014 -272.526 1658
-266.691 -273.183 1662
-262.875 -273.347 1663
-258.898 -273.347 1663
-255.535 -274.005 1667
-251.548 -274.005 1667
-247.562 -274.005 1667
-243.576 -274.005 1667
-239.589 -274.005 1667
-235.603 -274.005 1667
-231.756 -274.169 1668
-228.04 -274.498 1670
-224.047 -274.498 1670
-220.448 -274.991 1673
-216.448 -274.991 1673
-212.447 -274.991 1673
-208.446 -274.991 1673
-205.057 -275.813 1678
-201.284 -276.142 1680
-197.501 -276.47 1682
-193.479 -276.47 1682
-189.795 -276.964 1685
-186.317 -277.785 1690
-182.491 -278.114 1692
-178.445 -278.114 1692
-174.605 -278.443 1694
-170.655 -278.607 1695
-166.995 -279.265 1699
-162.932 -279.265 1699
-159.056 -279.594 1701
-155.262 -280.087 1704
-151.365 -280.415 1706
-147.285 -280.415 1706
-143.457 -280.908 1709
-139.534 -281.237 1711
-135.838 -282.059 1716
-131.735 -282.059 1716
-127.929 -282.717 1720
-124.175 -283.538 1725
-120.19 -283.867 1727
-116.06 -283.867 1727
-112.189 -284.525 1731
-108.112 -284.689 1732
-104.331 -285.675 1738
-100.175 -285.675 1738
-96.1844 -286.168 1741
-92.2326 -286.826 1745
-88.1607 -287.155 1747
-83.983 -287.155 1747
-80.1252 -288.305 1754
-76.1906 -289.291 1760
-72.0637 -289.62 1762
-67.8502 -289.62 1762
-63.6729 -289.784 1763
-59.457 -289.784 1763
-55.3038 -290.113 1765
-51.0832 -290.113 1765
-46.9687 -290.771 1769
-42.9318 -292.086 1777
-38.7477 -292.579 1780
-34.4912 -292.579 1780
-30.3366 -293.565 1786
-26.1533 -294.551 1792
-21.9169 -295.209 1796
-17.6221 -295.209 1796
-13.357 -295.866 1800
-9.07783 -296.688 1805
-4.76153 -296.688 1805
-0.445224 -296.688 1805
83.5046 -645.153 3925
92.8905 -645.153 3925
102.276 -645.153 3925
110.382 -637.756 3880
119.66 -637.756 3880
128.939 -637.756 3880
155.682 -633.318 3853
164.896 -633.318 3853
174.11 -633.318 3853
183.323 -633.318 3853
192.087 -631.839 3844
201.28 -631.839 3844
209.486 -628.88 3826
218.635 -628.88 3826
227.784 -628.88 3826
236.934 -628.88 3826
244.41 -624.606 3800
332.28 -619.018 3766
341.286 -619.018 3766
350.291 -619.018 3766
359.297 -619.018 3766
367.422 -617.538 3757
375.605 -616.223 3749
384.57 -616.223 3749
393.535 -616.223 3749
402.5 -616.223 3749
411.465 -616.223 3749
420.43 -616.223 3749
429.395 -616.223 3749
438.36 -616.223 3749
447.325 -616.223 3749
458.359 -619.018 3766
468.358 -620.333 3774
480.671 -624.606 3800
489.758 -624.606 3800
498.845 -624.606 3800
507.932 -624.606 3800
517.019 -624.606 3800
521.399 -619.018 3766
529.137 -617.538 3757
538.121 -617.538 3757
543.464 -613.429 3732
552.389 -613.429 3732
570.337 -623.291 3792
583.378 -627.565 3818
592.508 -627.565 3818
601.638 -627.565 3818
606.609 -623.291 3792
618.437 -626.086 3809
627.545 -626.086 3809
638.158 -627.565 3818
650.17 -630.359 3835
659.341 -630.359 3835
668.511 -630.359 3835
3108.41 -672.109 4089
3118.19 -672.109 4089
3127.96 -672.109 4089
-674.096 -270.012 1667
-670.11 -270.012 1667
-666.124 -270.012 1667
-662.137 -270.012 1667
-657.361 -269.688 1665
-653.38 -269.688 1665
-648.228 -269.202 1662
-644.254 -269.202 1662
-638.739 -268.554 1658
-634.774 -268.554 1658
-629.668 -268.068 1655
-624.954 -267.744 1653
-621.001 -267.744 1653
-617.048 -267.744 1653
-613.095 -267.744 1653
-609.143 -267.744 1653
-603.359 -266.934 1648
-599.418 -266.934 1648
-595.116 -266.772 1647
-589.383 -265.962 1642
-585.456 -265.962 1642
-581.53 -265.962 1642
-576.548 -265.476 1639
-570.882 -264.666 1634
-565.934 -264.181 1631
-561.344 -263.857 1629
-557.449 -263.857 1629
-553.213 -263.695 1628
-549.32 -263.695 1628
-544.757 -263.371 1626
-540.869 -263.371 1626
-536.32 -263.047 1624
-532.437 -263.047 1624
-528.553 -263.047 1624
-524.67 -263.047 1624
-520.786 -263.047 1624
-516.903 -263.047 1624
-513.019 -263.047 1624
-509.136 -263.047 1624
-505.253 -263.047 1624
-501.369 -263.047 1624
-497.486 -263.047 1624
-493.602 -263.047 1624
-489.719 -263.047 1624
-485.835 -263.047 1624
-482.545 -263.371 1626
-478.657 -263.371 1626
-474.769 -263.371 1626
-470.88 -263.371 1626
-467.567 -263.695 1628
-463.673 -263.695 1628
-459.78 -263.695 1628
-455.887 -263.695 1628
-451.994 -263.695 1628
-448.101 -263.695 1628
-444.208 -263.695 1628
-440.315 -263.695 1628
-436.422 -263.695 1628
-432.529 -263.695 1628
-428.636 -263.695 1628
-424.221 -263.371 1626
-420.85 -263.695 1628
-416.957 -263.695 1628
-413.064 -263.695 1628
-409.171 -263.695 1628
-405.278 -263.695 1628
-401.385 -263.695 1628
-397.736 -263.857 1629
-393.841 -263.857 1629
-390.424 -264.181 1631
-386.761 -264.342 1632
-382.858 -264.342 1632
-378.955 -264.342 1632
-375.053 -264.342 1632
-371.15 -264.342 1632
-367.248 -264.342 1632
-363.345 -264.342 1632
-359.883 -264.666 1634
-355.975 -264.666 1634
-352.068 -264.666 1634
-348.161 -264.666 1634
-344.253 -264.666 1634
-340.346 -264.666 1634
-336.85 -264.99 1636
-332.938 -264.99 1636
-329.83 -265.638 1640
-326.306 -265.962 1642
-322.772 -266.286 1644
-318.841 -266.286 1644
-314.91 -266.286 1644
-311.168 -266.448 1645
-307.607 -266.772 1647
-303.669 -266.772 1647
-299.912 -266.934 1648
-295.972 -266.934 1648
-292.74 -267.582 1652
-288.789 -267.582 1652
-284.839 -267.582 1652
-281.058 -267.744 1653
-277.776 -268.392 1657
-273.814 -268.392 1657
-270.014 -268.554 1658
-266.691 -269.202 1662
-263.191 -269.688 1665
-259.209 -269.688 1665
-255.535 -270.012 1667
-251.548 -270.012 1667
-247.562 -270.012 1667
-243.576 -270.012 1667
-239.589 -270.012 1667
-235.744 -270.174 1668
-232.034 -270.498 1670
-228.313 -270.821 1672
-224.315 -270.821 1672
-220.448 -270.983 1673
-216.448 -270.983 1673
-212.701 -271.307 1675
-208.696 -271.307 1675
-205.057 -271.793 1678
-201.523 -272.441 1682
-197.501 -272.441 1682
-193.479 -272.441 1682
-190.02 -273.251 1687
-186.317 -273.737 1690
-182.491 -274.061 1692
-178.445 -274.061 1692
-174.605 -274.385 1694
-170.655 -274.547 1695
-166.995 -275.195 1699
-162.932 -275.195 1699
-159.056 -275.519 1701
-155.444 -276.329 1706
-151.365 -276.329 1706
-147.285 -276.329 1706
-143.457 -276.815 1709
-139.697 -277.462 1713
-135.838 -277.948 1716
-131.735 -277.948 1716
-128.077 -278.92 1722
-124.319 -279.73 1727
-120.329 -280.054 1729
-116.194 -280.054 1729
-112.189 -280.378 1731
-108.237 -280.864 1734
-104.331 -281.512 1738
-100.175 -281.512 1738
-96.2949 -282.322 1743
-92.3383 -282.97 1747
-88.3625 -283.617 1751
-84.1753 -283.617 1751
-80.2166 -284.427 1756
-76.2772 -285.399 1762
-72.1864 -285.885 1765
-67.9658 -285.885 1765
-63.7451 -285.885 1765
-59.5919 -286.209 1767
-55.4291 -286.533 1769
-51.1989 -286.533 1769
-46.9687 -286.533 1769
-42.9318 -287.829 1777
-38.7477 -288.315 1780
-34.4912 -288.315 1780
-30.4046 -289.934 1790
-26.2117 -290.906 1796
-21.9657 -291.554 1800
-17.6614 -291.554 1800
-13.409 -292.688 1807
-9.108 -293.336 1811
-4.77735 -293.336 1811
-0.446704 -293.336 1811
3.88395 -293.336 1811
81.7814 -622.63 3844
90.9735 -622.63 3844
100.166 -622.63 3844
109.614 -624.088 3853
118.828 -624.088 3853
128.041 -624.088 3853
136.008 -618.419 3818
145.138 -618.419 3818
157.864 -632.835 3907
167.207 -632.835 3907
176.55 -632.835 3907
185.465 -631.377 3898
192.087 -622.63 3844
201.28 -622.63 3844
209.486 -619.715 3826
218.635 -619.715 3826
227.784 -619.715 3826
236.934 -619.715 3826
243.896 -614.208 3792
332.28 -609.996 3766
341.286 -609.996 3766
350.291 -609.996 3766
359.297 -609.996 3766
366.64 -607.243 3749
375.605 -607.243 3749
384.57 -607.243 3749
393.535 -607.243 3749
401.534 -605.785 3740
410.477 -605.785 3740
419.421 -605.785 3740
427.448 -604.489 3732
436.372 -604.489 3732
444.342 -603.193 3724
457.264 -608.538 3757
468.358 -611.292 3774
477.382 -611.292 3774
486.407 -611.292 3774
495.432 -611.292 3774
504.457 -611.292 3774
513.481 -611.292 3774
520.153 -608.538 3757
526.742 -605.785 3740
535.686 -605.785 3740
543.464 -604.489 3732
552.389 -604.489 3732
570.337 -614.208 3792
584.6 -619.715 3826
593.749 -619.715 3826
602.899 -619.715 3826
606.609 -614.208 3792
618.437 -616.961 3809
627.545 -616.961 3809
638.158 -618.419 3818
647.288 -618.419 3818
656.418 -618.419 3818
3081.3 -660.694 4079
3091.05 -660.694 4079
3108.41 -662.314 4089
3118.19 -662.314 4089
3127.96 -662.314 4089
-674.096 -266.018 1667
-670.11 -266.018 1667
-666.124 -266.018 1667
-662.137 -266.018 1667
-658.151 -266.018 1667
-654.165 -266.018 1667
-648.228 -265.22 1662
-644.254 -265.22 1662
-639.509 -264.901 1660
-635.54 -264.901 1660
-630.429 -264.423 1657
-624.954 -263.784 1653
-621.752 -264.103 1655
-617.795 -264.103 1655
-613.837 -264.103 1655
-609.88 -264.103 1655
-603.359 -262.986 1648
-599.418 -262.986 1648
-595.116 -262.827 1647
-589.383 -262.029 1642
-585.456 -262.029 1642
-581.53 -262.029 1642
-576.548 -261.55 1639
-570.882 -260.752 1634
-566.281 -260.433 1632
-561.344 -259.954 1629
-557.449 -259.954 1629
-553.553 -259.954 1629
-549.32 -259.795 1628
-545.427 -259.795 1628
-541.534 -259.795 1628
-536.32 -259.156 1624
-533.093 -259.476 1626
-529.204 -259.476 1626
-525.316 -259.476 1626
-521.428 -259.476 1626
-516.903 -259.156 1624
-513.019 -259.156 1624
-509.136 -259.156 1624
-505.253 -259.156 1624
-501.369 -259.156 1624
-497.486 -259.156 1624
-493.602 -259.156 1624
-489.719 -259.156 1624
-486.433 -259.476 1626
-482.545 -259.476 1626
-478.657 -259.476 1626
-474.769 -259.476 1626
-470.88 -259.476 1626
-467.567 -259.795 1628
-463.673 -259.795 1628
-459.78 -259.795 1628
-455.887 -259.795 1628
-451.994 -259.795 1628
-448.101 -259.795 1628
-444.208 -259.795 1628
-440.315 -259.795 1628
-436.422 -259.795 1628
-432.529 -259.795 1628
-428.636 -259.795 1628
-424.743 -259.795 1628
-420.85 -259.795 1628
-416.957 -259.795 1628
-413.064 -259.795 1628
-409.171 -259.795 1628
-405.278 -259.795 1628
-401.385 -259.795 1628
-397.736 -259.954 1629
-393.841 -259.954 1629
-390.424 -260.273 1631
-386.761 -260.433 1632
-383.327 -260.752 1634
-379.42 -260.752 1634
-375.512 -260.752 1634
-371.605 -260.752 1634
-367.698 -260.752 1634
-363.79 -260.752 1634
-359.883 -260.752 1634
-356.411 -261.071 1636
-352.499 -261.071 1636
-348.587 -261.071 1636
-344.675 -261.071 1636
-340.762 -261.071 1636
-337.056 -261.231 1637
-333.142 -261.231 1637
-330.233 -262.029 1642
-326.704 -262.348 1644
-322.772 -262.348 1644
-318.841 -262.348 1644
-315.101 -262.508 1645
-311.546 -262.827 1647
-307.794 -262.986 1648
-303.853 -262.986 1648
-299.912 -262.986 1648
-296.331 -263.305 1650
-292.74 -263.625 1652
-288.789 -263.625 1652
-285.011 -263.784 1653
-281.398 -264.103 1655
-277.944 -264.582 1658
-273.979 -264.582 1658
-270.014 -264.582 1658
-266.852 -265.38 1663
-263.191 -265.699 1665
-259.209 -265.699 1665
-255.688 -266.178 1668
-251.699 -266.178 1668
-247.71 -266.178 1668
-243.722 -266.178 1668
-239.733 -266.178 1668
-236.027 -266.497 1670
-232.311 -266.816 1672
-228.313 -266.816 1672
-224.315 -266.816 1672
-220.448 -266.976 1673
-216.707 -267.295 1675
-212.955 -267.614 1677
-208.945 -267.614 1677
-205.301 -268.093 1680
-201.523 -268.412 1682
-197.619 -268.572 1683
-193.594 -268.572 1683
-190.245 -269.529 1689
-186.537 -270.008 1692
-182.707 -270.327 1694
-178.656 -270.327 1694
-174.708 -270.487 1695
-170.856 -270.806 1697
-167.191 -271.444 1701
-163.124 -271.444 1701
-159.15 -271.604 1702
-155.444 -272.242 1706
-151.542 -272.561 1708
-147.458 -272.561 1708
-143.625 -273.04 1711
-139.86 -273.678 1715
-136.155 -274.476 1720
-132.042 -274.476 1720
-128.152 -274.955 1723
-124.319 -275.593 1727
-120.329 -275.912 1729
-116.194 -275.912 1729
-112.254 -276.391 1732
-108.362 -277.029 1736
-104.451 -277.668 1740
-100.29 -277.668 1740
-96.4054 -278.465 1745
-92.444 -279.104 1749
-88.3625 -279.423 1751
-84.1753 -279.423 1751
-80.3079 -280.54 1758
-76.3205 -281.338 1763
-72.35 -282.295 1769
-68.1198 -282.295 1769
-63.9618 -282.615 1771
-59.7268 -282.615 1771
-55.4918 -282.615 1771
-51.1989 -282.295 1769
-47.0749 -282.934 1773
-43.0043 -284.051 1780
-38.8783 -285.008 1786
-34.6075 -285.008 1786
-30.4046 -285.647 1790
-26.2701 -287.242 1800
-22.0145 -287.881 1804
-17.7006 -287.881 1804
-13.409 -288.359 1807
-9.108 -288.998 1811
-4.77735 -288.998 1811
-0.446704 -288.998 1811
3.88395 -288.998 1811
53.105 -600.975 3766
62.1106 -600.975 3766
71.7583 -606.4 3800
81.7814 -613.422 3844
90.9735 -613.422 3844
100.166 -613.422 3844
109.87 -616.294 3862
119.105 -616.294 3862
128.34 -616.294 3862
137.255 -614.858 3853
148.179 -622.039 3898
157.864 -623.475 3907
167.207 -623.475 3907
176.55 -623.475 3907
185.465 -622.039 3898
192.087 -613.422 3844
201.28 -613.422 3844
209.486 -610.549 3826
218.635 -610.549 3826
227.784 -610.549 3826
236.934 -610.549 3826
243.896 -605.124 3792
332.28 -600.975 3766
341.286 -600.975 3766
350.291 -600.975 3766
359.297 -600.975 3766
366.64 -598.262 3749
375.605 -598.262 3749
384.57 -598.262 3749
393.535 -598.262 3749
401.534 -596.826 3740
410.477 -596.826 3740
419.421 -596.826 3740
427.448 -595.549 3732
436.372 -595.549 3732
444.342 -594.272 3724
457.264 -599.539 3757
468.358 -602.251 3774
477.382 -602.251 3774
486.407 -602.251 3774
495.432 -602.251 3774
504.457 -602.251 3774
513.481 -602.251 3774
520.153 -599.539 3757
526.742 -596.826 3740
535.686 -596.826 3740
543.464 -595.549 3732
552.389 -595.549 3732
570.337 -605.124 3792
584.6 -610.549 3826
593.749 -610.549 3826
602.899 -610.549 3826
606.609 -605.124 3792
618.437 -607.837 3809
627.545 -607.837 3809
638.158 -609.273 3818
647.288 -609.273 3818
656.418 -609.273 3818
3081.3 -650.923 4079
3091.05 -650.923 4079
3108.41 -652.519 4089
3118.19 -652.519 4089
3127.96 -652.519 4089
-674.096 -262.025 1667
-670.11 -262.025 1667
-666.124 -262.025 1667
-662.137 -262.025 1667
-658.151 -262.025 1667
-654.165 -262.025 1667
-648.228 -261.239 1662
-644.254 -261.239 1662
-639.509 -260.925 1660
-635.54 -260.925 1660
-630.429 -260.453 1657
-624.954 -259.824 1653
-621.752 -260.139 1655
-617.795 -260.139 1655
-613.837 -260.139 1655
-609.88 -260.139 1655
-603.359 -259.039 1648
-599.418 -259.039 1648
-595.116 -258.881 1647
-589.383 -258.095 1642
-585.456 -258.095 1642
-581.53 -258.095 1642
-576.548 -257.624 1639
-570.882 -256.838 1634
-566.281 -256.524 1632
-561.344 -256.052 1629
-557.449 -256.052 1629
-553.553 -256.052 1629
-549.32 -255.895 1628
-545.427 -255.895 1628
-541.534 -255.895 1628
-536.32 -255.266 1624
-533.093 -255.58 1626
-529.204 -255.58 1626
-525.316 -255.58 1626
-521.428 -255.58 1626
-516.903 -255.266 1624
-513.019 -255.266 1624
-509.136 -255.266 1624
-505.253 -255.266 1624
-501.369 -255.266 1624
-497.486 -255.266 1624
-493.602 -255.266 1624
-489.719 -255.266 1624
-486.433 -255.58 1626
-482.545 -255.58 1626
-478.657 -255.58 1626
-474.769 -255.58 1626
-470.88 -255.58 1626
-467.567 -255.895 1628
-463.673 -255.895 1628
-459.78 -255.895 1628
-455.887 -255.895 1628
-451.994 -255.895 1628
-448.101 -255.895 1628
-444.208 -255.895 1628
-440.315 -255.895 1628
-436.422 -255.895 1628
-432.529 -255.895 1628
-428.636 -255.895 1628
-424.743 -255.895 1628
-420.85 -255.895 1628
-416.957 -255.895 1628
-413.064 -255.895 1628
-409.171 -255.895 1628
-405.278 -255.895 1628
-401.385 -255.895 1628
-397.736 -256.052 1629
-393.841 -256.052 1629
-390.424 -256.366 1631
-386.761 -256.524 1632
-383.327 -256.838 1634
-379.42 -256.838 1634
-375.512 -256.838 1634
-371.605 -256.838 1634
-367.698 -256.838 1634
-363.79 -256.838 1634
-359.883 -256.838 1634
-356.411 -257.152 1636
-352.499 -257.152 1636
-348.587 -257.152 1636
-344.675 -257.152 1636
-340.762 -257.152 1636
-337.056 -257.309 1637
-333.142 -257.309 1637
-330.233 -258.095 1642
-326.704 -258.41 1644
-322.772 -258.41 1644
-318.841 -258.41 1644
-315.101 -258.567 1645
-311.546 -258.881 1647
-307.794 -259.039 1648
-303.853 -259.039 1648
-299.912 -259.039 1648
-296.331 -259.353 1650
-292.74 -259.667 1652
-288.789 -259.667 1652
-285.011 -259.824 1653
-281.398 -260.139 1655
-277.944 -260.61 1658
-273.979 -260.61 1658
-270.014 -260.61 1658
-266.852 -261.396 1663
-263.191 -261.711 1665
-259.209 -261.711 1665
-255.688 -262.182 1668
-251.699 -262.182 1668
-247.71 -262.182 1668
-243.722 -262.182 1668
-239.733 -262.182 1668
-236.027 -262.497 1670
-232.311 -262.811 1672
-228.313 -262.811 1672
-224.315 -262.811 1672
-220.448 -262.968 1673
-216.707 -263.282 1675
-212.955 -263.597 1677
-208.945 -263.597 1677
-205.301 -264.068 1680
-201.523 -264.383 1682
-197.619 -264.54 1683
-193.594 -264.54 1683
-190.245 -265.483 1689
-186.537 -265.955 1692
-182.707 -266.269 1694
-178.656 -266.269 1694
-174.708 -266.426 1695
-170.856 -266.74 1697
-167.191 -267.369 1701
-163.124 -267.369 1701
-159.15 -267.526 1702
-155.444 -268.155 1706
-151.542 -268.47 1708
-147.458 -268.47 1708
-143.625 -268.941 1711
-139.86 -269.57 1715
-136.155 -270.356 1720
-132.042 -270.356 1720
-128.152 -270.827 1723
-124.319 -271.456 1727
-120.329 -271.77 1729
-116.194 -271.77 1729
-112.254 -272.242 1732
-108.362 -272.871 1736
-104.451 -273.499 1740
-100.29 -273.499 1740
-96.4054 -274.285 1745
-92.444 -274.914 1749
-88.3625 -275.228 1751
-84.1753 -275.228 1751
-80.3079 -276.329 1758
-76.3205 -277.115 1763
-72.35 -278.058 1769
-68.1198 -278.058 1769
-63.9618 -278.372 1771
-59.7268 -278.372 1771
-55.4918 -278.372 1771
-51.1989 -278.058 1769
-47.0749 -278.686 1773
-43.0043 -279.787 1780
-38.8783 -280.73 1786
-34.6075 -280.73 1786
-30.4046 -281.359 1790
-26.2701 -282.93 1800
-22.0145 -283.559 1804
-17.7006 -283.559 1804
-13.409 -284.031 1807
-9.108 -284.659 1811
-4.77735 -284.659 1811
-0.446704 -284.659 1811
3.88395 -284.659 1811
53.105 -591.953 3766
62.1106 -591.953 3766
71.7583 -597.297 3800
81.7814 -604.214 3844
90.9735 -604.214 3844
100.166 -604.214 3844
109.87 -607.043 3862
119.105 -607.043 3862
128.34 -607.043 3862
137.255 -605.628 3853
148.179 -612.701 3898
157.864 -614.116 3907
167.207 -614.116 3907
176.55 -614.116 3907
185.465 -612.701 3898
192.087 -604.214 3844
201.28 -604.214 3844
209.486 -601.384 3826
217.664 -598.712 3809
225.76 -596.04 3792
234.828 -596.04 3792
242.224 -591.953 3766
332.28 -591.953 3766
341.286 -591.953 3766
350.291 -591.953 3766
358.438 -590.539 3757
364.978 -586.609 3732
374.703 -587.867 3740
383.647 -587.867 3740
392.59 -587.867 3740
400.675 -586.609 3732
409.599 -586.609 3732
418.524 -586.609 3732
425.615 -584.094 3716
434.501 -584.094 3716
442.314 -582.679 3707
455.195 -587.867 3740
466.248 -590.539 3757
475.232 -590.539 3757
484.216 -590.539 3757
492.15 -589.281 3749
501.115 -589.281 3749
510.08 -589.281 3749
517.799 -587.867 3740
525.616 -586.609 3732
534.54 -586.609 3732
541.134 -584.094 3716
550.021 -584.094 3716
570.337 -596.04 3792
584.6 -601.384 3826
593.749 -601.384 3826
602.899 -601.384 3826
3079.07 -642.724 4089
3088.85 -642.724 4089
3098.63 -642.724 4089
3100.81 -641.152 4079
3095.31 -638.008 4059
3105.01 -638.008 4059
-670.11 -258.032 1667
-666.124 -258.032 1667
-662.137 -258.032 1667
-658.151 -258.032 1667
-654.165 -258.032 1667
-649.398 -257.722 1665
-644.254 -257.258 1662
-639.509 -256.948 1660
-635.54 -256.948 1660
-630.429 -256.484 1657
-624.954 -255.865 1653
-621.752 -256.174 1655
-617.795 -256.174 1655
-613.837 -256.174 1655
-609.88 -256.174 1655
-604.091 -255.4 1650
-600.146 -255.4 1650
-595.477 -255.091 1648
-589.383 -254.162 1642
-585.456 -254.162 1642
-581.53 -254.162 1642
-576.9 -253.852 1640
-571.581 -253.233 1636
-566.281 -252.614 1632
-562.033 -252.459 1631
-558.133 -252.459 1631
-553.553 -252.15 1629
-549.658 -252.15 1629
-545.427 -251.995 1628
-541.534 -251.995 1628
-536.981 -251.685 1626
-533.093 -251.685 1626
-529.204 -251.685 1626
-525.316 -251.685 1626
-521.428 -251.685 1626
-517.539 -251.685 1626
-513.651 -251.685 1626
-509.763 -251.685 1626
-505.875 -251.685 1626
-501.986 -251.685 1626
-498.098 -251.685 1626
-494.21 -251.685 1626
-490.322 -251.685 1626
-486.433 -251.685 1626
-482.545 -251.685 1626
-478.657 -251.685 1626
-474.769 -251.685 1626
-470.88 -251.685 1626
-467.567 -251.995 1628
-463.958 -252.15 1629
-460.063 -252.15 1629
-456.167 -252.15 1629
-452.272 -252.15 1629
-448.377 -252.15 1629
-444.208 -251.995 1628
-440.315 -251.995 1628
-436.422 -251.995 1628
-432.529 -251.995 1628
-428.636 -251.995 1628
-424.743 -251.995 1628
-420.85 -251.995 1628
-416.957 -251.995 1628
-413.064 -251.995 1628
-409.171 -251.995 1628
-405.278 -251.995 1628
-401.631 -252.15 1629
-397.736 -252.15 1629
-393.841 -252.15 1629
-390.424 -252.459 1631
-386.761 -252.614 1632
-383.327 -252.924 1634
-379.42 -252.924 1634
-375.512 -252.924 1634
-371.605 -252.924 1634
-368.148 -253.233 1636
-364.236 -253.233 1636
-360.323 -253.233 1636
-356.411 -253.233 1636
-352.499 -253.233 1636
-348.587 -253.233 1636
-344.675 -253.233 1636
-340.971 -253.388 1637
-337.056 -253.388 1637
-333.142 -253.388 1637
-330.635 -254.472 1644
-326.704 -254.472 1644
-322.969 -254.626 1645
-319.035 -254.626 1645
-315.484 -254.936 1647
-311.735 -255.091 1648
-307.794 -255.091 1648
-303.853 -255.091 1648
-300.64 -255.71 1652
-296.69 -255.71 1652
-292.917 -255.865 1653
-288.964 -255.865 1653
-285.011 -255.865 1653
-281.398 -256.174 1655
-277.944 -256.639 1658
-273.979 -256.639 1658
-270.014 -256.639 1658
-267.173 -257.722 1665
-263.507 -258.032 1667
-259.521 -258.032 1667
-255.688 -258.186 1668
-251.699 -258.186 1668
-247.71 -258.186 1668
-243.722 -258.186 1668
-239.733 -258.186 1668
-236.027 -258.496 1670
-232.311 -258.806 1672
-228.313 -258.806 1672
-224.315 -258.806 1672
-220.712 -259.27 1675
-216.965 -259.58 1677
-213.082 -259.734 1678
-209.069 -259.734 1678
-205.546 -260.353 1682
-201.523 -260.353 1682
-197.854 -260.818 1685
-193.824 -260.818 1685
-190.358 -261.592 1690
-186.537 -261.901 1692
-182.707 -262.211 1694
-178.656 -262.211 1694
-174.708 -262.366 1695
-170.856 -262.675 1697
-167.191 -263.294 1701
-163.124 -263.294 1701
-159.15 -263.449 1702
-155.444 -264.068 1706
-151.542 -264.378 1708
-147.458 -264.378 1708
-143.625 -264.842 1711
-139.86 -265.461 1715
-136.155 -266.235 1720
-132.042 -266.235 1720
-128.152 -266.7 1723
-124.319 -267.319 1727
-120.329 -267.629 1729
-116.194 -267.629 1729
-112.254 -268.093 1732
-108.362 -268.712 1736
-104.451 -269.331 1740
-100.29 -269.331 1740
-96.4054 -270.105 1745
-92.5497 -271.034 1751
-88.3625 -271.034 1751
-84.1753 -271.034 1751
-80.3993 -272.427 1760
-76.4936 -273.51 1767
-72.4318 -274.13 1771
-68.1968 -274.13 1771
-64.034 -274.439 1773
-59.7943 -274.439 1773
-55.5545 -274.439 1773
-51.3147 -274.439 1773
-47.1811 -275.058 1777
-43.1009 -276.142 1784
-38.9654 -277.071 1790
-34.685 -277.071 1790
-30.5404 -278.309 1798
-26.2701 -278.618 1800
-22.0267 -279.392 1805
-17.7104 -279.392 1805
-13.4238 -280.012 1809
-9.108 -280.321 1811
-4.77735 -280.321 1811
-0.446704 -280.321 1811
3.88395 -280.321 1811
54.9663 -603.364 3898
64.2876 -603.364 3898
73.6089 -603.364 3898
82.9302 -603.364 3898
92.2515 -603.364 3898
100.635 -597.791 3862
110.382 -600.578 3880
119.66 -600.578 3880
129.537 -603.364 3898
138.858 -603.364 3898
148.179 -603.364 3898
157.864 -604.757 3907
167.207 -604.757 3907
176.55 -604.757 3907
185.465 -603.364 3898
192.087 -595.005 3844
201.28 -595.005 3844
207.132 -585.563 3783
216.178 -585.563 3783
224.689 -584.17 3774
233.713 -584.17 3774
242.224 -582.932 3766
250.095 -580.3 3749
257.885 -577.669 3732
276.325 -578.907 3740
285.269 -578.907 3740
294.212 -578.907 3740
303.156 -578.907 3740
312.099 -578.907 3740
316.15 -570.084 3683
329.28 -577.669 3732
338.204 -577.669 3732
347.129 -577.669 3732
356.053 -577.669 3732
364.978 -577.669 3732
373.902 -577.669 3732
382.826 -577.669 3732
391.751 -577.669 3732
400.675 -577.669 3732
409.599 -577.669 3732
418.524 -577.669 3732
425.615 -575.192 3716
433.449 -573.799 3707
442.314 -573.799 3707
455.195 -578.907 3740
465.255 -580.3 3749
474.22 -580.3 3749
483.185 -580.3 3749
492.15 -580.3 3749
501.115 -580.3 3749
510.08 -580.3 3749
517.799 -578.907 3740
526.742 -578.907 3740
535.686 -578.907 3740
542.299 -576.431 3724
551.205 -576.431 3724
560.11 -576.431 3724
569.015 -576.431 3724
574.041 -572.561 3699
3069.3 -632.928 4089
3079.07 -632.928 4089
3088.85 -632.928 4089
3098.63 -632.928 4089
3085.6 -628.285 4059
3087.68 -626.737 4049
3097.36 -626.737 4049
-672.12 -254.8 1672
-668.122 -254.8 1672
-664.123 -254.8 1672
-660.125 -254.8 1672
-656.127 -254.8 1672
-650.568 -254.191 1668
-646.58 -254.191 1668
-640.665 -253.429 1663
-636.688 -253.429 1663
-630.809 -252.667 1658
-626.466 -252.514 1657
-622.88 -252.667 1658
-618.915 -252.667 1658
-614.95 -252.667 1658
-610.985 -252.667 1658
-604.824 -251.752 1652
-600.873 -251.752 1652
-595.477 -251.143 1648
-590.101 -250.533 1644
-585.456 -250.229 1642
-581.53 -250.229 1642
-576.9 -249.924 1640
-571.93 -249.467 1637
-566.281 -248.705 1632
-562.033 -248.552 1631
-558.133 -248.552 1631
-553.553 -248.247 1629
-549.658 -248.247 1629
-545.427 -248.095 1628
-541.534 -248.095 1628
-536.981 -247.79 1626
-533.093 -247.79 1626
-529.204 -247.79 1626
-525.316 -247.79 1626
-521.428 -247.79 1626
-517.539 -247.79 1626
-514.283 -248.095 1628
-510.39 -248.095 1628
-506.497 -248.095 1628
-502.604 -248.095 1628
-498.098 -247.79 1626
-494.21 -247.79 1626
-490.322 -247.79 1626
-487.032 -248.095 1628
-483.139 -248.095 1628
-479.246 -248.095 1628
-475.353 -248.095 1628
-471.46 -248.095 1628
-467.854 -248.247 1629
-463.958 -248.247 1629
-460.063 -248.247 1629
-456.167 -248.247 1629
-452.272 -248.247 1629
-448.377 -248.247 1629
-444.208 -248.095 1628
-440.315 -248.095 1628
-436.422 -248.095 1628
-432.529 -248.095 1628
-428.636 -248.095 1628
-424.743 -248.095 1628
-420.85 -248.095 1628
-416.957 -248.095 1628
-413.064 -248.095 1628
-409.171 -248.095 1628
-405.527 -248.247 1629
-401.631 -248.247 1629
-397.736 -248.247 1629
-393.841 -248.247 1629
-390.663 -248.705 1632
-386.761 -248.705 1632
-383.327 -249.009 1634
-379.42 -249.009 1634
-375.512 -249.009 1634
-372.06 -249.314 1636
-368.148 -249.314 1636
-364.236 -249.314 1636
-360.323 -249.314 1636
-356.411 -249.314 1636
-352.499 -249.314 1636
-348.587 -249.314 1636
-344.675 -249.314 1636
-340.971 -249.467 1637
-337.056 -249.467 1637
-333.142 -249.467 1637
-330.635 -250.533 1644
-326.704 -250.533 1644
-322.969 -250.686 1645
-319.035 -250.686 1645
-315.484 -250.991 1647
-311.735 -251.143 1648
-307.794 -251.143 1648
-303.853 -251.143 1648
-300.64 -251.752 1652
-296.69 -251.752 1652
-292.917 -251.905 1653
-288.964 -251.905 1653
-285.011 -251.905 1653
-281.398 -252.21 1655
-277.944 -252.667 1658
-273.979 -252.667 1658
-270.014 -252.667 1658
-267.173 -253.734 1665
-263.507 -254.038 1667
-259.521 -254.038 1667
-255.688 -254.191 1668
-251.699 -254.191 1668
-247.71 -254.191 1668
-243.722 -254.191 1668
-239.733 -254.191 1668
-236.027 -254.496 1670
-232.311 -254.8 1672
-228.313 -254.8 1672
-224.315 -254.8 1672
-220.712 -255.257 1675
-216.965 -255.562 1677
-213.082 -255.715 1678
-209.069 -255.715 1678
-205.546 -256.324 1682
-201.523 -256.324 1682
-197.854 -256.781 1685
-193.824 -256.781 1685
-190.358 -257.543 1690
-186.758 -258.153 1694
-182.707 -258.153 1694
-178.656 -258.153 1694
-174.708 -258.305 1695
-170.856 -258.61 1697
-167.29 -259.372 1702
-163.22 -259.372 1702
-159.15 -259.372 1702
-155.444 -259.982 1706
-151.542 -260.286 1708
-147.458 -260.286 1708
-143.625 -260.744 1711
-139.86 -261.353 1715
-136.155 -262.115 1720
-132.042 -262.115 1720
-128.152 -262.572 1723
-124.319 -263.182 1727
-120.329 -263.487 1729
-116.194 -263.487 1729
-112.254 -263.944 1732
-108.362 -264.553 1736
-104.451 -265.163 1740
-100.29 -265.163 1740
-96.4054 -265.925 1745
-92.5497 -266.839 1751
-88.413 -266.992 1752
-84.2234 -266.992 1752
-80.4907 -268.516 1762
-76.5802 -269.582 1769
-72.5954 -270.497 1775
-68.3508 -270.497 1775
-64.1063 -270.497 1775
-59.8617 -270.497 1775
-55.6171 -270.497 1775
-51.3726 -270.497 1775
-47.1811 -270.802 1777
-43.1009 -271.868 1784
-39.009 -273.087 1792
-34.7237 -273.087 1792
-30.5404 -274.002 1798
-26.2701 -274.307 1800
-22.0267 -275.069 1805
-17.7104 -275.069 1805
-13.4238 -275.678 1809
-9.108 -275.983 1811
-4.77735 -275.983 1811
-0.446704 -275.983 1811
3.88395 -275.983 1811
54.9663 -594.026 3898
64.2876 -594.026 3898
73.7789 -595.398 3907
83.1217 -595.398 3907
92.4645 -595.398 3907
101.573 -594.026 3898
110.894 -594.026 3898
120.215 -594.026 3898
129.537 -594.026 3898
138.858 -594.026 3898
148.179 -594.026 3898
157.501 -594.026 3898
166.822 -594.026 3898
176.143 -594.026 3898
185.036 -592.655 3889
187.74 -572.539 3757
196.724 -572.539 3757
205.27 -571.32 3749
214.692 -572.539 3757
223.676 -572.539 3757
232.661 -572.539 3757
241.13 -571.32 3749
250.095 -571.32 3749
257.885 -568.729 3732
266.238 -567.51 3724
276.325 -569.948 3740
285.269 -569.948 3740
294.212 -569.948 3740
303.156 -569.948 3740
312.099 -569.948 3740
316.15 -561.262 3683
327.868 -566.291 3716
338.204 -568.729 3732
347.129 -568.729 3732
356.053 -568.729 3732
365.76 -569.948 3740
374.703 -569.948 3740
383.647 -569.948 3740
392.59 -569.948 3740
401.534 -569.948 3740
408.721 -567.51 3724
417.626 -567.51 3724
426.532 -567.51 3724
434.501 -566.291 3716
442.314 -564.919 3707
455.195 -569.948 3740
465.255 -571.32 3749
474.22 -571.32 3749
483.185 -571.32 3749
492.15 -571.32 3749
502.184 -572.539 3757
511.168 -572.539 3757
520.153 -572.539 3757
529.137 -572.539 3757
538.121 -572.539 3757
542.299 -567.51 3724
551.205 -567.51 3724
560.11 -567.51 3724
569.015 -567.51 3724
574.041 -563.7 3699
3069.3 -623.133 4089
3079.07 -623.133 4089
3088.85 -623.133 4089
3098.63 -623.133 4089
3085.6 -618.561 4059
3087.68 -617.037 4049
3097.36 -617.037 4049
-672.12 -250.795 1672
-668.122 -250.795 1672
-664.123 -250.795 1672
-660.125 -250.795 1672
-656.127 -250.795 1672
-651.349 -250.495 1670
-647.355 -250.495 1670
-642.591 -250.195 1668
-638.602 -250.195 1668
-632.331 -249.295 1662
-626.466 -248.545 1657
-622.88 -248.695 1658
-618.915 -248.695 1658
-614.95 -248.695 1658
-610.985 -248.695 1658
-604.824 -247.795 1652
-600.873 -247.795 1652
-595.477 -247.195 1648
-590.46 -246.745 1645
-585.456 -246.295 1642
-581.53 -246.295 1642
-576.9 -245.995 1640
-571.93 -245.545 1637
-566.281 -244.795 1632
-562.378 -244.795 1632
-558.475 -244.795 1632
-553.553 -244.345 1629
-549.658 -244.345 1629
-545.762 -244.345 1629
-541.867 -244.345 1629
-537.641 -244.195 1628
-533.748 -244.195 1628
-529.855 -244.195 1628
-525.962 -244.195 1628
-522.069 -244.195 1628
-518.176 -244.195 1628
-514.283 -244.195 1628
-510.39 -244.195 1628
-506.497 -244.195 1628
-502.604 -244.195 1628
-498.711 -244.195 1628
-494.818 -244.195 1628
-490.925 -244.195 1628
-487.032 -244.195 1628
-483.139 -244.195 1628
-479.246 -244.195 1628
-475.353 -244.195 1628
-471.46 -244.195 1628
-467.854 -244.345 1629
-463.958 -244.345 1629
-460.063 -244.345 1629
-456.167 -244.345 1629
-452.272 -244.345 1629
-448.377 -244.345 1629
-444.481 -244.345 1629
-440.315 -244.195 1628
-436.422 -244.195 1628
-432.529 -244.195 1628
-428.636 -244.195 1628
-424.743 -244.195 1628
-420.85 -244.195 1628
-416.957 -244.195 1628
-413.064 -244.195 1628
-409.171 -244.195 1628
-405.527 -244.345 1629
-401.631 -244.345 1629
-397.736 -244.345 1629
-393.841 -244.345 1629
-390.663 -244.795 1632
-386.761 -244.795 1632
-383.327 -245.095 1634
-379.42 -245.095 1634
-375.512 -245.095 1634
-372.06 -245.395 1636
-368.148 -245.395 1636
-364.236 -245.395 1636
-360.323 -245.395 1636
-356.411 -245.395 1636
-352.499 -245.395 1636
-348.587 -245.395 1636
-344.675 -245.395 1636
-340.971 -245.545 1637
-337.056 -245.545 1637
-333.142 -245.545 1637
-330.635 -246.595 1644
-326.704 -246.595 1644
-322.969 -246.745 1645
-319.035 -246.745 1645
-315.484 -247.045 1647
-311.735 -247.195 1648
-307.794 -247.195 1648
-303.853 -247.195 1648
-300.64 -247.795 1652
-296.69 -247.795 1652
-292.917 -247.945 1653
-288.964 -247.945 1653
-285.011 -247.945 1653
-281.398 -248.245 1655
-277.944 -248.695 1658
-273.979 -248.695 1658
-270.014 -248.695 1658
-267.173 -249.745 1665
-263.507 -250.045 1667
-259.521 -250.045 1667
-255.688 -250.195 1668
-251.699 -250.195 1668
-247.71 -250.195 1668
-243.722 -250.195 1668
-240.02 -250.495 1670
-236.027 -250.495 1670
-232.311 -250.795 1672
-228.313 -250.795 1672
-224.315 -250.795 1672
-220.712 -251.245 1675
-216.965 -251.545 1677
-213.082 -251.695 1678
-209.069 -251.695 1678
-205.546 -252.295 1682
-201.523 -252.295 1682
-197.854 -252.745 1685
-193.824 -252.745 1685
-190.358 -253.495 1690
-186.758 -254.095 1694
-182.707 -254.095 1694
-178.656 -254.095 1694
-174.708 -254.245 1695
-170.856 -254.545 1697
-167.29 -255.295 1702
-163.22 -255.295 1702
-159.15 -255.295 1702
-155.444 -255.895 1706
-151.631 -256.345 1709
-147.544 -256.345 1709
-143.793 -256.945 1713
-139.941 -257.395 1716
-136.313 -258.295 1722
-132.195 -258.295 1722
-128.152 -258.445 1723
-124.319 -259.045 1727
-120.468 -259.645 1731
-116.329 -259.645 1731
-112.384 -260.095 1734
-108.362 -260.395 1736
-104.511 -261.145 1741
-100.348 -261.145 1741
-96.5159 -262.045 1747
-92.5497 -262.645 1751
-88.413 -262.795 1752
-84.2234 -262.795 1752
-80.5363 -264.445 1763
-76.5802 -265.345 1769
-72.6772 -266.545 1777
-68.4278 -266.545 1777
-64.1785 -266.545 1777
-59.9292 -266.545 1777
-55.6798 -266.545 1777
-51.4305 -266.545 1777
-47.2342 -266.845 1779
-43.1492 -267.895 1786
-39.009 -268.795 1792
-34.7237 -268.795 1792
-30.5404 -269.695 1798
-26.2701 -269.995 1800
-22.0267 -270.745 1805
-17.7104 -270.745 1805
-13.4238 -271.345 1809
-9.108 -271.645 1811
-4.77735 -271.645 1811
-0.446704 -271.645 1811
3.88395 -271.645 1811
54.9663 -584.688 3898
64.2876 -584.688 3898
73.7789 -586.038 3907
83.1217 -586.038 3907
92.4645 -586.038 3907
101.573 -584.688 3898
110.894 -584.688 3898
120.215 -584.688 3898
129.537 -584.688 3898
138.858 -584.688 3898
148.179 -584.688 3898
157.501 -584.688 3898
166.822 -584.688 3898
176.143 -584.688 3898
185.036 -583.338 3889
187.74 -563.539 3757
196.724 -563.539 3757
205.27 -562.339 3749
214.692 -563.539 3757
223.676 -563.539 3757
232.661 -563.539 3757
241.13 -562.339 3749
250.095 -562.339 3749
257.885 -559.789 3732
266.238 -558.589 3724
276.325 -560.989 3740
285.269 -560.989 3740
294.212 -560.989 3740
303.156 -560.989 3740
312.099 -560.989 3740
316.15 -552.439 3683
327.868 -557.389 3716
338.204 -559.789 3732
347.129 -559.789 3732
356.053 -559.789 3732
365.76 -560.989 3740
374.703 -560.989 3740
383.647 -560.989 3740
392.59 -560.989 3740
401.534 -560.989 3740
408.721 -558.589 3724
417.626 -558.589 3724
426.532 -558.589 3724
434.501 -557.389 3716
442.314 -556.039 3707
455.195 -560.989 3740
465.255 -562.339 3749
474.22 -562.339 3749
483.185 -562.339 3749
492.15 -562.339 3749
502.184 -563.539 3757
511.168 -563.539 3757
520.153 -563.539 3757
529.137 -563.539 3757
538.121 -563.539 3757
544.629 -560.989 3740
553.573 -560.989 3740
562.516 -560.989 3740
571.46 -560.989 3740
574.041 -554.839 3699
1116.02 -556.039 3707
1124.88 -556.039 3707
1133.75 -556.039 3707
1140.15 -554.839 3699
1151.48 -556.039 3707
1160.34 -556.039 3707
1169.21 -556.039 3707
1178.07 -556.039 3707
1223.22 -568.789 3792
1232.29 -568.789 3792
1246.92 -571.339 3809
1256.03 -571.339 3809
1273.77 -575.239 3835
1282.94 -575.239 3835
1292.12 -575.239 3835
3069.3 -613.338 4089
3079.07 -613.338 4089
3088.85 -613.338 4089
3091.05 -611.838 4079
3085.6 -608.838 4059
3087.68 -607.338 4049
3097.36 -607.338 4049
-672.12 -246.79 1672
-668.122 -246.79 1672
-664.123 -246.79 1672
-660.125 -246.79 1672
-656.127 -246.79 1672
-651.349 -246.495 1670
-647.355 -246.495 1670
-642.591 -246.199 1668
-638.602 -246.199 1668
-632.331 -245.314 1662
-626.466 -244.576 1657
-622.88 -244.723 1658
-618.915 -244.723 1658
-614.95 -244.723 1658
-610.985 -244.723 1658
-604.824 -243.838 1652
-600.873 -243.838 1652
-595.477 -243.247 1648
-590.46 -242.805 1645
-585.456 -242.362 1642
-581.53 -242.362 1642
-576.9 -242.066 1640
-571.93 -241.624 1637
-566.281 -240.886 1632
-562.378 -240.886 1632
-558.475 -240.886 1632
-553.553 -240.443 1629
-549.658 -240.443 1629
-545.762 -240.443 1629
-541.867 -240.443 1629
-537.641 -240.295 1628
-533.748 -240.295 1628
-529.855 -240.295 1628
-525.962 -240.295 1628
-522.069 -240.295 1628
-518.176 -240.295 1628
-514.283 -240.295 1628
-510.39 -240.295 1628
-506.497 -240.295 1628
-502.604 -240.295 1628
-498.711 -240.295 1628
-494.818 -240.295 1628
-490.925 -240.295 1628
-487.032 -240.295 1628
-483.139 -240.295 1628
-479.246 -240.295 1628
-475.353 -240.295 1628
-471.46 -240.295 1628
-467.854 -240.443 1629
-463.958 -240.443 1629
-460.063 -240.443 1629
-456.167 -240.443 1629
-452.272 -240.443 1629
-448.377 -240.443 1629
-444.481 -240.443 1629
-440.315 -240.295 1628
-436.422 -240.295 1628
-432.529 -240.295 1628
-428.636 -240.295 1628
-424.743 -240.295 1628
-420.85 -240.295 1628
-416.957 -240.295 1628
-413.064 -240.295 1628
-409.171 -240.295 1628
-405.527 -240.443 1629
-401.631 -240.443 1629
-397.736 -240.443 1629
-393.841 -240.443 1629
-390.663 -240.886 1632
-386.761 -240.886 1632
-383.327 -241.181 1634
-379.42 -241.181 1634
-375.512 -241.181 1634
-372.06 -241.476 1636
-368.148 -241.476 1636
-364.236 -241.476 1636
-360.323 -241.476 1636
-356.411 -241.476 1636
-352.499 -241.476 1636
-348.587 -241.476 1636
-344.675 -241.476 1636
-340.971 -241.624 1637
-337.056 -241.624 1637
-333.142 -241.624 1637
-330.635 -242.657 1644
-326.704 -242.657 1644
-322.969 -242.805 1645
-319.035 -242.805 1645
-315.484 -243.1 1647
-311.735 -243.247 1648
-307.794 -243.247 1648
-303.853 -243.247 1648
-300.276 -243.543 1650
-296.69 -243.838 1652
-292.74 -243.838 1652
-288.789 -243.838 1652
-285.011 -243.985 1653
-281.398 -244.281 1655
-277.944 -244.723 1658
-273.979 -244.723 1658
-270.014 -244.723 1658
-267.173 -245.757 1665
-263.507 -246.052 1667
-259.521 -246.052 1667
-255.688 -246.199 1668
-251.699 -246.199 1668
-247.71 -246.199 1668
-243.722 -246.199 1668
-240.02 -246.495 1670
-236.027 -246.495 1670
-232.311 -246.79 1672
-228.313 -246.79 1672
-224.315 -246.79 1672
-220.712 -247.233 1675
-216.965 -247.528 1677
-213.082 -247.675 1678
-209.069 -247.675 1678
-205.546 -248.266 1682
-201.523 -248.266 1682
-197.854 -248.709 1685
-193.824 -248.709 1685
-190.358 -249.447 1690
-186.758 -250.037 1694
-182.707 -250.037 1694
-178.656 -250.037 1694
-174.708 -250.185 1695
-170.856 -250.48 1697
-167.29 -251.218 1702
-163.22 -251.218 1702
-159.15 -251.218 1702
-155.444 -251.808 1706
-151.631 -252.251 1709
-147.544 -252.251 1709
-143.793 -252.841 1713
-139.941 -253.284 1716
-136.313 -254.17 1722
-132.195 -254.17 1722
-128.152 -254.317 1723
-124.319 -254.908 1727
-120.468 -255.498 1731
-116.329 -255.498 1731
-112.384 -255.941 1734
-108.362 -256.236 1736
-104.511 -256.974 1741
-100.348 -256.974 1741
-96.5159 -257.86 1747
-92.5497 -258.45 1751
-88.413 -258.598 1752
-84.2234 -258.598 1752
-80.5363 -260.221 1763
-76.5802 -261.107 1769
-72.6772 -262.288 1777
-68.4278 -262.288 1777
-64.1785 -262.288 1777
-59.9292 -262.288 1777
-55.6798 -262.288 1777
-51.4305 -262.288 1777
-47.2342 -262.583 1779
-43.1492 -263.616 1786
-39.009 -264.502 1792
-34.7237 -264.502 1792
-30.5404 -265.388 1798
-26.2701 -265.683 1800
-22.0145 -266.273 1804
-17.7006 -266.273 1804
-13.4238 -267.011 1809
-9.108 -267.306 1811
-4.77735 -267.306 1811
-0.446704 -267.306 1811
3.88395 -267.306 1811
54.9663 -575.351 3898
64.2876 -575.351 3898
73.7789 -576.679 3907
83.1217 -576.679 3907
92.4645 -576.679 3907
101.573 -575.351 3898
110.894 -575.351 3898
120.215 -575.351 3898
129.537 -575.351 3898
137.576 -570.037 3862
146.811 -570.037 3862
157.137 -574.022 3889
166.437 -574.022 3889
175.737 -574.022 3889
182.895 -567.38 3844
186.89 -552.03 3740
196.305 -553.358 3749
205.27 -553.358 3749
214.692 -554.539 3757
223.676 -554.539 3757
232.661 -554.539 3757
241.13 -553.358 3749
250.095 -553.358 3749
257.885 -550.849 3732
266.238 -549.668 3724
276.325 -552.03 3740
285.269 -552.03 3740
294.212 -552.03 3740
303.156 -552.03 3740
312.099 -552.03 3740
316.15 -543.616 3683
327.868 -548.487 3716
338.204 -550.849 3732
347.129 -550.849 3732
356.053 -550.849 3732
365.76 -552.03 3740
374.703 -552.03 3740
383.647 -552.03 3740
392.59 -552.03 3740
401.534 -552.03 3740
408.721 -549.668 3724
417.626 -549.668 3724
426.532 -549.668 3724
434.501 -548.487 3716
442.314 -547.159 3707
455.195 -552.03 3740
465.255 -553.358 3749
474.22 -553.358 3749
483.185 -553.358 3749
492.15 -553.358 3749
502.184 -554.539 3757
511.168 -554.539 3757
520.153 -554.539 3757
529.137 -554.539 3757
538.121 -554.539 3757
544.629 -552.03 3740
553.573 -552.03 3740
562.516 -552.03 3740
571.46 -552.03 3740
574.041 -545.978 3699
1116.02 -547.159 3707
1124.88 -547.159 3707
1133.75 -547.159 3707
1140.15 -545.978 3699
1151.48 -547.159 3707
1160.34 -547.159 3707
1169.21 -547.159 3707
1178.07 -547.159 3707
1223.22 -559.705 3792
1232.29 -559.705 3792
1246.92 -562.214 3809
1256.03 -562.214 3809
1273.77 -566.052 3835
1282.94 -566.052 3835
1292.12 -566.052 3835
3069.3 -603.543 4089
3079.07 -603.543 4089
3088.85 -603.543 4089
3091.05 -602.067 4079
3085.6 -599.115 4059
3087.68 -597.639 4049
3097.36 -597.639 4049
-680.162 -244.237 1682
-676.14 -244.237 1682
-672.118 -244.237 1682
-667.301 -243.946 1680
-660.125 -242.784 1672
-656.127 -242.784 1672
-651.349 -242.494 1670
-647.355 -242.494 1670
-642.591 -242.204 1668
-638.602 -242.204 1668
-632.331 -241.332 1662
-626.466 -240.606 1657
-622.88 -240.752 1658
-618.915 -240.752 1658
-614.95 -240.752 1658
-610.985 -240.752 1658
-604.824 -239.88 1652
-600.873 -239.88 1652
-595.477 -239.299 1648
-590.46 -238.864 1645
-586.17 -238.719 1644
-582.238 -238.719 1644
-577.603 -238.428 1642
-572.629 -237.993 1639
-567.668 -237.557 1636
-562.378 -236.976 1632
-558.475 -236.976 1632
-554.573 -236.976 1632
-550.333 -236.831 1631
-545.762 -236.541 1629
-541.867 -236.541 1629
-537.972 -236.541 1629
-533.748 -236.395 1628
-529.855 -236.395 1628
-525.962 -236.395 1628
-522.069 -236.395 1628
-518.176 -236.395 1628
-514.283 -236.395 1628
-510.39 -236.395 1628
-506.497 -236.395 1628
-502.604 -236.395 1628
-498.711 -236.395 1628
-494.818 -236.395 1628
-490.925 -236.395 1628
-487.032 -236.395 1628
-483.139 -236.395 1628
-479.246 -236.395 1628
-475.353 -236.395 1628
-471.46 -236.395 1628
-467.854 -236.541 1629
-463.958 -236.541 1629
-460.063 -236.541 1629
-456.167 -236.541 1629
-452.272 -236.541 1629
-448.377 -236.541 1629
-444.481 -236.541 1629
-440.315 -236.395 1628
-436.422 -236.395 1628
-432.529 -236.395 1628
-428.636 -236.395 1628
-424.743 -236.395 1628
-420.85 -236.395 1628
-416.957 -236.395 1628
-413.064 -236.395 1628
-409.171 -236.395 1628
-405.527 -236.541 1629
-401.631 -236.541 1629
-398.224 -236.831 1631
-394.324 -236.831 1631
-390.663 -236.976 1632
-386.761 -236.976 1632
-383.327 -237.267 1634
-379.42 -237.267 1634
-375.512 -237.267 1634
-372.06 -237.557 1636
-368.148 -237.557 1636
-364.236 -237.557 1636
-360.323 -237.557 1636
-356.411 -237.557 1636
-352.499 -237.557 1636
-348.587 -237.557 1636
-344.675 -237.557 1636
-340.762 -237.557 1636
-337.056 -237.702 1637
-333.142 -237.702 1637
-330.233 -238.428 1642
-326.704 -238.719 1644
-322.969 -238.864 1645
-319.035 -238.864 1645
-315.101 -238.864 1645
-311.735 -239.299 1648
-307.794 -239.299 1648
-303.853 -239.299 1648
-299.912 -239.299 1648
-296.331 -239.59 1650
-292.74 -239.88 1652
-288.789 -239.88 1652
-285.011 -240.026 1653
-281.058 -240.026 1653
