1320.17 259.246 3683
1328.97 259.246 3683
1343.59 260.372 3699
1352.44 260.372 3699
1364.23 260.935 3707
1373.09 260.935 3707
1381.96 260.935 3707
1390.82 260.935 3707
1396.67 260.372 3699
1421.09 263.258 3740
1430.03 263.258 3740
1438.98 263.258 3740
1447.92 263.258 3740
1456.86 263.258 3740
1465.81 263.258 3740
1471.6 262.695 3732
1470.6 260.935 3707
1479.47 260.935 3707
1488.33 260.935 3707
1497.2 260.935 3707
1506.06 260.935 3707
1511.66 260.372 3699
1520.5 260.372 3699
1532.65 260.935 3707
1541.52 260.935 3707
1550.38 260.935 3707
1555.88 260.372 3699
1564.73 260.372 3699
1573.57 260.372 3699
1582.42 260.372 3699
1591.27 260.372 3699
1600.11 260.372 3699
1598.52 258.682 3675
1599.87 257.486 3658
1612.57 258.119 3667
1621.34 258.119 3667
1630.11 258.119 3667
1675.53 263.891 3749
1688.09 264.454 3757
1704.75 265.651 3774
1713.78 265.651 3774
1722.8 265.651 3774
1724.03 264.454 3757
1733.01 264.454 3757
1741.99 264.454 3757
1750.98 264.454 3757
1759.96 264.454 3757
1749.64 261.568 3716
1758.53 261.568 3716
1767.41 261.568 3716
1764.35 259.809 3691
1765.49 258.682 3675
1774.28 258.682 3675
1783.07 258.682 3675
1787.95 258.119 3667
1788.39 256.923 3650
1797.12 256.923 3650
1798.43 255.867 3635
1795.19 254.178 3611
1795.83 253.051 3595
1789.37 250.94 3565
1797.89 250.94 3565
1794.77 249.321 3542
1792.04 247.772 3520
1785.11 245.66 3490
1793.45 245.66 3490
1790.44 244.112 3468
1795.1 243.619 3461
1814.84 245.168 3483
1838.35 247.209 3512
1846.75 247.209 3512
1855.15 247.209 3512
1867.79 247.772 3520
1891.67 249.813 3549
1904.44 250.376 3557
1912.94 250.376 3557
1921.45 250.376 3557
1934.29 250.94 3565
1946.63 251.432 3572
1955.18 251.432 3572
1993.95 255.304 3627
2010.91 256.36 3642
2024.06 256.923 3650
2032.78 256.923 3650
2051.02 258.119 3667
2091.81 262.132 3724
2153.74 268.748 3818
2162.87 268.748 3818
2191.91 271.212 3853
2201.12 271.212 3853
2210.34 271.212 3853
2199.39 268.748 3818
2188.27 266.285 3783
2212.42 268.115 3809
2241.94 270.578 3844
2251.13 270.578 3844
2265.62 271.212 3853
2274.83 271.212 3853
2294.72 272.479 3871
2303.97 272.479 3871
2313.23 272.479 3871
2317.09 271.845 3862
2315.48 270.578 3844
2324.67 270.578 3844
2333.86 270.578 3844
2354.03 271.845 3862
2368.77 272.479 3871
2378.03 272.479 3871
2387.28 272.479 3871
2429.97 276.28 3925
2439.36 276.28 3925
2478.06 279.588 3972
2487.56 279.588 3972
2520.95 282.263 4010
2530.54 282.263 4010
2540.13 282.263 4010
2549.72 282.263 4010
2535.05 279.588 3972
2544.55 279.588 3972
2554.05 279.588 3972
2521.6 275.013 3907
2530.94 275.013 3907
2564.34 277.617 3944
2586.17 278.955 3963
2595.65 278.955 3963
2605.12 278.955 3963
2602.07 277.617 3944
2611.5 277.617 3944
2620.93 277.617 3944
2611.69 275.646 3916
2560.81 269.311 3826
2529.66 265.088 3766
2538.66 265.088 3766
2502.34 260.372 3699
2511.19 260.372 3699
2486.65 256.923 3650
2457.78 253.051 3595
2466.38 253.051 3595
2053.56 207.087 2942
2060.59 207.087 2942
2067.63 207.087 2942
2057.03 205.327 2917
2010.94 200.048 2842
2017.74 200.048 2842
2011 198.71 2823
2004.17 197.373 2804
2010.87 197.373 2804
2017.58 197.373 2804
2020.67 197.021 2799
2023.74 196.669 2794
2027.52 196.387 2790
2040.75 197.021 2799
2047.45 197.021 2799
2054.14 197.021 2799
2064.51 197.373 2804
2081.56 198.358 2818
2092 198.71 2823
2098.76 198.71 2823
2112.22 199.344 2832
2118.99 199.344 2832
2129.52 199.696 2837
2136.3 199.696 2837
2143.08 199.696 2837
2149.87 199.696 2837
2164.25 200.4 2847
2171.06 200.4 2847
2177.87 200.4 2847
-2334.52 226.945 3118
-2327.07 226.945 3118
-2315.15 226.508 3112
-2304 226.144 3107
-2292.13 225.707 3101
-2292.82 226.508 3112
-2285.38 226.508 3112
-2282.33 226.945 3118
-2279.25 227.381 3124
-2276.14 227.818 3130
-2268.66 227.818 3130
-2265.51 228.255 3136
-2262.33 228.691 3142
-2254.82 228.691 3142
-2247.3 228.691 3142
-2239.79 228.691 3142
-2232.28 228.691 3142
-2224.76 228.691 3142
-2213.02 228.255 3136
-2205.52 228.255 3136
-2206.43 229.128 3148
-2198.9 229.128 3148
-2191.37 229.128 3148
-2183.84 229.128 3148
-2180.47 229.565 3154
-2189.46 231.312 3178
-2181.86 231.312 3178
-2178.36 231.748 3184
-2170.75 231.748 3184
-2163.14 231.748 3184
-2147.4 230.875 3172
-2164.1 233.495 3208
-2160.46 233.932 3214
-2165.5 235.315 3233
-2157.77 235.315 3233
-2162.67 236.698 3252
-2154.9 236.698 3252
-2147.12 236.698 3252
-2139.34 236.698 3252
-2131.57 236.698 3252
-2132.28 237.644 3265
-2132.93 238.59 3278
-2125.09 238.59 3278
-2121.13 239.027 3284
-2117.14 239.464 3290
-2143.25 243.321 3343
-2135.26 243.321 3343
-2136.17 244.34 3357
-2149.7 246.815 3391
-2168.11 249.872 3433
-2159.9 249.872 3433
-2160.47 250.891 3447
-2156.6 251.4 3454
-2148.34 251.4 3454
-2140.08 251.4 3454
-2101.58 247.834 3405
-2071.92 245.286 3370
-2063.86 245.286 3370
-2051.53 244.777 3363
-2069.01 247.834 3405
-2073.57 249.362 3426
-2069.6 249.872 3433
-2061.39 249.872 3433
-2053.18 249.872 3433
-2044.97 249.872 3433
-2036.76 249.872 3433
-2020.28 248.853 3419
-1999.75 247.324 3398
-1987.52 246.815 3391
-1979.41 246.815 3391
-1959.09 245.286 3370
-1946.98 244.777 3363
-1927.41 243.321 3343
-1919.41 243.321 3343
-1911.42 243.321 3343
-1900.01 242.885 3337
-1880.69 241.429 3317
-1880.1 242.375 3330
-1872.14 242.375 3330
-1875.37 243.831 3350
-1867.36 243.831 3350
-1863.23 244.34 3357
-1855.2 244.34 3357
-1847.18 244.34 3357
-1839.15 244.34 3357
-1831.12 244.34 3357
-1815.49 243.321 3343
-1807.5 243.321 3343
-1814.04 245.286 3370
-1805.98 245.286 3370
-1805.39 246.305 3384
-1797.3 246.305 3384
-1800.31 247.834 3405
-1792.17 247.834 3405
-1784.02 247.834 3405
-1772.23 247.324 3398
-1749.57 245.286 3370
-1741.51 245.286 3370
-1751.45 247.834 3405
-1743.31 247.834 3405
-1742.3 248.853 3419
-1737.68 249.362 3426
-1733.02 249.872 3433
-1724.81 249.872 3433
-1716.6 249.872 3433
-1704.91 249.362 3426
-1703.65 250.381 3440
-1695.42 250.381 3440
-1690.63 250.891 3447
-1682.39 250.891 3447
-1674.14 250.891 3447
-1665.9 250.891 3447
-1644.19 248.853 3419
-1639.37 249.362 3426
-1634.51 249.872 3433
-1626.3 249.872 3433
-1621.39 250.381 3440
-1619.73 251.4 3454
-1611.47 251.4 3454
-1603.21 251.4 3454
-1594.95 251.4 3454
-1586.69 251.4 3454
-1578.43 251.4 3454
-1570.17 251.4 3454
-1561.91 251.4 3454
-1563.55 253.002 3476
-1555.23 253.002 3476
-1546.92 253.002 3476
-1538.61 253.002 3476
-1520.61 251.4 3454
-1512.35 251.4 3454
-1494.95 249.872 3433
-1477.64 248.343 3412
-1469.48 248.343 3412
-1467.32 249.362 3426
-1459.13 249.362 3426
-1450.94 249.362 3426
-1425.06 246.305 3384
-1416.96 246.305 3384
-1403.04 245.286 3370
-1386.71 243.831 3350
-713.471 127.665 1754
-709.277 127.665 1754
-705.083 127.665 1754
-700.888 127.665 1754
-695.502 127.447 1751
-691.315 127.447 1751
-686.343 127.301 1749
-681.381 127.156 1747
-677.203 127.156 1747
-673.026 127.156 1747
-668.082 127.01 1745
-663.148 126.865 1743
-658.98 126.865 1743
-654.812 126.865 1743
-650.644 126.865 1743
-646.476 126.865 1743
-642.308 126.865 1743
-638.14 126.865 1743
-633.972 126.865 1743
-629.081 126.719 1741
-624.559 126.646 1740
-620.398 126.646 1740
-616.238 126.646 1740
-611.373 126.501 1738
-607.217 126.501 1738
-603.061 126.501 1738
-598.905 126.501 1738
-592.696 126.064 1732
-588.554 126.064 1732
-584.412 126.064 1732
-580.27 126.064 1732
-575.131 125.846 1729
-569.675 125.555 1725
-565.55 125.555 1725
-561.425 125.555 1725
-556.654 125.409 1723
-551.572 125.191 1720
-546.822 125.045 1718
-542.714 125.045 1718
-537.038 124.681 1713
-532.32 124.536 1711
-527.302 124.317 1708
-523.218 124.317 1708
-519.133 124.317 1708
-513.843 124.026 1704
-509.17 123.881 1702
-505.1 123.881 1702
-500.735 123.808 1701
-495.5 123.517 1697
-491.442 123.517 1697
-487.384 123.517 1697
-483.326 123.517 1697
-478.703 123.371 1695
-474.369 123.298 1694
-470.318 123.298 1694
-466.268 123.298 1694
-462.217 123.298 1694
-457.625 123.153 1692
-453.579 123.153 1692
-449.533 123.153 1692
-445.487 123.153 1692
-440.919 123.007 1690
-436.878 123.007 1690
-432.836 123.007 1690
-428.541 122.934 1689
-424.502 122.934 1689
-420.463 122.934 1689
-416.424 122.934 1689
-412.386 122.934 1689
-408.347 122.934 1689
-403.829 122.789 1687
-399.795 122.789 1687
-395.761 122.789 1687
-391.727 122.789 1687
-387.692 122.789 1687
-383.658 122.789 1687
-379.624 122.789 1687
-375.59 122.789 1687
-371.115 122.643 1685
-367.086 122.643 1685
-362.626 122.498 1683
-358.388 122.425 1682
-353.945 122.279 1680
-349.927 122.279 1680
-345.498 122.134 1678
-341.485 122.134 1678
-337.272 122.061 1677
-333.262 122.061 1677
-329.251 122.061 1677
-325.241 122.061 1677
-320.848 121.915 1675
-316.464 121.77 1673
-312.463 121.77 1673
-308.463 121.77 1673
-304.462 121.77 1673
-300.461 121.77 1673
-296.461 121.77 1673
-292.285 121.697 1672
-288.287 121.697 1672
-284.289 121.697 1672
-280.458 121.77 1673
-276.458 121.77 1673
-272.783 121.915 1675
-269.098 122.061 1677
-265.562 122.279 1680
-261.545 122.279 1680
-257.987 122.498 1683
-254.264 122.643 1685
-250.829 122.934 1689
-246.79 122.934 1689
-243.182 123.153 1692
-239.56 123.371 1695
-236.063 123.662 1699
-232 123.662 1699
-228.34 123.881 1702
-224.533 124.026 1704
-221.105 124.39 1709
-217.019 124.39 1709
-212.932 124.39 1709
-209.578 124.827 1715
-206.076 125.191 1720
-201.963 125.191 1720
-198.08 125.336 1722
-194.3 125.555 1725
-190.396 125.7 1727
-186.266 125.7 1727
-182.136 125.7 1727
-178.213 125.846 1729
-174.279 125.991 1731
-170.238 126.064 1732
-166.097 126.064 1732
-162.142 126.21 1734
-158.36 126.501 1738
-154.47 126.719 1741
-150.307 126.719 1741
-146.647 127.156 1747
-142.633 127.301 1749
-138.609 127.447 1751
-134.421 127.447 1751
-130.457 127.665 1754
-126.551 127.957 1758
-122.347 127.957 1758
-118.143 127.957 1758
-114.069 128.102 1760
-109.985 128.248 1762
-105.952 128.466 1765
-101.731 128.466 1765
-97.8418 128.903 1771
-93.7125 129.048 1773
-89.5736 129.194 1775
-85.3291 129.194 1775
-81.0845 129.194 1775
-76.84 129.194 1775
-72.5954 129.194 1775
-68.3508 129.194 1775
-64.1063 129.194 1775
-59.8617 129.194 1775
-55.6171 129.194 1775
-51.3726 129.194 1775
-53.1531 265.084 3642
-44.444 265.084 3642
-35.8918 266.249 3658
-27.1444 266.249 3658
-18.3971 266.249 3658
-9.64967 266.249 3658
-0.902288 266.249 3658
7.8451 266.249 3658
16.5925 266.249 3658
25.3399 266.249 3658
34.1711 266.904 3667
42.94 266.904 3667
51.7089 266.904 3667
60.4779 266.904 3667
69.5489 268.068 3683
79.0581 270.47 3716
88.3229 271.635 3732
97.2472 271.635 3732
106.655 272.872 3749
115.62 272.872 3749
124.585 272.872 3749
128.634 262.828 3611
136.661 261.663 3595
271.523 267.486 3675
280.311 267.486 3675
289.728 268.068 3683
302.507 271.635 3732
311.431 271.635 3732
320.356 271.635 3732
329.28 271.635 3732
336.755 270.47 3716
345.641 270.47 3716
349.852 266.904 3667
356.176 265.084 3642
360.176 261.663 3595
368.773 261.663 3595
375.795 260.571 3580
382.745 259.48 3565
387.868 257.223 3534
396.319 257.223 3534
401.448 255.112 3505
404.685 251.91 3461
409.62 249.872 3433
413.57 247.324 3398
421.696 247.324 3398
425.394 244.777 3363
430.085 242.885 3337
434.52 240.919 3310
442.435 240.919 3310
449.398 240.41 3303
456.466 239.973 3297
464.35 239.973 3297
472.234 239.973 3297
479.099 239.464 3290
483.266 237.644 3265
491.976 238.081 3271
503.771 239.973 3297
513.672 240.919 3310
521.588 240.919 3310
533.822 242.885 3337
550.569 246.815 3391
571.364 252.419 3468
579.657 252.419 3468
608.295 261.154 3588
624.955 264.575 3635
633.648 264.575 3635
646.404 266.249 3658
655.152 266.249 3658
663.899 266.249 3658
672.646 266.249 3658
681.394 266.249 3658
690.141 266.249 3658
698.889 266.249 3658
710.925 267.486 3675
719.713 267.486 3675
728.501 267.486 3675
737.289 267.486 3675
746.077 267.486 3675
753.222 266.904 3667
761.991 266.904 3667
770.759 266.904 3667
779.528 266.904 3667
788.297 266.904 3667
797.066 266.904 3667
803.857 266.249 3658
812.605 266.249 3658
821.352 266.249 3658
830.099 266.249 3658
838.847 266.249 3658
847.594 266.249 3658
856.342 266.249 3658
869.109 267.486 3675
881.72 268.651 3691
892.476 269.233 3699
901.321 269.233 3699
910.167 269.233 3699
919.012 269.233 3699
927.858 269.233 3699
943.034 271.052 3724
951.939 271.052 3724
967.295 272.872 3749
976.26 272.872 3749
985.225 272.872 3749
994.19 272.872 3749
998.606 271.635 3732
1007.53 271.635 3732
1016.45 271.635 3732
1025.38 271.635 3732
1036.52 272.217 3740
1047.98 272.872 3749
1056.94 272.872 3749
1065.91 272.872 3749
1074.87 272.872 3749
1083.84 272.872 3749
1092.8 272.872 3749
1096.77 271.635 3732
1103.33 271.052 3724
1114.62 271.635 3732
1125.96 272.217 3740
1134.9 272.217 3740
1143.84 272.217 3740
1150.32 271.635 3732
1156.76 271.052 3724
1165.66 271.052 3724
1169.21 269.815 3707
1180.93 270.47 3716
1192.38 271.052 3724
1203.87 271.635 3732
1212.79 271.635 3732
1224.33 272.217 3740
1233.28 272.217 3740
1242.22 272.217 3740
1251.16 272.217 3740
1263.14 272.872 3749
1272.1 272.872 3749
1281.07 272.872 3749
1286.94 272.217 3740
1290.34 271.052 3724
1296.45 270.47 3716
1308.15 271.052 3724
1317.05 271.052 3724
1325.96 271.052 3724
1334.86 271.052 3724
1343.77 271.052 3724
1358.49 272.217 3740
1367.43 272.217 3740
1379.68 272.872 3749
1388.65 272.872 3749
1397.61 272.872 3749
1406.58 272.872 3749
1409.13 271.635 3732
1421.09 272.217 3740
1430.03 272.217 3740
1438.98 272.217 3740
1447.92 272.217 3740
1456.86 272.217 3740
1465.81 272.217 3740
1471.6 271.635 3732
1470.6 269.815 3707
1479.47 269.815 3707
1488.33 269.815 3707
1497.2 269.815 3707
1506.06 269.815 3707
1511.66 269.233 3699
1520.5 269.233 3699
1532.65 269.815 3707
1541.52 269.815 3707
1550.38 269.815 3707
1555.88 269.233 3699
1564.73 269.233 3699
1573.57 269.233 3699
1582.42 269.233 3699
1591.27 269.233 3699
1600.11 269.233 3699
1598.52 267.486 3675
1599.87 266.249 3658
1612.57 266.904 3667
1621.34 266.904 3667
1630.11 266.904 3667
1675.53 272.872 3749
1688.09 273.454 3757
1704.75 274.692 3774
1713.78 274.692 3774
1722.8 274.692 3774
1724.03 273.454 3757
1733.01 273.454 3757
1741.99 273.454 3757
1750.98 273.454 3757
1759.96 273.454 3757
1749.64 270.47 3716
1758.53 270.47 3716
1767.41 270.47 3716
1764.35 268.651 3691
1765.49 267.486 3675
1774.28 267.486 3675
1783.07 267.486 3675
1787.95 266.904 3667
1788.39 265.666 3650
1797.12 265.666 3650
1798.43 264.575 3635
1795.19 262.828 3611
1795.83 261.663 3595
1789.37 259.48 3565
1797.89 259.48 3565
1794.77 257.806 3542
1792.04 256.204 3520
1785.11 254.021 3490
1793.45 254.021 3490
1790.44 252.419 3468
1795.1 251.91 3461
1814.84 253.511 3483
1838.35 255.622 3512
1846.75 255.622 3512
1855.15 255.622 3512
1867.79 256.204 3520
1891.67 258.315 3549
1904.44 258.897 3557
1912.94 258.897 3557
1921.45 258.897 3557
1934.29 259.48 3565
1946.63 259.989 3572
1955.18 259.989 3572
1993.95 263.992 3627
2010.91 265.084 3642
2024.06 265.666 3650
2032.78 265.666 3650
2051.02 266.904 3667
2091.81 271.052 3724
2153.74 277.894 3818
2162.87 277.894 3818
2191.91 280.442 3853
2201.12 280.442 3853
2210.34 280.442 3853
2199.39 277.894 3818
2188.27 275.347 3783
2212.42 277.239 3809
2241.94 279.787 3844
2251.13 279.787 3844
2265.62 280.442 3853
2274.83 280.442 3853
2294.72 281.752 3871
2303.97 281.752 3871
2313.23 281.752 3871
2317.09 281.097 3862
2315.48 279.787 3844
2324.67 279.787 3844
2333.86 279.787 3844
2354.03 281.097 3862
2368.77 281.752 3871
2378.03 281.752 3871
2387.28 281.752 3871
2429.97 285.682 3925
2439.36 285.682 3925
2478.06 289.103 3972
2487.56 289.103 3972
2520.95 291.869 4010
2530.54 291.869 4010
2540.13 291.869 4010
2549.72 291.869 4010
2535.05 289.103 3972
2544.55 289.103 3972
2554.05 289.103 3972
2521.6 284.372 3907
2530.94 284.372 3907
2564.34 287.065 3944
2586.17 288.448 3963
2595.65 288.448 3963
2605.12 288.448 3963
2602.07 287.065 3944
2611.5 287.065 3944
2620.93 287.065 3944
2611.69 285.027 3916
2560.81 278.477 3826
2529.66 274.109 3766
2538.66 274.109 3766
2502.34 269.233 3699
2511.19 269.233 3699
2486.65 265.666 3650
1994.05 207.22 2847
2000.86 207.22 2847
2007.67 207.22 2847
2001.03 205.837 2828
2007.8 205.837 2828
2007.44 205.109 2818
2004.17 204.09 2804
2003.7 203.362 2794
2010.38 203.362 2794
2017.06 203.362 2794
2023.74 203.362 2794
2020.25 202.343 2780
2040.75 203.726 2799
2047.45 203.726 2799
2054.14 203.726 2799
2064.51 204.09 2804
2081.56 205.109 2818
2092 205.473 2823
2098.76 205.473 2823
2109.24 205.837 2828
2118.99 206.128 2832
2125.76 206.128 2832
2132.54 206.128 2832
2139.31 206.128 2832
2146.08 206.128 2832
2164.25 207.22 2847
2171.06 207.22 2847
2177.87 207.22 2847
-2334.52 234.414 3118
-2327.07 234.414 3118
-2315.15 233.963 3112
-2304 233.587 3107
-2292.13 233.136 3101
-2292.82 233.963 3112
-2285.38 233.963 3112
-2282.33 234.414 3118
-2279.25 234.865 3124
-2276.14 235.316 3130
-2268.66 235.316 3130
-2265.51 235.767 3136
-2262.33 236.218 3142
-2254.82 236.218 3142
-2247.3 236.218 3142
-2239.79 236.218 3142
-2232.28 236.218 3142
-2224.76 236.218 3142
-2217.25 236.218 3142
-2209.74 236.218 3142
-2206.43 236.669 3148
-2207.28 237.571 3160
-2199.73 237.571 3160
-2192.17 237.571 3160
-2197.06 238.925 3178
-2197.72 239.827 3190
-2190.1 239.827 3190
-2203.68 242.157 3221
-2195.97 242.157 3221
-2188.27 242.157 3221
-2180.57 242.157 3221
-2189.73 244.037 3246
-2207.51 246.894 3284
-2203.68 247.345 3290
-2195.81 247.345 3290
-2205.9 249.375 3317
-2197.97 249.375 3317
-2190.04 249.375 3317
-2182.1 249.375 3317
-2156.48 247.345 3290
-2157.1 248.322 3303
-2175.23 251.329 3343
-2167.23 251.329 3343
-2172.16 252.833 3363
-2186.64 255.464 3398
-2178.51 255.464 3398
-2170.39 255.464 3398
-2193.44 259.148 3447
-2194.07 260.201 3461
-2190.22 260.727 3468
-2181.92 260.727 3468
-2196.82 263.509 3505
-2188.44 263.509 3505
-2180.06 263.509 3505
-2171.68 263.509 3505
-2136.14 260.201 3461
-2093.43 255.991 3405
-2085.29 255.991 3405
-2077.15 255.991 3405
-2081.77 257.569 3426
-2086.28 259.148 3447
-2095.52 261.328 3476
-2087.21 261.328 3476
-2078.9 261.328 3476
-2070.59 261.328 3476
-2062.28 261.328 3476
-2032.69 258.622 3440
-2012.11 257.043 3419
-1999.83 256.517 3412
-1991.67 256.517 3412
-1975.37 255.464 3398
-1951.03 253.359 3370
-1938.94 252.833 3363
-1930.9 252.833 3363
-1922.86 252.833 3363
-1900.01 250.878 3337
-1884.09 249.826 3323
-1891.39 251.856 3350
-1883.38 251.856 3350
-1882.65 252.833 3363
-1874.6 252.833 3363
-1866.56 252.833 3363
-1858.52 252.833 3363
-1862.03 254.412 3384
-1853.94 254.412 3384
-1845.85 254.412 3384
-1837.76 254.412 3384
-1829.67 254.412 3384
-1836.65 256.517 3412
-1828.49 256.517 3412
-1820.33 256.517 3412
-1819.6 257.569 3426
-1811.41 257.569 3426
-1803.22 257.569 3426
-1795.03 257.569 3426
-1783.18 257.043 3419
-1764.1 255.464 3398
-1766.83 257.043 3419
-1758.65 257.043 3419
-1750.48 257.043 3419
-1745.87 257.569 3426
-1751.88 259.674 3454
-1743.62 259.674 3454
-1735.36 259.674 3454
-1727.1 259.674 3454
-1711.87 258.622 3440
-1707.11 259.148 3447
-1698.87 259.148 3447
-1700.93 260.727 3468
-1692.64 260.727 3468
-1684.34 260.727 3468
-1676.05 260.727 3468
-1657.66 259.148 3447
-1656.11 260.201 3461
-1654.98 261.328 3476
-1646.67 261.328 3476
-1648.25 262.907 3497
-1650.68 264.636 3520
-1642.26 264.636 3520
-1633.84 264.636 3520
-1625.42 264.636 3520
-1617.01 264.636 3520
-1608.59 264.636 3520
-1596.54 264.035 3512
-1588.14 264.035 3512
-1589.63 265.689 3534
-1581.18 265.689 3534
-1572.73 265.689 3534
-1558.08 264.636 3520
-1543.06 263.509 3505
-1534.68 263.509 3505
-1513.67 261.328 3476
-1486.74 258.096 3433
-1487.57 259.674 3454
-1482.31 260.201 3461
-1474.04 260.201 3461
-1465.76 260.201 3461
-1454.53 259.674 3454
-1446.28 259.674 3454
-1426.36 257.569 3426
-1394.98 253.359 3370
-715.912 132.318 1760
-711.703 132.318 1760
-707.495 132.318 1760
-703.286 132.318 1760
-695.9 131.717 1752
-691.71 131.717 1752
-687.128 131.642 1751
-682.161 131.491 1749
-677.978 131.491 1749
-673.796 131.491 1749
-669.614 131.491 1749
-664.67 131.341 1747
-660.493 131.341 1747
-656.315 131.341 1747
-651.391 131.191 1745
-647.218 131.191 1745
-642.308 131.04 1743
-638.14 131.04 1743
-633.972 131.04 1743
-629.081 130.89 1741
-624.559 130.815 1740
-620.398 130.815 1740
-616.238 130.815 1740
-611.373 130.664 1738
-607.217 130.664 1738
-603.061 130.664 1738
-598.905 130.664 1738
-593.38 130.364 1734
-588.554 130.213 1732
-584.412 130.213 1732
-580.27 130.213 1732
-575.131 129.988 1729
-569.675 129.687 1725
-565.55 129.687 1725
-561.425 129.687 1725
-556.654 129.537 1723
-551.572 129.311 1720
-546.822 129.161 1718
-542.714 129.161 1718
-537.665 128.935 1715
-531.697 128.484 1709
-527.302 128.409 1708
-523.218 128.409 1708
-519.133 128.409 1708
-513.843 128.108 1704
-509.17 127.958 1702
-505.1 127.958 1702
-500.735 127.883 1701
-495.5 127.582 1697
-491.442 127.582 1697
-487.384 127.582 1697
-483.326 127.582 1697
-478.703 127.431 1695
-474.369 127.356 1694
-470.318 127.356 1694
-466.268 127.356 1694
-462.217 127.356 1694
-458.166 127.356 1694
-453.579 127.206 1692
-449.533 127.206 1692
-445.487 127.206 1692
-441.441 127.206 1692
-436.878 127.056 1690
-432.836 127.056 1690
-428.541 126.98 1689
-424.502 126.98 1689
-420.463 126.98 1689
-416.424 126.98 1689
-412.386 126.98 1689
-408.347 126.98 1689
-403.829 126.83 1687
-399.795 126.83 1687
-395.761 126.83 1687
-391.727 126.83 1687
-387.692 126.83 1687
-383.658 126.83 1687
-379.624 126.83 1687
-375.145 126.68 1685
-370.675 126.529 1683
-366.65 126.529 1683
-362.626 126.529 1683
-357.962 126.304 1680
-353.945 126.304 1680
-349.927 126.304 1680
-345.498 126.153 1678
-341.282 126.078 1677
-337.272 126.078 1677
-333.262 126.078 1677
-329.251 126.078 1677
-324.853 125.928 1675
-320.848 125.928 1675
-316.464 125.777 1673
-312.463 125.777 1673
-308.463 125.777 1673
-304.462 125.777 1673
-300.461 125.777 1673
-296.461 125.777 1673
-292.285 125.702 1672
-288.287 125.702 1672
-284.289 125.702 1672
-280.458 125.777 1673
-276.458 125.777 1673
-272.783 125.928 1675
-269.098 126.078 1677
-265.562 126.304 1680
-261.545 126.304 1680
-257.834 126.454 1682
-254.264 126.68 1685
-250.829 126.98 1689
-246.79 126.98 1689
-243.182 127.206 1692
-239.56 127.431 1695
-235.785 127.582 1697
-231.727 127.582 1697
-228.34 127.958 1702
-224.533 128.108 1704
-220.976 128.409 1708
-216.892 128.409 1708
-212.932 128.484 1709
-209.578 128.935 1715
-205.837 129.161 1718
-201.728 129.161 1718
-197.85 129.311 1720
-194.3 129.687 1725
-190.396 129.837 1727
-186.266 129.837 1727
-182.136 129.837 1727
-178.213 129.988 1729
-174.279 130.138 1731
-170.238 130.213 1732
-166.097 130.213 1732
-162.142 130.364 1734
-158.36 130.664 1738
-154.47 130.89 1741
-150.307 130.89 1741
-146.479 131.191 1745
-142.47 131.341 1747
-138.45 131.491 1749
-134.268 131.491 1749
-130.309 131.717 1752
-126.407 132.017 1756
-122.347 132.168 1758
-118.143 132.168 1758
-114.069 132.318 1760
-109.86 132.318 1760
-105.832 132.544 1763
-101.616 132.544 1763
-97.6208 132.844 1767
-93.6068 133.145 1771
-89.4727 133.296 1773
-85.2329 133.296 1773
-81.0845 133.446 1775
-76.84 133.446 1775
-72.5954 133.446 1775
-68.3508 133.446 1775
-64.1063 133.446 1775
-59.7943 133.296 1773
-55.5545 133.296 1773
-51.3147 133.296 1773
-53.1531 273.808 3642
-44.8467 276.289 3675
-36.1371 276.891 3683
-27.3893 277.492 3691
-18.563 277.492 3691
-9.73673 277.492 3691
-0.910428 277.492 3691
7.89872 276.891 3683
16.7059 276.891 3683
25.5131 276.891 3683
34.5439 278.695 3707
43.4084 278.695 3707
52.3999 279.372 3716
61.286 279.372 3716
70.3231 279.973 3724
79.2283 279.973 3724
88.3229 280.575 3732
97.2472 280.575 3732
106.655 281.853 3749
115.62 281.853 3749
124.585 281.853 3749
289.728 276.891 3683
302.507 280.575 3732
311.431 280.575 3732
320.356 280.575 3732
329.28 280.575 3732
336.755 279.372 3716
345.641 279.372 3716
354.527 279.372 3716
358.621 275.688 3667
364.885 273.808 3642
373.594 273.808 3642
379.889 272.079 3619
384.356 269.147 3580
389.514 266.817 3549
398.001 266.817 3549
404.77 265.689 3534
408.894 262.907 3497
412.961 260.201 3461
416.126 257.043 3419
424.302 257.043 3419
425.394 252.833 3363
430.085 250.878 3337
434.52 248.848 3310
442.435 248.848 3310
449.398 248.322 3303
456.466 247.871 3297
464.35 247.871 3297
472.234 247.871 3297
479.099 247.345 3290
483.266 245.465 3265
493.931 246.894 3284
503.771 247.871 3297
520.966 252.382 3357
528.994 252.382 3357
537.021 252.382 3357
600.885 270.275 3595
617.45 273.808 3642
635.959 278.094 3699
644.804 278.094 3699
656.654 279.372 3716
665.54 279.372 3716
674.426 279.372 3716
683.312 279.372 3716
690.521 278.695 3707
699.386 278.695 3707
708.25 278.695 3707
717.115 278.695 3707
725.98 278.695 3707
734.844 278.695 3707
743.709 278.695 3707
752.573 278.695 3707
758.151 277.492 3691
761.991 275.688 3667
774.122 276.891 3683
782.93 276.891 3683
791.737 276.891 3683
800.544 276.891 3683
809.351 276.891 3683
818.158 276.891 3683
825.169 276.289 3675
833.957 276.289 3675
842.745 276.289 3675
851.533 276.289 3675
860.321 276.289 3675
872.893 277.492 3691
887.692 279.372 3716
898.508 279.973 3724
909.362 280.575 3732
918.287 280.575 3732
927.211 280.575 3732
936.135 280.575 3732
960.254 285.086 3792
969.322 285.086 3792
978.389 285.086 3792
987.457 285.086 3792
996.525 285.086 3792
1005.59 285.086 3792
1014.66 285.086 3792
1021.3 284.409 3783
1030.35 284.409 3783
1039.39 284.409 3783
1053.15 285.687 3800
1064.75 286.364 3809
1076.4 287.04 3818
1085.53 287.04 3818
1094.66 287.04 3818
1103.79 287.04 3818
1112.92 287.04 3818
1122.05 287.04 3818
1128.51 286.364 3809
1140.31 287.04 3818
1151.85 287.642 3826
1161 287.642 3826
1170.14 287.642 3826
1176.83 287.04 3818
1185.96 287.04 3818
1189.45 285.687 3800
1187.82 283.131 3766
1205.08 285.086 3792
1214.15 285.086 3792
1225.8 285.687 3800
1234.89 285.687 3800
1243.98 285.687 3800
1253.06 285.687 3800
1262.15 285.687 3800
1271.24 285.687 3800
1280.32 285.687 3800
1289.41 285.687 3800
1298.5 285.687 3800
1304.83 285.086 3792
1304.89 283.131 3766
1313.9 283.131 3766
1322.9 283.131 3766
1328.72 282.454 3757
1337.71 282.454 3757
1346.69 282.454 3757
1358.92 283.131 3766
1374.1 284.409 3783
1383.15 284.409 3783
1398.45 285.687 3800
1407.54 285.687 3800
1416.63 285.687 3800
1425.71 285.687 3800
1428.38 284.409 3783
1437.43 284.409 3783
1452.97 285.687 3800
1462.06 285.687 3800
1471.15 285.687 3800
1480.24 285.687 3800
1489.32 285.687 3800
1498.41 285.687 3800
1504.32 285.086 3792
1513.39 285.086 3792
1525.67 285.687 3800
1534.76 285.687 3800
1543.84 285.687 3800
1545.98 284.409 3783
1555.03 284.409 3783
1564.08 284.409 3783
1573.12 284.409 3783
1582.17 284.409 3783
1591.22 284.409 3783
1604.07 285.086 3792
1613.14 285.086 3792
1622.2 285.086 3792
1631.27 285.086 3792
1640.34 285.086 3792
1649.41 285.086 3792
1643.17 282.454 3757
1648.63 281.853 3749
1661.14 282.454 3757
1670.12 282.454 3757
1690.72 284.409 3783
1727.18 288.995 3844
1736.37 288.995 3844
1745.56 288.995 3844
1746.54 287.642 3826
1747.89 286.364 3809
1757 286.364 3809
1761.93 285.687 3800
1771.02 285.687 3800
1780.11 285.687 3800
1776.95 283.732 3774
1785.98 283.732 3774
1767.41 279.372 3716
1772 278.695 3707
1777.02 278.094 3699
1785.86 278.094 3699
1790.83 277.492 3691
1795.75 276.891 3683
1796.72 275.688 3667
1805.49 275.688 3667
1805.85 274.41 3650
1807.12 273.282 3635
1803.82 271.478 3611
1789.37 268.02 3565
1797.89 268.02 3565
1798.31 266.817 3549
1803.24 266.29 3542
1792.78 263.509 3505
1801.16 263.509 3505
1798.19 261.855 3483
1795.1 260.201 3461
1818.49 262.381 3490
1842.54 264.636 3520
1850.96 264.636 3520
1859.37 264.636 3520
1871.51 265.163 3527
1891.67 266.817 3549
1908.72 268.02 3565
1917.24 268.02 3565
1925.77 268.02 3565
1938.09 268.546 3572
1950.99 269.147 3580
1959.56 269.147 3580
1998.35 273.282 3635
2010.91 273.808 3642
2033.48 275.688 3667
2042.25 275.688 3667
2059.97 276.891 3683
2115.4 283.131 3766
2203.94 293.731 3907
2213.28 293.731 3907
2222.63 293.731 3907
2231.97 293.731 3907
2241.31 293.731 3907
2219.55 289.672 3853
2208.52 287.04 3818
2243.2 290.348 3862
2262.94 291.702 3880
2272.22 291.702 3880
2292.08 293.055 3898
2301.4 293.055 3898
2349.25 297.942 3963
2358.73 297.942 3963
2368.21 297.942 3963
2360.88 295.836 3935
2370.29 295.836 3935
2368.21 294.408 3916
2377.58 294.408 3916
2398.52 295.836 3935
2407.93 295.836 3935
2428.4 297.19 3953
2437.85 297.19 3953
2459.07 298.618 3972
2468.57 298.618 3972
2501.77 301.475 4010
2511.36 301.475 4010
2539.18 303.655 4039
2548.84 303.655 4039
2558.5 303.655 4039
2549.72 301.475 4010
2559.31 301.475 4010
2563.13 300.798 4001
2572.7 300.798 4001
2570 299.37 3982
2554.91 296.513 3944
2576.69 297.942 3963
2586.17 297.942 3963
2595.65 297.942 3963
2605.12 297.942 3963
2614.6 297.942 3963
2655.2 301.475 4010
2664.79 301.475 4010
2674.38 301.475 4010
2683.97 301.475 4010
2529.66 283.131 3766
2538.66 283.131 3766
2502.34 278.094 3699
2511.19 278.094 3699
1994.27 212.611 2828
2001.03 212.611 2828
2007.8 212.611 2828
1997.46 210.807 2804
1997.02 210.055 2794
2003.7 210.055 2794
2010.38 210.055 2794
2014.18 209.754 2790
2013.6 209.003 2780
2020.25 209.003 2780
2037.11 210.055 2794
2047.45 210.431 2799
2054.14 210.431 2799
2060.83 210.431 2799
2081.56 211.859 2818
2092 212.235 2823
2098.76 212.235 2823
2109.24 212.611 2828
2116 212.611 2828
2125.76 212.912 2832
2132.54 212.912 2832
2139.31 212.912 2832
2146.08 212.912 2832
2160.45 213.664 2842
2167.25 213.664 2842
2174.05 213.664 2842
-2334.52 241.883 3118
-2327.07 241.883 3118
-2315.15 241.417 3112
-2304 241.03 3107
-2292.13 240.564 3101
-2289.14 241.03 3107
-2281.71 241.03 3107
-2282.33 241.883 3118
-2274.87 241.883 3118
-2276.14 242.814 3130
-2268.66 242.814 3130
-2265.51 243.279 3136
-2258.01 243.279 3136
-2250.51 243.279 3136
-2243.01 243.279 3136
-2239.79 243.745 3142
-2232.28 243.745 3142
-2224.76 243.745 3142
-2217.25 243.745 3142
-2209.74 243.745 3142
-2206.43 244.21 3148
-2207.28 245.141 3160
-2199.73 245.141 3160
-2192.17 245.141 3160
-2197.06 246.538 3178
-2197.72 247.468 3190
-2190.1 247.468 3190
-2203.68 249.873 3221
-2195.97 249.873 3221
-2188.27 249.873 3221
-2180.57 249.873 3221
-2189.73 251.813 3246
-2207.51 254.761 3284
-2203.68 255.226 3290
-2195.81 255.226 3290
-2205.9 257.321 3317
-2197.97 257.321 3317
-2190.04 257.321 3317
-2182.1 257.321 3317
-2156.48 255.226 3290
-2157.1 256.235 3303
-2175.23 259.338 3343
-2167.23 259.338 3343
-2172.16 260.889 3363
-2186.64 263.604 3398
-2178.51 263.604 3398
-2170.39 263.604 3398
-2193.44 267.406 3447
-2194.07 268.492 3461
-2190.22 269.035 3468
-2181.92 269.035 3468
-2206.22 273.069 3520
-2202.18 273.612 3527
-2193.74 273.612 3527
-2185.31 273.612 3527
-2163.3 271.905 3505
-2119.26 267.406 3447
-2111.01 267.406 3447
-2102.77 267.406 3447
-2116.4 270.198 3483
-2112.31 270.741 3490
-2122.05 273.069 3520
-2113.63 273.069 3520
-2105.22 273.069 3520
-2092.03 272.448 3512
-2083.63 272.448 3512
-2058.1 270.198 3483
-2024.46 266.863 3440
-2016.24 266.863 3440
-2008.01 266.863 3440
-1987.58 265.233 3419
-1967.24 263.604 3398
-1951.05 262.518 3384
-1942.96 262.518 3384
-1930.86 261.975 3377
-1914.81 260.889 3363
-1903.37 260.424 3357
-1898.73 260.889 3363
-1890.69 260.889 3363
-1882.65 260.889 3363
-1874.6 260.889 3363
-1893.76 264.69 3412
-1885.6 264.69 3412
-1885.14 265.776 3426
-1876.95 265.776 3426
-1868.76 265.776 3426
-1860.57 265.776 3426
-1848.59 265.233 3419
-1840.41 265.233 3419
-1839.74 266.319 3433
-1831.53 266.319 3433
-1834.47 267.949 3454
-1826.21 267.949 3454
-1817.96 267.949 3454
-1809.7 267.949 3454
-1801.44 267.949 3454
-1764.1 263.604 3398
-1766.83 265.233 3419
-1765.86 266.319 3433
-1757.65 266.319 3433
-1760.14 267.949 3454
-1763.04 269.655 3476
-1761.79 270.741 3490
-1753.45 270.741 3490
-1745.1 270.741 3490
-1718.84 267.949 3454
-1728.41 270.741 3490
-1720.06 270.741 3490
-1711.72 270.741 3490
-1703.37 270.741 3490
-1695.03 270.741 3490
-1686.68 270.741 3490
-1667.76 269.035 3468
-1666.64 270.198 3483
-1668.79 271.905 3505
-1660.41 271.905 3505
-1662.39 273.612 3527
-1657.24 274.155 3534
-1655.79 275.318 3549
-1647.3 275.318 3549
-1638.82 275.318 3549
-1630.33 275.318 3549
-1621.84 275.318 3549
-1613.35 275.318 3549
-1604.87 275.318 3549
-1599.98 275.939 3557
-1591.47 275.939 3557
-1582.97 275.939 3557
-1570.92 275.318 3549
-1559.35 274.775 3542
-1550.88 274.775 3542
-1529.35 272.448 3512
-1508.39 270.198 3483
-1512.55 272.448 3512
-1507.58 273.069 3520
-1499.16 273.069 3520
-1490.75 273.069 3520
-1478.96 272.448 3512
-1470.56 272.448 3512
-1440.93 268.492 3461
-1421.06 266.319 3433
-715.912 136.534 1760
-711.703 136.534 1760
-707.495 136.534 1760
-703.286 136.534 1760
-696.694 136.069 1754
-692.5 136.069 1754
-687.521 135.914 1752
-682.161 135.681 1749
-677.978 135.681 1749
-673.796 135.681 1749
-669.614 135.681 1749
-665.431 135.681 1749
-660.493 135.526 1747
-656.315 135.526 1747
-652.138 135.526 1747
-647.96 135.526 1747
-643.782 135.526 1747
-639.605 135.526 1747
-633.972 135.216 1743
-629.804 135.216 1743
-624.918 135.06 1741
-620.755 135.06 1741
-616.592 135.06 1741
-611.373 134.828 1738
-607.217 134.828 1738
-603.061 134.828 1738
-598.905 134.828 1738
-594.064 134.672 1736
-589.913 134.672 1736
-584.412 134.362 1732
-580.27 134.362 1732
-576.129 134.362 1732
-570.336 133.974 1727
-565.55 133.819 1725
-561.425 133.819 1725
-556.654 133.664 1723
-551.572 133.431 1720
-546.822 133.276 1718
-542.714 133.276 1718
-537.665 133.043 1715
-531.697 132.578 1709
-527.302 132.5 1708
-523.218 132.5 1708
-519.133 132.5 1708
-513.843 132.19 1704
-509.17 132.035 1702
-505.1 132.035 1702
-500.735 131.957 1701
-495.5 131.647 1697
-491.442 131.647 1697
-487.384 131.647 1697
-483.326 131.647 1697
-478.703 131.492 1695
-474.369 131.414 1694
-470.318 131.414 1694
-466.268 131.414 1694
-462.217 131.414 1694
-458.166 131.414 1694
-453.579 131.259 1692
-449.533 131.259 1692
-445.487 131.259 1692
-441.441 131.259 1692
-436.878 131.104 1690
-432.836 131.104 1690
-428.795 131.104 1690
-424.754 131.104 1690
-420.463 131.026 1689
-416.424 131.026 1689
-412.386 131.026 1689
-408.347 131.026 1689
-403.829 130.871 1687
-399.795 130.871 1687
-395.761 130.871 1687
-391.727 130.871 1687
-387.692 130.871 1687
-383.658 130.871 1687
-379.624 130.871 1687
-375.145 130.716 1685
-370.675 130.561 1683
-366.65 130.561 1683
-362.626 130.561 1683
-357.962 130.328 1680
-353.945 130.328 1680
-349.927 130.328 1680
-345.498 130.173 1678
-341.282 130.095 1677
-337.272 130.095 1677
-333.262 130.095 1677
-329.251 130.095 1677
-324.853 129.94 1675
-320.848 129.94 1675
-316.464 129.785 1673
-312.463 129.785 1673
-308.463 129.785 1673
-304.462 129.785 1673
-300.461 129.785 1673
-296.461 129.785 1673
-292.285 129.708 1672
-288.287 129.708 1672
-284.289 129.708 1672
-280.458 129.785 1673
-276.458 129.785 1673
-272.783 129.94 1675
-269.098 130.095 1677
-265.562 130.328 1680
-261.545 130.328 1680
-257.834 130.483 1682
-254.264 130.716 1685
-250.829 131.026 1689
-246.79 131.026 1689
-243.182 131.259 1692
-239.56 131.492 1695
-235.785 131.647 1697
-231.727 131.647 1697
-228.34 132.035 1702
-224.533 132.19 1704
-220.976 132.5 1708
-216.892 132.5 1708
-212.932 132.578 1709
-209.578 133.043 1715
-205.837 133.276 1718
-201.728 133.276 1718
-197.85 133.431 1720
-194.3 133.819 1725
-190.396 133.974 1727
-186.266 133.974 1727
-182.136 133.974 1727
-178.213 134.129 1729
-174.279 134.285 1731
-170.238 134.362 1732
-166.097 134.362 1732
-162.142 134.517 1734
-158.36 134.828 1738
-154.47 135.06 1741
-150.307 135.06 1741
-146.479 135.371 1745
-142.47 135.526 1747
-138.609 135.836 1751
-134.421 135.836 1751
-130.457 136.069 1754
-126.551 136.379 1758
-122.486 136.534 1760
-118.278 136.534 1760
-114.198 136.689 1762
-109.985 136.689 1762
-105.952 136.922 1765
-101.731 136.922 1765
-97.6208 137.077 1767
-93.6068 137.388 1771
-89.4727 137.543 1773
-85.2329 137.543 1773
-81.0845 137.698 1775
-76.84 137.698 1775
-72.5954 137.698 1775
-68.3508 137.698 1775
-64.1063 137.698 1775
-59.7943 137.543 1773
-55.5545 137.543 1773
-51.3147 137.543 1773
-53.1531 282.533 3642
-45.347 288.274 3716
-36.5394 288.894 3724
-27.8197 290.834 3749
-18.8547 290.834 3749
-9.88973 290.834 3749
-0.924734 290.834 3749
8.04026 290.834 3749
17.1187 292.773 3774
26.1434 292.773 3774
35.1682 292.773 3774
44.193 292.773 3774
53.2178 292.773 3774
62.2425 292.773 3774
70.3231 288.894 3724
79.2283 288.894 3724
88.3229 289.515 3732
97.2472 289.515 3732
106.655 290.834 3749
115.62 290.834 3749
124.585 290.834 3749
289.728 285.714 3683
302.507 289.515 3732
311.431 289.515 3732
320.356 289.515 3732
329.28 289.515 3732
340.47 291.454 3757
349.454 291.454 3757
358.438 291.454 3757
363.413 288.274 3716
370.596 286.955 3699
379.441 286.955 3699
382.303 282.533 3642
388.543 280.749 3619
392.917 277.723 3580
401.478 277.723 3580
406.488 275.318 3549
410.648 272.448 3512
412.961 268.492 3461
416.978 265.776 3426
425.17 265.776 3426
426.279 261.432 3370
430.085 258.872 3337
434.52 256.778 3310
442.435 256.778 3310
449.398 256.235 3303
456.466 255.769 3297
464.35 255.769 3297
472.234 255.769 3297
479.099 255.226 3290
483.266 253.287 3265
495.887 255.769 3297
506.827 257.321 3317
520.966 260.424 3357
540.97 266.319 3433
560.697 271.905 3505
581.256 277.723 3580
589.817 277.723 3580
608.74 282.533 3642
617.45 282.533 3642
648.853 292.773 3774
657.878 292.773 3774
671.497 294.79 3800
680.584 294.79 3800
689.671 294.79 3800
698.758 294.79 3800
701.512 292.152 3766
708.819 291.454 3757
717.803 291.454 3757
726.787 291.454 3757
729.309 288.894 3724
738.214 288.894 3724
747.119 288.894 3724
756.025 288.894 3724
764.93 288.894 3724
768.64 286.955 3699
777.485 286.955 3699
786.331 286.955 3699
795.176 286.955 3699
804.022 286.955 3699
812.867 286.955 3699
821.713 286.955 3699
830.558 286.955 3699
839.403 286.955 3699
848.249 286.955 3699
858.948 287.575 3707
867.813 287.575 3707
882.589 289.515 3732
893.425 290.135 3740
906.47 291.454 3757
915.454 291.454 3757
926.653 292.152 3766
942.118 294.169 3792
951.186 294.169 3792
975.701 298.902 3853
984.915 298.902 3853
1005.74 302.392 3898
1015.06 302.392 3898
1024.38 302.392 3898
1033.7 302.392 3898
1043.02 302.392 3898
1054.78 303.091 3907
1064.12 303.091 3907
1073.46 303.091 3907
1080.31 302.392 3898
1089.63 302.392 3898
1098.95 302.392 3898
1103.16 300.996 3880
1112.43 300.996 3880
1121.71 300.996 3880
1130.99 300.996 3880
1140.27 300.996 3880
1141.55 298.902 3853
1150.76 298.902 3853
1159.97 298.902 3853
1166.46 298.203 3844
1175.65 298.203 3844
1184.84 298.203 3844
1194.03 298.203 3844
1200.41 297.505 3835
1201.38 295.488 3809
1215.89 296.807 3826
1225.04 296.807 3826
1234.19 296.807 3826
1243.34 296.807 3826
1252.49 296.807 3826
1261.64 296.807 3826
1270.78 296.807 3826
1279.93 296.807 3826
1289.08 296.807 3826
1298.23 296.807 3826
1307.38 296.807 3826
1310.68 295.488 3809
1319.79 295.488 3809
1322.97 294.169 3792
1332.03 294.169 3792
1341.1 294.169 3792
1350.17 294.169 3792
1359.24 294.169 3792
1368.31 294.169 3792
1383.55 295.488 3809
1392.66 295.488 3809
1405.08 296.186 3818
1420.5 297.505 3835
1429.68 297.505 3835
1438.85 297.505 3835
1451.41 298.203 3844
1464.03 298.902 3853
1480.12 300.298 3871
1489.38 300.298 3871
1498.64 300.298 3871
1511.4 300.996 3880
1527.73 302.392 3898
1537.05 302.392 3898
1557.09 304.487 3925
1574.05 305.961 3944
1583.49 305.961 3944
1592.92 305.961 3944
1602.35 305.961 3944
1619.54 307.435 3963
1629.02 307.435 3963
1638.5 307.435 3963
1643.82 306.659 3953
1653.27 306.659 3953
1662.72 306.659 3953
1656.52 303.789 3916
1658.23 302.392 3898
1667.55 302.392 3898
1657.51 298.902 3853
1666.73 298.902 3853
1668.11 297.505 3835
1665.91 295.488 3809
1656.11 292.152 3766
1665.12 292.152 3766
1674.12 292.152 3766
1734.08 300.996 3880
1747.4 301.694 3889
1756.7 301.694 3889
1766 301.694 3889
1775.3 301.694 3889
1763.95 298.203 3844
1773.14 298.203 3844
1773.99 296.807 3826
1783.14 296.807 3826
1792.28 296.807 3826
1793.43 295.488 3809
1802.54 295.488 3809
1771.22 288.894 3724
1776.3 288.274 3716
1780.86 287.575 3707
1789.73 287.575 3707
1794.71 286.955 3699
1799.65 286.334 3691
1804.56 285.714 3683
1813.37 285.714 3683
1814.26 284.472 3667
1807.12 281.99 3635
1803.82 280.128 3611
1792.88 277.103 3572
1801.42 277.103 3572
1802.37 275.939 3557
1803.24 274.775 3542
1792.78 271.905 3505
1801.16 271.905 3505
1801.8 270.741 3490
1795.1 268.492 3461
1818.49 270.741 3490
1842.54 273.069 3520
1850.96 273.069 3520
1863.07 273.612 3527
1871.51 273.612 3527
1891.67 275.318 3549
1912.47 277.103 3572
1921.01 277.103 3572
1929.55 277.103 3572
1938.09 277.103 3572
1955.35 278.344 3588
1963.93 278.344 3588
1998.35 281.99 3635
2015.33 283.154 3650
2033.48 284.472 3667
2042.25 284.472 3667
2059.97 285.714 3683
2119.89 292.773 3774
2224.81 305.961 3944
2234.25 305.961 3944
2243.68 305.961 3944
2253.11 305.961 3944
2262.54 305.961 3944
2250.66 303.091 3907
2239.17 300.298 3871
2264.11 302.392 3898
2295.02 305.263 3935
2304.42 305.263 3935
2324.42 306.659 3953
2339.78 307.435 3963
2365.85 309.607 3991
2375.39 309.607 3991
2384.94 309.607 3991
2377.68 307.435 3963
2387.16 307.435 3963
2390.59 306.659 3953
2400.04 306.659 3953
2421.08 308.133 3972
2436.69 308.909 3982
2446.22 308.909 3982
2455.74 308.909 3982
2482.59 311.081 4010
2498.4 311.857 4020
2519.87 313.331 4039
2529.52 313.331 4039
2551.76 314.882 4059
2561.46 314.882 4059
2571.17 314.882 4059
2580.87 314.882 4059
2565.69 311.857 4020
2575.3 311.857 4020
2584.92 311.857 4020
2582.27 310.383 4001
2554.91 305.961 3944
2576.69 307.435 3963
2586.17 307.435 3963
2595.65 307.435 3963
2605.12 307.435 3963
2614.6 307.435 3963
2655.2 311.081 4010
2664.79 311.081 4010
2674.38 311.081 4010
2683.97 311.081 4010
1976.98 216.748 2794
1983.66 216.748 2794
1990.34 216.748 2794
1980.58 214.964 2771
1987.21 214.964 2771
1993.83 214.964 2771
2000.46 214.964 2771
2007.09 214.964 2771
2023.89 216.05 2785
2037.11 216.748 2794
2047.45 217.136 2799
2054.14 217.136 2799
2071.14 218.222 2813
2085.25 218.998 2823
2095.71 219.386 2828
2102.47 219.386 2828
2109.24 219.386 2828
2122.73 220.084 2837
2129.52 220.084 2837
2136.3 220.084 2837
2143.08 220.084 2837
2149.87 220.084 2837
2160.45 220.472 2842
2167.25 220.472 2842
2174.05 220.472 2842
-2339.02 249.832 3124
-2331.54 249.832 3124
-2319.61 249.352 3118
-2304 248.472 3107
-2292.13 247.993 3101
-2292.82 248.872 3112
-2285.38 248.872 3112
-2282.33 249.352 3118
-2279.25 249.832 3124
-2276.14 250.312 3130
-2268.66 250.312 3130
-2261.18 250.312 3130
-2258.01 250.792 3136
-2254.82 251.271 3142
-2247.3 251.271 3142
-2244.07 251.751 3148
-2240.8 252.231 3154
-2233.26 252.231 3154
-2225.72 252.231 3154
-2222.4 252.711 3160
-2219.04 253.191 3166
-2219.86 254.15 3178
-2212.26 254.15 3178
-2212.98 255.11 3190
-2226.78 257.589 3221
-2227.35 258.549 3233
-2219.62 258.549 3233
-2220.78 259.589 3246
-2213.02 259.589 3246
-2205.26 259.589 3246
-2197.49 259.589 3246
-2215.37 262.627 3284
-2229.7 265.267 3317
-2271.33 271.184 3391
-2263.22 271.184 3391
-2264.42 272.304 3405
-2256.28 272.304 3405
-2248.14 272.304 3405
-2230.79 271.184 3391
-2191.22 267.346 3343
-2196.28 268.945 3363
-2215.57 272.304 3405
-2207.43 272.304 3405
-2203.81 272.864 3412
-2209.16 274.543 3433
-2214.41 276.223 3454
-2206.15 276.223 3454
-2206.8 277.342 3468
-2212.46 279.102 3490
-2213.59 280.301 3505
-2205.2 280.301 3505
-2206.22 281.501 3520
-2202.18 282.061 3527
-2193.74 282.061 3527
-2185.31 282.061 3527
-2163.3 280.301 3505
-2119.26 275.663 3447
-2111.01 275.663 3447
-2102.77 275.663 3447
-2116.4 278.542 3483
-2112.31 279.102 3490
-2122.05 281.501 3520
-2113.63 281.501 3520
-2105.22 281.501 3520
-2092.03 280.861 3512
-2083.63 280.861 3512
-2058.1 278.542 3483
-2024.46 275.103 3440
-2016.24 275.103 3440
-2008.01 275.103 3440
-1987.58 273.424 3419
-1967.24 271.744 3398
-1951.05 270.625 3384
-1942.96 270.625 3384
-1930.86 270.065 3377
-1914.81 268.945 3363
-1903.37 268.465 3357
-1898.73 268.945 3363
-1890.69 268.945 3363
-1882.65 268.945 3363
-1874.6 268.945 3363
-1893.76 272.864 3412
-1885.6 272.864 3412
-1885.14 273.983 3426
-1876.95 273.983 3426
-1868.76 273.983 3426
-1860.57 273.983 3426
-1848.59 273.424 3419
-1840.41 273.424 3419
-1839.74 274.543 3433
-1831.53 274.543 3433
-1834.47 276.223 3454
-1826.21 276.223 3454
-1817.96 276.223 3454
-1809.7 276.223 3454
-1801.44 276.223 3454
-1764.1 271.744 3398
-1766.83 273.424 3419
-1765.86 274.543 3433
-1757.65 274.543 3433
-1760.14 276.223 3454
-1763.04 277.982 3476
-1761.79 279.102 3490
-1753.45 279.102 3490
-1745.1 279.102 3490
-1718.84 276.223 3454
-1728.41 279.102 3490
-1720.06 279.102 3490
-1711.72 279.102 3490
-1703.37 279.102 3490
-1695.03 279.102 3490
-1686.68 279.102 3490
-1667.76 277.342 3468
-1666.64 278.542 3483
-1668.79 280.301 3505
-1660.41 280.301 3505
-1662.39 282.061 3527
-1657.24 282.62 3534
-1655.79 283.82 3549
-1647.3 283.82 3549
-1638.82 283.82 3549
-1630.33 283.82 3549
-1621.84 283.82 3549
-1613.35 283.82 3549
-1604.87 283.82 3549
-1599.98 284.46 3557
-1591.47 284.46 3557
-1582.97 284.46 3557
-1570.92 283.82 3549
-1559.35 283.26 3542
-1550.88 283.26 3542
-1529.35 280.861 3512
-1508.39 278.542 3483
-1512.55 280.861 3512
-1507.58 281.501 3520
-1499.16 281.501 3520
-1490.75 281.501 3520
-1478.96 280.861 3512
-1470.56 280.861 3512
-1440.93 276.782 3461
-1421.06 274.543 3433
-715.912 140.75 1760
-711.703 140.75 1760
-707.495 140.75 1760
-703.286 140.75 1760
-696.694 140.271 1754
-692.5 140.271 1754
-687.521 140.111 1752
-682.161 139.871 1749
-677.978 139.871 1749
-673.796 139.871 1749
-669.614 139.871 1749
-665.431 139.871 1749
-660.493 139.711 1747
-656.315 139.711 1747
-652.138 139.711 1747
-647.96 139.711 1747
-643.782 139.711 1747
-639.605 139.711 1747
-633.972 139.391 1743
-629.804 139.391 1743
-624.918 139.231 1741
-620.755 139.231 1741
-616.592 139.231 1741
-611.373 138.991 1738
-607.217 138.991 1738
-603.061 138.991 1738
-598.905 138.991 1738
-594.064 138.831 1736
-589.913 138.831 1736
-584.412 138.511 1732
-580.27 138.511 1732
-576.129 138.511 1732
-570.336 138.111 1727
-565.55 137.951 1725
-561.425 137.951 1725
-556.654 137.791 1723
-551.572 137.552 1720
-546.822 137.392 1718
-542.714 137.392 1718
-537.665 137.152 1715
-531.697 136.672 1709
-527.302 136.592 1708
-523.218 136.592 1708
-519.133 136.592 1708
-513.843 136.272 1704
-509.17 136.112 1702
-505.1 136.112 1702
-500.146 135.872 1699
-495.5 135.712 1697
-491.442 135.712 1697
-486.809 135.552 1695
-482.756 135.552 1695
-478.703 135.552 1695
-474.369 135.472 1694
-470.318 135.472 1694
-466.268 135.472 1694
-462.217 135.472 1694
-458.166 135.472 1694
-453.579 135.312 1692
-449.533 135.312 1692
-445.487 135.312 1692
-441.441 135.312 1692
-436.878 135.152 1690
-432.836 135.152 1690
-428.795 135.152 1690
-424.754 135.152 1690
-420.463 135.072 1689
-416.424 135.072 1689
-412.386 135.072 1689
-408.347 135.072 1689
-403.829 134.912 1687
-399.795 134.912 1687
-395.761 134.912 1687
-391.727 134.912 1687
-387.692 134.912 1687
-383.658 134.912 1687
-379.624 134.912 1687
-375.145 134.753 1685
-370.675 134.593 1683
-366.65 134.593 1683
-362.41 134.513 1682
-357.962 134.353 1680
-353.523 134.193 1678
-349.511 134.193 1678
-345.498 134.193 1678
-341.282 134.113 1677
-337.272 134.113 1677
-332.864 133.953 1675
-328.859 133.953 1675
-324.853 133.953 1675
-320.465 133.793 1673
-316.464 133.793 1673
-312.463 133.793 1673
-308.463 133.793 1673
-304.462 133.793 1673
-300.461 133.793 1673
-296.461 133.793 1673
-292.285 133.713 1672
-288.287 133.713 1672
-284.289 133.713 1672
-280.458 133.793 1673
-276.458 133.793 1673
-272.783 133.953 1675
-269.098 134.113 1677
-265.562 134.353 1680
-261.545 134.353 1680
-257.834 134.513 1682
-253.963 134.593 1683
-250.829 135.072 1689
-246.79 135.072 1689
-242.895 135.152 1690
-239.419 135.472 1694
-235.507 135.552 1695
-231.454 135.552 1695
-227.937 135.872 1699
-224.27 136.112 1702
-220.976 136.592 1708
-216.892 136.592 1708
-212.932 136.672 1709
-209.09 136.832 1711
-205.597 137.232 1716
-201.494 137.232 1716
-197.85 137.552 1720
-194.3 137.951 1725
-190.396 138.111 1727
-186.266 138.111 1727
-182.136 138.111 1727
-178.213 138.271 1729
-174.279 138.431 1731
-170.238 138.511 1732
-166.097 138.511 1732
-162.142 138.671 1734
-158.36 138.991 1738
-154.47 139.231 1741
-150.307 139.231 1741
-146.479 139.551 1745
-142.47 139.711 1747
-138.609 140.031 1751
-134.421 140.031 1751
-130.457 140.271 1754
-126.551 140.59 1758
-122.486 140.75 1760
-118.278 140.75 1760
-114.198 140.91 1762
-109.985 140.91 1762
-105.952 141.15 1765
