376.979 -445.597 3675
384.927 -444.627 3667
392.73 -443.536 3658
400.599 -442.566 3650
409.328 -442.566 3650
418.056 -442.566 3650
426.784 -442.566 3650
435.513 -442.566 3650
445.214 -443.536 3658
455.079 -444.627 3667
463.848 -444.627 3667
473.648 -445.597 3675
482.436 -445.597 3675
492.293 -446.567 3683
501.1 -446.567 3683
509.907 -446.567 3683
518.715 -446.567 3683
527.522 -446.567 3683
536.329 -446.567 3683
542.768 -444.627 3667
546.724 -440.747 3635
555.416 -440.747 3635
561.625 -438.807 3619
569.019 -437.837 3611
1141.68 -482.821 3982
1151.2 -482.821 3982
1160.72 -482.821 3982
1161.72 -479.305 3953
1174.14 -480.517 3963
1183.61 -480.517 3963
1195.8 -481.609 3972
1205.3 -481.609 3972
1223.67 -485.125 4001
1233.23 -485.125 4001
1242.8 -485.125 4001
1252.37 -485.125 4001
1264.78 -486.216 4010
1280.72 -488.641 4030
1293.24 -489.732 4039
1312.57 -493.37 4069
1322.31 -493.37 4069
1332.04 -493.37 4069
1341.77 -493.37 4069
1354.82 -494.583 4079
1364.57 -494.583 4079
1374.33 -494.583 4079
1384.08 -494.583 4079
1393.83 -494.583 4079
1740.7 -493.37 4069
1750.43 -493.37 4069
1760.16 -493.37 4069
1769.9 -493.37 4069
1788.37 -495.795 4089
1798.15 -495.795 4089
1807.93 -495.795 4089
1817.71 -495.795 4089
1827.48 -495.795 4089
1828.28 -493.37 4069
1842.52 -494.583 4079
1852.28 -494.583 4079
1862.03 -494.583 4079
2408.13 -482.821 3982
2417.65 -482.821 3982
2427.17 -482.821 3982
2430.57 -481.609 3972
2440.07 -481.609 3972
2432.3 -478.214 3944
2418.83 -473.727 3907
2439.36 -475.91 3925
2448.74 -475.91 3925
2458.13 -475.91 3925
2473.8 -477.122 3935
2483.21 -477.122 3935
2492.62 -477.122 3935
2502.03 -477.122 3935
2499.31 -474.819 3916
2474.08 -468.271 3862
2483.32 -468.271 3862
2551.29 -479.305 3953
2560.74 -479.305 3953
2620.26 -488.641 4030
2668.4 -495.795 4089
2678.17 -495.795 4089
2687.95 -495.795 4089
2697.73 -495.795 4089
2707.51 -495.795 4089
2717.29 -495.795 4089
2674.38 -486.216 4010
2633.77 -477.122 3935
2643.18 -477.122 3935
2652.59 -477.122 3935
2662 -477.122 3935
2634.07 -470.454 3880
2538.79 -435.048 3588
2547.37 -435.048 3588
2605.82 -443.536 3658
2621 -444.627 3667
2629.77 -444.627 3667
2638.54 -444.627 3667
2658.86 -446.567 3683
2667.66 -446.567 3683
2676.47 -446.567 3683
2685.28 -446.567 3683
2711.64 -449.477 3707
2751.33 -454.57 3749
2938.47 -483.912 3991
2948.02 -483.912 3991
2957.56 -483.912 3991
2946.29 -480.517 3963
2955.76 -480.517 3963
2965.24 -480.517 3963
2960.46 -478.214 3944
2969.89 -478.214 3944
2979.32 -478.214 3944
2960.71 -473.727 3907
2970.05 -473.727 3907
2972.53 -472.636 3898
2981.85 -472.636 3898
-2417.82 -420.035 3534
-2414.82 -420.986 3542
-2432.17 -425.502 3580
-2429.02 -426.453 3588
-2430.56 -428.236 3603
-2427.32 -429.187 3611
-2418.69 -429.187 3611
-2415.39 -430.138 3619
-2417.38 -432.039 3635
-2451.1 -439.646 3699
-2442.25 -439.646 3699
-2438.67 -440.597 3707
-2429.8 -440.597 3707
-2420.94 -440.597 3707
-2412.07 -440.597 3707
-2414.23 -442.618 3724
-2443.43 -449.63 3783
-2434.39 -449.63 3783
-2425.34 -449.63 3783
-2416.3 -449.63 3783
-2369.71 -442.618 3724
-2360.8 -442.618 3724
-2320.95 -436.794 3675
-2301.47 -434.773 3658
-2303.37 -436.794 3675
-2294.58 -436.794 3675
-2285.8 -436.794 3675
-621.688 -205.858 1732
-617.546 -205.858 1732
-613.404 -205.858 1732
-608.911 -205.739 1731
-604.771 -205.739 1731
-599.244 -205.263 1727
-595.114 -205.263 1727
-590.985 -205.263 1727
-586.855 -205.263 1727
-582.725 -205.263 1727
-578.595 -205.263 1727
-574.465 -205.263 1727
-570.336 -205.263 1727
-563.911 -204.431 1720
-559.798 -204.431 1720
-552.777 -203.362 1711
-547.082 -202.767 1706
-541.73 -202.292 1702
-537.66 -202.292 1702
-533.59 -202.292 1702
-527.342 -201.46 1695
-521.436 -200.747 1689
-517.397 -200.747 1689
-510.623 -199.677 1680
-504.193 -198.726 1672
-498.101 -197.894 1665
-492.042 -197.062 1658
-488.077 -197.062 1658
-480.9 -195.755 1647
-474.645 -194.804 1639
-469.864 -194.447 1636
-465.952 -194.447 1636
-460.628 -193.853 1631
-456.728 -193.853 1631
-452.272 -193.615 1629
-448.377 -193.615 1629
-444.208 -193.497 1628
-439.774 -193.259 1626
-435.35 -193.021 1624
-431.466 -193.021 1624
-427.583 -193.021 1624
-423.439 -192.902 1623
-419.557 -192.902 1623
-415.676 -192.902 1623
-411.795 -192.902 1623
-407.914 -192.902 1623
-404.033 -192.902 1623
-399.412 -192.546 1620
-395.539 -192.546 1620
-391.181 -192.308 1618
-387.073 -192.189 1617
-382.732 -191.951 1615
-378.87 -191.951 1615
-375.008 -191.951 1615
-370.686 -191.714 1613
-366.147 -191.357 1610
-362.297 -191.357 1610
-358.224 -191.238 1609
-353.936 -191.001 1607
-349.44 -190.644 1604
-345.604 -190.644 1604
-341.555 -190.525 1603
-336.669 -189.931 1598
-332.223 -189.574 1595
-328.408 -189.574 1595
-323.984 -189.218 1592
-319.171 -188.624 1587
-315.178 -188.505 1586
-311.385 -188.505 1586
-307.592 -188.505 1586
-303.8 -188.505 1586
-300.007 -188.505 1586
-296.215 -188.505 1586
-292.422 -188.505 1586
-288.629 -188.505 1586
-284.837 -188.505 1586
-281.044 -188.505 1586
-277.251 -188.505 1586
-273.459 -188.505 1586
-269.836 -188.624 1587
-266.544 -188.98 1590
-263.073 -189.218 1592
-259.266 -189.218 1592
-256.1 -189.693 1596
-253.074 -190.288 1601
-250.024 -190.882 1606
-246.184 -190.882 1606
-242.947 -191.357 1610
-240.285 -192.308 1618
-237.147 -192.902 1623
-233.265 -192.902 1623
-230.091 -193.497 1628
-226.615 -193.853 1631
-222.851 -193.972 1632
-218.949 -193.972 1632
-216.1 -194.923 1640
-212.825 -195.517 1645
-209.272 -195.874 1648
-205.332 -195.874 1648
-202.002 -196.468 1653
-199.247 -197.657 1663
-196.092 -198.489 1670
-192.099 -198.489 1670
-189.006 -199.439 1678
-186.317 -200.866 1690
-182.275 -200.866 1690
-178.234 -200.866 1690
-174.193 -200.866 1690
-170.051 -200.747 1689
-166.012 -200.747 1689
-334.848 -448.56 3774
-326.6 -449.63 3783
-317.554 -449.63 3783
-309.241 -450.7 3792
-300.807 -451.651 3800
-291.72 -451.651 3800
-283.302 -452.72 3809
-274.194 -452.72 3809
-265.085 -452.72 3809
-255.977 -452.72 3809
-246.868 -452.72 3809
-237.76 -452.72 3809
-228.111 -451.651 3800
-219.024 -451.651 3800
-209.937 -451.651 3800
-200.427 -450.7 3792
-190.905 -449.63 3783
-181.859 -449.63 3783
-172.813 -449.63 3783
-163.377 -448.56 3774
-154.025 -447.609 3766
-145.019 -447.609 3766
-136.014 -447.609 3766
-126.704 -446.54 3757
-117.72 -446.54 3757
-108.505 -445.589 3749
-99.5397 -445.589 3749
-90.5747 -445.589 3749
-81.4138 -444.519 3740
-72.1603 -442.618 3724
-63.6797 -445.589 3749
-54.7147 -445.589 3749
-45.7497 -445.589 3749
-36.7847 -445.589 3749
-27.8197 -445.589 3749
-18.8547 -445.589 3749
-9.88973 -445.589 3749
-0.924734 -445.589 3749
8.05742 -446.54 3757
17.0415 -446.54 3757
26.0257 -446.54 3757
34.8514 -444.519 3740
43.7949 -444.519 3740
52.8652 -445.589 3749
61.8302 -445.589 3749
70.7952 -445.589 3749
79.5687 -444.519 3740
88.5122 -444.519 3740
97.4557 -444.519 3740
105.716 -441.667 3716
114.325 -440.597 3707
123.189 -440.597 3707
132.054 -440.597 3707
140.614 -439.646 3699
149.46 -439.646 3699
158.305 -439.646 3699
166.428 -437.744 3683
174.854 -436.794 3675
183.642 -436.794 3675
192.43 -436.794 3675
201.218 -436.794 3675
210.006 -436.794 3675
219.271 -437.744 3683
228.078 -437.744 3683
236.885 -437.744 3683
245.692 -437.744 3683
254.499 -437.744 3683
261.519 -434.773 3658
270.267 -434.773 3658
279.014 -434.773 3658
287.761 -434.773 3658
297.238 -435.843 3667
306.675 -436.794 3675
315.463 -436.794 3675
324.251 -436.794 3675
333.039 -436.794 3675
341.827 -436.794 3675
350.615 -436.794 3675
359.403 -436.794 3675
368.191 -436.794 3675
376.979 -436.794 3675
384.927 -435.843 3667
392.73 -434.773 3658
400.599 -433.822 3650
409.328 -433.822 3650
418.056 -433.822 3650
425.849 -432.871 3642
434.558 -432.871 3642
445.214 -434.773 3658
453.962 -434.773 3658
462.709 -434.773 3658
472.617 -435.843 3667
482.436 -436.794 3675
492.293 -437.744 3683
501.1 -437.744 3683
509.907 -437.744 3683
518.715 -437.744 3683
527.522 -437.744 3683
536.329 -437.744 3683
542.768 -435.843 3667
546.724 -432.039 3635
555.416 -432.039 3635
561.625 -430.138 3619
569.019 -429.187 3611
1141.68 -473.282 3982
1151.2 -473.282 3982
1160.72 -473.282 3982
1161.72 -469.835 3953
1174.14 -471.024 3963
1183.61 -471.024 3963
1195.8 -472.094 3972
1205.3 -472.094 3972
1223.67 -475.54 4001
1233.23 -475.54 4001
1242.8 -475.54 4001
1252.37 -475.54 4001
1264.78 -476.61 4010
1280.72 -478.987 4030
1293.24 -480.057 4039
1312.57 -483.623 4069
1322.31 -483.623 4069
1332.04 -483.623 4069
1341.77 -483.623 4069
1351.5 -483.623 4069
1361.23 -483.623 4069
1374.33 -484.811 4079
1384.08 -484.811 4079
1393.83 -484.811 4079
1788.37 -486 4089
1798.15 -486 4089
1807.93 -486 4089
1817.71 -486 4089
1827.48 -486 4089
1828.28 -483.623 4069
1838.01 -483.623 4069
2408.13 -473.282 3982
2417.65 -473.282 3982
2427.17 -473.282 3982
2430.57 -472.094 3972
2440.07 -472.094 3972
2432.3 -468.766 3944
2418.83 -464.368 3907
2439.36 -466.508 3925
2448.74 -466.508 3925
2458.13 -466.508 3925
2473.8 -467.696 3935
2483.21 -467.696 3935
2492.62 -467.696 3935
2502.03 -467.696 3935
2499.31 -465.438 3916
2474.08 -459.02 3862
2483.32 -459.02 3862
2551.29 -469.835 3953
2560.74 -469.835 3953
2620.26 -478.987 4030
2668.4 -486 4089
2678.17 -486 4089
2687.95 -486 4089
2697.73 -486 4089
2707.51 -486 4089
2717.29 -486 4089
2674.38 -476.61 4010
2633.77 -467.696 3935
2643.18 -467.696 3935
2652.59 -467.696 3935
2662 -467.696 3935
2634.07 -461.159 3880
2538.79 -426.453 3588
2547.37 -426.453 3588
2600.12 -433.822 3650
2614.57 -434.773 3658
2629.77 -435.843 3667
2638.54 -435.843 3667
2658.86 -437.744 3683
2667.66 -437.744 3683
2676.47 -437.744 3683
2685.28 -437.744 3683
2711.64 -440.597 3707
2751.33 -445.589 3749
2910.49 -469.835 3953
2919.95 -469.835 3953
2936.81 -471.024 3963
2946.29 -471.024 3963
2955.76 -471.024 3963
2965.24 -471.024 3963
2960.46 -468.766 3944
2969.89 -468.766 3944
2979.32 -468.766 3944
2960.71 -464.368 3907
2970.05 -464.368 3907
2972.53 -463.298 3898
2981.85 -463.298 3898
-2417.82 -411.569 3534
-2409.37 -411.569 3534
-2432.17 -416.926 3580
-2429.02 -417.858 3588
-2425.17 -418.673 3595
-2421.95 -419.605 3603
-2413.33 -419.605 3603
-2410.05 -420.537 3611
-2412.06 -422.4 3627
-2451.1 -430.785 3699
-2442.25 -430.785 3699
-2438.67 -431.717 3707
-2429.8 -431.717 3707
-2420.94 -431.717 3707
-2412.07 -431.717 3707
-2414.23 -433.697 3724
-2443.43 -440.568 3783
-2434.39 -440.568 3783
-2425.34 -440.568 3783
-2416.3 -440.568 3783
-2369.71 -433.697 3724
-2360.8 -433.697 3724
-2320.95 -427.99 3675
-2301.47 -426.01 3658
-2303.37 -427.99 3675
-2294.58 -427.99 3675
-2285.8 -427.99 3675
-621.688 -201.709 1732
-617.546 -201.709 1732
-613.404 -201.709 1732
-608.911 -201.592 1731
-604.771 -201.592 1731
-599.244 -201.126 1727
-595.114 -201.126 1727
-590.985 -201.126 1727
-586.855 -201.126 1727
-582.725 -201.126 1727
-578.595 -201.126 1727
-574.465 -201.126 1727
-570.336 -201.126 1727
-563.911 -200.311 1720
-559.798 -200.311 1720
-552.777 -199.263 1711
-547.082 -198.681 1706
-541.73 -198.215 1702
-537.66 -198.215 1702
-533.59 -198.215 1702
-527.342 -197.4 1695
-521.436 -196.701 1689
-517.397 -196.701 1689
-510.623 -195.653 1680
-504.193 -194.721 1672
-498.101 -193.906 1665
-492.042 -193.091 1658
-488.077 -193.091 1658
-480.9 -191.809 1647
-474.645 -190.878 1639
-469.864 -190.528 1636
-465.952 -190.528 1636
-460.628 -189.946 1631
-456.728 -189.946 1631
-452.272 -189.713 1629
-448.377 -189.713 1629
-444.208 -189.597 1628
-439.774 -189.364 1626
-435.35 -189.131 1624
-431.466 -189.131 1624
-427.583 -189.131 1624
-423.439 -189.014 1623
-419.557 -189.014 1623
-415.676 -189.014 1623
-411.795 -189.014 1623
-407.914 -189.014 1623
-404.033 -189.014 1623
-399.412 -188.665 1620
-395.539 -188.665 1620
-391.181 -188.432 1618
-387.073 -188.316 1617
-382.732 -188.083 1615
-378.87 -188.083 1615
-375.008 -188.083 1615
-370.686 -187.85 1613
-366.602 -187.733 1612
-362.747 -187.733 1612
-358.447 -187.5 1610
-354.377 -187.384 1609
-350.093 -187.151 1607
-346.251 -187.151 1607
-341.769 -186.802 1604
-336.879 -186.219 1599
-332.223 -185.754 1595
-328.408 -185.754 1595
-323.984 -185.404 1592
-319.574 -185.055 1589
-315.376 -184.822 1587
-311.581 -184.822 1587
-307.592 -184.705 1586
-303.8 -184.705 1586
-300.007 -184.705 1586
-296.215 -184.705 1586
-292.422 -184.705 1586
-288.629 -184.705 1586
-284.837 -184.705 1586
-281.044 -184.705 1586
-277.251 -184.705 1586
-273.459 -184.705 1586
-269.836 -184.822 1587
-266.544 -185.171 1590
-263.073 -185.404 1592
-259.266 -185.404 1592
-256.1 -185.87 1596
-252.758 -186.219 1599
-250.024 -187.035 1606
-246.184 -187.035 1606
-242.796 -187.384 1609
-240.285 -188.432 1618
-236.854 -188.782 1621
-232.978 -188.782 1621
-229.526 -189.131 1624
-226.337 -189.713 1629
-222.851 -190.063 1632
-218.949 -190.063 1632
-216.1 -190.994 1640
-213.084 -191.809 1647
-209.272 -191.926 1648
-205.332 -191.926 1648
-202.002 -192.508 1653
-199.247 -193.673 1663
-196.092 -194.488 1670
-192.099 -194.488 1670
-189.006 -195.42 1678
-186.207 -196.701 1689
-182.168 -196.701 1689
-178.129 -196.701 1689
-174.09 -196.701 1689
-170.051 -196.701 1689
-166.012 -196.701 1689
-334.848 -439.52 3774
-326.6 -440.568 3783
-317.554 -440.568 3783
-308.507 -440.568 3783
-299.461 -440.568 3783
-290.415 -440.568 3783
-281.368 -440.568 3783
-272.322 -440.568 3783
-263.276 -440.568 3783
-255.372 -442.548 3800
-246.285 -442.548 3800
-237.198 -442.548 3800
-228.111 -442.548 3800
-218.563 -441.616 3792
-209.495 -441.616 3792
-199.952 -440.568 3783
-190.905 -440.568 3783
-181.426 -439.52 3774
-172.402 -439.52 3774
-163.377 -439.52 3774
-154.025 -438.588 3766
-145.019 -438.588 3766
-136.014 -438.588 3766
-126.704 -437.54 3757
-117.72 -437.54 3757
-108.505 -436.608 3749
-99.5397 -436.608 3749
-90.5747 -436.608 3749
-81.6097 -436.608 3749
-72.1603 -433.697 3724
-63.6797 -436.608 3749
-54.7147 -436.608 3749
-45.7497 -436.608 3749
-36.7847 -436.608 3749
-27.8197 -436.608 3749
-18.8547 -436.608 3749
-9.88973 -436.608 3749
-0.924734 -436.608 3749
8.02096 -435.56 3740
16.9644 -435.56 3740
25.9079 -435.56 3740
34.7768 -434.628 3732
43.7012 -434.628 3732
52.6255 -434.628 3732
61.5499 -434.628 3732
70.4742 -434.628 3732
79.3985 -434.628 3732
88.3229 -434.628 3732
97.2472 -434.628 3732
105.716 -432.765 3716
114.078 -430.785 3699
122.924 -430.785 3699
131.484 -429.854 3691
140.006 -428.922 3683
148.813 -428.922 3683
157.621 -428.922 3683
166.066 -427.99 3675
174.474 -427.058 3667
183.243 -427.058 3667
192.011 -427.058 3667
200.78 -427.058 3667
209.549 -427.058 3667
218.318 -427.058 3667
227.583 -427.99 3675
236.371 -427.99 3675
245.159 -427.99 3675
253.394 -427.058 3667
261.519 -426.01 3658
270.267 -426.01 3658
279.014 -426.01 3658
287.761 -426.01 3658
297.238 -427.058 3667
306.007 -427.058 3667
314.776 -427.058 3667
323.545 -427.058 3667
332.314 -427.058 3667
341.083 -427.058 3667
349.852 -427.058 3667
358.621 -427.058 3667
367.39 -427.058 3667
376.159 -427.058 3667
384.927 -427.058 3667
391.871 -425.079 3650
400.599 -425.079 3650
409.328 -425.079 3650
418.056 -425.079 3650
425.849 -424.147 3642
434.558 -424.147 3642
444.241 -425.079 3650
453.962 -426.01 3658
462.709 -426.01 3658
472.617 -427.058 3667
483.486 -428.922 3683
493.362 -429.854 3691
502.189 -429.854 3691
511.015 -429.854 3691
520.968 -430.785 3699
529.813 -430.785 3699
538.659 -430.785 3699
545.136 -428.922 3683
553.943 -428.922 3683
562.75 -428.922 3683
569.075 -427.058 3667
1141.68 -463.743 3982
1151.2 -463.743 3982
1160.72 -463.743 3982
1170.24 -463.743 3982
1174.14 -461.531 3963
1183.61 -461.531 3963
1195.8 -462.579 3972
1205.3 -462.579 3972
1223.67 -465.956 4001
1236.01 -467.004 4010
1248.7 -468.169 4020
1258.32 -468.169 4020
1267.93 -468.169 4020
1280.72 -469.333 4030
1290.36 -469.333 4030
1302.9 -470.382 4039
1312.56 -470.382 4039
1322.21 -470.382 4039
1338.47 -472.711 4059
1348.17 -472.711 4059
1357.88 -472.711 4059
1374.33 -475.04 4079
1387.47 -476.205 4089
1397.25 -476.205 4089
1407.03 -476.205 4089
1436.36 -476.205 4089
1446.14 -476.205 4089
1455.92 -476.205 4089
1807.93 -476.205 4089
1817.71 -476.205 4089
1827.48 -476.205 4089
1814.8 -470.382 4039
1838.01 -473.875 4069
1847.74 -473.875 4069
1857.47 -473.875 4069
2410.05 -465.956 4001
2425.06 -467.004 4010
2434.65 -467.004 4010
2444.24 -467.004 4010
2453.83 -467.004 4010
2463.42 -467.004 4010
2449.57 -462.579 3972
2441.73 -459.318 3944
2462.97 -461.531 3963
2472.45 -461.531 3963
2481.93 -461.531 3963
2491.4 -461.531 3963
2500.88 -461.531 3963
2510.36 -461.531 3963
2513.48 -460.366 3953
2511.44 -458.27 3935
2485.62 -451.864 3880
2494.89 -451.864 3880
2551.29 -460.366 3953
2560.74 -460.366 3953
2607.25 -467.004 4010
2648.82 -472.711 4059
2658.52 -472.711 4059
2668.23 -472.711 4059
2677.94 -472.711 4059
2687.64 -472.711 4059
2697.35 -472.711 4059
2674.38 -467.004 4010
2658.53 -462.579 3972
2643.18 -458.27 3935
2652.59 -458.27 3935
2662 -458.27 3935
2634.07 -451.864 3880
2571.13 -439.52 3774
2551.44 -434.628 3732
2560.37 -434.628 3732
2510.39 -415.995 3572
2530.21 -417.858 3588
2549.41 -419.605 3603
2558.02 -419.605 3603
2583.74 -422.4 3627
2614.57 -426.01 3658
2641.24 -428.922 3683
2650.05 -428.922 3683
2658.86 -428.922 3683
2667.66 -428.922 3683
2693.91 -431.717 3707
2702.78 -431.717 3707
2711.64 -431.717 3707
2763.8 -438.588 3766
2910.49 -460.366 3953
2919.95 -460.366 3953
2929.4 -460.366 3953
2952.98 -462.579 3972
2962.48 -462.579 3972
2971.97 -462.579 3972
2967.21 -460.366 3953
2976.66 -460.366 3953
2986.12 -460.366 3953
2995.57 -460.366 3953
3005.02 -460.366 3953
2986.26 -456.057 3916
2995.62 -456.057 3916
-2408.24 -401.507 3520
-2409.37 -403.104 3534
-2432.17 -408.351 3580
-2423.61 -408.351 3580
-2425.17 -410.061 3595
-2416.57 -410.061 3595
-2413.33 -410.974 3603
-2404.72 -410.974 3603
-2412.06 -413.712 3627
-2451.1 -421.924 3699
-2442.25 -421.924 3699
-2438.67 -422.837 3707
-2429.8 -422.837 3707
-2420.94 -422.837 3707
-2412.07 -422.837 3707
-2414.23 -424.776 3724
-2443.43 -431.506 3783
-2434.39 -431.506 3783
-2425.34 -431.506 3783
-2416.3 -431.506 3783
-2369.71 -424.776 3724
-2360.8 -424.776 3724
-2320.95 -419.187 3675
-2301.47 -417.248 3658
-2303.37 -419.187 3675
-2294.58 -419.187 3675
-2285.8 -419.187 3675
-621.688 -197.56 1732
-617.546 -197.56 1732
-613.404 -197.56 1732
-608.911 -197.445 1731
-604.771 -197.445 1731
-599.244 -196.989 1727
-595.114 -196.989 1727
-590.985 -196.989 1727
-587.534 -197.217 1729
-583.4 -197.217 1729
-579.265 -197.217 1729
-575.131 -197.217 1729
-570.336 -196.989 1727
-564.894 -196.533 1723
-560.774 -196.533 1723
-553.423 -195.392 1713
-547.724 -194.822 1708
-543.003 -194.594 1706
-538.923 -194.594 1706
-533.59 -194.138 1702
-527.964 -193.567 1697
-521.436 -192.655 1689
-517.397 -192.655 1689
-510.623 -191.628 1680
-503.59 -190.488 1670
-497.502 -189.689 1663
-492.042 -189.119 1658
-488.077 -189.119 1658
-480.9 -187.864 1647
-474.935 -187.066 1640
-469.864 -186.609 1636
-465.952 -186.609 1636
-460.91 -186.153 1632
-456.728 -186.039 1631
-452.827 -186.039 1631
-448.927 -186.039 1631
-444.208 -185.697 1628
-440.315 -185.697 1628
-435.886 -185.469 1626
-431.998 -185.469 1626
-427.583 -185.241 1624
-423.699 -185.241 1624
-419.816 -185.241 1624
-415.933 -185.241 1624
-412.049 -185.241 1624
-407.914 -185.127 1623
-404.033 -185.127 1623
-399.659 -184.898 1621
-395.783 -184.898 1621
-391.181 -184.556 1618
-387.073 -184.442 1617
-383.206 -184.442 1617
-379.339 -184.442 1617
-375.008 -184.214 1615
-370.686 -183.986 1613
-366.829 -183.986 1613
-362.972 -183.986 1613
-358.892 -183.872 1612
-354.597 -183.644 1610
-350.529 -183.53 1609
-346.681 -183.53 1609
-342.195 -183.187 1606
-337.301 -182.617 1601
-332.431 -182.047 1596
-328.614 -182.047 1596
-324.187 -181.705 1593
-319.574 -181.248 1589
-315.376 -181.02 1587
-311.581 -181.02 1587
-307.786 -181.02 1587
-303.991 -181.02 1587
-300.196 -181.02 1587
-296.401 -181.02 1587
-292.606 -181.02 1587
-288.629 -180.906 1586
-284.837 -180.906 1586
-281.044 -180.906 1586
-277.251 -180.906 1586
-273.459 -180.906 1586
-269.836 -181.02 1587
-266.544 -181.362 1590
-263.073 -181.591 1592
-259.266 -181.591 1592
-256.1 -182.047 1596
-252.758 -182.389 1599
-249.713 -182.959 1604
-245.877 -182.959 1604
-242.796 -183.53 1609
-240.285 -184.556 1618
-236.708 -184.784 1620
-232.834 -184.784 1620
-229.526 -185.241 1624
-226.337 -185.811 1629
-222.851 -186.153 1632
-218.949 -186.153 1632
-216.1 -187.066 1640
-213.084 -187.864 1647
-209.526 -188.206 1650
-205.581 -188.206 1650
-202.002 -188.548 1653
-199.726 -190.145 1667
-196.445 -190.83 1673
-192.444 -190.83 1673
-188.894 -191.286 1677
-186.207 -192.655 1689
-182.168 -192.655 1689
-178.129 -192.655 1689
-174.09 -192.655 1689
-170.051 -192.655 1689
-166.012 -192.655 1689
-332.63 -427.627 3749
-324.355 -428.54 3757
-315.371 -428.54 3757
-306.387 -428.54 3757
-297.403 -428.54 3757
-288.419 -428.54 3757
-280.104 -429.567 3766
-271.098 -429.567 3766
-262.093 -429.567 3766
-253.625 -430.479 3774
-244.6 -430.479 3774
-235.575 -430.479 3774
-227.091 -431.506 3783
-218.044 -431.506 3783
-208.998 -431.506 3783
-199.476 -430.479 3774
-190.451 -430.479 3774
-181.426 -430.479 3774
-172.402 -430.479 3774
-163.377 -430.479 3774
-154.025 -429.567 3766
-144.673 -428.54 3757
-135.689 -428.54 3757
-126.704 -428.54 3757
-117.72 -428.54 3757
-108.505 -427.627 3749
-99.5397 -427.627 3749
-90.5747 -427.627 3749
-81.6097 -427.627 3749
-72.1603 -424.776 3724
-63.3909 -425.688 3732
-54.4666 -425.688 3732
-45.5423 -425.688 3732
-36.6964 -426.601 3740
-27.7529 -426.601 3740
-18.8095 -426.601 3740
-9.84488 -425.688 3732
-0.920541 -425.688 3732
8.0038 -425.688 3732
16.9281 -425.688 3732
25.8525 -425.688 3732
34.7023 -424.776 3724
43.6075 -424.776 3724
52.5127 -424.776 3724
61.4179 -424.776 3724
70.3231 -424.776 3724
79.0581 -423.863 3716
87.9442 -423.863 3716
96.8303 -423.863 3716
105.005 -421.012 3691
113.585 -420.099 3683
122.392 -420.099 3683
131.199 -420.099 3683
139.702 -419.187 3675
148.49 -419.187 3675
157.278 -419.187 3675
165.298 -417.248 3658
174.045 -417.248 3658
182.793 -417.248 3658
191.54 -417.248 3658
200.288 -417.248 3658
209.035 -417.248 3658
217.782 -417.248 3658
227.087 -418.274 3667
235.856 -418.274 3667
244.625 -418.274 3667
252.772 -417.248 3658
261.519 -417.248 3658
270.267 -417.248 3658
278.404 -416.335 3650
287.132 -416.335 3650
296.509 -417.248 3658
306.007 -418.274 3667
314.776 -418.274 3667
323.545 -418.274 3667
332.314 -418.274 3667
341.083 -418.274 3667
349.852 -418.274 3667
358.621 -418.274 3667
367.39 -418.274 3667
376.159 -418.274 3667
383.143 -416.335 3650
391.871 -416.335 3650
400.599 -416.335 3650
409.328 -416.335 3650
418.056 -416.335 3650
426.784 -416.335 3650
435.513 -416.335 3650
444.241 -416.335 3650
453.962 -417.248 3658
462.709 -417.248 3658
472.617 -418.274 3667
483.486 -420.099 3683
493.362 -421.012 3691
502.189 -421.012 3691
512.123 -421.924 3699
523.362 -423.863 3716
532.248 -423.863 3716
541.134 -423.863 3716
551.205 -424.776 3724
560.11 -424.776 3724
580.628 -433.445 3800
589.715 -433.445 3800
598.802 -433.445 3800
607.888 -433.445 3800
616.975 -433.445 3800
626.062 -433.445 3800
1156.69 -456.372 4001
1166.26 -456.372 4001
1175.83 -456.372 4001
1188.06 -457.398 4010
1200.64 -458.539 4020
1210.25 -458.539 4020
1219.86 -458.539 4020
1229.48 -458.539 4020
1239.09 -458.539 4020
1251.81 -459.68 4030
1261.45 -459.68 4030
1271.08 -459.68 4030
1277.54 -458.539 4020
1290.36 -459.68 4030
1302.9 -460.706 4039
1312.56 -460.706 4039
1322.21 -460.706 4039
1328.91 -459.68 4030
1341.53 -460.706 4039
1351.19 -460.706 4039
1367.59 -462.987 4059
1387.47 -466.409 4089
1397.25 -466.409 4089
1407.03 -466.409 4089
1416.81 -466.409 4089
1426.58 -466.409 4089
1436.36 -466.409 4089
1446.14 -466.409 4089
1455.92 -466.409 4089
1465.7 -466.409 4089
1475.48 -466.409 4089
1485.25 -466.409 4089
1807.93 -466.409 4089
1817.71 -466.409 4089
1827.48 -466.409 4089
1814.8 -460.706 4039
1838.01 -464.128 4069
1847.74 -464.128 4069
1857.47 -464.128 4069
2457.03 -465.269 4079
2466.79 -465.269 4079
2476.54 -465.269 4079
2486.3 -465.269 4079
2496.05 -465.269 4079
2487.37 -461.847 4049
2473.01 -457.398 4010
2482.59 -457.398 4010
2492.18 -457.398 4010
2501.77 -457.398 4010
2511.36 -457.398 4010
2515.29 -456.372 4001
2524.86 -456.372 4001
2534.43 -456.372 4001
2531.91 -454.204 3982
2529.31 -452.037 3963
2497.15 -444.623 3898
2506.47 -444.623 3898
2551.29 -450.897 3953
2560.74 -450.897 3953
2582.55 -453.064 3972
2598.57 -454.204 3982
2626.43 -457.398 4010
2636.02 -457.398 4010
2645.61 -457.398 4010
2649.24 -456.372 4001
2658.81 -456.372 4001
2668.37 -456.372 4001
2658.53 -453.064 3972
2624.37 -445.65 3907
2633.71 -445.65 3907
2636.97 -444.623 3898
2634.07 -442.57 3880
2601.11 -435.498 3818
2551.44 -425.688 3732
2560.37 -425.688 3732
2568.39 -418.274 3667
2577.15 -418.274 3667
2585.92 -418.274 3667
2582.66 -416.335 3650
2591.39 -416.335 3650
2605.82 -417.248 3658
2632.44 -420.099 3683
2658.45 -422.837 3707
2667.32 -422.837 3707
2676.18 -422.837 3707
2703.16 -425.688 3732
2717.89 -426.601 3740
2726.84 -426.601 3740
2735.78 -426.601 3740
2788.76 -433.445 3800
2910.49 -450.897 3953
2919.95 -450.897 3953
2943.48 -453.064 3972
2960.41 -454.204 3982
2969.93 -454.204 3982
2979.46 -454.204 3982
2988.98 -454.204 3982
2998.5 -454.204 3982
3008.02 -454.204 3982
3017.55 -454.204 3982
3027.07 -454.204 3982
3028.96 -453.064 3972
3038.46 -453.064 3972
-2414.74 -391.399 3505
-2406.36 -391.399 3505
-2397.98 -391.399 3505
-2404.6 -393.856 3527
-2426.73 -398.881 3572
-2418.19 -398.881 3572
-2420.44 -400.668 3588
-2416.57 -401.45 3595
-2413.33 -402.343 3603
-2404.72 -402.343 3603
-2412.06 -405.023 3627
-2440.49 -411.277 3683
-2431.69 -411.277 3683
-2438.67 -413.957 3707
-2429.8 -413.957 3707
-2420.94 -413.957 3707
-2406.87 -413.063 3699
-2414.23 -415.855 3724
-2421.47 -418.647 3749
-2412.51 -418.647 3749
-2403.54 -418.647 3749
-2394.58 -418.647 3749
-2364.61 -414.962 3716
-2355.73 -414.962 3716
-2320.95 -410.383 3675
-2301.47 -408.485 3658
-2292.72 -408.485 3658
-2264.61 -405.023 3627
-2255.94 -405.023 3627
-2223.1 -400.668 3588
-620.611 -193.076 1729
-616.476 -193.076 1729
-612.342 -193.076 1729
-608.207 -193.076 1729
-604.073 -193.076 1729
-599.244 -192.852 1727
-595.114 -192.852 1727
-590.985 -192.852 1727
-587.534 -193.076 1729
-583.4 -193.076 1729
-579.265 -193.076 1729
-575.131 -193.076 1729
-570.996 -193.076 1729
-564.894 -192.405 1723
-560.774 -192.405 1723
-553.423 -191.289 1713
-548.044 -190.842 1709
-543.639 -190.73 1708
-539.555 -190.73 1708
-534.844 -190.507 1706
-529.208 -189.949 1701
-522.98 -189.167 1694
-518.929 -189.167 1694
-512.143 -188.162 1685
-505.701 -187.269 1677
-499.596 -186.487 1670
-493.526 -185.705 1663
-489.549 -185.705 1663
-482.36 -184.477 1652
-475.514 -183.36 1642
-470.726 -183.025 1639
-466.806 -183.025 1639
-460.91 -182.244 1632
-456.728 -182.132 1631
-452.827 -182.132 1631
-448.927 -182.132 1631
-444.208 -181.797 1628
-440.315 -181.797 1628
-435.886 -181.574 1626
-431.998 -181.574 1626
-427.583 -181.35 1624
-423.699 -181.35 1624
-419.816 -181.35 1624
-415.933 -181.35 1624
-412.049 -181.35 1624
-407.914 -181.239 1623
-404.033 -181.239 1623
-399.659 -181.015 1621
-395.783 -181.015 1621
-391.181 -180.68 1618
-387.073 -180.569 1617
-383.206 -180.569 1617
-379.339 -180.569 1617
-375.008 -180.345 1615
-370.686 -180.122 1613
-366.829 -180.122 1613
-362.972 -180.122 1613
-358.892 -180.01 1612
-354.597 -179.787 1610
-350.529 -179.675 1609
-346.681 -179.675 1609
-342.408 -179.452 1607
-337.301 -178.782 1601
-332.847 -178.447 1598
-329.026 -178.447 1598
-324.594 -178.112 1595
-319.775 -177.554 1590
-315.774 -177.442 1589
-311.974 -177.442 1589
-307.786 -177.219 1587
-303.991 -177.219 1587
-300.196 -177.219 1587
-296.401 -177.219 1587
-292.606 -177.219 1587
-288.811 -177.219 1587
-285.016 -177.219 1587
-281.221 -177.219 1587
-277.426 -177.219 1587
-273.631 -177.219 1587
-269.836 -177.219 1587
-266.544 -177.554 1590
-263.073 -177.777 1592
-259.266 -177.777 1592
-256.1 -178.224 1596
-252.758 -178.559 1599
-249.713 -179.117 1604
-245.877 -179.117 1604
-242.796 -179.675 1609
-240.285 -180.68 1618
-236.708 -180.904 1620
-232.834 -180.904 1620
-229.526 -181.35 1624
-226.337 -181.909 1629
-222.851 -182.244 1632
-218.949 -182.244 1632
-216.1 -183.137 1640
-213.084 -183.919 1647
-209.526 -184.254 1650
-205.581 -184.254 1650
-202.002 -184.589 1653
-199.726 -186.152 1667
-196.445 -186.822 1673
-192.444 -186.822 1673
-189.232 -187.604 1680
-186.317 -188.72 1690
-182.275 -188.72 1690
-178.234 -188.72 1690
-174.193 -188.72 1690
-170.051 -188.609 1689
-166.012 -188.609 1689
-341.595 -418.647 3749
-333.339 -419.54 3757
-324.355 -419.54 3757
-315.371 -419.54 3757
-306.387 -419.54 3757
-297.403 -419.54 3757
-288.419 -419.54 3757
-279.435 -419.54 3757
-269.875 -418.647 3749
-261.466 -419.54 3757
-253.087 -420.545 3766
-244.081 -420.545 3766
-235.076 -420.545 3766
-226.55 -421.438 3774
-217.526 -421.438 3774
-208.501 -421.438 3774
-199.053 -420.545 3766
-190.451 -421.438 3774
-181.426 -421.438 3774
-172.402 -421.438 3774
-163.377 -421.438 3774
-154.025 -420.545 3766
-144.673 -419.54 3757
-135.689 -419.54 3757
-126.704 -419.54 3757
-117.72 -419.54 3757
-108.505 -418.647 3749
-99.5397 -418.647 3749
-90.5747 -418.647 3749
-81.6097 -418.647 3749
-72.1603 -415.855 3724
-63.3909 -416.748 3732
-54.4666 -416.748 3732
-45.5423 -416.748 3732
-36.6964 -417.642 3740
-27.7529 -417.642 3740
-18.8095 -417.642 3740
-9.84488 -416.748 3732
-0.920541 -416.748 3732
8.0038 -416.748 3732
16.9281 -416.748 3732
25.8525 -416.748 3732
34.7023 -415.855 3724
43.6075 -415.855 3724
52.5127 -415.855 3724
61.4179 -415.855 3724
70.3231 -415.855 3724
79.0581 -414.962 3716
87.9442 -414.962 3716
96.8303 -414.962 3716
105.005 -412.17 3691
113.585 -411.277 3683
122.392 -411.277 3683
131.199 -411.277 3683
139.702 -410.383 3675
148.49 -410.383 3675
157.278 -410.383 3675
165.298 -408.485 3658
174.045 -408.485 3658
182.793 -408.485 3658
191.54 -408.485 3658
200.288 -408.485 3658
209.035 -408.485 3658
217.782 -408.485 3658
227.087 -409.49 3667
235.856 -409.49 3667
244.625 -409.49 3667
252.772 -408.485 3658
261.519 -408.485 3658
270.267 -408.485 3658
278.404 -407.591 3650
287.132 -407.591 3650
296.509 -408.485 3658
306.007 -409.49 3667
314.776 -409.49 3667
323.545 -409.49 3667
332.314 -409.49 3667
341.083 -409.49 3667
349.852 -409.49 3667
358.621 -409.49 3667
367.39 -409.49 3667
376.159 -409.49 3667
383.143 -407.591 3650
391.871 -407.591 3650
400.599 -407.591 3650
409.328 -407.591 3650
418.056 -407.591 3650
426.784 -407.591 3650
435.513 -407.591 3650
445.214 -408.485 3658
453.962 -408.485 3658
462.709 -408.485 3658
472.617 -409.49 3667
483.486 -411.277 3683
493.362 -412.17 3691
502.189 -412.17 3691
512.123 -413.063 3699
523.362 -414.962 3716
533.394 -415.855 3724
542.299 -415.855 3724
554.905 -418.647 3749
563.87 -418.647 3749
583.378 -426.352 3818
592.508 -426.352 3818
602.899 -427.245 3826
614.927 -429.255 3844
624.119 -429.255 3844
633.312 -429.255 3844
638.158 -426.352 3818
647.288 -426.352 3818
656.418 -426.352 3818
1172.36 -456.614 4089
1182.13 -456.614 4089
1191.91 -456.614 4089
1178.47 -447.792 4010
1188.06 -447.792 4010
1200.64 -448.909 4020
1210.25 -448.909 4020
1219.86 -448.909 4020
1229.48 -448.909 4020
1239.09 -448.909 4020
1251.81 -450.026 4030
1261.45 -450.026 4030
1271.08 -450.026 4030
1277.54 -448.909 4020
1290.36 -450.026 4030
1302.9 -451.031 4039
1312.56 -451.031 4039
1322.21 -451.031 4039
1328.91 -450.026 4030
1341.53 -451.031 4039
1351.19 -451.031 4039
1367.59 -453.264 4059
1387.47 -456.614 4089
1397.25 -456.614 4089
1407.03 -456.614 4089
1416.81 -456.614 4089
1426.58 -456.614 4089
1436.36 -456.614 4089
1446.14 -456.614 4089
1455.92 -456.614 4089
1465.7 -456.614 4089
1475.48 -456.614 4089
1485.25 -456.614 4089
1788.37 -456.614 4089
1798.15 -456.614 4089
1807.93 -456.614 4089
1817.71 -456.614 4089
1827.48 -456.614 4089
1814.8 -451.031 4039
1838.01 -454.381 4069
1847.74 -454.381 4069
1857.47 -454.381 4069
2457.03 -455.497 4079
2466.79 -455.497 4079
2476.54 -455.497 4079
2486.3 -455.497 4079
2496.05 -455.497 4079
2505.8 -455.497 4079
2503.22 -453.264 4059
2494.98 -450.026 4030
2504.61 -450.026 4030
2514.25 -450.026 4030
2523.89 -450.026 4030
2527.24 -448.909 4020
2536.85 -448.909 4020
2546.46 -448.909 4020
2544 -446.787 4001
2541.44 -444.665 3982
2520.85 -439.417 3935
2530.26 -439.417 3935
2557.74 -442.544 3963
2567.22 -442.544 3963
2582.55 -443.549 3972
2598.57 -444.665 3982
2626.43 -447.792 4010
2636.02 -447.792 4010
2645.61 -447.792 4010
2649.24 -446.787 4001
2658.81 -446.787 4001
2668.37 -446.787 4001
2658.53 -443.549 3972
2630.41 -437.295 3916
2639.78 -437.295 3916
2649.14 -437.295 3916
2646.29 -435.285 3898
2655.61 -435.285 3898
2664.93 -435.285 3898
2589.18 -421.438 3774
2580.99 -418.647 3749
2583.74 -417.642 3740
2598.92 -418.647 3749
2607.89 -418.647 3749
2616.85 -418.647 3749
2619.52 -417.642 3740
2617.21 -415.855 3724
2626.12 -415.855 3724
2623 -413.957 3707
2643.93 -415.855 3724
2652.83 -415.855 3724
2661.74 -415.855 3724
2664.91 -414.962 3716
2673.79 -414.962 3716
2694.23 -416.748 3732
2703.16 -416.748 3732
2717.89 -417.642 3740
2726.84 -417.642 3740
2735.78 -417.642 3740
2788.76 -424.342 3800
2910.49 -441.427 3953
2919.95 -441.427 3953
2950.89 -444.665 3982
2967.1 -445.671 3991
2976.65 -445.671 3991
2986.19 -445.671 3991
2988.98 -444.665 3982
2998.5 -444.665 3982
3014.82 -445.671 3991
3024.37 -445.671 3991
3033.91 -445.671 3991
3043.45 -445.671 3991
3053 -445.671 3991
-2426.5 -368.251 3370
-2418.44 -368.251 3370
-2410.38 -368.251 3370
-2402.32 -368.251 3370
-2394.26 -368.251 3370
-2401.07 -370.546 3391
-2392.96 -370.546 3391
-2384.86 -370.546 3391
-2376.75 -370.546 3391
-2368.64 -370.546 3391
-2360.53 -370.546 3391
-2366.99 -372.841 3412
-2387.86 -377.43 3454
-2414.74 -383.003 3505
-2406.36 -383.003 3505
-2397.98 -383.003 3505
-2404.6 -385.407 3527
-2426.73 -390.324 3572
-2418.19 -390.324 3572
-2420.44 -392.073 3588
-2416.57 -392.838 3595
-2413.33 -393.712 3603
-2404.72 -393.712 3603
-2412.06 -396.335 3627
-2440.49 -402.454 3683
-2431.69 -402.454 3683
-2438.67 -405.076 3707
-2429.8 -405.076 3707
-2420.94 -405.076 3707
-2406.87 -404.202 3699
-2414.23 -406.934 3724
-2421.47 -409.666 3749
-2412.51 -409.666 3749
-2403.54 -409.666 3749
-2394.58 -409.666 3749
-2364.61 -406.06 3716
-2355.73 -406.06 3716
-2320.95 -401.58 3675
-2301.47 -399.722 3658
-2292.72 -399.722 3658
-2264.61 -396.335 3627
-2255.94 -396.335 3627
-2237.35 -394.586 3611
-620.611 -188.934 1729
-616.476 -188.934 1729
-612.342 -188.934 1729
-608.207 -188.934 1729
-604.073 -188.934 1729
-599.938 -188.934 1729
-595.804 -188.934 1729
-591.669 -188.934 1729
-587.534 -188.934 1729
-583.4 -188.934 1729
-579.265 -188.934 1729
-575.131 -188.934 1729
-570.996 -188.934 1729
-564.894 -188.278 1723
-560.774 -188.278 1723
-554.069 -187.404 1715
-548.686 -186.967 1711
-543.958 -186.748 1709
-539.871 -186.748 1709
-535.471 -186.639 1708
-530.142 -186.202 1704
-524.523 -185.655 1699
-520.461 -185.655 1699
-514.27 -184.891 1692
-507.51 -183.907 1683
-501.691 -183.251 1677
-495.603 -182.487 1670
-491.609 -182.487 1670
-484.112 -181.175 1658
-476.383 -179.755 1645
-471.013 -179.208 1640
-467.091 -179.208 1640
-461.475 -178.553 1634
-457.008 -178.334 1632
-452.827 -178.225 1631
-448.927 -178.225 1631
-444.208 -177.897 1628
-440.315 -177.897 1628
-435.886 -177.679 1626
-431.998 -177.679 1626
-427.583 -177.46 1624
-423.699 -177.46 1624
-419.816 -177.46 1624
-415.933 -177.46 1624
-412.049 -177.46 1624
-407.914 -177.351 1623
-404.033 -177.351 1623
-399.659 -177.132 1621
-395.783 -177.132 1621
-391.181 -176.804 1618
-387.073 -176.695 1617
-383.206 -176.695 1617
-379.339 -176.695 1617
-375.008 -176.477 1615
-370.686 -176.258 1613
-366.829 -176.258 1613
-362.972 -176.258 1613
-358.892 -176.149 1612
-354.597 -175.93 1610
-350.529 -175.821 1609
-346.681 -175.821 1609
-342.408 -175.602 1607
-337.301 -174.947 1601
-332.847 -174.619 1598
-329.026 -174.619 1598
-324.594 -174.291 1595
-319.775 -173.745 1590
-315.774 -173.635 1589
-311.974 -173.635 1589
-308.174 -173.635 1589
-304.374 -173.635 1589
-300.196 -173.417 1587
-296.401 -173.417 1587
-292.606 -173.417 1587
-288.811 -173.417 1587
-285.016 -173.417 1587
-281.221 -173.417 1587
-277.426 -173.417 1587
-273.631 -173.417 1587
-269.836 -173.417 1587
-266.377 -173.635 1589
-263.073 -173.963 1592
-259.266 -173.963 1592
-255.94 -174.291 1595
-252.6 -174.619 1598
-249.713 -175.275 1604
-245.877 -175.275 1604
-242.494 -175.602 1607
-239.84 -176.477 1615
-236.416 -176.804 1618
-232.547 -176.804 1618
-229.384 -177.351 1623
-226.198 -177.897 1628
-222.851 -178.334 1632
-218.949 -178.334 1632
-216.1 -179.208 1640
-213.084 -179.973 1647
-209.526 -180.301 1650
-205.581 -180.301 1650
-202.002 -180.629 1653
-199.726 -182.159 1667
-196.679 -183.033 1675
-192.674 -183.033 1675
-189.457 -183.798 1682
-186.317 -184.672 1690
-182.275 -184.672 1690
-178.234 -184.672 1690
-174.193 -184.672 1690
-342.323 -410.54 3757
-334.138 -411.524 3766
-325.132 -411.524 3766
-316.127 -411.524 3766
-307.121 -411.524 3766
-297.403 -410.54 3757
-288.419 -410.54 3757
-279.435 -410.54 3757
-269.875 -409.666 3749
-261.466 -410.54 3757
-253.087 -411.524 3766
-244.081 -411.524 3766
-235.076 -411.524 3766
-226.55 -412.398 3774
-217.526 -412.398 3774
-208.501 -412.398 3774
-199.053 -411.524 3766
-190.451 -412.398 3774
-181.426 -412.398 3774
-172.402 -412.398 3774
-163.377 -412.398 3774
-154.025 -411.524 3766
-144.673 -410.54 3757
-135.689 -410.54 3757
-126.435 -409.666 3749
-117.188 -408.682 3740
-108.505 -409.666 3749
-99.5397 -409.666 3749
-90.5747 -409.666 3749
-81.4138 -408.682 3740
-72.0052 -406.06 3716
-63.2551 -406.934 3724
-54.3498 -406.934 3724
-45.4446 -406.934 3724
-36.5394 -406.934 3724
-27.6342 -406.934 3724
-18.729 -406.934 3724
-9.82378 -406.934 3724
-0.918567 -406.934 3724
7.95019 -405.076 3707
16.8147 -405.076 3707
25.6239 -404.202 3699
34.4693 -404.202 3699
43.3148 -404.202 3699
52.1602 -404.202 3699
61.0056 -404.202 3699
69.851 -404.202 3699
78.6965 -404.202 3699
87.5419 -404.202 3699
96.1789 -403.328 3691
104.778 -402.454 3683
113.338 -401.58 3675
122.126 -401.58 3675
130.629 -400.705 3667
139.398 -400.705 3667
147.803 -399.722 3658
156.551 -399.722 3658
165.298 -399.722 3658
174.045 -399.722 3658
182.793 -399.722 3658
191.54 -399.722 3658
199.85 -398.848 3650
208.578 -398.848 3650
217.782 -399.722 3658
226.53 -399.722 3658
235.277 -399.722 3658
244.025 -399.722 3658
252.772 -399.722 3658
260.947 -398.848 3650
269.676 -398.848 3650
278.404 -398.848 3650
286.503 -397.974 3642
296.509 -399.722 3658
305.256 -399.722 3658
314.004 -399.722 3658
322.751 -399.722 3658
331.498 -399.722 3658
340.246 -399.722 3658
348.993 -399.722 3658
357.741 -399.722 3658
366.488 -399.722 3658
375.235 -399.722 3658
382.303 -397.974 3642
391.871 -398.848 3650
400.599 -398.848 3650
409.328 -398.848 3650
418.056 -398.848 3650
426.784 -398.848 3650
435.513 -398.848 3650
445.214 -399.722 3658
453.962 -399.722 3658
462.709 -399.722 3658
472.617 -400.705 3667
483.486 -402.454 3683
493.362 -403.328 3691
502.189 -403.328 3691
512.123 -404.202 3699
524.489 -406.934 3724
533.394 -406.934 3724
542.299 -406.934 3724
556.089 -410.54 3757
570.337 -414.365 3792
584.6 -418.08 3826
593.749 -418.08 3826
605.735 -420.047 3844
620.686 -423.981 3880
629.964 -423.981 3880
639.243 -423.981 3880
654.538 -427.915 3916
663.902 -427.915 3916
673.267 -427.915 3916
1152.8 -446.819 4089
1162.58 -446.819 4089
1172.36 -446.819 4089
1182.13 -446.819 4089
1191.91 -446.819 4089
1178.47 -438.186 4010
1188.06 -438.186 4010
1200.64 -439.279 4020
1210.25 -439.279 4020
1219.86 -439.279 4020
1229.48 -439.279 4020
1239.09 -439.279 4020
1251.81 -440.372 4030
1261.45 -440.372 4030
1271.08 -440.372 4030
1277.54 -439.279 4020
1290.36 -440.372 4030
1299.99 -440.372 4030
1309.63 -440.372 4030
1319.27 -440.372 4030
1328.91 -440.372 4030
1338.54 -440.372 4030
1348.18 -440.372 4030
1360.85 -441.355 4039
1387.47 -446.819 4089
1397.25 -446.819 4089
1407.03 -446.819 4089
1416.81 -446.819 4089
1426.58 -446.819 4089
1436.36 -446.819 4089
1446.14 -446.819 4089
1455.92 -446.819 4089
1465.7 -446.819 4089
1475.48 -446.819 4089
1485.25 -446.819 4089
1495.03 -446.819 4089
1504.81 -446.819 4089
1514.59 -446.819 4089
1764.49 -445.726 4079
1774.24 -445.726 4079
1788.37 -446.819 4089
1798.15 -446.819 4089
1807.93 -446.819 4089
1817.71 -446.819 4089
1827.48 -446.819 4089
1814.8 -441.355 4039
1838.01 -444.633 4069
1847.74 -444.633 4069
1857.47 -444.633 4069
2457.03 -445.726 4079
2466.79 -445.726 4079
2476.54 -445.726 4079
2486.3 -445.726 4079
2496.05 -445.726 4079
2505.8 -445.726 4079
2503.22 -443.541 4059
2494.98 -440.372 4030
2504.61 -440.372 4030
2514.25 -440.372 4030
2523.89 -440.372 4030
2527.24 -439.279 4020
2536.85 -439.279 4020
2546.46 -439.279 4020
2544 -437.203 4001
2541.44 -435.127 3982
2520.85 -429.991 3935
2530.26 -429.991 3935
2557.74 -433.05 3963
2567.22 -433.05 3963
2576.69 -433.05 3963
2586.17 -433.05 3963
2595.65 -433.05 3963
2605.12 -433.05 3963
2614.6 -433.05 3963
2624.08 -433.05 3963
2633.55 -433.05 3963
2643.03 -433.05 3963
2652.51 -433.05 3963
2630.41 -427.915 3916
2639.78 -427.915 3916
2649.14 -427.915 3916
2646.29 -425.948 3898
2655.61 -425.948 3898
2664.93 -425.948 3898
2589.18 -412.398 3774
2580.99 -409.666 3749
2583.74 -408.682 3740
2598.92 -409.666 3749
2607.89 -409.666 3749
2616.85 -409.666 3749
2619.52 -408.682 3740
2617.21 -406.934 3724
2626.12 -406.934 3724
2623 -405.076 3707
2643.93 -406.934 3724
2652.83 -406.934 3724
2661.74 -406.934 3724
2664.91 -406.06 3716
2673.79 -406.06 3716
2694.23 -407.808 3732
2703.16 -407.808 3732
2717.89 -408.682 3740
2726.84 -408.682 3740
2735.78 -408.682 3740
2788.76 -415.239 3800
2910.49 -431.958 3953
2919.95 -431.958 3953
2950.89 -435.127 3982
2967.1 -436.11 3991
2976.65 -436.11 3991
2986.19 -436.11 3991
2988.98 -435.127 3982
2998.5 -435.127 3982
3014.82 -436.11 3991
3024.37 -436.11 3991
3033.91 -436.11 3991
3043.45 -436.11 3991
3053 -436.11 3991
-2426.5 -360.178 3370
-2418.44 -360.178 3370
-2410.38 -360.178 3370
-2402.32 -360.178 3370
-2394.26 -360.178 3370
-2401.07 -362.423 3391
-2392.96 -362.423 3391
-2384.86 -362.423 3391
-2376.75 -362.423 3391
-2368.64 -362.423 3391
-2360.53 -362.423 3391
-2366.99 -364.667 3412
-2387.86 -369.156 3454
-2414.74 -374.607 3505
-2406.36 -374.607 3505
-2397.98 -374.607 3505
-2389.6 -374.607 3505
-2400.92 -377.706 3534
-2392.47 -377.706 3534
-2409.65 -381.768 3572
-2406.49 -382.623 3580
-2403.28 -383.478 3588
-2394.7 -383.478 3588
-2396.1 -385.081 3603
-2403.39 -387.646 3627
-2394.71 -387.646 3627
-2417.62 -392.776 3675
-2408.83 -392.776 3675
-2400.04 -392.776 3675
-2391.25 -392.776 3675
-2398.02 -395.341 3699
-2405.33 -398.013 3724
-2396.42 -398.013 3724
-2387.52 -398.013 3724
-2373.5 -397.158 3716
-2348.71 -394.486 3691
-2329.74 -392.776 3675
-2320.95 -392.776 3675
-2291.4 -389.249 3642
-2282.69 -389.249 3642
-2264.61 -387.646 3627
-2255.94 -387.646 3627
-2237.35 -385.936 3611
-615.05 -184.364 1725
-612.342 -184.792 1729
-608.207 -184.792 1729
-604.073 -184.792 1729
-599.938 -184.792 1729
-595.804 -184.792 1729
-591.669 -184.792 1729
-587.534 -184.792 1729
-583.4 -184.792 1729
-579.265 -184.792 1729
-575.131 -184.792 1729
-570.996 -184.792 1729
-564.894 -184.151 1723
-560.774 -184.151 1723
-554.069 -183.296 1715
-548.686 -182.868 1711
-543.958 -182.654 1709
-539.871 -182.654 1709
-535.471 -182.547 1708
-530.142 -182.12 1704
-524.523 -181.585 1699
-520.461 -181.585 1699
-514.27 -180.837 1692
-507.51 -179.875 1683
-501.691 -179.234 1677
-495.603 -178.486 1670
-491.609 -178.486 1670
-484.112 -177.204 1658
-476.383 -175.814 1645
-471.013 -175.28 1640
-467.091 -175.28 1640
-461.475 -174.638 1634
-457.008 -174.425 1632
-452.827 -174.318 1631
-448.927 -174.318 1631
-444.208 -173.997 1628
-439.774 -173.783 1626
-435.35 -173.57 1624
-431.466 -173.57 1624
-427.32 -173.463 1623
-423.439 -173.463 1623
-419.557 -173.463 1623
-415.676 -173.463 1623
-411.795 -173.463 1623
-407.914 -173.463 1623
-403.535 -173.249 1621
-399.659 -173.249 1621
-395.783 -173.249 1621
-391.181 -172.928 1618
-387.073 -172.822 1617
-383.206 -172.822 1617
-379.339 -172.822 1617
-375.008 -172.608 1615
-370.686 -172.394 1613
-366.829 -172.394 1613
-362.972 -172.394 1613
-358.447 -172.073 1610
-354.597 -172.073 1610
-350.529 -171.966 1609
-346.681 -171.966 1609
-342.408 -171.753 1607
-337.301 -171.111 1601
-332.847 -170.791 1598
-329.026 -170.791 1598
-324.594 -170.47 1595
-319.775 -169.936 1590
-315.774 -169.829 1589
-311.974 -169.829 1589
-308.174 -169.829 1589
-304.374 -169.829 1589
-300.196 -169.615 1587
-296.401 -169.615 1587
-292.606 -169.615 1587
-288.811 -169.615 1587
-285.016 -169.615 1587
-281.221 -169.615 1587
-277.426 -169.615 1587
-273.631 -169.615 1587
-269.836 -169.615 1587
-266.377 -169.829 1589
-262.742 -169.936 1590
-258.94 -169.936 1590
-255.94 -170.47 1595
-252.6 -170.791 1598
-249.557 -171.325 1603
-245.724 -171.325 1603
-242.494 -171.753 1607
-239.394 -172.287 1612
-236.27 -172.822 1617
-232.403 -172.822 1617
-228.96 -173.142 1620
-225.642 -173.57 1624
-222.305 -173.997 1628
-218.412 -173.997 1628
-215.705 -174.959 1637
-213.084 -176.028 1647
-209.145 -176.028 1647
-205.207 -176.028 1647
-201.635 -176.348 1650
-199.726 -178.165 1667
-196.679 -179.02 1675
-192.674 -179.02 1675
-189.457 -179.769 1682
-186.317 -180.624 1690
-182.275 -180.624 1690
-178.234 -180.624 1690
-174.193 -180.624 1690
-342.323 -401.54 3757
-334.138 -402.502 3766
-325.132 -402.502 3766
-316.127 -402.502 3766
-307.121 -402.502 3766
-297.403 -401.54 3757
-288.419 -401.54 3757
-278.84 -400.685 3749
-269.227 -399.723 3740
-260.91 -400.685 3749
-251.945 -400.685 3749
-243.498 -401.54 3757
-234.514 -401.54 3757
-226.07 -402.502 3766
-217.064 -402.502 3766
-208.059 -402.502 3766
-199.053 -402.502 3766
-190.451 -403.357 3774
-181.426 -403.357 3774
-172.402 -403.357 3774
-163.377 -403.357 3774
-154.025 -402.502 3766
-144.673 -401.54 3757
-135.689 -401.54 3757
-126.435 -400.685 3749
-117.188 -399.723 3740
-108.244 -399.723 3740
-99.3007 -399.723 3740
-90.3572 -399.723 3740
-81.4138 -399.723 3740
-72.0052 -397.158 3716
-63.1192 -397.158 3716
-54.2331 -397.158 3716
-45.347 -397.158 3716
-36.4609 -397.158 3716
-27.5748 -397.158 3716
-18.6888 -397.158 3716
-9.75783 -395.341 3699
-0.910428 -394.486 3691
7.89872 -393.631 3683
16.7059 -393.631 3683
25.5131 -393.631 3683
34.3202 -393.631 3683
43.1274 -393.631 3683
52.0474 -394.486 3691
60.8737 -394.486 3691
69.7 -394.486 3691
78.1859 -392.776 3675
86.9739 -392.776 3675
95.7619 -392.776 3675
104.322 -391.921 3667
113.091 -391.921 3667
121.86 -391.921 3667
130.309 -390.959 3658
139.056 -390.959 3658
147.803 -390.959 3658
156.551 -390.959 3658
164.937 -390.104 3650
173.665 -390.104 3650
182.393 -390.104 3650
191.121 -390.104 3650
199.412 -389.249 3642
208.121 -389.249 3642
217.306 -390.104 3650
226.034 -390.104 3650
234.763 -390.104 3650
243.491 -390.104 3650
252.219 -390.104 3650
260.947 -390.104 3650
269.676 -390.104 3650
278.404 -390.104 3650
286.503 -389.249 3642
296.509 -390.959 3658
305.256 -390.959 3658
314.004 -390.959 3658
322.751 -390.959 3658
331.498 -390.959 3658
340.246 -390.959 3658
348.993 -390.959 3658
356.958 -390.104 3650
365.686 -390.104 3650
374.415 -390.104 3650
382.303 -389.249 3642
391.012 -389.249 3642
399.721 -389.249 3642
408.431 -389.249 3642
417.14 -389.249 3642
425.849 -389.249 3642
434.558 -389.249 3642
445.214 -390.959 3658
453.962 -390.959 3658
462.709 -390.959 3658
472.617 -391.921 3667
483.486 -393.631 3683
493.362 -394.486 3691
502.189 -394.486 3691
512.123 -395.341 3699
524.489 -398.013 3724
533.394 -398.013 3724
542.299 -398.013 3724
556.089 -401.54 3757
570.337 -405.281 3792
584.6 -408.915 3826
593.749 -408.915 3826
605.735 -410.839 3844
620.686 -414.686 3880
629.964 -414.686 3880
639.243 -414.686 3880
654.538 -418.534 3916
663.902 -418.534 3916
673.267 -418.534 3916
1152.8 -437.024 4089
1162.58 -437.024 4089
1172.36 -437.024 4089
1182.13 -437.024 4089
1191.91 -437.024 4089
1178.47 -428.58 4010
1188.06 -428.58 4010
1200.64 -429.649 4020
1210.25 -429.649 4020
1219.86 -429.649 4020
1226.42 -428.58 4010
1236.01 -428.58 4010
1248.7 -429.649 4020
1258.32 -429.649 4020
1267.93 -429.649 4020
1274.36 -428.58 4010
1283.95 -428.58 4010
1299.99 -430.718 4030
1309.63 -430.718 4030
1319.27 -430.718 4030
