-126.704 -734.537 3757
-118.253 -737.861 3774
-109.228 -737.861 3774
-100.442 -739.621 3783
-91.3961 -739.621 3783
-82.3498 -739.621 3783
-73.3035 -739.621 3783
-64.2572 -739.621 3783
-55.2109 -739.621 3783
-46.5917 -746.464 3818
-38.0701 -758.585 3880
-28.9922 -763.864 3907
-19.6493 -763.864 3907
-10.3804 -769.339 3935
-0.970613 -769.339 3935
8.43916 -769.339 3935
17.7628 -765.624 3916
26.8777 -758.585 3880
35.8205 -751.547 3844
44.8019 -748.028 3826
53.951 -748.028 3826
63.1002 -748.028 3826
72.0982 -746.464 3818
81.2282 -746.464 3818
90.3582 -746.464 3818
98.8107 -741.38 3792
108.618 -746.464 3818
119.66 -758.585 3880
129.238 -760.345 3889
138.537 -760.345 3889
148.179 -762.105 3898
157.501 -762.105 3898
166.822 -762.105 3898
176.143 -762.105 3898
183.323 -753.307 3853
189.889 -742.944 3800
198.976 -742.944 3800
208.063 -742.944 3800
216.178 -739.621 3783
299.832 -723.198 3699
312.099 -731.214 3740
321.043 -731.214 3740
329.986 -731.214 3740
338.929 -731.214 3740
347.873 -731.214 3740
356.816 -731.214 3740
365.76 -731.214 3740
377.308 -736.297 3766
387.135 -737.861 3774
396.159 -737.861 3774
406.15 -739.621 3783
415.197 -739.621 3783
424.243 -739.621 3783
433.289 -739.621 3783
441.283 -737.861 3774
450.308 -737.861 3774
460.428 -739.621 3783
469.474 -739.621 3783
480.671 -742.944 3800
494.269 -749.787 3835
505.803 -753.307 3853
515.016 -753.307 3853
524.23 -753.307 3853
533.444 -753.307 3853
541.39 -751.547 3844
550.582 -751.547 3844
559.774 -751.547 3844
1827.48 -799.447 4089
1837.26 -799.447 4089
1847.04 -799.447 4089
1856.82 -799.447 4089
1866.6 -799.447 4089
1862.61 -793.582 4059
1872.31 -793.582 4059
1863.94 -785.957 4020
1860.04 -780.287 3991
3046.78 -793.582 4059
3064.01 -795.537 4069
3073.74 -795.537 4069
3083.47 -795.537 4069
3093.2 -795.537 4069
3102.93 -795.537 4069
3112.66 -795.537 4069
-690.542 -350.506 1815
-686.202 -350.506 1815
-681.861 -350.506 1815
-676.775 -350.12 1813
-670.956 -349.347 1809
-664.787 -348.382 1804
-660.473 -348.382 1804
-651.795 -346.064 1792
-646.064 -345.292 1788
-639.635 -344.133 1782
-635.374 -344.133 1782
-630.05 -343.554 1779
-622.278 -341.623 1769
-617.349 -341.236 1767
-611.389 -340.271 1762
-607.175 -340.271 1762
-600.224 -338.726 1754
-594.331 -337.76 1749
-586.437 -335.636 1738
-582.281 -335.636 1738
-576.129 -334.477 1732
-570.336 -333.512 1727
-564.567 -332.546 1722
-560.449 -332.546 1722
-554.069 -331.194 1715
-548.044 -330.036 1709
-543.003 -329.456 1706
-538.923 -329.456 1706
-533.59 -328.684 1702
-527.964 -327.718 1697
-522.98 -327.139 1694
-518.929 -327.139 1694
-513.662 -326.366 1690
-508.716 -325.787 1687
-503.486 -325.015 1683
-498.571 -324.435 1680
-494.553 -324.435 1680
-489.66 -323.856 1677
-485.65 -323.856 1677
-479.055 -322.118 1668
-475.066 -322.118 1668
-470.23 -321.538 1665
-464.288 -320.187 1658
-459.491 -319.607 1655
-455.533 -319.607 1655
-449.393 -318.062 1647
-445.454 -318.062 1647
-440.175 -317.097 1642
-436.249 -317.097 1642
-431.796 -316.711 1640
-427.613 -316.517 1639
-421.884 -315.166 1632
-417.981 -315.166 1632
-413.825 -314.973 1631
-409.171 -314.393 1628
-404.282 -313.621 1624
-399.659 -313.041 1621
-395.783 -313.041 1621
-391.181 -312.462 1618
-387.312 -312.462 1618
-383.206 -312.269 1617
-379.339 -312.269 1617
-375.472 -312.269 1617
-371.146 -311.883 1615
-367.284 -311.883 1615
-363.422 -311.883 1615
-359.56 -311.883 1615
-355.698 -311.883 1615
-351.836 -311.883 1615
-347.974 -311.883 1615
-344.112 -311.883 1615
-340.25 -311.883 1615
-336.388 -311.883 1615
-332.526 -311.883 1615
-328.664 -311.883 1615
-324.803 -311.883 1615
-320.941 -311.883 1615
-317.079 -311.883 1615
-312.829 -311.496 1613
-308.972 -311.496 1613
-304.925 -311.303 1612
-301.07 -311.303 1612
-296.847 -310.917 1610
-292.815 -310.724 1609
-288.967 -310.724 1609
-285.12 -310.724 1609
-280.923 -310.338 1607
-277.08 -310.338 1607
-273.067 -310.145 1606
-268.891 -309.758 1604
-265.056 -309.758 1604
-261.057 -309.565 1603
-256.903 -309.179 1601
-252.758 -308.793 1599
-248.934 -308.793 1599
-244.958 -308.6 1598
-241.136 -308.6 1598
-237.315 -308.6 1598
-233.64 -308.793 1599
-229.816 -308.793 1599
-226.558 -309.565 1603
-223.141 -310.145 1606
-219.847 -310.917 1610
-215.997 -310.917 1610
-212.411 -311.303 1612
-208.944 -311.883 1615
-205.336 -312.269 1617
-201.469 -312.269 1617
-197.725 -312.462 1618
-194.095 -312.848 1620
-190.221 -312.848 1620
-186.347 -312.848 1620
-182.473 -312.848 1620
-178.6 -312.848 1620
-175.049 -313.428 1623
-171.168 -313.428 1623
-167.39 -313.621 1624
-163.708 -314.007 1626
-160.115 -314.586 1629
-156.219 -314.586 1629
-152.511 -314.973 1631
-148.884 -315.552 1634
-145.154 -315.938 1636
-141.242 -315.938 1636
-137.33 -315.938 1636
-255.203 -708.157 3667
-246.434 -708.157 3667
-237.665 -708.157 3667
-228.896 -708.157 3667
-220.127 -708.157 3667
-210.84 -706.419 3658
-202.092 -706.419 3658
-192.922 -704.874 3650
-185.052 -708.157 3667
-177.052 -711.247 3683
-168.976 -714.337 3699
-160.13 -714.337 3699
-151.285 -714.337 3699
-143.094 -717.62 3716
-136.014 -727.276 3766
-127.008 -727.276 3766
-118.817 -732.297 3792
-109.749 -732.297 3792
-100.894 -733.841 3800
-91.8068 -733.841 3800
-82.7199 -733.841 3800
-73.3035 -730.559 3783
-64.4101 -732.297 3792
-55.3423 -732.297 3792
-46.5917 -737.318 3818
-38.0701 -749.291 3880
-28.9922 -754.505 3907
-19.6493 -754.505 3907
-10.3804 -759.912 3935
-0.970613 -759.912 3935
8.43916 -759.912 3935
17.7628 -756.243 3916
26.8777 -749.291 3880
35.8205 -742.339 3844
44.8019 -738.863 3826
53.951 -738.863 3826
63.1002 -738.863 3826
72.0982 -737.318 3818
81.2282 -737.318 3818
90.3582 -737.318 3818
99.0192 -733.841 3800
109.358 -742.339 3844
119.938 -751.029 3889
131.065 -761.65 3944
140.497 -761.65 3944
150.27 -763.388 3953
159.723 -763.388 3953
169.176 -763.388 3953
178.222 -761.65 3944
183.752 -745.815 3862
192.087 -742.339 3844
201.28 -742.339 3844
208.063 -733.841 3800
217.15 -733.841 3800
299.832 -714.337 3699
312.099 -722.255 3740
321.043 -722.255 3740
329.986 -722.255 3740
337.48 -719.165 3724
346.385 -719.165 3724
354.527 -717.62 3716
364.978 -720.71 3732
374.703 -722.255 3740
384.57 -723.993 3749
393.535 -723.993 3749
403.359 -725.538 3757
414.209 -728.82 3774
423.234 -728.82 3774
432.258 -728.82 3774
441.283 -728.82 3774
450.308 -728.82 3774
459.333 -728.82 3774
468.358 -728.82 3774
479.659 -732.297 3792
494.269 -740.601 3835
504.621 -742.339 3844
513.813 -742.339 3844
523.005 -742.339 3844
532.198 -742.339 3844
541.39 -742.339 3844
550.582 -742.339 3844
558.464 -740.601 3835
1827.48 -789.652 4089
1837.26 -789.652 4089
1847.04 -789.652 4089
1856.82 -789.652 4089
1862.03 -787.721 4079
1862.61 -783.859 4059
1872.31 -783.859 4059
1863.94 -776.327 4020
1860.04 -770.727 3991
1813.37 -747.553 3871
1822.62 -747.553 3871
1831.88 -747.553 3871
1819.73 -738.863 3826
3046.78 -783.859 4059
3071.54 -787.721 4079
3081.3 -787.721 4079
3091.05 -787.721 4079
3093.2 -785.79 4069
3102.93 -785.79 4069
3112.66 -785.79 4069
-688.259 -345.014 1809
-683.933 -345.014 1809
-679.607 -345.014 1809
-675.281 -345.014 1809
-670.956 -345.014 1809
-664.787 -344.06 1804
-660.473 -344.06 1804
-651.795 -341.771 1792
-646.064 -341.009 1788
-639.635 -339.864 1782
-635.374 -339.864 1782
-630.05 -339.292 1779
-622.278 -337.385 1769
-617.349 -337.003 1767
-611.389 -336.05 1762
-607.175 -336.05 1762
-600.224 -334.524 1754
-593.651 -333.189 1747
-585.762 -331.091 1736
-581.611 -331.091 1736
-576.129 -330.328 1732
-569.675 -328.993 1725
-564.894 -328.612 1723
-560.774 -328.612 1723
-554.393 -327.277 1716
-548.686 -326.323 1711
-543.639 -325.751 1708
-539.555 -325.751 1708
-533.59 -324.607 1702
-527.964 -323.653 1697
-523.288 -323.272 1695
-519.235 -323.272 1695
-513.662 -322.318 1690
-508.716 -321.746 1687
-503.486 -320.983 1683
-498.571 -320.411 1680
-494.553 -320.411 1680
-489.66 -319.839 1677
-485.65 -319.839 1677
-479.055 -318.122 1668
-475.066 -318.122 1668
-470.23 -317.55 1665
-464.288 -316.215 1658
-460.046 -316.024 1657
-456.083 -316.024 1657
-449.665 -314.308 1648
-445.454 -314.117 1647
-440.711 -313.545 1644
-436.78 -313.545 1644
-432.322 -313.163 1642
-427.613 -312.591 1639
-422.401 -311.638 1634
-418.494 -311.638 1634
-414.079 -311.256 1632
-409.422 -310.684 1629
-404.282 -309.73 1624
-399.659 -309.158 1621
-395.783 -309.158 1621
-391.665 -308.967 1620
-387.312 -308.586 1618
-383.443 -308.586 1618
-379.574 -308.586 1618
-375.472 -308.395 1617
-371.606 -308.395 1617
-367.284 -308.014 1615
-363.422 -308.014 1615
-359.56 -308.014 1615
-355.698 -308.014 1615
-351.836 -308.014 1615
-348.405 -308.395 1617
-344.538 -308.395 1617
-340.672 -308.395 1617
-336.388 -308.014 1615
-332.526 -308.014 1615
-328.664 -308.014 1615
-324.803 -308.014 1615
-320.941 -308.014 1615
-317.079 -308.014 1615
-313.217 -308.014 1615
-308.972 -307.632 1613
-305.114 -307.632 1613
-301.257 -307.632 1613
-297.216 -307.442 1612
-292.997 -307.06 1610
-288.967 -306.87 1609
-285.12 -306.87 1609
-281.272 -306.87 1609
-277.08 -306.488 1607
-273.237 -306.488 1607
-269.226 -306.297 1606
-265.386 -306.297 1606
-261.22 -305.916 1604
-256.903 -305.344 1601
-252.758 -304.962 1599
-248.934 -304.962 1599
-245.111 -304.962 1599
-241.136 -304.772 1598
-237.463 -304.962 1599
-233.64 -304.962 1599
-229.816 -304.962 1599
-226.558 -305.725 1603
-223.141 -306.297 1606
-219.847 -307.06 1610
-215.997 -307.06 1610
-212.411 -307.442 1612
-208.944 -308.014 1615
-205.336 -308.395 1617
-201.469 -308.395 1617
-197.725 -308.586 1618
-194.095 -308.967 1620
-190.221 -308.967 1620
-186.347 -308.967 1620
-182.473 -308.967 1620
-178.6 -308.967 1620
-175.049 -309.54 1623
-171.168 -309.54 1623
-167.39 -309.73 1624
-163.708 -310.112 1626
-160.115 -310.684 1629
-156.219 -310.684 1629
-152.511 -311.065 1631
-148.884 -311.638 1634
-145.154 -312.019 1636
-141.242 -312.019 1636
-137.33 -312.019 1636
-255.203 -699.373 3667
-246.434 -699.373 3667
-237.665 -699.373 3667
-228.896 -699.373 3667
-220.127 -699.373 3667
-210.84 -697.656 3658
-202.092 -697.656 3658
-192.922 -696.13 3650
-185.052 -699.373 3667
-177.821 -705.476 3699
-169.341 -707.002 3707
-160.476 -707.002 3707
-151.98 -708.718 3716
-144.018 -713.295 3740
-136.303 -719.78 3774
-127.278 -719.78 3774
-119.632 -728.172 3818
-110.502 -728.172 3818
-101.372 -728.172 3818
-92.2417 -728.172 3818
-83.1117 -728.172 3818
-73.6329 -724.739 3800
-64.6988 -726.455 3809
-55.5904 -726.455 3809
-47.0188 -734.847 3853
-38.1584 -741.713 3889
-29.1257 -748.579 3925
-19.7399 -748.579 3925
-10.3804 -750.486 3935
-0.970613 -750.486 3935
8.43916 -750.486 3935
17.8036 -748.579 3925
26.8777 -739.996 3880
35.9044 -734.847 3853
45.0127 -733.13 3844
54.2048 -733.13 3844
63.397 -733.13 3844
72.5892 -733.13 3844
81.7814 -733.13 3844
90.9735 -733.13 3844
99.6967 -729.697 3826
110.126 -738.28 3871
121.634 -752.202 3944
131.364 -753.919 3953
140.817 -753.919 3953
150.992 -757.543 3972
160.491 -757.543 3972
169.989 -757.543 3972
178.629 -753.919 3953
184.18 -738.28 3871
192.987 -736.563 3862
202.222 -736.563 3862
210.472 -733.13 3844
217.664 -726.455 3809
289.099 -700.898 3675
299.832 -705.476 3699
312.099 -713.295 3740
321.043 -713.295 3740
329.986 -713.295 3740
337.48 -710.244 3724
346.385 -710.244 3724
354.527 -708.718 3716
364.978 -711.77 3732
374.703 -713.295 3740
384.57 -715.012 3749
393.535 -715.012 3749
403.359 -716.538 3757
414.209 -719.78 3774
423.234 -719.78 3774
432.258 -719.78 3774
441.283 -719.78 3774
450.308 -719.78 3774
459.333 -719.78 3774
468.358 -719.78 3774
479.659 -723.213 3792
494.269 -731.414 3835
504.621 -733.13 3844
513.813 -733.13 3844
523.005 -733.13 3844
533.444 -734.847 3853
542.657 -734.847 3853
551.871 -734.847 3853
558.464 -731.414 3835
1798.15 -779.857 4089
1807.93 -779.857 4089
1817.71 -779.857 4089
1827.48 -779.857 4089
1837.26 -779.857 4089
1847.04 -779.857 4089
1856.82 -779.857 4089
1862.03 -777.95 4079
1862.61 -774.135 4059
1872.31 -774.135 4059
1863.94 -766.697 4020
1860.04 -761.166 3991
1826.01 -743.429 3898
1822.62 -738.28 3871
1831.88 -738.28 3871
1824.01 -731.414 3835
3046.78 -774.135 4059
3071.54 -777.95 4079
3081.3 -777.95 4079
3091.05 -777.95 4079
3093.2 -776.042 4069
3102.93 -776.042 4069
3112.66 -776.042 4069
-688.259 -340.68 1809
-683.933 -340.68 1809
-679.607 -340.68 1809
-675.281 -340.68 1809
-670.956 -340.68 1809
-664.787 -339.739 1804
-660.473 -339.739 1804
-651.795 -337.479 1792
-646.064 -336.725 1788
-639.635 -335.595 1782
-635.374 -335.595 1782
-630.05 -335.03 1779
-622.278 -333.147 1769
-617.349 -332.771 1767
-611.389 -331.829 1762
-607.175 -331.829 1762
-600.224 -330.322 1754
-593.651 -329.004 1747
-585.762 -326.932 1736
-581.611 -326.932 1736
-576.129 -326.179 1732
-569.675 -324.861 1725
-564.894 -324.484 1723
-560.774 -324.484 1723
-554.393 -323.166 1716
-548.686 -322.224 1711
-543.639 -321.659 1708
-539.555 -321.659 1708
-534.217 -320.906 1704
-528.586 -319.964 1699
-523.288 -319.211 1695
-519.235 -319.211 1695
-514.27 -318.646 1692
-508.716 -317.705 1687
-503.486 -316.951 1683
-498.571 -316.386 1680
-494.553 -316.386 1680
-489.952 -316.01 1678
-485.65 -315.821 1677
-479.629 -314.503 1670
-475.636 -314.503 1670
-470.795 -313.938 1667
-464.848 -312.62 1660
-460.046 -312.055 1657
-456.083 -312.055 1657
-449.665 -310.36 1648
-445.725 -310.36 1648
-440.711 -309.607 1644
-436.78 -309.607 1644
-432.322 -309.23 1642
-427.613 -308.665 1639
-422.918 -308.1 1636
-419.006 -308.1 1636
-414.586 -307.723 1634
-409.422 -306.782 1629
-404.78 -306.217 1626
-400.152 -305.652 1623
-396.271 -305.652 1623
-391.906 -305.275 1621
-387.791 -305.087 1620
-383.443 -304.71 1618
-379.574 -304.71 1618
-375.705 -304.71 1618
-371.606 -304.522 1617
-367.739 -304.522 1617
-363.872 -304.522 1617
-360.005 -304.522 1617
-356.139 -304.522 1617
-352.272 -304.522 1617
-348.405 -304.522 1617
-344.538 -304.522 1617
-340.672 -304.522 1617
-336.805 -304.522 1617
-332.938 -304.522 1617
-329.072 -304.522 1617
-324.803 -304.145 1615
-320.941 -304.145 1615
-317.079 -304.145 1615
-313.217 -304.145 1615
-308.972 -303.768 1613
-305.114 -303.768 1613
-301.257 -303.768 1613
-297.216 -303.58 1612
-292.997 -303.204 1610
-288.967 -303.015 1609
-285.12 -303.015 1609
-281.272 -303.015 1609
-277.425 -303.015 1609
-273.237 -302.639 1607
-269.226 -302.45 1606
-265.386 -302.45 1606
-261.22 -302.074 1604
-256.903 -301.509 1601
-253.074 -301.509 1601
-249.246 -301.509 1601
-245.111 -301.132 1599
-241.136 -300.944 1598
-237.463 -301.132 1599
-233.932 -301.509 1601
-230.103 -301.509 1601
-226.699 -302.074 1604
-223.28 -302.639 1607
-219.71 -303.015 1609
-215.863 -303.015 1609
-212.411 -303.58 1612
-208.685 -303.768 1613
-205.336 -304.522 1617
-201.469 -304.522 1617
-197.725 -304.71 1618
-194.095 -305.087 1620
-190.221 -305.087 1620
-186.347 -305.087 1620
-182.473 -305.087 1620
-178.6 -305.087 1620
-175.049 -305.652 1623
-171.168 -305.652 1623
-167.287 -305.652 1623
-163.507 -305.84 1624
-160.016 -306.593 1628
-156.123 -306.593 1628
-152.324 -306.782 1629
-148.702 -307.347 1632
-144.976 -307.723 1634
-141.069 -307.723 1634
-137.162 -307.723 1634
-132.439 -305.84 1624
-245.829 -688.893 3658
-237.082 -688.893 3658
-228.334 -688.893 3658
-219.587 -688.893 3658
-210.378 -687.387 3650
-202.092 -688.893 3658
-193.345 -688.893 3658
-185.859 -693.602 3683
-178.206 -698.121 3707
-170.118 -701.323 3724
-161.212 -701.323 3724
-152.962 -704.336 3740
-145.327 -710.739 3774
-137.567 -717.331 3809
-128.458 -717.331 3809
-120.728 -725.617 3853
-111.515 -725.617 3853
-102.301 -725.617 3853
-92.8699 -723.922 3844
-83.6777 -723.922 3844
-74.1367 -720.532 3826
-65.4462 -725.617 3853
-56.2325 -725.617 3853
-47.4582 -732.397 3889
-38.5116 -739.176 3925
-29.1999 -741.06 3935
-19.7902 -741.06 3935
-10.4543 -746.333 3963
-0.97752 -746.333 3963
8.49921 -746.333 3963
17.8489 -741.06 3935
27.1271 -737.481 3916
36.156 -730.702 3880
45.4342 -730.702 3880
54.7125 -730.702 3880
63.9907 -730.702 3880
73.099 -729.007 3871
82.3558 -729.007 3871
91.6125 -729.007 3871
100.869 -729.007 3871
111.662 -739.176 3925
122.22 -746.333 3963
132.328 -749.911 3982
141.85 -749.911 3982
152.095 -753.489 4001
161.662 -753.489 4001
171.23 -753.489 4001
178.629 -744.449 3953
184.18 -729.007 3871
192.987 -727.312 3862
202.222 -727.312 3862
210.472 -723.922 3844
217.664 -717.331 3809
289.099 -692.095 3675
299.832 -696.615 3699
308.678 -696.615 3699
317.523 -696.615 3699
327.868 -699.816 3716
336.755 -699.816 3716
345.641 -699.816 3716
353.668 -698.121 3707
362.533 -698.121 3707
371.397 -698.121 3707
382.006 -701.323 3724
390.911 -701.323 3724
402.5 -706.031 3749
412.343 -707.538 3757
421.327 -707.538 3757
430.311 -707.538 3757
439.295 -707.538 3757
448.28 -707.538 3757
458.359 -709.233 3766
468.358 -710.739 3774
479.659 -714.129 3792
490.918 -717.331 3809
503.44 -722.227 3835
512.61 -722.227 3835
521.781 -722.227 3835
533.444 -725.617 3853
542.657 -725.617 3853
551.871 -725.617 3853
554.677 -717.331 3809
1798.15 -770.062 4089
1807.93 -770.062 4089
1817.71 -770.062 4089
1827.48 -770.062 4089
1837.26 -770.062 4089
1847.04 -770.062 4089
1856.82 -770.062 4089
1857.47 -766.295 4069
1853.43 -760.645 4039
1863.09 -760.645 4039
1850.49 -751.606 3991
1833.94 -741.06 3935
1826.01 -734.091 3898
1822.62 -729.007 3871
1831.88 -729.007 3871
1824.01 -722.227 3835
3071.54 -768.178 4079
3081.3 -768.178 4079
3091.05 -768.178 4079
-688.259 -336.347 1809
-683.933 -336.347 1809
-679.607 -336.347 1809
-675.281 -336.347 1809
-670.956 -336.347 1809
-664.787 -335.417 1804
-660.473 -335.417 1804
-651.067 -332.814 1790
-644.619 -331.699 1784
-638.917 -330.955 1780
-634.66 -330.955 1780
-629.341 -330.397 1777
-622.278 -328.91 1769
-617.349 -328.538 1767
-611.389 -327.608 1762
-607.175 -327.608 1762
-600.224 -326.121 1754
-593.651 -324.819 1747
-585.762 -322.774 1736
-581.611 -322.774 1736
-576.129 -322.03 1732
-569.675 -320.729 1725
-564.894 -320.357 1723
-560.774 -320.357 1723
-554.393 -319.055 1716
-548.686 -318.126 1711
-543.639 -317.568 1708
-539.555 -317.568 1708
-534.217 -316.824 1704
-528.586 -315.895 1699
-523.288 -315.151 1695
-519.235 -315.151 1695
-514.27 -314.593 1692
-508.716 -313.663 1687
-503.486 -312.92 1683
-498.571 -312.362 1680
-494.553 -312.362 1680
-489.952 -311.99 1678
-485.65 -311.804 1677
-479.629 -310.503 1670
-475.636 -310.503 1670
-470.795 -309.945 1667
-464.848 -308.643 1660
-460.046 -308.085 1657
-456.083 -308.085 1657
-449.665 -306.412 1648
-445.725 -306.412 1648
-440.711 -305.668 1644
-436.78 -305.668 1644
-432.322 -305.297 1642
-427.613 -304.739 1639
-422.918 -304.181 1636
-419.006 -304.181 1636
-414.586 -303.809 1634
-409.422 -302.879 1629
-404.78 -302.322 1626
-400.152 -301.764 1623
-396.271 -301.764 1623
-391.906 -301.392 1621
-387.791 -301.206 1620
-383.443 -300.834 1618
-379.574 -300.834 1618
-375.705 -300.834 1618
-371.606 -300.648 1617
-367.739 -300.648 1617
-363.872 -300.648 1617
-360.005 -300.648 1617
-356.139 -300.648 1617
-352.272 -300.648 1617
-348.405 -300.648 1617
-344.538 -300.648 1617
-340.672 -300.648 1617
-336.805 -300.648 1617
-332.938 -300.648 1617
-329.072 -300.648 1617
-324.803 -300.276 1615
-320.941 -300.276 1615
-317.079 -300.276 1615
-313.217 -300.276 1615
-308.972 -299.905 1613
-305.114 -299.905 1613
-301.257 -299.905 1613
-297.216 -299.719 1612
-292.997 -299.347 1610
-288.967 -299.161 1609
-285.12 -299.161 1609
-281.272 -299.161 1609
-277.425 -299.161 1609
-273.237 -298.789 1607
-269.226 -298.603 1606
-265.386 -298.603 1606
-261.22 -298.231 1604
-256.903 -297.673 1601
-253.074 -297.673 1601
-249.246 -297.673 1601
-245.111 -297.302 1599
-241.136 -297.116 1598
-237.463 -297.302 1599
-233.932 -297.673 1601
-230.103 -297.673 1601
-226.699 -298.231 1604
-223.28 -298.789 1607
-219.71 -299.161 1609
-215.863 -299.161 1609
-212.411 -299.719 1612
-208.685 -299.905 1613
-205.336 -300.648 1617
-201.469 -300.648 1617
-197.725 -300.834 1618
-194.095 -301.206 1620
-190.221 -301.206 1620
-186.347 -301.206 1620
-182.473 -301.206 1620
-178.6 -301.206 1620
-175.049 -301.764 1623
-171.168 -301.764 1623
-167.287 -301.764 1623
-163.507 -301.95 1624
-160.016 -302.693 1628
-156.123 -302.693 1628
-152.324 -302.879 1629
-148.702 -303.437 1632
-144.799 -303.437 1632
-140.896 -303.437 1632
-136.994 -303.437 1632
-132.439 -301.95 1624
-245.829 -680.131 3658
-237.082 -680.131 3658
-228.334 -680.131 3658
-219.587 -680.131 3658
-210.378 -678.643 3650
-202.092 -680.131 3658
-193.345 -680.131 3658
-185.859 -684.779 3683
-178.206 -689.241 3707
-170.118 -692.402 3724
-161.212 -692.402 3724
-152.962 -695.377 3740
-145.327 -701.699 3774
-137.567 -708.206 3809
-128.458 -708.206 3809
-120.728 -716.387 3853
-111.515 -716.387 3853
-102.301 -716.387 3853
-92.8699 -714.714 3844
-83.6777 -714.714 3844
-74.1367 -711.367 3826
-65.4462 -716.387 3853
-56.2325 -716.387 3853
-47.4582 -723.08 3889
-38.5116 -729.774 3925
-29.1999 -731.633 3935
-19.7902 -731.633 3935
-10.4543 -736.839 3963
-0.97752 -736.839 3963
8.49921 -736.839 3963
17.8489 -731.633 3935
27.1271 -728.101 3916
36.156 -721.407 3880
45.4342 -721.407 3880
54.7125 -721.407 3880
63.9907 -721.407 3880
73.099 -719.734 3871
82.3558 -719.734 3871
91.6125 -719.734 3871
100.869 -719.734 3871
111.662 -729.774 3925
122.22 -736.839 3963
132.328 -740.372 3982
141.85 -740.372 3982
152.095 -743.905 4001
161.662 -743.905 4001
171.23 -743.905 4001
179.939 -740.372 3982
188.081 -734.98 3953
193.437 -719.734 3871
202.693 -719.734 3871
211.457 -718.06 3862
219.664 -714.714 3844
263.879 -686.266 3691
272.705 -686.266 3691
281.531 -686.266 3691
289.728 -684.779 3683
297.887 -683.292 3675
308.678 -687.754 3699
317.523 -687.754 3699
327.074 -689.241 3707
335.939 -689.241 3707
344.803 -689.241 3707
353.668 -689.241 3707
362.533 -689.241 3707
371.397 -689.241 3707
381.185 -690.915 3716
390.071 -690.915 3716
400.675 -693.889 3732
411.465 -697.05 3749
420.43 -697.05 3749
429.395 -697.05 3749
438.36 -697.05 3749
447.325 -697.05 3749
457.264 -698.538 3757
468.358 -701.699 3774
477.382 -701.699 3774
489.758 -706.533 3800
501.208 -709.879 3818
510.338 -709.879 3818
519.468 -709.879 3818
533.444 -716.387 3853
542.657 -716.387 3853
551.871 -716.387 3853
554.677 -708.206 3809
1788.37 -760.266 4089
1798.15 -760.266 4089
1807.93 -760.266 4089
1817.71 -760.266 4089
1827.48 -760.266 4089
1828.28 -756.548 4069
1838.01 -756.548 4069
1847.74 -756.548 4069
1843.77 -750.97 4039
1835.99 -743.905 4001
1845.56 -743.905 4001
1846.32 -740.372 3982
1833.94 -731.633 3935
1826.01 -724.754 3898
1822.62 -719.734 3871
1831.88 -719.734 3871
1824.01 -713.04 3835
-689.02 -332.38 1811
-684.689 -332.38 1811
-680.359 -332.38 1811
-675.281 -332.013 1809
-669.472 -331.279 1805
-664.05 -330.729 1802
-659.741 -330.729 1802
-650.34 -328.159 1788
-644.619 -327.425 1784
-638.558 -326.507 1779
-634.304 -326.507 1779
-629.341 -326.14 1777
-622.278 -324.672 1769
-616.65 -323.938 1765
-611.389 -323.387 1762
-607.175 -323.387 1762
-600.224 -321.919 1754
-593.651 -320.634 1747
-585.762 -318.615 1736
-581.611 -318.615 1736
-576.129 -317.881 1732
-569.675 -316.596 1725
-564.894 -316.229 1723
-560.774 -316.229 1723
-554.393 -314.945 1716
-549.327 -314.394 1713
-543.958 -313.66 1709
-539.871 -313.66 1709
-534.844 -313.109 1706
-529.208 -312.192 1701
-523.906 -311.457 1697
-519.848 -311.457 1697
-514.878 -310.907 1694
-508.716 -309.622 1687
-503.486 -308.888 1683
-499.164 -308.704 1682
-495.142 -308.704 1682
-490.536 -308.337 1680
-485.65 -307.787 1677
-479.629 -306.502 1670
-475.636 -306.502 1670
-470.795 -305.951 1667
-464.848 -304.667 1660
-460.324 -304.3 1658
-456.359 -304.3 1658
-450.211 -302.831 1650
-445.725 -302.464 1648
-440.711 -301.73 1644
-436.78 -301.73 1644
-432.849 -301.73 1644
-427.874 -300.996 1640
-422.918 -300.262 1636
-419.006 -300.262 1636
-414.586 -299.895 1634
-409.925 -299.344 1631
-405.278 -298.794 1628
-400.399 -298.059 1624
-396.515 -298.059 1624
-391.906 -297.509 1621
-387.791 -297.325 1620
-383.917 -297.325 1620
-380.043 -297.325 1620
-375.705 -296.958 1618
-371.835 -296.958 1618
-367.739 -296.775 1617
-363.872 -296.775 1617
-360.005 -296.775 1617
-356.359 -296.958 1618
-352.49 -296.958 1618
-348.621 -296.958 1618
-344.752 -296.958 1618
-340.882 -296.958 1618
-336.805 -296.775 1617
-332.938 -296.775 1617
-329.072 -296.775 1617
-325.205 -296.775 1617
-321.338 -296.775 1617
-317.471 -296.775 1617
-313.217 -296.408 1615
-308.972 -296.041 1613
-305.114 -296.041 1613
-301.257 -296.041 1613
-297.216 -295.857 1612
-292.997 -295.49 1610
-289.147 -295.49 1610
-285.297 -295.49 1610
-281.272 -295.306 1609
-277.425 -295.306 1609
-273.237 -294.939 1607
-269.226 -294.756 1606
-265.386 -294.756 1606
-261.22 -294.389 1604
-257.224 -294.205 1603
-253.074 -293.838 1601
-249.246 -293.838 1601
-245.417 -293.838 1601
-241.287 -293.471 1599
-237.463 -293.471 1599
-233.932 -293.838 1601
-230.103 -293.838 1601
-226.699 -294.389 1604
-223.28 -294.939 1607
-219.71 -295.306 1609
-215.863 -295.306 1609
-212.147 -295.49 1610
-208.685 -296.041 1613
-205.336 -296.775 1617
-201.469 -296.775 1617
-197.725 -296.958 1618
-194.095 -297.325 1620
-190.221 -297.325 1620
-186.347 -297.325 1620
-182.473 -297.325 1620
-178.6 -297.325 1620
-175.049 -297.876 1623
-171.168 -297.876 1623
-167.287 -297.876 1623
-163.406 -297.876 1623
-159.623 -298.059 1624
-155.74 -298.059 1624
-152.324 -298.977 1629
-148.428 -298.977 1629
-144.71 -299.344 1631
-140.81 -299.344 1631
-136.91 -299.344 1631
-132.439 -298.059 1624
-254.02 -669.9 3650
-245.291 -669.9 3650
-236.563 -669.9 3650
-227.835 -669.9 3650
-219.107 -669.9 3650
-210.84 -671.368 3658
-203.031 -674.488 3675
-194.243 -674.488 3675
-186.263 -677.425 3691
-179.023 -683.481 3724
-170.849 -686.418 3740
-161.905 -686.418 3740
-153.33 -688.07 3749
-146.02 -695.961 3792
-138.506 -703.853 3835
-129.335 -703.853 3835
-121.292 -710.461 3871
-112.036 -710.461 3871
-102.779 -710.461 3871
-93.0873 -707.157 3853
-83.8736 -707.157 3853
-74.6599 -707.157 3853
-65.5991 -708.809 3862
-56.3639 -708.809 3862
-47.568 -715.416 3898
-38.6097 -722.207 3935
-29.4077 -727.346 3963
-19.931 -727.346 3963
-10.4543 -727.346 3963
-0.97752 -727.346 3963
8.49921 -727.346 3963
17.9759 -727.346 3963
27.1271 -718.72 3916
36.2398 -713.764 3889
45.5396 -713.764 3889
54.8394 -713.764 3889
64.1392 -713.764 3889
73.439 -713.764 3889
82.7387 -713.764 3889
92.0385 -713.764 3889
101.338 -713.764 3889
111.662 -720.372 3925
122.498 -728.998 3972
132.328 -730.833 3982
141.85 -730.833 3982
152.437 -735.972 4010
162.026 -735.972 4010
171.615 -735.972 4010
179.939 -730.833 3982
188.081 -725.51 3953
195.236 -717.068 3907
204.578 -717.068 3907
211.95 -710.461 3871
221.207 -710.461 3871
263.879 -677.425 3691
272.705 -677.425 3691
281.531 -677.425 3691
289.728 -675.956 3683
297.887 -674.488 3675
308.01 -677.425 3691
316.836 -677.425 3691
327.868 -682.013 3716
336.755 -682.013 3716
345.641 -682.013 3716
354.527 -682.013 3716
362.533 -680.361 3707
372.299 -682.013 3716
381.185 -682.013 3716
390.071 -682.013 3716
400.675 -684.949 3732
411.465 -688.07 3749
420.43 -688.07 3749
429.395 -688.07 3749
438.36 -688.07 3749
447.325 -688.07 3749
457.264 -689.538 3757
469.474 -694.31 3783
478.521 -694.31 3783
490.918 -699.082 3809
501.208 -700.733 3818
510.338 -700.733 3818
519.468 -700.733 3818
533.444 -707.157 3853
542.657 -707.157 3853
551.871 -707.157 3853
555.988 -700.733 3818
565.118 -700.733 3818
574.248 -700.733 3818
583.378 -700.733 3818
1788.37 -750.471 4089
1798.15 -750.471 4089
1807.93 -750.471 4089
1813.26 -748.636 4079
1809.61 -743.13 4049
1819.29 -743.13 4049
1828.97 -743.13 4049
1838.65 -743.13 4049
1839.66 -739.643 4030
1827.27 -730.833 3982
1836.8 -730.833 3982
1846.32 -730.833 3982
1829.28 -720.372 3925
1813.37 -710.461 3871
1805.67 -703.853 3835
1814.84 -703.853 3835
1819.73 -702.202 3826
-689.02 -328.042 1811
-684.689 -328.042 1811
-680.359 -328.042 1811
-675.281 -327.68 1809
-669.472 -326.955 1805
-663.313 -326.05 1800
-659.009 -326.05 1800
-650.34 -323.876 1788
-643.174 -322.427 1780
-637.84 -321.883 1777
-633.591 -321.883 1777
-628.633 -321.521 1775
-621.574 -320.072 1767
-615.951 -319.347 1763
-610.001 -318.442 1758
-605.797 -318.442 1758
-599.197 -317.174 1751
-592.971 -316.087 1745
-585.762 -314.457 1736
-581.611 -314.457 1736
-575.796 -313.551 1731
-569.675 -312.464 1725
-564.894 -312.102 1723
-560.774 -312.102 1723
-554.393 -310.834 1716
-549.327 -310.29 1713
-543.958 -309.566 1709
-539.871 -309.566 1709
-534.844 -309.023 1706
-529.208 -308.117 1701
-523.906 -307.392 1697
-519.848 -307.392 1697
-514.878 -306.849 1694
-509.319 -305.943 1689
-503.486 -304.856 1683
-499.164 -304.675 1682
-495.142 -304.675 1682
-490.536 -304.313 1680
-485.65 -303.77 1677
-479.629 -302.502 1670
-475.636 -302.502 1670
-470.795 -301.958 1667
-465.408 -301.052 1662
-460.879 -300.69 1660
-456.909 -300.69 1660
-450.211 -298.879 1650
-445.725 -298.516 1648
-440.979 -297.973 1645
-437.046 -297.973 1645
-432.849 -297.792 1644
-428.396 -297.43 1642
-423.177 -296.524 1637
-419.262 -296.524 1637
-415.094 -296.343 1636
-410.176 -295.618 1632
-405.278 -294.894 1628
-400.892 -294.531 1626
-397.003 -294.531 1626
-392.39 -293.988 1623
-388.03 -293.626 1621
-383.917 -293.445 1620
-380.043 -293.445 1620
-376.169 -293.445 1620
-371.835 -293.082 1618
-367.966 -293.082 1618
-364.097 -293.082 1618
-360.228 -293.082 1618
-356.359 -293.082 1618
-352.49 -293.082 1618
-348.621 -293.082 1618
-344.752 -293.082 1618
-340.882 -293.082 1618
-337.013 -293.082 1618
-333.144 -293.082 1618
-329.275 -293.082 1618
-325.406 -293.082 1618
-321.338 -292.901 1617
-317.471 -292.901 1617
-313.605 -292.901 1617
-309.355 -292.539 1615
-305.114 -292.177 1613
-301.257 -292.177 1613
-297.4 -292.177 1613
-293.361 -291.995 1612
-289.147 -291.633 1610
-285.297 -291.633 1610
-281.447 -291.633 1610
-277.597 -291.633 1610
-273.577 -291.452 1609
-269.394 -291.09 1607
-265.551 -291.09 1607
-261.546 -290.909 1606
-257.384 -290.546 1604
-253.074 -290.003 1601
-249.246 -290.003 1601
-245.417 -290.003 1601
-241.287 -289.641 1599
-237.76 -290.003 1601
-233.932 -290.003 1601
-230.103 -290.003 1601
-226.699 -290.546 1604
-223.141 -290.909 1606
-219.71 -291.452 1609
-215.863 -291.452 1609
-212.147 -291.633 1610
-208.685 -292.177 1613
-205.336 -292.901 1617
-201.469 -292.901 1617
-197.602 -292.901 1617
-194.095 -293.445 1620
-190.221 -293.445 1620
-186.347 -293.445 1620
-182.473 -293.445 1620
-178.6 -293.445 1620
-174.726 -293.445 1620
-170.852 -293.445 1620
-167.081 -293.626 1621
-163.406 -293.988 1623
-159.525 -293.988 1623
-155.644 -293.988 1623
-152.043 -294.531 1626
-148.428 -295.075 1629
-144.533 -295.075 1629
-140.637 -295.075 1629
-136.322 -294.169 1624
-132.357 -293.988 1623
-254.02 -661.156 3650
-245.291 -661.156 3650
-237.082 -662.605 3658
-228.334 -662.605 3658
-219.587 -662.605 3658
-211.819 -665.685 3675
-203.031 -665.685 3675
-194.243 -665.685 3675
-187.07 -671.481 3707
-179.407 -676.009 3732
-172.036 -682.168 3766
-163.031 -682.168 3766
-154.72 -685.247 3783
-146.02 -686.878 3792
-138.506 -694.667 3835
-129.335 -694.667 3835
-121.292 -701.188 3871
-112.036 -701.188 3871
-102.779 -701.188 3871
-93.0873 -697.927 3853
-83.8736 -697.927 3853
-74.8343 -699.557 3862
-65.752 -701.188 3871
-56.4952 -701.188 3871
-47.568 -706.078 3898
-38.6097 -712.781 3935
-29.4077 -717.852 3963
-19.931 -717.852 3963
-10.4543 -717.852 3963
-0.97752 -717.852 3963
8.49921 -717.852 3963
17.9759 -717.852 3963
27.1271 -709.339 3916
36.2398 -704.448 3889
45.645 -706.078 3898
54.9663 -706.078 3898
64.2876 -706.078 3898
73.9488 -709.339 3916
83.3132 -709.339 3916
92.6775 -709.339 3916
102.042 -709.339 3916
111.662 -710.969 3925
122.498 -719.483 3972
132.328 -721.294 3982
141.85 -721.294 3982
152.437 -726.366 4010
162.026 -726.366 4010
171.615 -726.366 4010
179.939 -721.294 3982
188.081 -716.041 3953
195.236 -707.709 3907
204.578 -707.709 3907
213.921 -707.709 3907
223.264 -707.709 3907
256.158 -671.481 3707
265.022 -671.481 3707
273.887 -671.481 3707
281.531 -668.583 3691
289.728 -667.134 3683
297.887 -665.685 3675
308.01 -668.583 3691
316.836 -668.583 3691
327.868 -673.111 3716
336.755 -673.111 3716
345.641 -673.111 3716
354.527 -673.111 3716
362.533 -671.481 3707
372.299 -673.111 3716
381.185 -673.111 3716
390.071 -673.111 3716
400.675 -676.009 3732
411.465 -679.089 3749
420.43 -679.089 3749
429.395 -679.089 3749
439.295 -680.538 3757
448.28 -680.538 3757
457.264 -680.538 3757
469.474 -685.247 3783
480.671 -688.327 3800
490.918 -689.957 3809
502.258 -693.036 3826
511.407 -693.036 3826
520.556 -693.036 3826
533.444 -697.927 3853
542.657 -697.927 3853
551.871 -697.927 3853
555.988 -691.587 3818
565.118 -691.587 3818
574.248 -691.587 3818
583.378 -691.587 3818
591.111 -689.957 3809
600.22 -689.957 3809
1788.37 -740.676 4089
1798.15 -740.676 4089
1807.93 -740.676 4089
1813.26 -738.865 4079
1809.61 -733.43 4049
1819.29 -733.43 4049
1828.97 -733.43 4049
1838.65 -733.43 4049
1839.66 -729.989 4030
1831.4 -722.924 3991
1840.95 -722.924 3991
1846.32 -721.294 3982
1829.28 -710.969 3925
1813.37 -701.188 3871
1805.67 -694.667 3835
1814.84 -694.667 3835
1819.73 -693.036 3826
3110.56 -738.865 4079
3120.31 -738.865 4079
-689.02 -323.704 1811
-684.689 -323.704 1811
-680.359 -323.704 1811
-675.281 -323.346 1809
-669.472 -322.631 1805
-663.313 -321.738 1800
-659.009 -321.738 1800
-650.34 -319.593 1788
-643.174 -318.163 1780
-637.84 -317.627 1777
-633.591 -317.627 1777
-628.633 -317.269 1775
-621.574 -315.839 1767
-615.951 -315.124 1763
-610.001 -314.23 1758
-605.797 -314.23 1758
-599.197 -312.979 1751
-592.971 -311.907 1745
-585.762 -310.298 1736
-581.611 -310.298 1736
-575.796 -309.404 1731
-569.675 -308.332 1725
-564.894 -307.974 1723
-560.774 -307.974 1723
-554.393 -306.723 1716
-549.327 -306.187 1713
-543.958 -305.472 1709
-539.871 -305.472 1709
-534.844 -304.936 1706
-529.208 -304.042 1701
-523.906 -303.327 1697
-519.848 -303.327 1697
-514.878 -302.791 1694
-509.319 -301.897 1689
-503.486 -300.825 1683
-499.164 -300.646 1682
-495.142 -300.646 1682
-490.536 -300.288 1680
-485.65 -299.752 1677
-479.629 -298.501 1670
-475.636 -298.501 1670
-470.795 -297.965 1667
-466.249 -297.607 1665
-461.434 -297.071 1662
-457.46 -297.071 1662
-450.757 -295.284 1652
-446.265 -294.926 1650
-441.516 -294.39 1647
-437.577 -294.39 1647
-433.112 -294.032 1645
-428.917 -293.854 1644
-423.694 -292.96 1639
-419.774 -292.96 1639
-415.094 -292.424 1636
-410.176 -291.709 1632
-405.527 -291.173 1629
-401.385 -290.994 1628
-397.492 -290.994 1628
-392.632 -290.279 1624
-388.03 -289.743 1621
-384.154 -289.743 1621
-380.277 -289.743 1621
-376.169 -289.564 1620
-372.295 -289.564 1620
-367.966 -289.206 1618
-364.097 -289.206 1618
-360.228 -289.206 1618
-356.359 -289.206 1618
-352.926 -289.564 1620
-349.052 -289.564 1620
-345.178 -289.564 1620
-341.304 -289.564 1620
-337.43 -289.564 1620
-333.556 -289.564 1620
-329.275 -289.206 1618
-325.406 -289.206 1618
-321.537 -289.206 1618
-317.668 -289.206 1618
-313.605 -289.028 1617
-309.355 -288.67 1615
-305.493 -288.67 1615
-301.631 -288.67 1615
-297.4 -288.313 1613
-293.543 -288.313 1613
-289.506 -288.134 1612
-285.651 -288.134 1612
-281.797 -288.134 1612
-277.597 -287.776 1610
-273.747 -287.776 1610
-269.729 -287.598 1609
-265.882 -287.598 1609
-261.708 -287.24 1607
-257.384 -286.704 1604
-253.39 -286.525 1603
-249.557 -286.525 1603
-245.417 -286.168 1601
-241.589 -286.168 1601
-237.76 -286.168 1601
-234.224 -286.525 1603
-230.391 -286.525 1603
-226.699 -286.704 1604
-223.141 -287.061 1606
-219.71 -287.598 1609
-215.863 -287.598 1609
-212.147 -287.776 1610
-208.685 -288.313 1613
-205.336 -289.028 1617
-201.469 -289.028 1617
-197.602 -289.028 1617
-194.095 -289.564 1620
-190.221 -289.564 1620
-186.347 -289.564 1620
-182.473 -289.564 1620
-178.6 -289.564 1620
-174.726 -289.564 1620
-170.852 -289.564 1620
-167.081 -289.743 1621
-163.406 -290.1 1623
-159.525 -290.1 1623
-155.644 -290.1 1623
-152.043 -290.636 1626
-148.428 -291.173 1629
-144.533 -291.173 1629
-140.637 -291.173 1629
-136.322 -290.279 1624
-132.357 -290.1 1623
-254.02 -652.412 3650
-245.291 -652.412 3650
-237.082 -653.842 3658
-228.334 -653.842 3658
-219.587 -653.842 3658
-211.819 -656.881 3675
-203.915 -659.741 3691
-195.089 -659.741 3691
-187.928 -665.639 3724
-180.225 -670.108 3749
-172.813 -676.185 3783
-163.767 -676.185 3783
-155.088 -677.794 3792
-147.022 -682.441 3818
-138.506 -685.48 3835
-129.335 -685.48 3835
-121.292 -691.915 3871
-112.036 -691.915 3871
-102.779 -691.915 3871
-93.0873 -688.697 3853
-83.8736 -688.697 3853
-75.0087 -691.915 3871
-66.2106 -696.741 3898
-56.8893 -696.741 3898
-47.7876 -699.958 3916
-38.6097 -703.354 3935
-29.4077 -708.359 3963
-19.931 -708.359 3963
-10.4543 -708.359 3963
-0.97752 -708.359 3963
8.49921 -708.359 3963
17.9759 -708.359 3963
27.1271 -699.958 3916
36.4076 -698.349 3907
45.8558 -699.958 3916
55.2201 -699.958 3916
64.5845 -699.958 3916
73.9488 -699.958 3916
83.3132 -699.958 3916
92.6775 -699.958 3916
102.042 -699.958 3916
111.662 -701.567 3925
122.498 -709.968 3972
132.328 -711.755 3982
141.85 -711.755 3982
152.437 -716.76 4010
162.026 -716.76 4010
171.615 -716.76 4010
179.939 -711.755 3982
188.081 -706.572 3953
195.236 -698.349 3907
204.578 -698.349 3907
213.921 -698.349 3907
223.264 -698.349 3907
256.158 -662.601 3707
265.022 -662.601 3707
273.887 -662.601 3707
281.531 -659.741 3691
289.728 -658.311 3683
297.238 -655.451 3667
308.01 -659.741 3691
316.836 -659.741 3691
327.868 -664.209 3716
336.755 -664.209 3716
345.641 -664.209 3716
354.527 -664.209 3716
362.533 -662.601 3707
372.299 -664.209 3716
381.185 -664.209 3716
390.071 -664.209 3716
400.675 -667.069 3732
411.465 -670.108 3749
420.43 -670.108 3749
429.395 -670.108 3749
439.295 -671.538 3757
448.28 -671.538 3757
457.264 -671.538 3757
469.474 -676.185 3783
481.81 -680.833 3809
490.918 -680.833 3809
502.258 -683.871 3826
511.407 -683.871 3826
520.556 -683.871 3826
527.352 -680.833 3809
536.46 -680.833 3809
546.858 -682.441 3818
555.988 -682.441 3818
570.298 -688.697 3853
579.512 -688.697 3853
588.726 -688.697 3853
592.508 -682.441 3818
600.22 -680.833 3809
606.609 -677.794 3792
615.677 -677.794 3792
621.779 -674.577 3774
630.804 -674.577 3774
671.871 -708.359 3963
681.347 -708.359 3963
690.824 -708.359 3963
700.301 -708.359 3963
1784 -729.093 4079
1793.75 -729.093 4079
1803.51 -729.093 4079
1808.82 -727.306 4069
1809.61 -723.731 4049
1819.29 -723.731 4049
1828.97 -723.731 4049
1838.65 -723.731 4049
1835.1 -718.547 4020
1831.4 -713.364 3991
1840.95 -713.364 3991
1846.32 -711.755 3982
3110.56 -729.093 4079
3120.31 -729.093 4079
-689.02 -319.366 1811
-684.689 -319.366 1811
-680.359 -319.366 1811
-674.535 -318.66 1807
-669.101 -318.131 1804
-662.576 -317.073 1798
-658.277 -317.073 1798
-650.34 -315.31 1788
-642.089 -313.37 1777
-637.122 -313.017 1775
-632.878 -313.017 1775
-627.216 -312.312 1771
-620.871 -311.254 1765
-615.602 -310.725 1762
-609.307 -309.666 1756
-605.108 -309.666 1756
-599.197 -308.785 1751
-592.971 -307.727 1745
-585.762 -306.139 1736
-581.611 -306.139 1736
-575.796 -305.258 1731
-569.675 -304.2 1725
-564.894 -303.847 1723
-560.774 -303.847 1723
-554.393 -302.613 1716
-549.327 -302.083 1713
-543.958 -301.378 1709
-539.871 -301.378 1709
-534.844 -300.849 1706
-529.208 -299.967 1701
-523.906 -299.262 1697
-519.848 -299.262 1697
-514.878 -298.733 1694
-509.319 -297.851 1689
-503.486 -296.793 1683
-499.164 -296.617 1682
-495.142 -296.617 1682
-490.536 -296.264 1680
-485.65 -295.735 1677
-479.629 -294.501 1670
-475.636 -294.501 1670
-470.795 -293.971 1667
-466.249 -293.619 1665
-461.434 -293.09 1662
-457.46 -293.09 1662
-450.757 -291.326 1652
-446.265 -290.974 1650
-441.516 -290.445 1647
-437.577 -290.445 1647
-433.112 -290.092 1645
-428.917 -289.915 1644
-423.694 -289.034 1639
-419.774 -289.034 1639
-415.094 -288.505 1636
-410.176 -287.799 1632
-405.527 -287.27 1629
-401.385 -287.094 1628
-397.492 -287.094 1628
-392.632 -286.389 1624
-388.03 -285.859 1621
-384.154 -285.859 1621
-380.277 -285.859 1621
-376.169 -285.683 1620
-372.295 -285.683 1620
-367.966 -285.33 1618
-364.097 -285.33 1618
-360.228 -285.33 1618
-356.359 -285.33 1618
-352.926 -285.683 1620
-349.052 -285.683 1620
-345.178 -285.683 1620
-341.304 -285.683 1620
-337.43 -285.683 1620
-333.556 -285.683 1620
-329.275 -285.33 1618
-325.406 -285.33 1618
-321.537 -285.33 1618
-317.668 -285.33 1618
-313.605 -285.154 1617
-309.355 -284.801 1615
-305.493 -284.801 1615
-301.631 -284.801 1615
-297.4 -284.449 1613
-293.543 -284.449 1613
-289.506 -284.272 1612
-285.651 -284.272 1612
-281.797 -284.272 1612
-277.597 -283.92 1610
-273.747 -283.92 1610
-269.729 -283.743 1609
-265.882 -283.743 1609
-261.708 -283.391 1607
-257.384 -282.862 1604
-253.39 -282.685 1603
-249.557 -282.685 1603
-245.417 -282.333 1601
-241.589 -282.333 1601
-237.76 -282.333 1601
-234.224 -282.685 1603
-230.391 -282.685 1603
-226.699 -282.862 1604
-223.141 -283.214 1606
-219.71 -283.743 1609
-215.863 -283.743 1609
-212.147 -283.92 1610
-208.685 -284.449 1613
-205.082 -284.801 1615
-201.22 -284.801 1615
-197.602 -285.154 1617
-194.095 -285.683 1620
-190.221 -285.683 1620
-186.347 -285.683 1620
-182.473 -285.683 1620
-178.6 -285.683 1620
-174.726 -285.683 1620
-170.852 -285.683 1620
-166.978 -285.683 1620
-163.104 -285.683 1620
-159.525 -286.212 1623
-155.644 -286.212 1623
-151.856 -286.389 1624
-147.973 -286.389 1624
-144.089 -286.389 1624
-140.206 -286.389 1624
-136.322 -286.389 1624
-132.357 -286.212 1623
-254.02 -643.669 3650
-245.291 -643.669 3650
-237.082 -645.08 3658
-228.334 -645.08 3658
-219.587 -645.08 3658
-211.819 -648.078 3675
-203.915 -650.899 3691
-195.089 -650.899 3691
-187.928 -656.719 3724
-180.225 -661.127 3749
-172.813 -667.123 3783
-163.767 -667.123 3783
-155.088 -668.71 3792
-147.022 -673.295 3818
-138.506 -676.293 3835
-129.335 -676.293 3835
-121.292 -682.642 3871
-112.036 -682.642 3871
-102.779 -682.642 3871
-93.0873 -679.467 3853
-83.8736 -679.467 3853
-75.0087 -682.642 3871
-66.2106 -687.403 3898
-56.8893 -687.403 3898
-47.7876 -690.577 3916
-38.6097 -693.928 3935
-29.4077 -698.866 3963
-19.931 -698.866 3963
-10.4543 -698.866 3963
-0.97752 -698.866 3963
8.49921 -698.866 3963
17.9759 -698.866 3963
27.1271 -690.577 3916
36.4076 -688.99 3907
45.8558 -690.577 3916
55.2201 -690.577 3916
64.5845 -690.577 3916
73.9488 -690.577 3916
83.3132 -690.577 3916
92.6775 -690.577 3916
102.042 -690.577 3916
111.662 -692.164 3925
122.22 -698.866 3963
131.996 -700.453 3972
141.494 -700.453 3972
151.715 -703.803 3991
161.258 -703.803 3991
170.802 -703.803 3991
179.939 -702.216 3982
188.081 -697.102 3953
195.236 -688.99 3907
204.578 -688.99 3907
213.921 -688.99 3907
223.264 -688.99 3907
256.158 -653.721 3707
265.022 -653.721 3707
273.887 -653.721 3707
281.531 -650.899 3691
289.728 -649.488 3683
296.509 -645.08 3658
306.675 -648.078 3675
315.463 -648.078 3675
327.868 -655.308 3716
336.755 -655.308 3716
345.641 -655.308 3716
354.527 -655.308 3716
362.533 -653.721 3707
372.299 -655.308 3716
381.185 -655.308 3716
390.071 -655.308 3716
400.675 -658.129 3732
411.465 -661.127 3749
420.43 -661.127 3749
429.395 -661.127 3749
439.295 -662.538 3757
448.28 -662.538 3757
457.264 -662.538 3757
466.248 -662.538 3757
481.81 -671.708 3809
490.918 -671.708 3809
502.258 -674.706 3826
511.407 -674.706 3826
520.556 -674.706 3826
527.352 -671.708 3809
535.193 -670.121 3800
546.858 -673.295 3818
555.988 -673.295 3818
570.298 -679.467 3853
579.512 -679.467 3853
588.726 -679.467 3853
592.508 -673.295 3818
600.22 -671.708 3809
606.609 -668.71 3792
615.677 -668.71 3792
621.779 -665.536 3774
630.804 -665.536 3774
671.871 -698.866 3963
681.347 -698.866 3963
690.824 -698.866 3963
700.301 -698.866 3963
1789.36 -717.558 4069
1799.09 -717.558 4069
1808.82 -717.558 4069
1809.61 -714.032 4049
1819.29 -714.032 4049
1828.97 -714.032 4049
1838.65 -714.032 4049
1848.34 -714.032 4049
1858.02 -714.032 4049
1867.7 -714.032 4049
3110.56 -719.322 4079
3120.31 -719.322 4079
-686.357 -313.81 1804
-682.043 -313.81 1804
-677.729 -313.81 1804
-673.415 -313.81 1804
-666.876 -312.766 1798
-658.891 -311.026 1788
-654.615 -311.026 1788
-646.339 -309.113 1777
-641.367 -308.765 1775
-635.687 -308.069 1771
-631.451 -308.069 1771
-624.029 -306.504 1762
-619.816 -306.504 1762
-613.506 -305.46 1756
-609.307 -305.46 1756
-605.108 -305.46 1756
-599.197 -304.59 1751
-592.971 -303.546 1745
-585.762 -301.981 1736
-581.611 -301.981 1736
-575.796 -301.111 1731
-569.675 -300.067 1725
-564.894 -299.719 1723
-560.774 -299.719 1723
-554.393 -298.502 1716
-549.327 -297.98 1713
-543.958 -297.284 1709
-539.871 -297.284 1709
-534.844 -296.762 1706
-528.586 -295.545 1699
-522.98 -294.675 1694
-518.929 -294.675 1694
-514.27 -294.327 1692
-509.319 -293.805 1689
-503.486 -292.761 1683
-499.164 -292.587 1682
-495.142 -292.587 1682
-490.536 -292.24 1680
-485.65 -291.718 1677
-479.629 -290.5 1670
-475.636 -290.5 1670
-470.795 -289.978 1667
-466.249 -289.63 1665
-461.712 -289.282 1663
-457.735 -289.282 1663
-451.03 -287.543 1653
-446.806 -287.369 1652
-441.516 -286.499 1647
-437.577 -286.499 1647
-433.112 -286.151 1645
-428.917 -285.977 1644
-423.694 -285.108 1639
-419.774 -285.108 1639
-415.347 -284.76 1637
-410.679 -284.238 1634
-405.527 -283.368 1629
-401.385 -283.194 1628
-397.492 -283.194 1628
-392.632 -282.498 1624
-388.509 -282.324 1623
-384.154 -281.976 1621
-380.277 -281.976 1621
-376.401 -281.976 1621
-372.295 -281.802 1620
-368.421 -281.802 1620
-364.547 -281.802 1620
-360.673 -281.802 1620
-356.799 -281.802 1620
-352.926 -281.802 1620
-349.052 -281.802 1620
-345.178 -281.802 1620
-341.304 -281.802 1620
-337.43 -281.802 1620
-333.556 -281.802 1620
-329.682 -281.802 1620
-325.406 -281.455 1618
-321.537 -281.455 1618
-317.668 -281.455 1618
-313.605 -281.281 1617
-309.355 -280.933 1615
-305.493 -280.933 1615
-301.631 -280.933 1615
-297.769 -280.933 1615
-293.543 -280.585 1613
-289.506 -280.411 1612
-285.651 -280.411 1612
-281.797 -280.411 1612
-277.942 -280.411 1612
-273.747 -280.063 1610
-269.729 -279.889 1609
-265.882 -279.889 1609
-261.708 -279.541 1607
-257.384 -279.019 1604
-253.39 -278.845 1603
-249.557 -278.845 1603
-245.724 -278.845 1603
-241.589 -278.497 1601
-238.057 -278.845 1603
-234.224 -278.845 1603
-230.391 -278.845 1603
-226.699 -279.019 1604
-223.141 -279.367 1606
-219.71 -279.889 1609
-215.863 -279.889 1609
-212.147 -280.063 1610
-208.685 -280.585 1613
-205.082 -280.933 1615
-201.22 -280.933 1615
-197.602 -281.281 1617
-194.095 -281.802 1620
-190.221 -281.802 1620
-186.347 -281.802 1620
-182.473 -281.802 1620
-178.6 -281.802 1620
-174.726 -281.802 1620
-170.852 -281.802 1620
-166.978 -281.802 1620
-163.104 -281.802 1620
-159.525 -282.324 1623
-155.644 -282.324 1623
-151.856 -282.498 1624
-147.973 -282.498 1624
-144.089 -282.498 1624
-140.206 -282.498 1624
-136.322 -282.498 1624
-132.439 -282.498 1624
-128.555 -282.498 1624
-124.672 -282.498 1624
-254.02 -634.925 3650
-245.829 -636.317 3658
-238.184 -639.274 3675
-229.395 -639.274 3675
-220.607 -639.274 3675
-213.203 -643.449 3699
-205.738 -647.798 3724
-196.833 -647.798 3724
-188.735 -650.581 3740
-181.859 -658.061 3783
-174.001 -662.584 3809
-164.892 -662.584 3809
-156.152 -664.149 3818
-147.022 -664.149 3818
-139.481 -671.803 3862
-130.246 -671.803 3862
-121.856 -676.5 3889
-112.557 -676.5 3889
-103.257 -676.5 3889
-93.3047 -671.803 3862
-84.0695 -671.803 3862
-75.3575 -676.5 3889
-66.2106 -678.065 3898
-56.8893 -678.065 3898
-47.7876 -681.196 3916
-38.6097 -684.502 3935
-29.4077 -689.372 3963
-19.931 -689.372 3963
-10.4543 -689.372 3963
-0.97752 -689.372 3963
8.49921 -689.372 3963
17.9759 -689.372 3963
27.1271 -681.196 3916
36.4076 -679.631 3907
45.9612 -682.762 3925
55.347 -682.762 3925
64.7329 -682.762 3925
74.1188 -682.762 3925
83.5046 -682.762 3925
92.8905 -682.762 3925
102.276 -682.762 3925
112.459 -687.633 3953
122.498 -690.938 3972
132.328 -692.677 3982
141.85 -692.677 3982
151.715 -694.243 3991
161.258 -694.243 3991
170.802 -694.243 3991
180.346 -694.243 3991
186.749 -682.762 3925
195.236 -679.631 3907
204.578 -679.631 3907
213.921 -679.631 3907
223.264 -679.631 3907
255.605 -643.449 3699
264.451 -643.449 3699
273.296 -643.449 3699
282.141 -643.449 3699
290.987 -643.449 3699
297.238 -637.882 3667
308.01 -642.057 3691
316.836 -642.057 3691
327.074 -644.841 3707
335.939 -644.841 3707
344.803 -644.841 3707
353.668 -644.841 3707
362.533 -644.841 3707
