-2457.33 -319.858 3749
-2470.57 -322.759 3783
-2461.53 -322.759 3783
-2480.36 -326.428 3826
-2494.46 -329.499 3862
-2485.22 -329.499 3862
-2475.99 -329.499 3862
-2449.51 -327.196 3835
-2434.61 -326.428 3826
-2425.46 -326.428 3826
-2389.16 -322.759 3783
-2380.11 -322.759 3783
-2371.06 -322.759 3783
-2362.02 -322.759 3783
-2336.8 -320.541 3757
-593.926 -143.079 1677
-589.915 -143.079 1677
-586.953 -143.335 1680
-582.936 -143.335 1680
-578.918 -143.335 1680
-573.19 -142.908 1675
-569.185 -142.908 1675
-565.179 -142.908 1675
-561.174 -142.908 1675
-556.17 -142.652 1672
-551.512 -142.482 1670
-546.535 -142.226 1667
-542.548 -142.226 1667
-534.685 -141.202 1655
-526.559 -140.093 1642
-520.722 -139.581 1636
-514.599 -138.983 1629
-510.703 -138.983 1629
-505.875 -138.728 1626
-499.517 -138.045 1618
-493.81 -137.533 1612
-489.955 -137.533 1612
-485.195 -137.277 1609
-478.954 -136.595 1601
-474.532 -136.424 1599
-470.709 -136.424 1599
-466.009 -136.168 1596
-460.165 -135.571 1589
-455.504 -135.315 1586
-451.711 -135.315 1586
-447.354 -135.144 1584
-442.726 -134.888 1581
-438.668 -134.803 1580
-434.889 -134.803 1580
-431.111 -134.803 1580
-427.333 -134.803 1580
-423.823 -134.888 1581
-420.042 -134.888 1581
-416.262 -134.888 1581
-412.481 -134.888 1581
-409.476 -135.144 1584
-406.2 -135.315 1586
-402.408 -135.315 1586
-398.615 -135.315 1586
-394.822 -135.315 1586
-391.276 -135.4 1587
-387.481 -135.4 1587
-383.686 -135.4 1587
-380.609 -135.656 1590
-377.992 -136.083 1595
-374.882 -136.339 1598
-371.06 -136.339 1598
-368.388 -136.765 1603
-365.237 -137.021 1606
-362.747 -137.533 1612
-358.892 -137.533 1612
-355.698 -137.789 1615
-352.49 -138.045 1618
-349.267 -138.301 1621
-345.391 -138.301 1621
-342.989 -138.898 1628
-339.304 -138.983 1629
-335.821 -139.154 1631
-331.921 -139.154 1631
-329.227 -139.666 1637
-325.909 -139.922 1640
-322.969 -140.349 1645
-319.035 -140.349 1645
-315.676 -140.605 1648
-313.059 -141.202 1655
-309.662 -141.458 1658
-305.697 -141.458 1658
-302.096 -141.628 1660
-298.665 -141.884 1663
-295.575 -142.311 1668
-291.586 -142.311 1668
-287.942 -142.482 1670
-284.459 -142.738 1673
-281.129 -143.079 1677
-277.118 -143.079 1677
-273.923 -143.505 1682
-270.061 -143.591 1683
-267.143 -144.188 1690
-263.102 -144.188 1690
-260.133 -144.785 1697
-256.679 -145.126 1701
-253.057 -145.382 1704
-248.982 -145.382 1704
-245.626 -145.809 1709
-242.387 -146.321 1715
-239.675 -147.174 1725
-235.55 -147.174 1725
-232.633 -147.942 1734
-230.199 -149.051 1747
-226.022 -149.051 1747
-221.844 -149.051 1747
-217.916 -149.222 1749
-214.589 -149.819 1756
-212.187 -151.099 1771
-207.952 -151.099 1771
-204.407 -151.611 1777
-200.946 -152.208 1784
-197.562 -152.89 1792
-193.277 -152.89 1792
-188.991 -152.89 1792
-364.361 -316.275 3707
-357.127 -317.725 3724
-348.222 -317.725 3724
-339.317 -317.725 3724
-328.903 -316.275 3707
-320.039 -316.275 3707
-311.174 -316.275 3707
-301.657 -315.592 3699
-293.445 -316.275 3707
-287.114 -319.09 3740
-278.84 -319.858 3749
-269.875 -319.858 3749
-260.91 -319.858 3749
-251.34 -319.09 3740
-242.396 -319.09 3740
-232.953 -318.408 3732
-223.549 -317.725 3724
-214.183 -317.043 3716
-205.296 -317.043 3716
-196.41 -317.043 3716
-187.07 -316.275 3707
-178.206 -316.275 3707
-169.341 -316.275 3707
-159.438 -314.227 3683
-150.63 -314.227 3683
-141.823 -314.227 3683
-133.305 -314.91 3691
-124.479 -314.91 3691
-116.154 -316.275 3707
-107.781 -317.725 3724
-98.8759 -317.725 3724
-89.9707 -317.725 3724
-81.0655 -317.725 3724
-72.0052 -317.043 3716
-63.2551 -317.725 3724
-54.3498 -317.725 3724
-45.4446 -317.725 3724
-36.5394 -317.725 3724
-27.6342 -317.725 3724
-18.729 -317.725 3724
-9.80268 -317.043 3716
-0.916594 -317.043 3716
7.98665 -317.725 3724
16.8919 -317.725 3724
25.7971 -317.725 3724
34.6277 -317.043 3716
43.5138 -317.043 3716
52.3999 -317.043 3716
61.286 -317.043 3716
70.0021 -316.275 3707
78.6965 -315.592 3699
87.5419 -315.592 3699
96.1789 -314.91 3691
105.005 -314.91 3691
113.585 -314.227 3683
122.392 -314.227 3683
131.199 -314.227 3683
139.702 -313.545 3675
148.167 -312.862 3667
156.936 -312.862 3667
165.298 -312.094 3658
174.045 -312.094 3658
183.243 -312.862 3667
192.011 -312.862 3667
200.78 -312.862 3667
209.549 -312.862 3667
217.782 -312.094 3658
226.53 -312.094 3658
235.277 -312.094 3658
244.025 -312.094 3658
253.394 -312.862 3667
262.163 -312.862 3667
270.932 -312.862 3667
279.701 -312.862 3667
288.469 -312.862 3667
297.238 -312.862 3667
306.007 -312.862 3667
314.776 -312.862 3667
323.545 -312.862 3667
331.498 -312.094 3658
340.246 -312.094 3658
348.993 -312.094 3658
357.741 -312.094 3658
366.488 -312.094 3658
375.235 -312.094 3658
383.983 -312.094 3658
391.871 -311.412 3650
400.599 -311.412 3650
411.234 -312.862 3667
420.003 -312.862 3667
429.707 -313.545 3675
438.495 -313.545 3675
448.257 -314.227 3683
457.064 -314.227 3683
465.872 -314.227 3683
475.71 -314.91 3691
484.536 -314.91 3691
495.501 -316.275 3707
504.366 -316.275 3707
514.476 -317.043 3716
526.742 -319.09 3740
538.121 -320.541 3757
547.105 -320.541 3757
557.421 -321.309 3766
566.427 -321.309 3766
575.432 -321.309 3766
1022.51 -338.116 3963
1036.93 -339.737 3982
1046.46 -339.737 3982
1055.98 -339.737 3982
1062.82 -338.884 3972
1064.76 -336.495 3944
1074.2 -336.495 3944
1073.46 -333.339 3907
1082.8 -333.339 3907
1105.01 -337.263 3953
1130.53 -342.126 4010
1140.12 -342.126 4010
1149.71 -342.126 4010
1156.69 -341.358 4001
1166.26 -341.358 4001
1175.83 -341.358 4001
1182.43 -340.505 3991
1191.98 -340.505 3991
1204.53 -341.358 4001
1214.1 -341.358 4001
1232.54 -343.833 4030
1244.95 -344.601 4039
1254.61 -344.601 4039
1264.26 -344.601 4039
1273.92 -344.601 4039
1296.29 -348.013 4079
1309.25 -348.866 4089
1319.03 -348.866 4089
1328.8 -348.866 4089
1419.61 -347.16 4069
1432.85 -348.013 4079
1442.6 -348.013 4079
1452.36 -348.013 4079
1451.36 -345.454 4049
1475.48 -348.866 4089
1485.25 -348.866 4089
1495.03 -348.866 4089
1837.26 -348.866 4089
1847.04 -348.866 4089
1856.82 -348.866 4089
1857.47 -347.16 4069
1867.2 -347.16 4069
1876.93 -347.16 4069
1877.38 -345.454 4049
1887.07 -345.454 4049
1883.16 -342.98 4020
1892.78 -342.98 4020
1884.41 -339.737 3982
1889.17 -338.884 3972
2324.42 -337.263 3953
2350.99 -339.737 3982
2383.04 -342.98 4020
2392.66 -342.98 4020
2413.62 -344.601 4039
2423.28 -344.601 4039
2432.94 -344.601 4039
2437.15 -343.833 4030
2440.72 -342.98 4020
2432.66 -340.505 3991
2442.2 -340.505 3991
2451.74 -340.505 3991
2461.29 -340.505 3991
2470.83 -340.505 3991
2474.78 -339.737 3982
2484.3 -339.737 3982
2487.56 -338.884 3972
2467.51 -334.874 3925
2476.9 -334.874 3925
2486.29 -334.874 3925
2478.5 -332.571 3898
2487.83 -332.571 3898
2479.85 -330.267 3871
2489.11 -330.267 3871
2475.13 -327.196 3835
2467.46 -324.977 3809
2459.66 -322.759 3783
2468.71 -322.759 3783
2483.65 -323.527 3792
2492.72 -323.527 3792
2507.06 -324.21 3800
2516.15 -324.21 3800
2525.24 -324.21 3800
2528.99 -323.527 3792
2538.05 -323.527 3792
2552.5 -324.21 3800
2561.58 -324.21 3800
2570.67 -324.21 3800
2579.76 -324.21 3800
2588.84 -324.21 3800
2592.46 -323.527 3792
2601.53 -323.527 3792
2610.6 -323.527 3792
2601.7 -321.309 3766
2610.71 -321.309 3766
2619.71 -321.309 3766
2628.72 -321.309 3766
2637.73 -321.309 3766
2652.35 -321.991 3774
2667.73 -322.759 3783
2676.77 -322.759 3783
2685.82 -322.759 3783
2694.86 -322.759 3783
2703.91 -322.759 3783
2706.5 -321.991 3774
2703.3 -320.541 3757
2694.23 -318.408 3732
2691.57 -317.043 3716
2700.45 -317.043 3716
2702.78 -316.275 3707
2724.08 -317.725 3724
2738.85 -318.408 3732
2753.67 -319.09 3740
2762.61 -319.09 3740
2778.22 -319.858 3749
2793.14 -320.541 3757
2802.12 -320.541 3757
2811.1 -320.541 3757
2801.32 -318.408 3732
2804.22 -317.725 3724
2813.13 -317.725 3724
2822.03 -317.725 3724
2830.94 -317.725 3724
2826.88 -316.275 3707
2835.75 -316.275 3707
-2397.42 -265.519 3202
-2389.76 -265.519 3202
-2382.1 -265.519 3202
-2374.45 -265.519 3202
-2385.27 -267.592 3227
-2386.39 -268.587 3239
-2378.65 -268.587 3239
-2389.93 -270.743 3265
-2382.12 -270.743 3265
-2374.32 -270.743 3265
-2366.51 -270.743 3265
-2368.09 -271.821 3278
-2383.3 -274.474 3310
-2384.71 -275.552 3323
-2376.76 -275.552 3323
-2393.05 -278.372 3357
-2399.24 -280.03 3377
-2406.03 -281.772 3398
-2397.9 -281.772 3398
-2404.55 -283.513 3419
-2396.37 -283.513 3419
-2388.2 -283.513 3419
-2380.02 -283.513 3419
-2371.84 -283.513 3419
-2403.07 -288.24 3476
-2419.56 -291.225 3512
-2411.17 -291.225 3512
-2408.24 -291.888 3520
-2399.82 -291.888 3520
-2411.11 -294.293 3549
-2402.62 -294.293 3549
-2415.05 -296.864 3580
-2416.57 -298.107 3595
-2407.97 -298.107 3595
-2410.05 -299.434 3611
-2427.36 -302.668 3650
-2445.8 -306.068 3691
-2436.97 -306.068 3691
-2438.67 -307.395 3707
-2446.19 -309.468 3732
-2470.57 -313.697 3783
-2461.53 -313.697 3783
-2480.36 -317.263 3826
-2500.27 -320.994 3871
-2491.02 -320.994 3871
-2481.76 -320.994 3871
-2466.75 -320.248 3862
-2429.52 -316.599 3818
-2420.39 -316.599 3818
-2394.84 -314.443 3792
-2385.77 -314.443 3792
-2376.7 -314.443 3792
-2367.64 -314.443 3792
-2358.57 -314.443 3792
-592.509 -138.73 1673
-588.508 -138.73 1673
-586.953 -139.31 1680
-582.936 -139.31 1680
-578.918 -139.31 1680
-573.19 -138.896 1675
-569.185 -138.896 1675
-565.179 -138.896 1675
-561.174 -138.896 1675
-555.505 -138.481 1670
-550.851 -138.315 1668
-545.879 -138.066 1665
-541.897 -138.066 1665
-534.685 -137.237 1655
-527.2 -136.325 1644
-520.722 -135.662 1636
-514.599 -135.081 1629
-510.703 -135.081 1629
-505.253 -134.667 1624
-499.517 -134.169 1618
-493.81 -133.672 1612
-489.955 -133.672 1612
-485.195 -133.423 1609
-478.954 -132.759 1601
-474.532 -132.594 1599
-470.709 -132.594 1599
-466.009 -132.345 1596
-460.165 -131.764 1589
-455.504 -131.516 1586
-451.711 -131.516 1586
-447.919 -131.516 1586
-442.726 -131.101 1581
-438.668 -131.018 1580
-434.339 -130.852 1578
-430.566 -130.852 1578
-426.792 -130.852 1578
-423.555 -131.018 1580
-420.042 -131.101 1581
-416.262 -131.101 1581
-412.481 -131.101 1581
-409.476 -131.35 1584
-405.688 -131.35 1584
-401.9 -131.35 1584
-398.112 -131.35 1584
-394.822 -131.516 1586
-391.276 -131.598 1587
-387.481 -131.598 1587
-383.686 -131.598 1587
-380.609 -131.847 1590
-377.992 -132.262 1595
-374.882 -132.511 1598
-371.06 -132.511 1598
-368.388 -132.925 1603
-365.237 -133.174 1606
-362.747 -133.672 1612
-358.892 -133.672 1612
-355.698 -133.92 1615
-352.49 -134.169 1618
-349.267 -134.418 1621
-345.391 -134.418 1621
-342.568 -134.832 1626
-339.096 -134.998 1628
-335.821 -135.247 1631
-331.921 -135.247 1631
-329.227 -135.745 1637
-325.909 -135.993 1640
-322.969 -136.408 1645
-319.035 -136.408 1645
-315.484 -136.574 1647
-313.059 -137.237 1655
-309.662 -137.486 1658
-305.697 -137.486 1658
-302.46 -137.818 1662
-298.665 -137.901 1663
-295.929 -138.481 1670
-291.936 -138.481 1670
-287.942 -138.481 1670
-284.459 -138.73 1673
-281.296 -139.144 1678
-277.284 -139.144 1678
-274.085 -139.559 1683
-270.061 -139.559 1683
-267.143 -140.139 1690
-263.102 -140.139 1690
-260.133 -140.72 1697
-256.679 -141.052 1701
-253.354 -141.466 1706
-249.274 -141.466 1706
-245.626 -141.715 1709
-242.387 -142.213 1715
-239.397 -142.876 1723
-235.277 -142.876 1723
-232.364 -143.622 1732
-229.409 -144.369 1741
-225.763 -144.7 1745
-221.59 -144.7 1745
-217.916 -145.032 1749
-214.833 -145.778 1758
-212.666 -147.188 1775
-208.421 -147.188 1775
-204.982 -147.768 1782
-201.847 -148.598 1792
-198.003 -148.929 1796
-193.708 -148.929 1796
-189.413 -148.929 1796
-353.962 -306.068 3691
-345.136 -306.068 3691
-336.31 -306.068 3691
-327.484 -306.068 3691
-318.657 -306.068 3691
-309.831 -306.068 3691
-301.005 -306.068 3691
-292.812 -306.731 3699
-286.5 -309.468 3732
-277.575 -309.468 3732
-268.651 -309.468 3732
-259.727 -309.468 3732
-250.802 -309.468 3732
-241.878 -309.468 3732
-232.454 -308.804 3724
-223.069 -308.141 3716
-214.183 -308.141 3716
-205.296 -308.141 3716
-195.935 -307.395 3707
-187.07 -307.395 3707
-177.821 -306.731 3699
-168.976 -306.731 3699
-159.784 -306.068 3691
-150.63 -305.405 3683
-141.823 -305.405 3683
-133.305 -306.068 3691
-124.479 -306.068 3691
-115.903 -306.731 3699
-107.55 -308.141 3716
-98.6635 -308.141 3716
-89.7774 -308.141 3716
-80.8913 -308.141 3716
-72.0052 -308.141 3716
-63.2551 -308.804 3724
-54.3498 -308.804 3724
-45.4446 -308.804 3724
-36.5394 -308.804 3724
-27.6342 -308.804 3724
-18.729 -308.804 3724
-9.80268 -308.141 3716
-0.916594 -308.141 3716
7.96949 -308.141 3716
16.8556 -308.141 3716
25.7417 -308.141 3716
34.6277 -308.141 3716
43.5138 -308.141 3716
52.3999 -308.141 3716
61.1376 -307.395 3707
69.851 -306.731 3699
78.5263 -306.068 3691
87.3526 -306.068 3691
96.1789 -306.068 3691
104.778 -305.405 3683
113.585 -305.405 3683
122.392 -305.405 3683
130.914 -304.741 3675
139.398 -304.078 3667
147.803 -303.332 3658
156.551 -303.332 3658
165.298 -303.332 3658
174.045 -303.332 3658
183.243 -304.078 3667
192.011 -304.078 3667
200.78 -304.078 3667
209.549 -304.078 3667
218.318 -304.078 3667
227.087 -304.078 3667
235.856 -304.078 3667
244.625 -304.078 3667
253.394 -304.078 3667
262.163 -304.078 3667
270.932 -304.078 3667
279.701 -304.078 3667
288.469 -304.078 3667
297.238 -304.078 3667
306.007 -304.078 3667
314.776 -304.078 3667
323.545 -304.078 3667
332.314 -304.078 3667
341.083 -304.078 3667
348.993 -303.332 3658
357.741 -303.332 3658
367.39 -304.078 3667
376.159 -304.078 3667
384.927 -304.078 3667
392.73 -303.332 3658
401.478 -303.332 3658
412.131 -304.741 3675
420.919 -304.741 3675
429.707 -304.741 3675
439.45 -305.405 3683
449.231 -306.068 3691
459.05 -306.731 3699
467.895 -306.731 3699
476.741 -306.731 3699
485.586 -306.731 3699
496.704 -308.141 3716
505.59 -308.141 3716
516.691 -309.468 3732
528.01 -310.878 3749
540.556 -312.951 3774
549.581 -312.951 3774
558.605 -312.951 3774
567.63 -312.951 3774
576.655 -312.951 3774
1036.93 -330.199 3982
1046.46 -330.199 3982
1055.98 -330.199 3982
1065.5 -330.199 3982
1062.33 -326.301 3935
1071.74 -326.301 3935
1063.57 -320.994 3871
1075.32 -321.74 3880
1105.01 -327.794 3953
1130.53 -332.52 4010
1140.12 -332.52 4010
1149.71 -332.52 4010
1159.3 -332.52 4010
1168.88 -332.52 4010
1178.47 -332.52 4010
1185.4 -331.774 4001
1194.96 -331.774 4001
1213.26 -334.179 4030
1222.9 -334.179 4030
1235.29 -334.925 4039
1254.19 -337.413 4069
1263.92 -337.413 4069
1273.65 -337.413 4069
1280.23 -336.584 4059
1296.29 -338.242 4079
1306.05 -338.242 4079
1315.8 -338.242 4079
1413.34 -338.242 4079
1423.1 -338.242 4079
1432.85 -338.242 4079
1439.07 -337.413 4069
1441.68 -335.754 4049
1451.36 -335.754 4049
1475.48 -339.071 4089
1485.25 -339.071 4089
1495.03 -339.071 4089
1504.81 -339.071 4089
1514.59 -339.071 4089
1524.37 -339.071 4089
1837.26 -339.071 4089
1847.04 -339.071 4089
1856.82 -339.071 4089
1857.47 -337.413 4069
1867.2 -337.413 4069
1876.93 -337.413 4069
1877.38 -335.754 4049
1887.07 -335.754 4049
1883.16 -333.35 4020
1892.78 -333.35 4020
1884.41 -330.199 3982
1880.14 -327.794 3953
2253.66 -321.74 3880
2273.44 -323.233 3898
2282.76 -323.233 3898
2324.42 -327.794 3953
2350.99 -330.199 3982
2371.78 -331.774 4001
2381.35 -331.774 4001
2402.27 -333.35 4020
2411.88 -333.35 4020
2421.49 -333.35 4020
2431.11 -333.35 4020
2423.11 -330.945 3991
2409.49 -327.794 3953
2436.69 -330.199 3982
2446.22 -330.199 3982
2455.74 -330.199 3982
2465.26 -330.199 3982
2456.76 -327.794 3953
2466.21 -327.794 3953
2470.03 -327.047 3944
2450.54 -323.233 3898
2442.82 -320.994 3871
2452.08 -320.994 3871
2438.45 -318.009 3835
2447.62 -318.009 3835
2451.02 -317.263 3826
2449.24 -315.853 3809
2458.35 -315.853 3809
2450.61 -313.697 3783
2453.81 -312.951 3774
2457.61 -312.287 3766
2466.62 -312.287 3766
2475.62 -312.287 3766
2501.78 -314.443 3792
2510.85 -314.443 3792
2519.92 -314.443 3792
2522.98 -313.697 3783
2532.03 -313.697 3783
2552.5 -315.107 3800
2561.58 -315.107 3800
2570.67 -315.107 3800
2579.76 -315.107 3800
2588.84 -315.107 3800
2592.46 -314.443 3792
2601.53 -314.443 3792
2610.6 -314.443 3792
2607.23 -312.951 3774
2616.25 -312.951 3774
2625.28 -312.951 3774
2634.3 -312.951 3774
2643.33 -312.951 3774
2652.35 -312.951 3774
2667.73 -313.697 3783
2676.77 -313.697 3783
2685.82 -313.697 3783
2694.86 -313.697 3783
2703.91 -313.697 3783
2706.5 -312.951 3774
2703.3 -311.541 3757
2700.01 -310.131 3740
2697.36 -308.804 3724
2706.27 -308.804 3724
2702.78 -307.395 3707
2724.08 -308.804 3724
2744.72 -310.131 3740
2760.29 -310.878 3749
2769.26 -310.878 3749
2778.22 -310.878 3749
2787.19 -310.878 3749
2796.15 -310.878 3749
2805.12 -310.878 3749
2795.32 -308.804 3724
2798.2 -308.141 3716
2807.09 -308.141 3716
2809.15 -307.395 3707
2818.02 -307.395 3707
2826.88 -307.395 3707
2835.75 -307.395 3707
-2444.59 -262.922 3265
-2436.78 -262.922 3265
-2423.76 -262.358 3258
-2392.98 -259.862 3227
-2394.14 -260.828 3239
-2405.55 -262.922 3265
-2397.74 -262.922 3265
-2403.84 -264.452 3284
-2395.99 -264.452 3284
-2388.13 -264.452 3284
-2366.51 -262.922 3265
-2368.09 -263.968 3278
-2383.3 -266.545 3310
-2384.71 -267.592 3323
-2376.76 -267.592 3323
-2393.05 -270.33 3357
-2399.24 -271.941 3377
-2406.03 -273.632 3398
-2397.9 -273.632 3398
-2404.55 -275.323 3419
-2396.37 -275.323 3419
-2388.2 -275.323 3419
-2380.02 -275.323 3419
-2371.84 -275.323 3419
-2403.07 -279.913 3476
-2419.56 -282.812 3512
-2411.17 -282.812 3512
-2408.24 -283.456 3520
-2399.82 -283.456 3520
-2416.54 -286.436 3557
-2408.04 -286.436 3557
-2415.05 -288.288 3580
-2416.57 -289.496 3595
-2407.97 -289.496 3595
-2410.05 -290.784 3611
-2427.36 -293.925 3650
-2445.8 -297.226 3691
-2436.97 -297.226 3691
-2438.67 -298.515 3707
-2446.19 -300.528 3732
-2470.57 -304.635 3783
-2461.53 -304.635 3783
-2480.36 -308.097 3826
-2500.27 -311.721 3871
-2491.02 -311.721 3871
-2481.76 -311.721 3871
-2472.5 -311.721 3871
-2451.79 -310.272 3853
-2448.28 -310.996 3862
-2439.05 -310.996 3862
-2429.81 -310.996 3862
-2393 -307.453 3818
-2383.87 -307.453 3818
-2374.74 -307.453 3818
-1335.79 -270.813 3363
-1327.75 -270.813 3363
-1319.71 -270.813 3363
-1309.33 -270.33 3357
-1301.3 -270.33 3357
-1290.58 -269.766 3350
-592.509 -134.722 1673
-588.508 -134.722 1673
-586.953 -135.286 1680
-582.936 -135.286 1680
-578.918 -135.286 1680
-573.19 -134.883 1675
-569.185 -134.883 1675
-565.179 -134.883 1675
-561.174 -134.883 1675
-555.505 -134.481 1670
-550.851 -134.319 1668
-545.879 -134.078 1665
-541.897 -134.078 1665
-534.685 -133.273 1655
-527.2 -132.387 1644
-520.722 -131.743 1636
-514.599 -131.179 1629
-510.703 -131.179 1629
-505.253 -130.776 1624
-499.517 -130.293 1618
-493.81 -129.81 1612
-489.955 -129.81 1612
-485.195 -129.568 1609
-478.954 -128.924 1601
-474.532 -128.763 1599
-470.709 -128.763 1599
-466.009 -128.522 1596
-460.165 -127.958 1589
-455.504 -127.716 1586
-451.711 -127.716 1586
-447.919 -127.716 1586
-442.726 -127.314 1581
-438.668 -127.233 1580
-434.339 -127.072 1578
-430.566 -127.072 1578
-426.792 -127.072 1578
-423.555 -127.233 1580
-420.042 -127.314 1581
-416.262 -127.314 1581
-412.481 -127.314 1581
-409.476 -127.555 1584
-405.688 -127.555 1584
-401.9 -127.555 1584
-398.112 -127.555 1584
-394.822 -127.716 1586
-391.276 -127.797 1587
-387.481 -127.797 1587
-383.686 -127.797 1587
-380.609 -128.038 1590
-377.992 -128.441 1595
-374.882 -128.683 1598
-371.06 -128.683 1598
-368.388 -129.085 1603
-365.237 -129.327 1606
-362.747 -129.81 1612
-358.892 -129.81 1612
-355.698 -130.052 1615
-352.49 -130.293 1618
-349.267 -130.535 1621
-345.391 -130.535 1621
-342.568 -130.937 1626
-339.096 -131.098 1628
-335.821 -131.34 1631
-331.921 -131.34 1631
-329.227 -131.823 1637
-325.909 -132.065 1640
-322.969 -132.467 1645
-319.035 -132.467 1645
-315.484 -132.628 1647
-313.059 -133.273 1655
-309.662 -133.514 1658
-305.697 -133.514 1658
-302.46 -133.836 1662
-298.665 -133.917 1663
-295.929 -134.481 1670
-291.936 -134.481 1670
-287.942 -134.481 1670
-284.799 -134.883 1675
-281.296 -135.125 1678
-277.284 -135.125 1678
-274.085 -135.527 1683
-270.061 -135.527 1683
-267.143 -136.091 1690
-263.102 -136.091 1690
-260.133 -136.655 1697
-256.83 -137.057 1702
-253.354 -137.38 1706
-249.274 -137.38 1706
-245.626 -137.621 1709
-242.387 -138.104 1715
-239.397 -138.748 1723
-235.277 -138.748 1723
-232.364 -139.473 1732
-229.672 -140.359 1743
-226.022 -140.681 1747
-221.844 -140.681 1747
-217.916 -140.842 1749
-214.833 -141.567 1758
-212.906 -143.097 1777
-208.656 -143.097 1777
-204.982 -143.5 1782
-202.072 -144.466 1794
-198.003 -144.627 1796
-193.708 -144.627 1796
-189.413 -144.627 1796
-353.962 -297.226 3691
-345.136 -297.226 3691
-337.039 -297.87 3699
-328.193 -297.87 3699
-319.348 -297.87 3699
-310.502 -297.87 3699
-301.657 -297.87 3699
-294.157 -299.239 3716
-286.5 -300.528 3732
-277.575 -300.528 3732
-268.651 -300.528 3732
-259.727 -300.528 3732
-250.802 -300.528 3732
-241.878 -300.528 3732
-232.454 -299.884 3724
-223.069 -299.239 3716
-214.183 -299.239 3716
-205.296 -299.239 3716
-195.935 -298.515 3707
-187.07 -298.515 3707
-177.821 -297.87 3699
-168.976 -297.87 3699
-159.784 -297.226 3691
-150.63 -296.582 3683
-141.823 -296.582 3683
-133.594 -297.87 3699
-124.748 -297.87 3699
-116.154 -298.515 3707
-107.55 -299.239 3716
-98.6635 -299.239 3716
-89.7774 -299.239 3716
-80.8913 -299.239 3716
-72.1603 -299.884 3724
-63.2551 -299.884 3724
-54.3498 -299.884 3724
-45.4446 -299.884 3724
-36.5394 -299.884 3724
-27.6342 -299.884 3724
-18.729 -299.884 3724
-9.80268 -299.239 3716
-0.916594 -299.239 3716
7.96949 -299.239 3716
16.8556 -299.239 3716
25.7417 -299.239 3716
34.6277 -299.239 3716
43.5138 -299.239 3716
52.3999 -299.239 3716
61.1376 -298.515 3707
69.851 -297.87 3699
78.5263 -297.226 3691
87.3526 -297.226 3691
96.1789 -297.226 3691
104.778 -296.582 3683
113.585 -296.582 3683
122.392 -296.582 3683
130.914 -295.938 3675
139.398 -295.294 3667
147.803 -294.569 3658
156.551 -294.569 3658
165.298 -294.569 3658
174.045 -294.569 3658
183.243 -295.294 3667
192.011 -295.294 3667
200.78 -295.294 3667
209.549 -295.294 3667
218.318 -295.294 3667
227.087 -295.294 3667
235.856 -295.294 3667
244.625 -295.294 3667
253.394 -295.294 3667
262.163 -295.294 3667
270.932 -295.294 3667
279.701 -295.294 3667
288.469 -295.294 3667
297.887 -295.938 3675
306.675 -295.938 3675
315.463 -295.938 3675
324.251 -295.938 3675
332.314 -295.294 3667
341.083 -295.294 3667
348.993 -294.569 3658
358.621 -295.294 3667
367.39 -295.294 3667
376.159 -295.294 3667
384.927 -295.294 3667
393.696 -295.294 3667
401.478 -294.569 3658
412.131 -295.938 3675
420.919 -295.938 3675
430.643 -296.582 3683
439.45 -296.582 3683
449.231 -297.226 3691
459.05 -297.87 3699
467.895 -297.87 3699
476.741 -297.87 3699
485.586 -297.87 3699
496.704 -299.239 3716
505.59 -299.239 3716
516.691 -300.528 3732
528.01 -301.897 3749
540.556 -303.91 3774
549.581 -303.91 3774
558.605 -303.91 3774
567.63 -303.91 3774
576.655 -303.91 3774
584.438 -303.266 3766
1036.93 -320.66 3982
1046.46 -320.66 3982
1055.98 -320.66 3982
1065.5 -320.66 3982
1062.33 -316.875 3935
1071.74 -316.875 3935
1063.57 -311.721 3871
1075.32 -312.446 3880
1105.01 -318.324 3953
1130.53 -322.914 4010
1140.12 -322.914 4010
1149.71 -322.914 4010
1159.3 -322.914 4010
1168.88 -322.914 4010
1178.47 -322.914 4010
1191.03 -323.72 4020
1200.64 -323.72 4020
1215.97 -325.25 4039
1225.63 -325.25 4039
1247.52 -328.471 4079
1257.28 -328.471 4079
1267.03 -328.471 4079
1276.78 -328.471 4079
1283.38 -327.665 4069
1296.29 -328.471 4079
1306.05 -328.471 4079
1315.8 -328.471 4079
1397.25 -329.276 4089
1407.03 -329.276 4089
1416.81 -329.276 4089
1423.1 -328.471 4079
1432.85 -328.471 4079
1439.07 -327.665 4069
1441.68 -326.055 4049
1451.36 -326.055 4049
1475.48 -329.276 4089
1485.25 -329.276 4089
1495.03 -329.276 4089
1504.81 -329.276 4089
1514.59 -329.276 4089
1524.37 -329.276 4089
1837.26 -329.276 4089
1847.04 -329.276 4089
1856.82 -329.276 4089
1857.47 -327.665 4069
1867.2 -327.665 4069
1876.93 -327.665 4069
1877.38 -326.055 4049
1887.07 -326.055 4049
1883.16 -323.72 4020
1892.78 -323.72 4020
1884.41 -320.66 3982
1880.14 -318.324 3953
2253.66 -312.446 3880
2273.44 -313.895 3898
2282.76 -313.895 3898
2324.42 -318.324 3953
2350.99 -320.66 3982
2371.78 -322.19 4001
2381.35 -322.19 4001
2402.27 -323.72 4020
2411.88 -323.72 4020
2421.49 -323.72 4020
2431.11 -323.72 4020
2423.11 -321.384 3991
2409.49 -318.324 3953
2436.69 -320.66 3982
2446.22 -320.66 3982
2455.74 -320.66 3982
2465.26 -320.66 3982
2456.76 -318.324 3953
2466.21 -318.324 3953
2470.03 -317.6 3944
2450.54 -313.895 3898
2442.82 -311.721 3871
2452.08 -311.721 3871
2438.45 -308.822 3835
2447.62 -308.822 3835
2451.02 -308.097 3826
2449.24 -306.728 3809
2458.35 -306.728 3809
2450.61 -304.635 3783
2453.81 -303.91 3774
2457.61 -303.266 3766
2466.62 -303.266 3766
2475.62 -303.266 3766
2501.78 -305.359 3792
2510.85 -305.359 3792
2519.92 -305.359 3792
2522.98 -304.635 3783
2532.03 -304.635 3783
2552.5 -306.004 3800
2561.58 -306.004 3800
2570.67 -306.004 3800
2579.76 -306.004 3800
2588.84 -306.004 3800
2597.93 -306.004 3800
2607.02 -306.004 3800
2610.6 -305.359 3792
2613.45 -304.635 3783
2628.73 -305.359 3792
2637.8 -305.359 3792
2646.87 -305.359 3792
2655.94 -305.359 3792
2665 -305.359 3792
2674.07 -305.359 3792
2683.14 -305.359 3792
2692.21 -305.359 3792
2701.28 -305.359 3792
2710.34 -305.359 3792
2719.41 -305.359 3792
2715.53 -303.91 3774
2712.28 -302.541 3757
2708.95 -301.172 3740
2717.89 -301.172 3740
2715.17 -299.884 3724
2748.22 -302.541 3757
2757.2 -302.541 3757
2766.18 -302.541 3757
2775.17 -302.541 3757
2784.15 -302.541 3757
2793.14 -302.541 3757
2802.12 -302.541 3757
2811.1 -302.541 3757
2807.33 -301.172 3740
2798.2 -299.239 3716
2813.13 -299.884 3724
2822.03 -299.884 3724
2830.94 -299.884 3724
2839.84 -299.884 3724
2848.75 -299.884 3724
-2444.59 -255.1 3265
-2436.78 -255.1 3265
-2423.76 -254.553 3258
-2392.98 -252.131 3227
-2394.14 -253.069 3239
-2405.55 -255.1 3265
-2397.74 -255.1 3265
-2403.84 -256.585 3284
-2395.99 -256.585 3284
-2388.13 -256.585 3284
-2366.51 -255.1 3265
-2368.09 -256.116 3278
-2368.9 -257.053 3290
-2375.38 -258.616 3310
-2367.47 -258.616 3310
-2373.81 -260.179 3330
-2394.26 -263.304 3370
-2401.07 -264.945 3391
-2392.96 -264.945 3391
-2389.78 -265.492 3398
-2386.56 -266.039 3405
-2378.42 -266.039 3405
-2370.27 -266.039 3405
-2362.13 -266.039 3405
-2392.7 -270.414 3461
-2404.41 -272.68 3490
-2396.06 -272.68 3490
-2402.77 -274.399 3512
-2399.82 -275.024 3520
-2416.54 -277.915 3557
-2408.04 -277.915 3557
-2415.05 -279.712 3580
-2416.57 -280.884 3595
-2407.97 -280.884 3595
-2410.05 -282.134 3611
-2427.36 -285.181 3650
-2440.49 -287.759 3683
-2431.69 -287.759 3683
-2438.67 -289.634 3707
-2440.95 -290.963 3724
-2453.59 -293.541 3757
-2444.61 -293.541 3757
-2480.36 -298.932 3826
-2500.27 -302.448 3871
-2491.02 -302.448 3871
-2481.76 -302.448 3871
-2472.5 -302.448 3871
-2451.79 -301.042 3853
-2448.28 -301.745 3862
-2439.05 -301.745 3862
-2429.81 -301.745 3862
-2393 -298.307 3818
-2383.87 -298.307 3818
-2374.74 -298.307 3818
-1335.79 -262.757 3363
-1327.75 -262.757 3363
-1319.71 -262.757 3363
-1309.33 -262.288 3357
-1301.3 -262.288 3357
-1290.58 -261.741 3350
-590.738 -130.324 1668
-586.749 -130.324 1668
-585.905 -131.027 1677
-581.895 -131.027 1677
-577.885 -131.027 1677
-573.19 -130.871 1675
-569.185 -130.871 1675
-564.504 -130.714 1673
-560.504 -130.714 1673
-554.84 -130.324 1668
-549.86 -130.089 1665
-544.24 -129.699 1660
-540.27 -129.699 1660
-534.039 -129.152 1653
-527.2 -128.449 1644
-519.449 -127.511 1632
-514.599 -127.277 1629
-510.703 -127.277 1629
-504.941 -126.808 1623
-497.973 -126.027 1613
-493.197 -125.792 1610
-489.347 -125.792 1610
-484.291 -125.48 1606
-478.356 -124.933 1599
-474.236 -124.855 1598
-470.414 -124.855 1598
-466.009 -124.698 1596
-460.165 -124.151 1589
-455.504 -123.917 1586
-451.711 -123.917 1586
-447.919 -123.917 1586
-442.726 -123.526 1581
-438.112 -123.292 1578
-434.339 -123.292 1578
-430.566 -123.292 1578
-426.792 -123.292 1578
-423.555 -123.448 1580
-419.776 -123.448 1580
-416.262 -123.526 1581
-412.481 -123.526 1581
-409.217 -123.683 1583
-405.688 -123.761 1584
-401.9 -123.761 1584
-398.112 -123.761 1584
-394.324 -123.761 1584
-391.03 -123.917 1586
-387.481 -123.995 1587
-383.686 -123.995 1587
-380.609 -124.23 1590
-377.992 -124.62 1595
-374.413 -124.698 1596
-370.596 -124.698 1596
-367.929 -125.089 1601
-364.782 -125.323 1604
-361.622 -125.558 1607
-357.779 -125.558 1607
-355.258 -126.027 1613
-352.272 -126.339 1617
-348.621 -126.417 1618
-344.752 -126.417 1618
-341.936 -126.808 1623
-338.68 -127.042 1626
-335.203 -127.199 1628
-331.31 -127.199 1628
-328.624 -127.667 1634
-325.71 -128.058 1639
-322.772 -128.449 1644
-318.841 -128.449 1644
-315.484 -128.683 1647
-312.492 -129.074 1652
-309.662 -129.542 1658
-305.697 -129.542 1658
-302.46 -129.855 1662
-298.665 -129.933 1663
-295.929 -130.48 1670
-291.936 -130.48 1670
-287.942 -130.48 1670
-284.799 -130.871 1675
-281.296 -131.105 1678
-277.284 -131.105 1678
-274.085 -131.496 1683
-270.061 -131.496 1683
-267.143 -132.043 1690
-263.102 -132.043 1690
-260.133 -132.59 1697
-256.83 -132.98 1702
-253.354 -133.293 1706
-249.274 -133.293 1706
-245.626 -133.527 1709
-242.387 -133.996 1715
-239.397 -134.621 1723
-235.277 -134.621 1723
-232.364 -135.324 1732
-229.672 -136.184 1743
-226.022 -136.496 1747
-221.844 -136.496 1747
-217.916 -136.652 1749
-214.833 -137.356 1758
-212.906 -138.84 1777
-208.656 -138.84 1777
-204.982 -139.231 1782
-202.072 -140.168 1794
-198.003 -140.325 1796
-193.708 -140.325 1796
-189.413 -140.325 1796
-353.962 -288.384 3691
-345.136 -288.384 3691
-337.039 -289.009 3699
-328.193 -289.009 3699
-319.348 -289.009 3699
-310.502 -289.009 3699
-301.657 -289.009 3699
-294.157 -290.338 3716
-286.5 -291.588 3732
-277.575 -291.588 3732
-268.651 -291.588 3732
-259.727 -291.588 3732
-250.265 -290.963 3724
-241.359 -290.963 3724
-232.454 -290.963 3724
-223.069 -290.338 3716
-214.183 -290.338 3716
-205.296 -290.338 3716
-195.935 -289.634 3707
-187.07 -289.634 3707
-177.821 -289.009 3699
-168.976 -289.009 3699
-159.784 -288.384 3691
-150.63 -287.759 3683
-141.823 -287.759 3683
-133.594 -289.009 3699
-124.748 -289.009 3699
-116.154 -289.634 3707
-107.55 -290.338 3716
-98.6635 -290.338 3716
-89.7774 -290.338 3716
-80.8913 -290.338 3716
-72.1603 -290.963 3724
-63.2551 -290.963 3724
-54.3498 -290.963 3724
-45.4446 -290.963 3724
-36.5394 -290.963 3724
-27.6342 -290.963 3724
-18.6888 -290.338 3716
-9.80268 -290.338 3716
-0.916594 -290.338 3716
7.96949 -290.338 3716
16.8556 -290.338 3716
25.7417 -290.338 3716
34.5439 -289.634 3707
43.4084 -289.634 3707
52.273 -289.634 3707
61.1376 -289.634 3707
69.7 -288.384 3691
78.5263 -288.384 3691
87.3526 -288.384 3691
95.9704 -287.759 3683
104.778 -287.759 3683
113.338 -287.134 3675
122.126 -287.134 3675
130.629 -286.509 3667
139.056 -285.806 3658
147.803 -285.806 3658
156.551 -285.806 3658
165.298 -285.806 3658
174.045 -285.806 3658
183.243 -286.509 3667
192.011 -286.509 3667
200.78 -286.509 3667
209.549 -286.509 3667
218.318 -286.509 3667
227.087 -286.509 3667
235.856 -286.509 3667
244.625 -286.509 3667
253.394 -286.509 3667
262.163 -286.509 3667
270.932 -286.509 3667
279.701 -286.509 3667
288.469 -286.509 3667
297.887 -287.134 3675
306.675 -287.134 3675
315.463 -287.134 3675
324.251 -287.134 3675
332.314 -286.509 3667
341.083 -286.509 3667
348.993 -285.806 3658
358.621 -286.509 3667
367.39 -286.509 3667
376.159 -286.509 3667
384.927 -286.509 3667
393.696 -286.509 3667
401.478 -285.806 3658
412.131 -287.134 3675
420.919 -287.134 3675
430.643 -287.759 3683
439.45 -287.759 3683
449.231 -288.384 3691
459.05 -289.009 3699
467.895 -289.009 3699
476.741 -289.009 3699
485.586 -289.009 3699
496.704 -290.338 3716
505.59 -290.338 3716
516.691 -291.588 3732
528.01 -292.916 3749
540.556 -294.869 3774
549.581 -294.869 3774
558.605 -294.869 3774
567.63 -294.869 3774
576.655 -294.869 3774
584.438 -294.244 3766
1036.93 -311.121 3982
1046.46 -311.121 3982
1055.98 -311.121 3982
1065.5 -311.121 3982
1047.49 -303.151 3880
1056.76 -303.151 3880
1058.62 -301.042 3853
1070.33 -301.745 3862
1102.49 -308.152 3944
1125.17 -311.824 3991
1134.71 -311.824 3991
1149.71 -313.308 4010
1159.3 -313.308 4010
1168.88 -313.308 4010
1178.47 -313.308 4010
1191.03 -314.09 4020
1200.64 -314.09 4020
1215.97 -315.574 4039
1225.63 -315.574 4039
1247.52 -318.699 4079
1257.28 -318.699 4079
1267.03 -318.699 4079
1276.78 -318.699 4079
1283.38 -317.918 4069
1296.29 -318.699 4079
1306.05 -318.699 4079
1315.8 -318.699 4079
1397.25 -319.481 4089
1407.03 -319.481 4089
1416.81 -319.481 4089
1423.1 -318.699 4079
1432.85 -318.699 4079
1439.07 -317.918 4069
1438.12 -315.574 4039
1440.96 -314.09 4020
1471.87 -318.699 4079
1481.62 -318.699 4079
1495.03 -319.481 4089
1504.81 -319.481 4089
1514.59 -319.481 4089
1524.37 -319.481 4089
1858.02 -316.355 4049
1867.7 -316.355 4049
1877.38 -316.355 4049
1878.21 -314.871 4030
1851.78 -308.855 3953
1861.23 -308.855 3953
1870.68 -308.855 3953
1871.58 -307.448 3935
2253.66 -303.151 3880
2273.44 -304.558 3898
2282.76 -304.558 3898
2324.42 -308.855 3953
2350.99 -311.121 3982
2371.78 -312.605 4001
2381.35 -312.605 4001
2396.29 -313.308 4010
2405.88 -313.308 4010
2415.47 -313.308 4010
2425.06 -313.308 4010
2406.11 -309.636 3963
2409.49 -308.855 3953
2436.69 -311.121 3982
2446.22 -311.121 3982
2455.74 -311.121 3982
2465.26 -311.121 3982
2451.17 -308.152 3944
2460.6 -308.152 3944
2458.13 -306.667 3925
2444.88 -303.854 3889
2414.43 -298.932 3826
2423.57 -298.932 3826
2432.72 -298.932 3826
2436.77 -298.307 3818
2440.13 -297.604 3809
2443.45 -296.901 3800
2452.54 -296.901 3800
2444.78 -294.869 3774
2442.76 -293.541 3757
2446.52 -292.916 3749
2460.72 -293.541 3757
2469.71 -293.541 3757
2484.63 -294.244 3766
2493.64 -294.244 3766
2507.96 -294.869 3774
2516.98 -294.869 3774
2526.01 -294.869 3774
2535.03 -294.869 3774
2561.58 -296.901 3800
2570.67 -296.901 3800
2579.76 -296.901 3800
2588.84 -296.901 3800
2597.93 -296.901 3800
2607.02 -296.901 3800
2610.6 -296.276 3792
2613.45 -295.572 3783
2628.73 -296.276 3792
2637.8 -296.276 3792
2646.87 -296.276 3792
2655.94 -296.276 3792
2665 -296.276 3792
2674.07 -296.276 3792
2683.14 -296.276 3792
2692.21 -296.276 3792
2701.28 -296.276 3792
2710.34 -296.276 3792
2719.41 -296.276 3792
2715.53 -294.869 3774
2712.28 -293.541 3757
2708.95 -292.213 3740
2717.89 -292.213 3740
2715.17 -290.963 3724
2748.22 -293.541 3757
2757.2 -293.541 3757
2766.18 -293.541 3757
2775.17 -293.541 3757
2784.15 -293.541 3757
2793.14 -293.541 3757
2802.12 -293.541 3757
2811.1 -293.541 3757
2807.33 -292.213 3740
2798.2 -290.338 3716
2813.13 -290.963 3724
2822.03 -290.963 3724
2830.94 -290.963 3724
2839.84 -290.963 3724
2848.75 -290.963 3724
-2454.32 -248.263 3278
-2446.48 -248.263 3278
-2428.97 -247.279 3265
-2415.97 -246.749 3258
-2413.36 -247.279 3265
-2423.97 -249.172 3290
-2416.1 -249.172 3290
-2417.75 -250.157 3303
-2409.85 -250.157 3303
-2401.95 -250.157 3303
-2380.28 -248.718 3284
-2372.43 -248.718 3284
-2368.9 -249.172 3290
-2366.05 -249.702 3297
-2358.17 -249.702 3297
-2373.81 -252.202 3330
-2385.03 -254.247 3357
-2391.16 -255.761 3377
-2383.08 -255.761 3377
-2399.62 -258.412 3412
-2391.47 -258.412 3412
-2383.31 -258.412 3412
-2365.4 -257.352 3398
-2357.28 -257.352 3398
-2368.51 -259.472 3426
-2389.25 -262.653 3468
-2380.96 -262.653 3468
-2397.98 -265.456 3505
-2399.82 -266.592 3520
-2416.54 -269.394 3557
-2408.04 -269.394 3557
-2415.05 -271.136 3580
-2416.57 -272.272 3595
-2407.97 -272.272 3595
-2404.72 -272.878 3603
-2427.36 -276.437 3650
-2440.49 -278.937 3683
-2431.69 -278.937 3683
-2438.67 -280.754 3707
-2457.33 -283.935 3749
-2448.37 -283.935 3749
-2439.4 -283.935 3749
-2480.36 -289.767 3826
-2500.27 -293.175 3871
-2491.02 -293.175 3871
-2481.76 -293.175 3871
-2472.5 -293.175 3871
-2451.79 -291.812 3853
-2448.28 -292.493 3862
-2439.05 -292.493 3862
-2429.81 -292.493 3862
-2393 -289.161 3818
-2383.87 -289.161 3818
-2374.74 -289.161 3818
-1394.09 -262.653 3468
-1385.79 -262.653 3468
-1377.5 -262.653 3468
-1369.21 -262.653 3468
-1325.2 -255.761 3377
-1309.33 -254.247 3357
-1301.3 -254.247 3357
-1290.58 -253.716 3350
-1277.59 -252.732 3337
-593.217 -126.858 1675
-589.212 -126.858 1675
-585.905 -127.01 1677
-581.895 -127.01 1677
-577.885 -127.01 1677
-573.19 -126.858 1675
-569.185 -126.858 1675
-564.504 -126.707 1673
-560.504 -126.707 1673
-553.842 -126.101 1665
-549.86 -126.101 1665
-544.24 -125.722 1660
-540.27 -125.722 1660
-534.039 -125.192 1653
-527.2 -124.51 1644
-520.086 -123.753 1634
-513.651 -123.147 1626
-509.763 -123.147 1626
-504.941 -122.92 1623
-497.973 -122.163 1613
-493.197 -121.935 1610
-489.347 -121.935 1610
-483.688 -121.481 1604
-478.356 -121.102 1599
-473.642 -120.875 1596
-469.826 -120.875 1596
-465.717 -120.799 1595
-460.165 -120.345 1589
-455.504 -120.118 1586
-451.711 -120.118 1586
-447.354 -119.966 1584
-442.726 -119.739 1581
-438.112 -119.512 1578
-434.339 -119.512 1578
-430.566 -119.512 1578
-426.522 -119.436 1577
-423.555 -119.663 1580
-419.776 -119.663 1580
-415.998 -119.663 1580
-412.22 -119.663 1580
-408.7 -119.739 1581
-405.432 -119.89 1583
-401.646 -119.89 1583
-397.861 -119.89 1583
-394.075 -119.89 1583
-390.29 -119.89 1583
-387.237 -120.118 1586
-383.444 -120.118 1586
-380.37 -120.345 1589
-376.807 -120.421 1590
-374.178 -120.799 1595
-370.364 -120.799 1595
-367.239 -121.027 1598
-364.555 -121.405 1603
-361.397 -121.632 1606
-357.556 -121.632 1606
-353.936 -121.708 1607
-351.401 -122.163 1613
-348.405 -122.466 1617
-344.538 -122.466 1617
-341.514 -122.768 1621
-338.055 -122.92 1623
-334.791 -123.147 1626
-330.903 -123.147 1626
-328.02 -123.526 1631
-325.313 -123.98 1637
-321.791 -124.132 1639
-317.871 -124.132 1639
-314.91 -124.51 1644
-311.735 -124.813 1648
-309.475 -125.495 1657
-305.513 -125.495 1657
-301.732 -125.571 1658
-298.486 -125.874 1662
-295.929 -126.48 1670
-291.936 -126.48 1670
-288.287 -126.631 1672
-284.799 -126.858 1675
-281.296 -127.085 1678
-277.284 -127.085 1678
-274.085 -127.464 1683
-270.061 -127.464 1683
-267.143 -127.994 1690
-263.102 -127.994 1690
-259.827 -128.373 1695
-256.83 -128.903 1702
-253.354 -129.206 1706
-249.274 -129.206 1706
-245.626 -129.433 1709
-242.387 -129.888 1715
-239.675 -130.645 1725
-235.55 -130.645 1725
-232.364 -131.175 1732
-229.672 -132.008 1743
-226.28 -132.463 1749
-222.098 -132.463 1749
-217.916 -132.463 1749
-214.833 -133.144 1758
-212.906 -134.583 1777
-208.656 -134.583 1777
-204.982 -134.962 1782
-202.072 -135.871 1794
-197.782 -135.871 1794
-193.492 -135.871 1794
-189.202 -135.871 1794
-355.497 -280.754 3707
-346.632 -280.754 3707
-339.317 -282.042 3724
-330.411 -282.042 3724
-321.506 -282.042 3724
-311.929 -281.436 3716
-303.043 -281.436 3716
-294.157 -281.436 3716
-286.5 -282.648 3732
-277.575 -282.648 3732
-268.651 -282.648 3732
-259.727 -282.648 3732
-250.265 -282.042 3724
-241.359 -282.042 3724
-232.454 -282.042 3724
-223.069 -281.436 3716
-214.183 -281.436 3716
-205.296 -281.436 3716
-196.41 -281.436 3716
-187.07 -280.754 3707
-177.821 -280.148 3699
-168.976 -280.148 3699
-159.784 -279.543 3691
-150.958 -279.543 3691
-141.823 -278.937 3683
-133.594 -280.148 3699
-124.748 -280.148 3699
-116.154 -280.754 3707
-107.781 -282.042 3724
-98.8759 -282.042 3724
-89.9707 -282.042 3724
-81.0655 -282.042 3724
-72.1603 -282.042 3724
-63.2551 -282.042 3724
-54.3498 -282.042 3724
-45.4446 -282.042 3724
-36.5394 -282.042 3724
-27.6342 -282.042 3724
-18.6888 -281.436 3716
-9.80268 -281.436 3716
-0.916594 -281.436 3716
7.96949 -281.436 3716
16.8556 -281.436 3716
25.7417 -281.436 3716
34.6277 -281.436 3716
43.4084 -280.754 3707
52.273 -280.754 3707
61.1376 -280.754 3707
69.851 -280.148 3699
78.5263 -279.543 3691
87.3526 -279.543 3691
95.9704 -278.937 3683
104.55 -278.331 3675
113.338 -278.331 3675
122.126 -278.331 3675
130.914 -278.331 3675
139.056 -277.043 3658
147.803 -277.043 3658
156.551 -277.043 3658
165.298 -277.043 3658
174.045 -277.043 3658
183.243 -277.725 3667
192.011 -277.725 3667
200.78 -277.725 3667
209.549 -277.725 3667
218.318 -277.725 3667
227.087 -277.725 3667
235.856 -277.725 3667
244.625 -277.725 3667
253.394 -277.725 3667
262.163 -277.725 3667
270.932 -277.725 3667
279.701 -277.725 3667
288.469 -277.725 3667
297.887 -278.331 3675
306.675 -278.331 3675
315.463 -278.331 3675
324.251 -278.331 3675
332.314 -277.725 3667
341.083 -277.725 3667
349.852 -277.725 3667
358.621 -277.725 3667
367.39 -277.725 3667
376.159 -277.725 3667
384.927 -277.725 3667
393.696 -277.725 3667
402.465 -277.725 3667
412.131 -278.331 3675
420.919 -278.331 3675
430.643 -278.937 3683
439.45 -278.937 3683
449.231 -279.543 3691
459.05 -280.148 3699
467.895 -280.148 3699
476.741 -280.148 3699
485.586 -280.148 3699
495.501 -280.754 3707
504.366 -280.754 3707
516.691 -282.648 3732
526.742 -283.254 3740
536.975 -283.935 3749
545.94 -283.935 3749
558.605 -285.829 3774
567.63 -285.829 3774
576.655 -285.829 3774
584.438 -285.223 3766
1029.38 -299.385 3953
1038.84 -299.385 3953
1048.29 -299.385 3953
1055.33 -298.704 3944
1047.49 -293.857 3880
1056.76 -293.857 3880
1058.62 -291.812 3853
1070.33 -292.493 3862
1102.49 -298.704 3944
1125.17 -302.263 3991
1134.71 -302.263 3991
1149.71 -303.702 4010
1159.3 -303.702 4010
1171.8 -304.46 4020
1181.41 -304.46 4020
1193.99 -305.217 4030
1203.62 -305.217 4030
1218.98 -306.656 4049
1228.66 -306.656 4049
1250.58 -309.686 4089
1260.36 -309.686 4089
1270.14 -309.686 4089
1279.91 -309.686 4089
1286.54 -308.928 4079
1296.29 -308.928 4079
1306.05 -308.928 4079
1387.47 -309.686 4089
1397.25 -309.686 4089
1407.03 -309.686 4089
1416.81 -309.686 4089
1419.61 -308.171 4069
1429.34 -308.171 4069
1435.53 -307.413 4059
1438.12 -305.899 4039
1434.15 -303.021 4001
1471.87 -308.928 4079
1481.62 -308.928 4079
1491.38 -308.928 4079
1501.13 -308.928 4079
1510.88 -308.928 4079
1520.64 -308.928 4079
1822.69 -300.824 3972
1832.18 -300.824 3972
1841.68 -300.824 3972
1851.18 -300.824 3972
1847.56 -298.704 3944
2232.75 -291.13 3844
2247.19 -291.812 3853
2256.4 -291.812 3853
2319.13 -298.704 3944
2345.09 -300.824 3972
2365.85 -302.263 3991
2375.39 -302.263 3991
2384.94 -302.263 3991
2394.48 -302.263 3991
2404.03 -302.263 3991
2408.13 -301.582 3982
2406.11 -300.143 3963
2398.52 -298.022 3935
2425.07 -300.143 3963
2434.54 -300.143 3963
2444.02 -300.143 3963
2453.5 -300.143 3963
2451.17 -298.704 3944
2460.6 -298.704 3944
2452.49 -296.583 3916
2439.22 -293.857 3880
2414.43 -289.767 3826
2423.57 -289.767 3826
2432.72 -289.767 3826
2441.87 -289.767 3826
2445.9 -289.161 3818
2443.45 -287.798 3800
2452.54 -287.798 3800
2450.61 -286.51 3783
2437.55 -283.935 3749
2451.74 -284.541 3757
2460.72 -284.541 3757
2469.71 -284.541 3757
2495.85 -286.51 3783
2504.89 -286.51 3783
2513.94 -286.51 3783
2522.98 -286.51 3783
2526.01 -285.829 3774
2547.12 -287.192 3792
2567.65 -288.479 3809
2576.76 -288.479 3809
2585.87 -288.479 3809
2594.98 -288.479 3809
2604.08 -288.479 3809
2613.19 -288.479 3809
2616.1 -287.798 3800
2625.19 -287.798 3800
2634.28 -287.798 3800
2655.89 -289.161 3818
2665.02 -289.161 3818
2686.05 -290.449 3835
2695.22 -290.449 3835
2704.4 -290.449 3835
2707.2 -289.767 3826
2710.67 -289.161 3818
2713.39 -288.479 3809
2722.49 -288.479 3809
2731.6 -288.479 3809
2728.48 -287.192 3792
2724.55 -285.829 3774
2721.26 -284.541 3757
2730.25 -284.541 3757
2739.23 -284.541 3757
2754.8 -285.223 3766
2763.8 -285.223 3766
2772.81 -285.223 3766
2781.82 -285.223 3766
2790.82 -285.223 3766
2812.47 -286.51 3783
2821.51 -286.51 3783
2830.56 -286.51 3783
2807.33 -283.254 3740
2816.27 -283.254 3740
2825.22 -283.254 3740
2834.16 -283.254 3740
2843.1 -283.254 3740
2852.05 -283.254 3740
2860.99 -283.254 3740
-2454.32 -240.411 3278
-2446.48 -240.411 3278
-2438.64 -240.411 3278
-2425.61 -239.898 3271
-2431.83 -241.291 3290
-2443.86 -243.271 3317
-2435.93 -243.271 3317
-2428 -243.271 3317
-2420.06 -243.271 3317
-2412.13 -243.271 3317
-2380.28 -240.851 3284
-2372.43 -240.851 3284
-2373.94 -241.804 3297
-2370.36 -242.244 3303
-2362.46 -242.244 3303
-2373.81 -244.225 3330
-2389.29 -246.645 3363
-2391.16 -247.672 3377
-2383.08 -247.672 3377
-2404.55 -250.752 3419
-2396.37 -250.752 3419
-2388.2 -250.752 3419
-2375.15 -250.239 3412
-2357.28 -249.212 3398
-2358.83 -250.239 3412
-2374.78 -252.806 3447
-2366.54 -252.806 3447
-2387.72 -255.959 3490
-2404.6 -258.673 3527
-2421.98 -261.46 3565
-2413.45 -261.46 3565
-2425.17 -263.66 3595
-2421.95 -264.247 3603
-2413.33 -264.247 3603
-2426.07 -266.594 3635
-2449.3 -270.114 3683
-2451.1 -271.287 3699
-2442.25 -271.287 3699
-2466.3 -274.954 3749
-2485.52 -278.108 3792
-2539.8 -285.222 3889
-2530.5 -285.222 3889
-2521.2 -285.222 3889
-1394.09 -254.346 3468
-1385.79 -254.346 3468
-1377.5 -254.346 3468
-1369.21 -254.346 3468
-1327.95 -248.185 3384
-1311.67 -246.645 3363
-1303.63 -246.645 3363
-1287.88 -245.178 3343
-1277.59 -244.738 3337
-593.926 -122.992 1677
-589.915 -122.992 1677
-586.254 -123.066 1678
-582.242 -123.066 1678
-578.229 -123.066 1678
-573.874 -122.992 1677
-569.185 -122.846 1675
-564.504 -122.699 1673
-560.504 -122.699 1673
-553.842 -122.112 1665
-549.2 -121.966 1663
-543.584 -121.599 1658
-539.619 -121.599 1658
-534.039 -121.232 1653
-527.2 -120.572 1644
-520.086 -119.839 1634
-513.651 -119.252 1626
-509.763 -119.252 1626
-504.941 -119.032 1623
-497.973 -118.299 1613
-493.197 -118.079 1610
-489.347 -118.079 1610
-483.688 -117.639 1604
-478.356 -117.272 1599
-473.642 -117.052 1596
-469.826 -117.052 1596
-465.717 -116.978 1595
-460.165 -116.538 1589
-455.504 -116.318 1586
-451.711 -116.318 1586
-447.354 -116.172 1584
-442.726 -115.952 1581
-438.112 -115.732 1578
-434.064 -115.658 1577
-430.566 -115.732 1578
-426.792 -115.732 1578
-423.019 -115.732 1578
-419.245 -115.732 1578
-415.998 -115.878 1580
-412.22 -115.878 1580
-408.442 -115.878 1580
-404.92 -115.952 1581
-401.139 -115.952 1581
-397.358 -115.952 1581
-393.578 -115.952 1581
-390.29 -116.098 1583
-386.505 -116.098 1583
-382.719 -116.098 1583
-379.652 -116.318 1586
-376.57 -116.538 1589
-373.474 -116.758 1592
-369.667 -116.758 1592
-366.55 -116.978 1595
-363.645 -117.272 1599
-360.722 -117.565 1603
-356.888 -117.565 1603
-353.716 -117.785 1606
-350.093 -117.859 1607
-347.974 -118.445 1615
-344.112 -118.445 1615
-340.672 -118.592 1617
-337.638 -118.885 1621
-334.174 -119.032 1623
-330.293 -119.032 1623
-328.02 -119.619 1631
-324.716 -119.839 1634
-321.791 -120.205 1639
-317.871 -120.205 1639
-314.91 -120.572 1644
-311.735 -120.866 1648
-309.475 -121.526 1657
-305.513 -121.526 1657
-301.732 -121.599 1658
-298.486 -121.892 1662
-295.929 -122.479 1670
-291.936 -122.479 1670
-288.287 -122.626 1672
-284.799 -122.846 1675
-281.296 -123.066 1678
-277.284 -123.066 1678
-274.085 -123.432 1683
-270.382 -123.579 1685
-267.143 -123.946 1690
-263.102 -123.946 1690
-260.133 -124.459 1697
-256.83 -124.826 1702
-253.354 -125.119 1706
-249.274 -125.119 1706
-245.626 -125.339 1709
-242.387 -125.779 1715
-239.675 -126.513 1725
-235.55 -126.513 1725
-232.364 -127.026 1732
-229.672 -127.833 1743
-226.28 -128.273 1749
-222.098 -128.273 1749
-217.916 -128.273 1749
-214.589 -128.786 1756
-212.426 -130.033 1773
-208.187 -130.033 1773
-204.982 -130.693 1782
-201.622 -131.28 1790
-197.782 -131.573 1794
-193.492 -131.573 1794
-189.202 -131.573 1794
-355.497 -271.874 3707
-346.632 -271.874 3707
-339.317 -273.121 3724
-330.411 -273.121 3724
-321.506 -273.121 3724
-311.929 -272.534 3716
-303.043 -272.534 3716
-294.157 -272.534 3716
-286.5 -273.708 3732
-277.575 -273.708 3732
-268.651 -273.708 3732
-259.727 -273.708 3732
-250.265 -273.121 3724
-241.359 -273.121 3724
-232.454 -273.121 3724
-223.069 -272.534 3716
-214.183 -272.534 3716
-205.296 -272.534 3716
-196.41 -272.534 3716
-187.07 -271.874 3707
-177.821 -271.287 3699
-168.976 -271.287 3699
-159.784 -270.701 3691
-150.958 -270.701 3691
-142.131 -270.701 3691
-133.594 -271.287 3699
-124.748 -271.287 3699
-116.154 -271.874 3707
-107.781 -273.121 3724
-98.8759 -273.121 3724
-89.9707 -273.121 3724
-81.0655 -273.121 3724
-72.1603 -273.121 3724
-63.2551 -273.121 3724
-54.3498 -273.121 3724
-45.4446 -273.121 3724
-36.5394 -273.121 3724
-27.6342 -273.121 3724
-18.6888 -272.534 3716
-9.80268 -272.534 3716
-0.916594 -272.534 3716
7.96949 -272.534 3716
16.8556 -272.534 3716
25.7417 -272.534 3716
34.6277 -272.534 3716
43.4084 -271.874 3707
52.273 -271.874 3707
61.1376 -271.874 3707
69.851 -271.287 3699
78.5263 -270.701 3691
