406.15 -730.559 3783
419.916 -738.863 3826
430.074 -740.601 3835
439.245 -740.601 3835
450.52 -744.077 3853
459.734 -744.077 3853
471.139 -747.553 3871
480.395 -747.553 3871
493.067 -752.767 3898
508.317 -761.65 3944
521.424 -767.057 3972
530.923 -767.057 3972
540.421 -767.057 3972
549.919 -767.057 3972
559.417 -767.057 3972
1741.83 -781.927 4049
1751.51 -781.927 4049
1761.2 -781.927 4049
1762.57 -778.258 4030
1767.81 -776.327 4020
1777.42 -776.327 4020
1787.03 -776.327 4020
1805.14 -779.996 4039
1814.8 -779.996 4039
1828.97 -781.927 4049
1838.65 -781.927 4049
1848.34 -781.927 4049
1862.61 -783.859 4059
1872.31 -783.859 4059
1882.02 -783.859 4059
1878.21 -778.258 4030
1878.48 -774.396 4010
1888.07 -774.396 4010
1893.4 -772.658 4001
1889.17 -767.057 3972
1871.9 -756.243 3916
1859.65 -747.553 3871
1868.91 -747.553 3871
3071.54 -787.721 4079
3081.3 -787.721 4079
3091.05 -787.721 4079
3100.81 -787.721 4079
3110.56 -787.721 4079
3120.31 -787.721 4079
-2458.92 -697.656 3658
-2450.17 -697.656 3658
-2441.42 -697.656 3658
-2432.68 -697.656 3658
-2423.93 -697.656 3658
-2394.71 -691.744 3627
-2386.04 -691.744 3627
-2382.61 -693.27 3635
-2383.71 -696.13 3650
-2374.99 -696.13 3650
-2366.26 -696.13 3650
-2352.36 -694.605 3642
-2328.85 -690.218 3619
-2320.2 -690.218 3619
-2291.74 -684.306 3588
-2263.44 -678.393 3557
-2249.86 -676.868 3549
-2241.37 -676.868 3549
-2223.45 -674.007 3534
-2201.21 -669.811 3512
-540.348 -321.364 1685
-536.319 -321.364 1685
-532.289 -321.364 1685
-528.26 -321.364 1685
-524.231 -321.364 1685
-520.819 -321.746 1687
-517.397 -322.127 1689
-513.358 -322.127 1689
-509.319 -322.127 1689
-504.682 -321.746 1687
-500.055 -321.364 1685
-496.025 -321.364 1685
-491.412 -320.983 1683
-486.518 -320.411 1680
-481.927 -320.029 1678
-477.914 -320.029 1678
-472.489 -319.076 1673
-465.688 -317.168 1663
-459.491 -315.643 1655
-455.533 -315.643 1655
-448.847 -313.736 1645
-443.561 -312.782 1640
-438.567 -312.019 1636
-434.655 -312.019 1636
-427.32 -309.54 1623
-421.351 -308.014 1615
-415.163 -306.297 1606
-409.274 -304.772 1598
-405.452 -304.772 1598
-400.877 -304.199 1595
-394.324 -302.102 1584
-388.318 -300.385 1575
-384.551 -300.385 1575
-379.093 -299.05 1568
-374.625 -298.478 1565
-369.935 -297.715 1561
-366.202 -297.715 1561
-362.469 -297.715 1561
-358.277 -297.334 1559
-354.548 -297.334 1559
-350.82 -297.334 1559
-347.092 -297.334 1559
-343.364 -297.334 1559
-339.636 -297.334 1559
-336.339 -297.715 1561
-332.819 -297.906 1562
-329.084 -297.906 1562
-325.974 -298.478 1565
-322.437 -298.669 1566
-319.1 -299.05 1568
-315.35 -299.05 1568
-312.197 -299.622 1571
-308.44 -299.622 1571
-305.265 -300.194 1574
-301.501 -300.194 1574
-297.926 -300.385 1575
-294.72 -300.957 1578
-291.5 -301.529 1581
-287.719 -301.529 1581
-284.298 -301.911 1583
-281.044 -302.483 1586
-277.426 -302.674 1587
-273.631 -302.674 1587
-270.346 -303.246 1590
-267.047 -303.818 1593
-263.734 -304.39 1596
-259.917 -304.39 1596
-256.582 -304.962 1599
-253.39 -305.725 1603
-250.024 -306.297 1606
-246.184 -306.297 1606
-242.796 -306.87 1609
-239.84 -308.014 1615
-236.708 -308.967 1620
-232.834 -308.967 1620
-229.808 -310.112 1626
-226.615 -311.065 1631
-223.397 -312.019 1636
-219.485 -312.019 1636
-215.968 -312.591 1639
-213.213 -314.308 1648
-209.526 -314.689 1650
-205.581 -314.689 1650
-202.857 -316.596 1660
-199.487 -317.55 1665
-196.679 -319.457 1675
-192.674 -319.457 1675
-189.457 -320.792 1682
-186.317 -322.318 1690
-182.491 -322.699 1692
-178.445 -322.699 1692
-174.914 -323.653 1697
-171.058 -324.034 1699
-167.191 -324.416 1701
-163.124 -324.416 1701
-159.524 -325.369 1706
-155.9 -326.323 1711
-151.986 -326.705 1713
-147.889 -326.705 1713
-144.549 -328.421 1722
-141.409 -330.71 1734
-137.738 -331.854 1740
-133.577 -331.854 1740
-131.424 -337.003 1767
-127.487 -337.766 1771
-123.252 -337.766 1771
-119.017 -337.766 1771
-114.782 -337.766 1771
-190.048 -718.254 3766
-181.042 -718.254 3766
-172.036 -718.254 3766
-162.641 -716.538 3757
-153.657 -716.538 3757
-146.675 -726.455 3809
-137.567 -726.455 3809
-128.458 -726.455 3809
-119.882 -729.697 3826
-110.733 -729.697 3826
-101.584 -729.697 3826
-92.435 -729.697 3826
-83.2859 -729.697 3826
-73.4779 -723.213 3792
-64.4101 -723.213 3792
-55.3423 -723.213 3792
-46.4819 -726.455 3809
-37.3734 -726.455 3809
-28.265 -726.455 3809
-19.071 -723.213 3792
-9.93458 -718.254 3766
-0.928927 -718.254 3766
8.07672 -718.254 3766
17.0824 -718.254 3766
26.088 -718.254 3766
35.0937 -718.254 3766
44.0993 -718.254 3766
53.3447 -721.496 3783
62.391 -721.496 3783
71.4373 -721.496 3783
80.8453 -724.739 3800
90.3582 -728.172 3818
99.4882 -728.172 3818
109.358 -733.13 3844
121.048 -748.579 3925
131.697 -755.826 3963
141.173 -755.826 3963
150.65 -755.826 3963
160.895 -759.45 3982
170.417 -759.45 3982
179.939 -759.45 3982
265.625 -733.13 3844
274.817 -733.13 3844
284.009 -733.13 3844
292.515 -731.414 3835
300.348 -728.172 3818
306.641 -721.496 3783
315.687 -721.496 3783
322.502 -716.538 3757
331.486 -716.538 3757
340.47 -716.538 3757
349.454 -716.538 3757
358.438 -716.538 3757
368.303 -718.254 3766
377.308 -718.254 3766
388.058 -721.496 3783
397.104 -721.496 3783
406.15 -721.496 3783
419.916 -729.697 3826
430.074 -731.414 3835
439.245 -731.414 3835
450.52 -734.847 3853
459.734 -734.847 3853
471.139 -738.28 3871
480.395 -738.28 3871
493.067 -743.429 3898
508.317 -752.202 3944
521.424 -757.543 3972
530.923 -757.543 3972
540.421 -757.543 3972
549.919 -757.543 3972
559.417 -757.543 3972
1741.83 -772.228 4049
1751.51 -772.228 4049
1761.2 -772.228 4049
1762.57 -768.604 4030
1767.81 -766.697 4020
1777.42 -766.697 4020
1787.03 -766.697 4020
1805.14 -770.321 4039
1814.8 -770.321 4039
1828.97 -772.228 4049
1838.65 -772.228 4049
1848.34 -772.228 4049
1862.61 -774.135 4059
1872.31 -774.135 4059
1882.02 -774.135 4059
1878.21 -768.604 4030
1878.48 -764.79 4010
1888.07 -764.79 4010
1893.4 -763.073 4001
1889.17 -757.543 3972
1871.9 -746.862 3916
1859.65 -738.28 3871
1868.91 -738.28 3871
3071.54 -777.95 4079
3081.3 -777.95 4079
3091.05 -777.95 4079
3100.81 -777.95 4079
3110.56 -777.95 4079
3120.31 -777.95 4079
-2458.92 -688.893 3658
-2450.17 -688.893 3658
-2441.42 -688.893 3658
-2432.68 -688.893 3658
-2423.93 -688.893 3658
-2394.71 -683.055 3627
-2386.04 -683.055 3627
-2382.61 -684.562 3635
-2383.71 -687.387 3650
-2374.99 -687.387 3650
-2366.26 -687.387 3650
-2352.36 -685.88 3642
-2328.85 -681.549 3619
-2320.2 -681.549 3619
-2291.74 -675.711 3588
-2268.53 -671.379 3565
-2254.93 -669.873 3557
-2246.43 -669.873 3557
-2237.92 -669.873 3557
-2201.21 -661.398 3512
-540.348 -317.328 1685
-536.319 -317.328 1685
-532.289 -317.328 1685
-528.887 -317.705 1687
-524.853 -317.705 1687
-521.745 -318.27 1690
-517.704 -318.27 1690
-513.662 -318.27 1690
-509.621 -318.27 1690
-505.28 -318.081 1689
-500.648 -317.705 1687
-496.614 -317.705 1687
-491.996 -317.328 1685
-487.098 -316.763 1682
-482.501 -316.386 1680
-478.484 -316.386 1680
-472.489 -315.068 1673
-465.688 -313.185 1663
-459.491 -311.678 1655
-455.533 -311.678 1655
-448.847 -309.795 1645
-443.561 -308.853 1640
-438.567 -308.1 1636
-434.655 -308.1 1636
-427.32 -305.652 1623
-421.351 -304.145 1615
-415.163 -302.45 1606
-409.274 -300.944 1598
-405.452 -300.944 1598
-400.877 -300.379 1595
-394.324 -298.307 1584
-388.318 -296.612 1575
-384.551 -296.612 1575
-379.093 -295.294 1568
-374.625 -294.729 1565
-369.935 -293.976 1561
-366.202 -293.976 1561
-362.469 -293.976 1561
-358.736 -293.976 1561
-355.003 -293.976 1561
-351.271 -293.976 1561
-347.092 -293.599 1559
-343.364 -293.599 1559
-339.636 -293.599 1559
-336.339 -293.976 1561
-332.819 -294.164 1562
-329.084 -294.164 1562
-325.974 -294.729 1565
-322.437 -294.917 1566
-319.1 -295.294 1568
-315.35 -295.294 1568
-312.197 -295.859 1571
-308.44 -295.859 1571
-305.265 -296.424 1574
-301.501 -296.424 1574
-297.926 -296.612 1575
-295.094 -297.554 1580
-291.5 -297.742 1581
-287.719 -297.742 1581
-284.298 -298.119 1583
-281.221 -298.872 1587
-277.776 -299.249 1589
-273.976 -299.249 1589
-270.346 -299.437 1590
-267.047 -300.002 1593
-263.734 -300.567 1596
-259.917 -300.567 1596
-256.582 -301.132 1599
-253.39 -301.885 1603
-250.024 -302.45 1606
-246.184 -302.45 1606
-242.796 -303.015 1609
-239.84 -304.145 1615
-236.708 -305.087 1620
-232.834 -305.087 1620
-229.808 -306.217 1626
-226.615 -307.158 1631
-223.397 -308.1 1636
-219.485 -308.1 1636
-215.968 -308.665 1639
-213.213 -310.36 1648
-209.526 -310.737 1650
-205.581 -310.737 1650
-202.857 -312.62 1660
-199.487 -313.561 1665
-196.679 -315.445 1675
-192.674 -315.445 1675
-189.457 -316.763 1682
-186.207 -318.081 1689
-182.491 -318.646 1692
-178.445 -318.646 1692
-174.605 -319.023 1694
-170.856 -319.588 1697
-167.191 -320.341 1701
-163.124 -320.341 1701
-159.337 -320.906 1704
-155.718 -321.848 1709
-151.986 -322.601 1713
-147.889 -322.601 1713
-144.549 -324.296 1722
-141.409 -326.556 1734
-137.738 -327.686 1740
-133.577 -327.686 1740
-130.755 -331.076 1758
-126.911 -332.017 1763
-122.695 -332.017 1763
-118.479 -332.017 1763
-114.263 -332.017 1763
-109.361 -329.946 1752
-105.171 -329.946 1752
-189.593 -707.538 3757
-182.676 -715.636 3800
-174.001 -717.331 3809
-164.892 -717.331 3809
-156.479 -720.532 3826
-147.676 -722.227 3835
-138.506 -722.227 3835
-129.335 -722.227 3835
-121.856 -732.397 3889
-113.888 -741.06 3935
-104.478 -741.06 3935
-95.0684 -741.06 3935
-83.4818 -722.227 3835
-74.3111 -722.227 3835
-65.4462 -725.617 3853
-56.2325 -725.617 3853
-47.0188 -725.617 3853
-37.8051 -725.617 3853
-28.5915 -725.617 3853
-19.1565 -717.331 3809
-9.95568 -710.739 3774
-0.930901 -710.739 3774
8.09388 -710.739 3774
17.1187 -710.739 3774
26.1434 -710.739 3774
35.1682 -710.739 3774
44.4038 -714.129 3792
53.4716 -714.129 3792
62.5394 -714.129 3792
71.6072 -714.129 3792
80.675 -714.129 3792
89.9322 -715.636 3800
99.0192 -715.636 3800
109.102 -722.227 3835
121.048 -739.176 3925
131.697 -746.333 3963
141.173 -746.333 3963
150.992 -748.028 3972
160.895 -749.911 3982
170.417 -749.911 3982
179.939 -749.911 3982
265.625 -723.922 3844
274.817 -723.922 3844
284.009 -723.922 3844
292.515 -722.227 3835
300.348 -719.026 3818
306.641 -712.434 3783
315.687 -712.434 3783
322.502 -707.538 3757
331.486 -707.538 3757
340.47 -707.538 3757
349.454 -707.538 3757
356.816 -704.336 3740
367.422 -707.538 3757
376.407 -707.538 3757
385.391 -707.538 3757
394.375 -707.538 3757
404.325 -709.233 3766
417.062 -715.636 3800
430.074 -722.227 3835
439.245 -722.227 3835
448.416 -722.227 3835
459.734 -725.617 3853
471.139 -729.007 3871
480.395 -729.007 3871
489.652 -729.007 3871
503.549 -735.786 3907
517.749 -742.754 3944
527.18 -742.754 3944
539.196 -746.333 3963
548.673 -746.333 3963
558.15 -746.333 3963
1741.83 -762.529 4049
1751.51 -762.529 4049
1761.2 -762.529 4049
1762.57 -758.95 4030
1767.81 -757.067 4020
1777.42 -757.067 4020
1787.03 -757.067 4020
1801.12 -758.95 4030
1810.75 -758.95 4030
1824.46 -760.645 4039
1834.11 -760.645 4039
1843.77 -760.645 4039
1853.43 -760.645 4039
1863.09 -760.645 4039
1872.75 -760.645 4039
1868.89 -755.184 4010
1860.68 -748.028 3972
1856.99 -742.754 3944
1866.42 -742.754 3944
1862.54 -737.481 3916
1859 -732.397 3889
1859.65 -729.007 3871
1868.91 -729.007 3871
3071.54 -768.178 4079
3081.3 -768.178 4079
3091.05 -768.178 4079
3100.81 -768.178 4079
3102.93 -766.295 4069
3112.66 -766.295 4069
-2458.92 -680.131 3658
-2450.17 -680.131 3658
-2441.42 -680.131 3658
-2417.38 -675.854 3635
-2408.69 -675.854 3635
-2394.71 -674.367 3627
-2375.51 -671.392 3611
-2372.12 -672.879 3619
-2373.92 -675.854 3635
-2365.23 -675.854 3635
-2356.53 -675.854 3635
-2347.84 -675.854 3635
-2323.7 -671.392 3611
-2315.07 -671.392 3611
-2291.74 -667.116 3588
-2268.53 -662.839 3565
-2254.93 -661.352 3557
-2246.43 -661.352 3557
-2237.92 -661.352 3557
-540.348 -313.291 1685
-536.319 -313.291 1685
-532.289 -313.291 1685
-528.887 -313.663 1687
-524.853 -313.663 1687
-521.745 -314.221 1690
-517.704 -314.221 1690
-513.662 -314.221 1690
-509.621 -314.221 1690
-505.28 -314.035 1689
-500.648 -313.663 1687
-496.614 -313.663 1687
-491.996 -313.291 1685
-487.098 -312.734 1682
-482.501 -312.362 1680
-478.484 -312.362 1680
-472.489 -311.06 1673
-465.408 -309.015 1662
-458.658 -307.156 1652
-454.707 -307.156 1652
-448.028 -305.297 1642
-442.749 -304.367 1637
-437.226 -303.251 1631
-433.326 -303.251 1631
-426.53 -301.206 1620
-420.569 -299.719 1612
-414.387 -298.045 1603
-409.274 -297.116 1598
-405.452 -297.116 1598
-400.877 -296.558 1595
-394.324 -294.513 1584
-388.318 -292.839 1575
-384.551 -292.839 1575
-378.609 -291.166 1566
-374.625 -290.98 1565
-369.935 -290.236 1561
-366.202 -290.236 1561
-362.469 -290.236 1561
-358.736 -290.236 1561
-355.003 -290.236 1561
-351.271 -290.236 1561
-347.092 -289.864 1559
-343.364 -289.864 1559
-339.636 -289.864 1559
-336.339 -290.236 1561
-332.819 -290.422 1562
-329.084 -290.422 1562
-325.974 -290.98 1565
-322.437 -291.166 1566
-319.1 -291.538 1568
-315.35 -291.538 1568
-312.197 -292.095 1571
-308.44 -292.095 1571
-305.265 -292.653 1574
-301.501 -292.653 1574
-297.926 -292.839 1575
-295.094 -293.769 1580
-291.5 -293.955 1581
-287.719 -293.955 1581
-284.298 -294.327 1583
-281.221 -295.07 1587
-277.776 -295.442 1589
-273.976 -295.442 1589
-270.346 -295.628 1590
-267.047 -296.186 1593
-263.734 -296.744 1596
-259.917 -296.744 1596
-256.582 -297.302 1599
-253.39 -298.045 1603
-250.024 -298.603 1606
-246.184 -298.603 1606
-242.796 -299.161 1609
-239.84 -300.276 1615
-236.708 -301.206 1620
-232.834 -301.206 1620
-229.808 -302.322 1626
-226.615 -303.251 1631
-223.397 -304.181 1636
-219.485 -304.181 1636
-215.968 -304.739 1639
-213.213 -306.412 1648
-209.526 -306.784 1650
-205.581 -306.784 1650
-202.857 -308.643 1660
-199.487 -309.573 1665
-196.679 -311.432 1675
-192.674 -311.432 1675
-189.457 -312.734 1682
-186.207 -314.035 1689
-182.275 -314.221 1690
-178.234 -314.221 1690
-174.605 -314.965 1694
-170.554 -314.965 1694
-166.995 -315.895 1699
-162.932 -315.895 1699
-159.15 -316.452 1702
-155.626 -317.568 1708
-151.631 -317.754 1709
-147.544 -317.754 1709
-144.213 -319.427 1718
-141.002 -321.472 1729
-137.263 -322.402 1734
-133.116 -322.402 1734
-130.457 -326.121 1754
-126.551 -326.864 1758
-122.347 -326.864 1758
-118.143 -326.864 1758
-113.939 -326.864 1758
-109.361 -325.749 1752
-105.171 -325.749 1752
-189.19 -697.05 3749
-182.676 -706.533 3800
-174.001 -708.206 3809
-164.892 -708.206 3809
-156.479 -711.367 3826
-147.676 -713.04 3835
-138.506 -713.04 3835
-129.335 -713.04 3835
-121.856 -723.08 3889
-113.888 -731.633 3935
-104.478 -731.633 3935
-95.0684 -731.633 3935
-83.4818 -713.04 3835
-74.3111 -713.04 3835
-65.4462 -716.387 3853
-56.2325 -716.387 3853
-47.0188 -716.387 3853
-37.8051 -716.387 3853
-28.5915 -716.387 3853
-19.1565 -708.206 3809
-9.95568 -701.699 3774
-0.930901 -701.699 3774
8.09388 -701.699 3774
17.1187 -701.699 3774
26.1434 -701.699 3774
35.1682 -701.699 3774
44.4038 -705.045 3792
53.4716 -705.045 3792
62.5394 -705.045 3792
71.6072 -705.045 3792
80.675 -705.045 3792
89.9322 -706.533 3800
99.0192 -706.533 3800
109.102 -713.04 3835
121.048 -729.774 3925
131.697 -736.839 3963
141.173 -736.839 3963
150.992 -738.513 3972
160.895 -740.372 3982
170.417 -740.372 3982
179.939 -740.372 3982
269.978 -726.427 3907
279.321 -726.427 3907
288.664 -726.427 3907
295.947 -721.407 3880
300.977 -711.367 3826
309.478 -709.879 3818
318.608 -709.879 3818
323.274 -700.211 3766
332.28 -700.211 3766
341.286 -700.211 3766
350.291 -700.211 3766
358.438 -698.538 3757
366.64 -697.05 3749
375.605 -697.05 3749
384.57 -697.05 3749
393.535 -697.05 3749
403.359 -698.538 3757
415.197 -703.372 3783
427.159 -708.206 3809
436.267 -708.206 3809
446.428 -709.879 3818
455.558 -709.879 3818
466.757 -713.04 3835
475.928 -713.04 3835
488.514 -718.06 3862
501.229 -723.08 3889
515.254 -729.774 3925
524.64 -729.774 3925
535.387 -731.633 3935
544.797 -731.633 3935
554.206 -731.633 3935
1741.83 -752.829 4049
1751.51 -752.829 4049
1761.2 -752.829 4049
1762.57 -749.297 4030
1767.81 -747.437 4020
1777.42 -747.437 4020
1787.03 -747.437 4020
1796.65 -747.437 4020
1806.26 -747.437 4020
1815.87 -747.437 4020
1825.49 -747.437 4020
1839.66 -749.297 4030
1849.3 -749.297 4030
1858.94 -749.297 4030
1868.57 -749.297 4030
1864.7 -743.905 4001
1856.46 -736.839 3963
1852.76 -731.633 3935
1862.17 -731.633 3935
1862.54 -728.101 3916
1859 -723.08 3889
1851 -716.387 3853
1860.22 -716.387 3853
3071.54 -758.407 4079
3081.3 -758.407 4079
3091.05 -758.407 4079
3093.2 -756.548 4069
3095.31 -754.688 4059
3105.01 -754.688 4059
-2470.35 -674.488 3675
-2461.56 -674.488 3675
-2452.77 -674.488 3675
-2427.36 -669.9 3650
-2418.63 -669.9 3650
-2384.15 -662.742 3611
-2364.99 -659.805 3595
-2372.12 -664.21 3619
-2378.49 -668.431 3642
-2369.78 -668.431 3642
-2361.07 -668.431 3642
-2352.36 -668.431 3642
-2328.85 -664.21 3619
-2320.2 -664.21 3619
-2291.74 -658.521 3588
-2268.53 -654.299 3565
-2260 -654.299 3565
-2251.48 -654.299 3565
-2237.92 -652.831 3557
-540.348 -309.255 1685
-536.319 -309.255 1685
-532.921 -309.622 1687
-528.887 -309.622 1687
-524.853 -309.622 1687
-521.745 -310.173 1690
-517.704 -310.173 1690
-513.662 -310.173 1690
-509.621 -310.173 1690
-505.28 -309.989 1689
-500.648 -309.622 1687
-496.614 -309.622 1687
-491.996 -309.255 1685
-487.098 -308.704 1682
-482.501 -308.337 1680
-478.484 -308.337 1680
-472.489 -307.053 1673
-465.408 -305.034 1662
-458.658 -303.198 1652
-454.707 -303.198 1652
-448.028 -301.363 1642
-442.749 -300.445 1637
-436.69 -298.977 1629
-432.795 -298.977 1629
-426.53 -297.325 1620
-420.047 -295.49 1610
-414.387 -294.205 1603
-409.274 -293.288 1598
-405.452 -293.288 1598
-400.374 -292.37 1593
-394.324 -290.718 1584
-388.071 -288.883 1574
-384.307 -288.883 1574
-378.609 -287.414 1566
-374.625 -287.231 1565
-370.172 -286.68 1562
-366.436 -286.68 1562
-362.469 -286.497 1561
-358.736 -286.497 1561
-355.003 -286.497 1561
-351.271 -286.497 1561
-347.538 -286.497 1561
-343.805 -286.497 1561
-340.072 -286.497 1561
-336.555 -286.68 1562
-332.819 -286.68 1562
-329.716 -287.231 1565
-325.974 -287.231 1565
-322.437 -287.414 1566
-319.1 -287.782 1568
-315.35 -287.782 1568
-312.197 -288.332 1571
-308.44 -288.332 1571
-305.459 -289.066 1575
-301.693 -289.066 1575
-297.926 -289.066 1575
-295.094 -289.984 1580
-291.5 -290.167 1581
-287.719 -290.167 1581
-284.298 -290.535 1583
-281.221 -291.269 1587
-277.951 -291.819 1590
-274.149 -291.819 1590
-270.686 -292.186 1592
-267.382 -292.737 1595
-264.064 -293.288 1598
-260.243 -293.288 1598
-256.903 -293.838 1601
-253.39 -294.205 1603
-250.024 -294.756 1606
-246.184 -294.756 1606
-242.796 -295.306 1609
-239.84 -296.408 1615
-236.708 -297.325 1620
-232.834 -297.325 1620
-229.808 -298.427 1626
-226.615 -299.344 1631
-223.534 -300.445 1637
-219.619 -300.445 1637
-215.968 -300.812 1639
-213.084 -302.281 1647
-209.526 -302.831 1650
-205.581 -302.831 1650
-203.102 -305.034 1662
-199.487 -305.584 1665
-196.679 -307.42 1675
-192.674 -307.42 1675
-189.57 -308.888 1683
-186.317 -310.173 1690
-182.491 -310.54 1692
-178.445 -310.54 1692
-174.605 -310.907 1694
-170.856 -311.457 1697
-167.29 -312.375 1702
-163.22 -312.375 1702
-159.337 -312.742 1704
-155.626 -313.476 1708
-151.986 -314.394 1713
-147.889 -314.394 1713
-144.381 -315.679 1720
-140.839 -316.963 1727
-137.263 -318.248 1734
-133.116 -318.248 1734
-130.309 -321.552 1752
-126.263 -321.919 1754
-122.208 -322.286 1756
-118.009 -322.286 1756
-113.81 -322.286 1756
-109.361 -321.552 1752
-105.171 -321.552 1752
-183.109 -699.082 3809
-175.188 -703.853 3835
-166.018 -703.853 3835
-157.215 -705.505 3844
-148.716 -708.809 3862
-140.131 -712.112 3880
-130.853 -712.112 3880
-123.298 -722.207 3935
-114.409 -725.51 3953
-104.956 -725.51 3953
-95.5033 -725.51 3953
-85.6586 -722.207 3935
-75.5319 -715.416 3898
-66.2106 -715.416 3898
-56.6266 -712.112 3880
-47.3483 -712.112 3880
-38.0701 -712.112 3880
-28.7918 -712.112 3880
-19.4683 -710.461 3871
-10.0032 -695.961 3792
-0.93312 -694.31 3783
8.11318 -694.31 3783
17.1595 -694.31 3783
26.2058 -694.31 3783
35.2521 -694.31 3783
44.4974 -697.43 3800
53.5844 -697.43 3800
62.6713 -697.43 3800
71.7583 -697.43 3800
80.8453 -697.43 3800
89.9322 -697.43 3800
99.0192 -697.43 3800
109.102 -703.853 3835
121.048 -720.372 3925
131.697 -727.346 3963
141.173 -727.346 3963
150.992 -728.998 3972
160.895 -730.833 3982
170.417 -730.833 3982
179.939 -730.833 3982
269.978 -717.068 3907
279.321 -717.068 3907
288.664 -717.068 3907
295.947 -712.112 3880
302.393 -705.505 3844
309.478 -700.733 3818
318.608 -700.733 3818
324.734 -694.31 3783
333.78 -694.31 3783
342.011 -692.658 3774
351.035 -692.658 3774
359.297 -691.19 3766
367.422 -689.538 3757
376.407 -689.538 3757
385.391 -689.538 3757
393.535 -688.07 3749
403.359 -689.538 3757
416.184 -695.961 3792
427.159 -699.082 3809
436.267 -699.082 3809
445.376 -699.082 3809
455.558 -700.733 3818
464.688 -700.733 3818
473.818 -700.733 3818
487.375 -707.157 3853
497.749 -708.809 3862
511.71 -715.416 3898
521.031 -715.416 3898
530.353 -715.416 3898
539.674 -715.416 3898
1741.83 -743.13 4049
1751.51 -743.13 4049
1761.2 -743.13 4049
1762.57 -739.643 4030
1767.81 -737.807 4020
1777.42 -737.807 4020
1774.14 -732.485 3991
1796.65 -737.807 4020
1806.26 -737.807 4020
1815.87 -737.807 4020
1825.49 -737.807 4020
1843.77 -741.294 4039
1853.43 -741.294 4039
1863.09 -741.294 4039
1872.75 -741.294 4039
1864.7 -734.32 4001
1851.78 -725.51 3953
1843.81 -718.72 3916
1853.17 -718.72 3916
1849.7 -713.764 3889
1850.39 -710.461 3871
3056.48 -744.965 4059
3066.19 -744.965 4059
3075.9 -744.965 4059
3085.6 -744.965 4059
3051.08 -734.32 4001
3060.65 -734.32 4001
-2470.35 -665.685 3675
-2461.56 -665.685 3675
-2452.77 -665.685 3675
-2427.36 -661.156 3650
-2418.63 -661.156 3650
-2384.15 -654.092 3611
-2364.99 -651.193 3595
-2366.88 -654.092 3611
-2378.49 -659.707 3642
-2369.78 -659.707 3642
-2361.07 -659.707 3642
-2352.36 -659.707 3642
-2328.85 -655.541 3619
-2320.2 -655.541 3619
-2296.21 -651.193 3595
-2272.98 -647.027 3572
-2260 -645.759 3565
-2251.48 -645.759 3565
-1273.2 -651.193 3595
-1264.61 -651.193 3595
-1256.01 -651.193 3595
-536.319 -305.219 1685
-532.921 -305.581 1687
-528.887 -305.581 1687
-524.853 -305.581 1687
-522.362 -306.487 1692
-518.316 -306.487 1692
-514.27 -306.487 1692
-510.224 -306.487 1692
-505.28 -305.943 1689
-500.648 -305.581 1687
-496.614 -305.581 1687
-491.996 -305.219 1685
-487.098 -304.675 1682
-482.501 -304.313 1680
-478.484 -304.313 1680
-472.489 -303.045 1673
-464.848 -300.69 1660
-458.658 -299.241 1652
-454.707 -299.241 1652
-448.028 -297.43 1642
-442.749 -296.524 1637
-436.69 -295.075 1629
-432.795 -295.075 1629
-426.53 -293.445 1620
-420.047 -291.633 1610
-413.87 -290.003 1601
-408.505 -288.916 1595
-404.691 -288.916 1595
-400.123 -288.373 1592
-393.578 -286.38 1581
-388.071 -285.112 1574
-384.307 -285.112 1574
-378.367 -283.482 1565
-374.625 -283.482 1565
-370.172 -282.939 1562
-366.436 -282.939 1562
-362.701 -282.939 1562
-358.966 -282.939 1562
-355.231 -282.939 1562
-351.496 -282.939 1562
-347.76 -282.939 1562
-344.025 -282.939 1562
-340.29 -282.939 1562
-336.986 -283.301 1564
-333.246 -283.301 1564
-329.716 -283.482 1565
-325.974 -283.482 1565
-322.849 -284.025 1568
-319.303 -284.207 1569
-315.551 -284.207 1569
-312.197 -284.569 1571
-308.636 -284.75 1572
-305.459 -285.293 1575
-301.693 -285.293 1575
-298.305 -285.656 1577
-295.281 -286.38 1581
-291.869 -286.742 1583
-288.083 -286.742 1583
-284.478 -286.924 1584
-281.753 -288.01 1590
-278.3 -288.373 1592
-274.493 -288.373 1592
-270.856 -288.554 1593
-267.382 -288.916 1595
-264.064 -289.46 1598
-260.243 -289.46 1598
-256.903 -290.003 1601
-253.549 -290.546 1604
-250.491 -291.452 1609
-246.644 -291.452 1609
-243.249 -291.995 1612
-240.285 -293.082 1618
-236.854 -293.626 1621
-232.978 -293.626 1621
-230.232 -295.075 1629
-226.615 -295.437 1631
-223.534 -296.524 1637
-219.619 -296.524 1637
-215.968 -296.886 1639
-213.084 -298.335 1647
-209.526 -298.879 1650
-205.581 -298.879 1650
-203.102 -301.052 1662
-199.846 -302.139 1668
-197.032 -303.951 1678
-193.019 -303.951 1678
-189.795 -305.219 1685
-186.537 -306.487 1692
-182.815 -307.03 1695
-178.761 -307.03 1695
-174.914 -307.392 1697
-171.259 -308.117 1701
-167.486 -308.66 1704
-163.412 -308.66 1704
-159.711 -309.385 1708
-156.082 -310.29 1713
-152.252 -310.834 1716
-148.148 -310.834 1716
-144.8 -312.464 1725
-141.165 -313.551 1731
-137.263 -314.094 1734
-133.116 -314.094 1734
-130.234 -317.174 1751
-126.119 -317.355 1752
-121.929 -317.355 1752
-117.74 -317.355 1752
-113.55 -317.355 1752
-109.361 -317.355 1752
-105.171 -317.355 1752
-183.109 -689.957 3809
-175.188 -694.667 3835
-166.018 -694.667 3835
-157.215 -696.297 3844
-148.716 -699.557 3862
-140.131 -702.818 3880
-130.853 -702.818 3880
-123.298 -712.781 3935
-114.409 -716.041 3953
-104.956 -716.041 3953
-95.5033 -716.041 3953
-85.6586 -712.781 3935
-75.5319 -706.078 3898
-66.2106 -706.078 3898
-56.6266 -702.818 3880
-47.3483 -702.818 3880
-38.0701 -702.818 3880
-28.7918 -702.818 3880
-19.4683 -701.188 3871
-10.0243 -688.327 3800
-0.93312 -685.247 3783
8.11318 -685.247 3783
17.1595 -685.247 3783
26.2058 -685.247 3783
35.4105 -688.327 3800
44.4974 -688.327 3800
53.7113 -689.957 3809
62.8198 -689.957 3809
71.9283 -689.957 3809
80.8453 -688.327 3800
89.9322 -688.327 3800
99.0192 -688.327 3800
109.358 -696.297 3844
121.048 -710.969 3925
131.065 -714.411 3944
140.497 -714.411 3944
150.65 -717.852 3963
160.895 -721.294 3982
170.417 -721.294 3982
179.939 -721.294 3982
188.557 -717.852 3963
198.983 -721.294 3982
209.5 -724.736 4001
219.068 -724.736 4001
228.636 -724.736 4001
269.978 -707.709 3907
279.321 -707.709 3907
288.664 -707.709 3907
295.947 -702.818 3880
302.393 -696.297 3844
309.478 -691.587 3818
318.608 -691.587 3818
324.734 -685.247 3783
333.78 -685.247 3783
342.011 -683.617 3774
351.035 -683.617 3774
359.297 -682.168 3766
368.303 -682.168 3766
376.407 -680.538 3757
385.391 -680.538 3757
394.375 -680.538 3757
403.359 -680.538 3757
416.184 -686.878 3792
427.159 -689.957 3809
436.267 -689.957 3809
445.376 -689.957 3809
455.558 -691.587 3818
464.688 -691.587 3818
473.818 -691.587 3818
487.375 -697.927 3853
497.749 -699.557 3862
511.71 -706.078 3898
521.031 -706.078 3898
530.353 -706.078 3898
539.674 -706.078 3898
1741.83 -733.43 4049
1751.51 -733.43 4049
1761.2 -733.43 4049
1762.57 -729.989 4030
1767.81 -728.177 4020
1777.42 -728.177 4020
1774.14 -722.924 3991
1796.65 -728.177 4020
1806.26 -728.177 4020
1815.87 -728.177 4020
1825.49 -728.177 4020
1843.77 -731.619 4039
1853.43 -731.619 4039
1863.09 -731.619 4039
1872.75 -731.619 4039
1864.7 -724.736 4001
1851.78 -716.041 3953
1843.81 -709.339 3916
1853.17 -709.339 3916
1849.7 -704.448 3889
1850.39 -701.188 3871
3056.48 -735.242 4059
3066.19 -735.242 4059
3075.9 -735.242 4059
3085.6 -735.242 4059
3051.08 -724.736 4001
3060.65 -724.736 4001
-2486.48 -661.171 3699
-2477.63 -661.171 3699
-2468.79 -661.171 3699
-2459.94 -661.171 3699
-2451.1 -661.171 3699
-2384.15 -645.441 3611
-2364.99 -642.582 3595
-2366.88 -645.441 3611
-2378.49 -650.982 3642
-2369.78 -650.982 3642
-2361.07 -650.982 3642
-2352.36 -650.982 3642
-2328.85 -646.871 3619
-2320.2 -646.871 3619
-2301.32 -644.012 3603
-2283.16 -641.33 3588
-2264.44 -638.47 3572
-2255.9 -638.47 3572
-1299.01 -646.871 3619
-1290.36 -646.871 3619
-1281.7 -646.871 3619
-1264.61 -642.582 3595
-1256.01 -642.582 3595
-536.319 -301.182 1685
-532.921 -301.54 1687
-528.887 -301.54 1687
-524.853 -301.54 1687
-522.362 -302.433 1692
-518.316 -302.433 1692
-514.27 -302.433 1692
-510.224 -302.433 1692
-505.28 -301.897 1689
-500.648 -301.54 1687
-496.614 -301.54 1687
-491.996 -301.182 1685
-487.098 -300.646 1682
-482.501 -300.288 1680
-478.484 -300.288 1680
-472.489 -299.037 1673
-465.408 -297.071 1662
-459.491 -295.82 1655
-455.533 -295.82 1655
-448.028 -293.496 1642
-443.29 -292.96 1639
-436.69 -291.173 1629
-432.795 -291.173 1629
-426.793 -289.743 1621
-420.047 -287.776 1610
-414.387 -286.525 1603
-408.505 -285.095 1595
-404.691 -285.095 1595
-400.123 -284.559 1592
-393.578 -282.593 1581
-388.071 -281.342 1574
-384.307 -281.342 1574
-378.367 -279.733 1565
-374.625 -279.733 1565
-370.172 -279.197 1562
-366.436 -279.197 1562
-362.701 -279.197 1562
-358.966 -279.197 1562
-355.231 -279.197 1562
-351.496 -279.197 1562
-347.76 -279.197 1562
-344.025 -279.197 1562
-340.29 -279.197 1562
-337.201 -279.733 1565
-333.459 -279.733 1565
-329.716 -279.733 1565
-325.974 -279.733 1565
-322.849 -280.269 1568
-319.303 -280.448 1569
-315.551 -280.448 1569
-312.395 -280.984 1572
-309.029 -281.342 1574
-305.847 -281.878 1577
-302.076 -281.878 1577
-298.305 -281.878 1577
-295.654 -282.95 1583
-292.053 -283.129 1584
-288.265 -283.129 1584
-285.016 -283.665 1587
-281.753 -284.202 1590
-278.475 -284.738 1593
-274.666 -284.738 1593
-271.197 -285.095 1595
-267.55 -285.274 1596
-264.229 -285.81 1599
-260.406 -285.81 1599
-257.384 -286.704 1604
-254.023 -287.24 1607
-250.958 -288.134 1612
-247.104 -288.134 1612
-243.701 -288.67 1615
-240.731 -289.743 1621
-237.147 -290.1 1623
-233.265 -290.1 1623
-230.515 -291.53 1631
-227.032 -292.066 1634
-223.807 -292.96 1639
-219.888 -292.96 1639
-216.1 -293.139 1640
-213.213 -294.569 1648
-209.78 -295.284 1652
-205.83 -295.284 1652
-203.468 -297.607 1665
-200.325 -298.859 1672
-197.266 -300.288 1680
-193.249 -300.288 1680
-190.02 -301.54 1687
-186.758 -302.791 1694
-182.815 -302.97 1695
-178.761 -302.97 1695
-175.121 -303.685 1699
-171.259 -304.042 1701
-167.486 -304.578 1704
-163.412 -304.578 1704
-159.711 -305.293 1708
-156.082 -306.187 1713
-152.252 -306.723 1716
-148.148 -306.723 1716
-144.8 -308.332 1725
-141.165 -309.404 1731
-137.263 -309.941 1734
-133.116 -309.941 1734
-130.234 -312.979 1751
-126.119 -313.158 1752
-121.929 -313.158 1752
-117.74 -313.158 1752
-113.55 -313.158 1752
-109.361 -313.158 1752
-105.171 -313.158 1752
-183.109 -680.833 3809
-175.188 -685.48 3835
-166.018 -685.48 3835
-157.215 -687.089 3844
-148.716 -690.306 3862
-140.131 -693.523 3880
-130.853 -693.523 3880
-123.298 -703.354 3935
-114.409 -706.572 3953
-104.956 -706.572 3953
-95.5033 -706.572 3953
-85.6586 -703.354 3935
-75.5319 -696.741 3898
-66.2106 -696.741 3898
-56.6266 -693.523 3880
-47.3483 -693.523 3880
-38.0701 -693.523 3880
-28.7918 -693.523 3880
-19.4683 -691.915 3871
-10.0243 -679.224 3800
-0.93312 -676.185 3783
8.13248 -677.794 3792
17.2003 -677.794 3792
26.2681 -677.794 3792
35.4105 -679.224 3800
44.4974 -679.224 3800
53.7113 -680.833 3809
62.8198 -680.833 3809
71.9283 -680.833 3809
80.8453 -679.224 3800
89.9322 -679.224 3800
99.0192 -679.224 3800
109.358 -687.089 3844
121.048 -701.567 3925
131.065 -704.963 3944
140.497 -704.963 3944
150.65 -708.359 3963
160.127 -708.359 3963
169.604 -708.359 3963
178.222 -704.963 3944
188.557 -708.359 3963
198.983 -711.755 3982
209.5 -715.151 4001
219.068 -715.151 4001
228.636 -715.151 4001
269.978 -698.349 3907
279.321 -698.349 3907
288.664 -698.349 3907
295.947 -693.523 3880
302.393 -687.089 3844
309.478 -682.441 3818
318.608 -682.441 3818
324.734 -676.185 3783
333.78 -676.185 3783
342.011 -674.577 3774
351.035 -674.577 3774
360.06 -674.577 3774
368.303 -673.147 3766
377.308 -673.147 3766
386.314 -673.147 3766
395.32 -673.147 3766
404.325 -673.147 3766
416.184 -677.794 3792
427.159 -680.833 3809
436.267 -680.833 3809
445.376 -680.833 3809
455.558 -682.441 3818
464.688 -682.441 3818
473.818 -682.441 3818
487.375 -688.697 3853
497.749 -690.306 3862
509.347 -693.523 3880
518.625 -693.523 3880
527.904 -693.523 3880
537.182 -693.523 3880
1722.53 -711.755 3982
1732.05 -711.755 3982
1741.57 -711.755 3982
1751.1 -711.755 3982
1764.6 -713.364 3991
1774.14 -713.364 3991
1783.69 -713.364 3991
1797.72 -715.151 4001
1815.87 -718.547 4020
1825.49 -718.547 4020
1843.77 -721.944 4039
1853.43 -721.944 4039
1863.09 -721.944 4039
1872.75 -721.944 4039
1864.7 -715.151 4001
1851.78 -706.572 3953
1839.57 -698.349 3907
1848.91 -698.349 3907
1836.85 -690.306 3862
1841.79 -688.697 3853
3012.81 -715.151 4001
3029.17 -716.76 4010
3038.76 -716.76 4010
3048.35 -716.76 4010
3051.08 -715.151 4001
3060.65 -715.151 4001
-2486.48 -652.31 3699
-2477.63 -652.31 3699
-2468.79 -652.31 3699
-2459.94 -652.31 3699
-2451.1 -652.31 3699
-2378.87 -635.38 3603
-2360.38 -632.735 3588
-2366.88 -636.791 3611
-2368.69 -639.613 3627
-2360.02 -639.613 3627
-2351.35 -639.613 3627
-2342.67 -639.613 3627
-2328.85 -638.202 3619
-2320.2 -638.202 3619
-2301.32 -635.38 3603
-2283.16 -632.735 3588
-2264.44 -629.914 3572
-2255.9 -629.914 3572
-1299.01 -638.202 3619
-1290.36 -638.202 3619
-1281.7 -638.202 3619
-1264.61 -633.97 3595
-1256.01 -633.97 3595
-536.319 -297.146 1685
-532.921 -297.498 1687
-528.887 -297.498 1687
-524.853 -297.498 1687
-522.362 -298.38 1692
-518.316 -298.38 1692
-514.27 -298.38 1692
-510.224 -298.38 1692
-505.28 -297.851 1689
-500.648 -297.498 1687
-496.614 -297.498 1687
-491.996 -297.146 1685
-487.098 -296.617 1682
-481.927 -295.911 1678
-477.914 -295.911 1678
-472.489 -295.03 1673
-465.408 -293.09 1662
-459.491 -291.855 1655
-455.533 -291.855 1655
-448.028 -289.563 1642
-443.29 -289.034 1639
-436.69 -287.27 1629
-432.795 -287.27 1629
-426.793 -285.859 1621
-420.047 -283.92 1610
-414.387 -282.685 1603
-408.505 -281.274 1595
-404.691 -281.274 1595
-400.123 -280.745 1592
-392.582 -278.1 1577
-388.071 -277.571 1574
-384.307 -277.571 1574
-378.367 -275.984 1565
-374.386 -275.808 1564
-370.172 -275.455 1562
-366.436 -275.455 1562
-362.701 -275.455 1562
-358.966 -275.455 1562
-355.231 -275.455 1562
-351.496 -275.455 1562
-347.76 -275.455 1562
-344.025 -275.455 1562
-340.29 -275.455 1562
-337.201 -275.984 1565
-333.459 -275.984 1565
-329.716 -275.984 1565
-325.974 -275.984 1565
-322.849 -276.513 1568
-319.303 -276.689 1569
-315.551 -276.689 1569
-312.395 -277.218 1572
-309.029 -277.571 1574
-305.847 -278.1 1577
-302.076 -278.1 1577
-298.305 -278.1 1577
-295.654 -279.158 1583
-292.053 -279.335 1584
-288.265 -279.335 1584
-285.016 -279.864 1587
-281.753 -280.393 1590
-278.475 -280.922 1593
-274.666 -280.922 1593
-271.197 -281.274 1595
-267.55 -281.451 1596
-264.229 -281.98 1599
-260.406 -281.98 1599
-257.384 -282.862 1604
-254.023 -283.391 1607
-250.958 -284.272 1612
-247.104 -284.272 1612
-243.701 -284.801 1615
-240.731 -285.859 1621
-237.147 -286.212 1623
-233.265 -286.212 1623
-230.515 -287.623 1631
-227.032 -288.152 1634
-223.807 -289.034 1639
-219.888 -289.034 1639
-216.1 -289.21 1640
-213.213 -290.621 1648
-209.78 -291.326 1652
-205.83 -291.326 1652
-203.468 -293.619 1665
-200.325 -294.853 1672
-197.266 -296.264 1680
-193.249 -296.264 1680
-190.02 -297.498 1687
-186.758 -298.733 1694
-182.815 -298.909 1695
-178.761 -298.909 1695
-175.121 -299.615 1699
-171.259 -299.967 1701
-167.486 -300.496 1704
-163.412 -300.496 1704
-159.711 -301.202 1708
-156.082 -302.083 1713
-152.252 -302.613 1716
-148.148 -302.613 1716
-144.8 -304.2 1725
-141.165 -305.258 1731
-137.263 -305.787 1734
-133.116 -305.787 1734
-130.085 -308.432 1749
-126.047 -308.785 1751
-121.929 -308.961 1752
-117.74 -308.961 1752
-113.55 -308.961 1752
-109.361 -308.961 1752
-105.171 -308.961 1752
-183.109 -671.708 3809
-174.001 -671.708 3809
-164.892 -671.708 3809
-157.215 -677.88 3844
-148.023 -677.88 3844
-140.131 -684.229 3880
-130.853 -684.229 3880
-123.298 -693.928 3935
-113.888 -693.928 3935
-104.478 -693.928 3935
-95.0684 -693.928 3935
-85.6586 -693.928 3935
-75.1831 -684.229 3880
-65.9048 -684.229 3880
-56.4952 -682.642 3871
-47.2385 -682.642 3871
-37.9818 -682.642 3871
-28.725 -682.642 3871
-19.4683 -682.642 3871
-10.0243 -670.121 3800
-0.93312 -667.123 3783
8.13248 -668.71 3792
17.2003 -668.71 3792
26.2681 -668.71 3792
35.4105 -670.121 3800
44.4974 -670.121 3800
53.7113 -671.708 3809
62.8198 -671.708 3809
71.9283 -671.708 3809
80.8453 -670.121 3800
89.9322 -670.121 3800
99.0192 -670.121 3800
109.358 -677.88 3844
121.048 -692.164 3925
131.065 -695.515 3944
140.497 -695.515 3944
149.928 -695.515 3944
159.359 -695.515 3944
168.791 -695.515 3944
178.222 -695.515 3944
188.557 -698.866 3963
198.983 -702.216 3982
209.5 -705.567 4001
219.068 -705.567 4001
228.636 -705.567 4001
332.986 -665.536 3774
342.011 -665.536 3774
351.035 -665.536 3774
360.06 -665.536 3774
368.303 -664.125 3766
377.308 -664.125 3766
386.314 -664.125 3766
395.32 -664.125 3766
404.325 -664.125 3766
416.184 -668.71 3792
426.149 -670.121 3800
435.236 -670.121 3800
444.323 -670.121 3800
454.484 -671.708 3809
463.593 -671.708 3809
472.701 -671.708 3809
487.375 -679.467 3853
497.749 -681.055 3862
506.984 -681.055 3862
516.219 -681.055 3862
525.455 -681.055 3862
534.69 -681.055 3862
1718.2 -700.453 3972
1727.7 -700.453 3972
1737.2 -700.453 3972
1746.7 -700.453 3972
1760.62 -702.216 3982
1770.14 -702.216 3982
1783.69 -703.803 3991
1797.72 -705.567 4001
1824.46 -712.268 4039
1834.11 -712.268 4039
1848.34 -714.032 4049
1858.02 -714.032 4049
1867.7 -714.032 4049
1877.38 -714.032 4049
1864.7 -705.567 4001
1834.45 -690.577 3916
1818.38 -681.055 3862
1827.62 -681.055 3862
1824.01 -676.293 3835
1820.76 -671.708 3809
3027.12 -708.917 4020
3036.73 -708.917 4020
3046.34 -708.917 4020
3055.95 -708.917 4020
3057.94 -707.154 4010
3067.53 -707.154 4010
-2497.91 -646.406 3716
-2489.02 -646.406 3716
-2480.13 -646.406 3716
-2471.25 -646.406 3716
-2462.36 -646.406 3716
-2368.96 -624.14 3588
-2355.12 -622.749 3580
-2351.8 -624.14 3588
-2368.69 -630.924 3627
-2360.02 -630.924 3627
-2351.35 -630.924 3627
-2342.67 -630.924 3627
-2318.56 -626.749 3603
-2309.94 -626.749 3603
-2301.32 -626.749 3603
-2283.16 -624.14 3588
-2274.58 -624.14 3588
-2266 -624.14 3588
-2257.42 -624.14 3588
-1399.77 -656.495 3774
-1390.75 -656.495 3774
-1381.72 -656.495 3774
-1360.33 -650.581 3740
-1351.39 -650.581 3740
-1321.98 -640.666 3683
-1301.41 -634.925 3650
-1281.7 -629.533 3619
-1264.61 -625.358 3595
-1256.01 -625.358 3595
-540.348 -293.109 1685
-536.319 -293.109 1685
-532.921 -293.457 1687
-528.887 -293.457 1687
-524.853 -293.457 1687
-522.362 -294.327 1692
-518.316 -294.327 1692
-514.27 -294.327 1692
-510.224 -294.327 1692
-505.28 -293.805 1689
-500.648 -293.457 1687
-496.614 -293.457 1687
-491.996 -293.109 1685
-487.098 -292.587 1682
-481.927 -291.892 1678
-477.914 -291.892 1678
-472.489 -291.022 1673
-465.688 -289.282 1663
-460.879 -288.761 1660
-456.909 -288.761 1660
-449.393 -286.499 1647
-444.102 -285.629 1642
-437.495 -283.89 1632
-433.592 -283.89 1632
-427.32 -282.324 1623
-420.569 -280.411 1612
-414.387 -278.845 1603
-408.505 -277.454 1595
-404.691 -277.454 1595
-400.123 -276.932 1592
-392.582 -274.322 1577
-387.578 -273.453 1572
-383.819 -273.453 1572
-378.367 -272.235 1565
-374.386 -272.061 1564
-370.172 -271.713 1562
-366.436 -271.713 1562
-362.701 -271.713 1562
-358.966 -271.713 1562
-355.231 -271.713 1562
-351.496 -271.713 1562
-347.76 -271.713 1562
-344.025 -271.713 1562
-340.29 -271.713 1562
-337.201 -272.235 1565
-333.459 -272.235 1565
-329.716 -272.235 1565
-325.974 -272.235 1565
-322.849 -272.757 1568
-319.303 -272.931 1569
-315.551 -272.931 1569
-312.395 -273.453 1572
-309.029 -273.801 1574
-305.847 -274.322 1577
-302.076 -274.322 1577
-298.872 -274.844 1580
-295.841 -275.54 1584
-292.053 -275.54 1584
-288.265 -275.54 1584
-285.016 -276.062 1587
-282.107 -276.932 1592
-278.475 -277.106 1593
-274.666 -277.106 1593
-271.367 -277.628 1596
-267.885 -277.975 1598
-264.56 -278.497 1601
-260.731 -278.497 1601
-257.705 -279.367 1606
-254.339 -279.889 1609
-250.958 -280.411 1612
-247.104 -280.411 1612
-243.701 -280.933 1615
-240.731 -281.976 1621
-237.293 -282.498 1624
-233.409 -282.498 1624
-230.515 -283.716 1631
-227.032 -284.238 1634
-223.807 -285.108 1639
-219.888 -285.108 1639
-216.1 -285.281 1640
-213.213 -286.673 1648
-209.78 -287.369 1652
-205.83 -287.369 1652
-203.468 -289.63 1665
-200.325 -290.848 1672
-197.266 -292.24 1680
-193.249 -292.24 1680
-190.245 -293.805 1689
-186.868 -294.849 1695
-183.03 -295.197 1697
-178.972 -295.197 1697
-175.121 -295.545 1699
-171.259 -295.893 1701
-167.486 -296.414 1704
-163.412 -296.414 1704
-159.711 -297.11 1708
-156.082 -297.98 1713
-152.252 -298.502 1716
-148.148 -298.502 1716
-144.8 -300.067 1725
-141.165 -301.111 1731
-137.263 -301.633 1734
-133.116 -301.633 1734
-129.49 -302.851 1741
-125.759 -303.894 1747
-121.721 -304.242 1749
-117.538 -304.242 1749
-113.356 -304.242 1749
-109.049 -303.894 1747
-104.871 -303.894 1747
-183.109 -662.584 3809
-174.412 -664.149 3818
-165.282 -664.149 3818
-156.847 -667.106 3835
-147.676 -667.106 3835
-139.481 -671.803 3862
-130.246 -671.803 3862
-122.702 -681.196 3916
-113.599 -682.762 3925
-104.213 -682.762 3925
-94.8268 -682.762 3925
-85.245 -681.196 3916
-74.8343 -671.803 3862
-65.5991 -671.803 3862
-56.3639 -671.803 3862
-47.2385 -673.369 3871
-37.9818 -673.369 3871
-28.725 -673.369 3871
-19.3325 -668.672 3844
-10.0243 -661.018 3800
-0.93312 -658.061 3783
8.13248 -659.626 3792
17.2003 -659.626 3792
26.2681 -659.626 3792
35.3359 -659.626 3792
44.4974 -661.018 3800
53.5844 -661.018 3800
62.6713 -661.018 3800
71.7583 -661.018 3800
80.675 -659.626 3792
89.7429 -659.626 3792
98.5762 -658.061 3783
109.358 -668.672 3844
120.215 -678.065 3898
131.065 -686.067 3944
140.497 -686.067 3944
149.928 -686.067 3944
159.359 -686.067 3944
168.791 -686.067 3944
178.222 -686.067 3944
188.985 -690.938 3972
198.983 -692.677 3982
209.5 -695.982 4001
219.068 -695.982 4001
228.636 -695.982 4001
332.986 -656.495 3774
342.011 -656.495 3774
351.035 -656.495 3774
360.06 -656.495 3774
368.303 -655.104 3766
377.308 -655.104 3766
387.135 -656.495 3774
396.159 -656.495 3774
405.184 -656.495 3774
416.184 -659.626 3792
425.252 -659.626 3792
434.32 -659.626 3792
443.388 -659.626 3792
453.41 -661.018 3800
463.593 -662.584 3809
472.701 -662.584 3809
486.237 -668.672 3844
495.429 -668.672 3844
504.621 -668.672 3844
513.813 -668.672 3844
523.005 -668.672 3844
530.952 -667.106 3835
1718.2 -690.938 3972
1727.7 -690.938 3972
1737.2 -690.938 3972
1751.1 -692.677 3982
1764.6 -694.243 3991
1774.14 -694.243 3991
1792.18 -697.548 4010
1806.26 -699.288 4020
1824.46 -702.593 4039
1834.11 -702.593 4039
1848.34 -704.332 4049
1858.02 -704.332 4049
1867.7 -704.332 4049
1877.38 -704.332 4049
1864.7 -695.982 4001
1830.23 -679.631 3907
1814.15 -670.237 3853
1823.36 -670.237 3853
1819.73 -665.541 3826
1820.76 -662.584 3809
3027.12 -699.288 4020
3036.73 -699.288 4020
3046.34 -699.288 4020
3055.95 -699.288 4020
3057.94 -697.548 4010
3067.53 -697.548 4010
-2497.91 -637.504 3716
-2489.02 -637.504 3716
-2480.13 -637.504 3716
-2471.25 -637.504 3716
-2462.36 -637.504 3716
-2358.4 -612.8 3572
-2349.86 -612.8 3572
-2366.88 -619.491 3611
-2368.69 -622.236 3627
-2360.02 -622.236 3627
-2351.35 -622.236 3627
-2342.67 -622.236 3627
-2318.56 -618.118 3603
-2309.94 -618.118 3603
-2301.32 -618.118 3603
-2283.16 -615.545 3588
-2274.58 -615.545 3588
-2266 -615.545 3588
-2257.42 -615.545 3588
-2248.84 -615.545 3588
-1412.16 -648.999 3783
-1403.11 -648.999 3783
-1394.06 -648.999 3783
-1381.72 -647.455 3774
-1360.33 -641.622 3740
-1351.39 -641.622 3740
-1321.98 -631.843 3683
-1301.41 -626.182 3650
-1273.2 -616.746 3595
-1264.61 -616.746 3595
-1256.01 -616.746 3595
-540.348 -289.073 1685
-536.319 -289.073 1685
-532.289 -289.073 1685
-528.887 -289.416 1687
-524.853 -289.416 1687
-521.436 -289.759 1689
-517.397 -289.759 1689
-513.358 -289.759 1689
-509.319 -289.759 1689
-504.682 -289.416 1687
-500.648 -289.416 1687
-496.614 -289.416 1687
-491.996 -289.073 1685
-487.098 -288.558 1682
-481.927 -287.872 1678
-477.914 -287.872 1678
-472.489 -287.014 1673
-465.688 -285.299 1663
-460.879 -284.784 1660
-456.909 -284.784 1660
-449.393 -282.554 1647
-444.643 -282.039 1644
-438.031 -280.323 1634
-434.123 -280.323 1634
-427.583 -278.608 1624
-420.83 -276.721 1613
-414.646 -275.177 1604
-408.761 -273.804 1596
-404.945 -273.804 1596
-400.374 -273.29 1593
-392.831 -270.716 1578
-388.071 -270.03 1574
-384.307 -270.03 1574
-378.367 -268.486 1565
-374.386 -268.315 1564
-370.172 -267.971 1562
-366.436 -267.971 1562
-362.701 -267.971 1562
-358.966 -267.971 1562
-355.231 -267.971 1562
-351.496 -267.971 1562
-347.76 -267.971 1562
-344.025 -267.971 1562
-340.29 -267.971 1562
-337.201 -268.486 1565
-333.459 -268.486 1565
-329.716 -268.486 1565
-325.974 -268.486 1565
-322.849 -269.001 1568
-319.303 -269.172 1569
-315.551 -269.172 1569
-312.395 -269.687 1572
-309.029 -270.03 1574
-305.847 -270.545 1577
-302.076 -270.545 1577
-298.872 -271.059 1580
-295.841 -271.746 1584
-292.422 -272.089 1586
-288.629 -272.089 1586
-285.016 -272.26 1587
-282.285 -273.29 1593
-278.825 -273.633 1595
-275.011 -273.633 1595
-271.367 -273.804 1596
-267.885 -274.147 1598
-264.89 -275.005 1603
-261.057 -275.005 1603
-257.866 -275.691 1607
-254.497 -276.206 1610
-251.114 -276.721 1613
-247.257 -276.721 1613
-244.003 -277.407 1617
-240.731 -278.093 1621
-237.293 -278.608 1624
-233.409 -278.608 1624
-230.515 -279.809 1631
-227.032 -280.323 1634
-223.807 -281.181 1639
-219.888 -281.181 1639
-216.1 -281.353 1640
-213.213 -282.725 1648
-209.78 -283.412 1652
-205.83 -283.412 1652
-203.468 -285.642 1665
-200.325 -286.843 1672
-197.266 -288.215 1680
-193.249 -288.215 1680
-190.245 -289.759 1689
-186.868 -290.788 1695
-183.246 -291.475 1699
-179.183 -291.475 1699
-175.121 -291.475 1699
-171.36 -291.989 1702
-167.683 -292.676 1706
-163.603 -292.676 1706
-159.524 -292.676 1706
-155.9 -293.533 1711
-152.163 -294.22 1715
-148.062 -294.22 1715
-144.633 -295.592 1723
-140.839 -296.278 1727
-137.105 -297.136 1732
-132.963 -297.136 1732
-129.49 -298.68 1741
-125.327 -298.68 1741
-121.164 -298.68 1741
-117.001 -298.68 1741
-112.837 -298.68 1741
-108.674 -298.68 1741
-104.511 -298.68 1741
-184.359 -657.92 3835
-175.188 -657.92 3835
-166.018 -657.92 3835
-156.847 -657.92 3835
-147.33 -656.376 3826
-139.156 -661.008 3853
-129.942 -661.008 3853
-122.42 -670.272 3907
-113.338 -671.816 3916
-103.974 -671.816 3916
-94.6094 -671.816 3916
-84.2654 -664.096 3871
-74.6599 -661.008 3853
-65.4462 -661.008 3853
-56.1012 -659.464 3844
-46.909 -659.464 3844
-37.7168 -659.464 3844
-28.5247 -659.464 3844
-19.2872 -657.92 3835
-10.0929 -656.376 3826
-0.930901 -647.455 3774
8.11318 -648.999 3783
17.1595 -648.999 3783
26.2058 -648.999 3783
35.2521 -648.999 3783
44.4974 -651.915 3800
53.5844 -651.915 3800
62.6713 -651.915 3800
71.7583 -651.915 3800
80.8453 -651.915 3800
89.9322 -651.915 3800
99.0192 -651.915 3800
109.358 -659.464 3844
119.938 -667.184 3889
131.065 -676.619 3944
140.497 -676.619 3944
149.928 -676.619 3944
159.359 -676.619 3944
168.791 -676.619 3944
178.222 -676.619 3944
188.985 -681.423 3972
198.983 -683.138 3982
208.506 -683.138 3982
218.028 -683.138 3982
342.011 -647.455 3774
351.035 -647.455 3774
360.06 -647.455 3774
369.085 -647.455 3774
378.11 -647.455 3774
387.135 -647.455 3774
396.159 -647.455 3774
406.15 -648.999 3783
417.062 -651.915 3800
426.149 -651.915 3800
435.236 -651.915 3800
444.323 -651.915 3800
452.456 -650.543 3792
463.593 -653.459 3809
472.701 -653.459 3809
486.237 -659.464 3844
495.429 -659.464 3844
504.621 -659.464 3844
513.813 -659.464 3844
520.556 -656.376 3826
527.352 -653.459 3809
1726.42 -684.682 3991
1735.97 -684.682 3991
1745.51 -684.682 3991
1755.05 -684.682 3991
1769.02 -686.398 4001
1778.59 -686.398 4001
1801.12 -691.373 4030
1814.8 -692.917 4039
1824.46 -692.917 4039
1834.11 -692.917 4039
1848.34 -694.633 4049
1858.02 -694.633 4049
1867.7 -694.633 4049
1877.38 -694.633 4049
1868.89 -687.942 4010
1830.23 -670.272 3907
1814.15 -661.008 3853
1823.36 -661.008 3853
1819.73 -656.376 3826
1820.76 -653.459 3809
2953.7 -675.075 3935
3027.12 -689.658 4020
3036.73 -689.658 4020
3046.34 -689.658 4020
3055.95 -689.658 4020
3057.94 -687.942 4010
3067.53 -687.942 4010
-2497.91 -628.603 3716
-2489.02 -628.603 3716
-2480.13 -628.603 3716
-2471.25 -628.603 3716
-2462.36 -628.603 3716
-2373.59 -608.134 3595
-2364.99 -608.134 3595
-2366.88 -610.841 3611
-2378.49 -616.085 3642
-2369.78 -616.085 3642
-2361.07 -616.085 3642
-2352.36 -616.085 3642
-2323.7 -610.841 3611
-2315.07 -610.841 3611
-2301.32 -609.487 3603
-2292.71 -609.487 3603
-2274.58 -606.95 3588
-2275.48 -609.487 3603
-2266.86 -609.487 3603
-2258.25 -609.487 3603
-2249.63 -609.487 3603
-2241.01 -609.487 3603
-1412.16 -639.936 3783
-1403.11 -639.936 3783
-1394.06 -639.936 3783
