-486.156 5.52037 1665
-480.727 5.50379 1660
-476.757 5.50379 1660
-472.787 5.50379 1660
-468.253 5.49716 1658
-462.888 5.48058 1653
-458.935 5.48058 1653
-454.982 5.48058 1653
-451.03 5.48058 1653
-445.725 5.464 1648
-441.784 5.464 1648
-437.843 5.464 1648
-433.902 5.464 1648
-429.7 5.46069 1647
-425.245 5.45406 1645
-421.311 5.45406 1645
-417.124 5.45074 1644
-412.69 5.44411 1642
-408.763 5.44411 1642
-404.837 5.44411 1642
-400.91 5.44411 1642
-396.984 5.44411 1642
-393.057 5.44411 1642
-389.13 5.44411 1642
-385.204 5.44411 1642
-381.277 5.44411 1642
-377.811 5.45074 1644
-373.879 5.45074 1644
-369.948 5.45074 1644
-366.017 5.45074 1644
-362.085 5.45074 1644
-358.154 5.45074 1644
-354.223 5.45074 1644
-350.291 5.45074 1644
-346.36 5.45074 1644
-342.429 5.45074 1644
-338.497 5.45074 1644
-334.159 5.44411 1642
-330.233 5.44411 1642
-326.306 5.44411 1642
-322.38 5.44411 1642
-318.453 5.44411 1642
-314.143 5.43748 1640
-310.222 5.43748 1640
-306.3 5.43748 1640
-302.378 5.43748 1640
-298.457 5.43748 1640
-294.535 5.43748 1640
-290.613 5.43748 1640
-286.691 5.43748 1640
-283.459 5.45074 1644
-279.528 5.45074 1644
-275.764 5.45406 1645
-271.831 5.45406 1645
-268.223 5.46069 1647
-264.766 5.47064 1650
-260.82 5.47064 1650
-256.874 5.47064 1650
-253.235 5.47727 1652
-249.436 5.48058 1653
-245.483 5.48058 1653
-241.53 5.48058 1653
-238.152 5.49384 1657
-234.331 5.49716 1658
-230.644 5.50379 1660
-227.357 5.52037 1665
-223.376 5.52037 1665
-219.79 5.53032 1668
-216.448 5.54689 1673
-213.082 5.56347 1678
-209.069 5.56347 1678
-205.301 5.5701 1680
-201.643 5.58005 1683
-197.854 5.58668 1685
-193.824 5.58668 1685
-190.358 5.60326 1690
-186.537 5.60989 1692
-182.815 5.61983 1695
-178.761 5.61983 1695
-175.327 5.63973 1701
-171.36 5.64304 1702
-167.486 5.64967 1704
-163.412 5.64967 1704
-159.711 5.66294 1708
-155.718 5.66625 1709
-151.986 5.67951 1713
-147.889 5.67951 1713
-144.045 5.68946 1716
-139.941 5.68946 1716
-135.996 5.69609 1718
-131.888 5.69609 1718
-127.929 5.70272 1720
-123.815 5.70272 1720
-119.842 5.70935 1722
-115.724 5.70935 1722
-111.606 5.70935 1722
-107.488 5.70935 1722
-103.37 5.70935 1722
-99.2525 5.70935 1722
-95.1899 5.71267 1723
-91.0697 5.71267 1723
-87.0504 5.7193 1725
-82.9254 5.7193 1725
-78.8918 5.72593 1727
-74.8486 5.73256 1729
-70.7141 5.73256 1729
-66.5795 5.73256 1729
-62.3727 5.72593 1727
-58.2429 5.72593 1727
-54.1131 5.72593 1727
-49.9255 5.7193 1725
-45.8005 5.7193 1725
-41.6755 5.7193 1725
-37.5069 5.71267 1723
-33.3867 5.71267 1723
-29.2155 5.70272 1720
-25.0733 5.69609 1718
-20.9284 5.68615 1715
-16.8274 5.68615 1715
-12.7114 5.67951 1713
196.724 12.4565 3757
205.708 12.4565 3757
215.207 12.4863 3766
224.212 12.4863 3766
233.218 12.4863 3766
241.13 12.4299 3749
247.894 12.3205 3716
256.78 12.3205 3716
266.81 12.3736 3732
275.734 12.3736 3732
284.658 12.3736 3732
294.212 12.4001 3740
303.156 12.4001 3740
312.85 12.4299 3749
321.815 12.4299 3749
330.78 12.4299 3749
339.745 12.4299 3749
348.71 12.4299 3749
356.816 12.4001 3740
364.195 12.3471 3724
371.397 12.2907 3707
380.262 12.2907 3707
387.447 12.2376 3691
395.414 12.2111 3683
402.465 12.1581 3667
411.234 12.1581 3667
418.972 12.1282 3658
424.095 12.0255 3627
431.814 11.9989 3619
438.52 11.9459 3603
447.136 11.9459 3603
454.74 11.9194 3595
461.404 11.8696 3580
468.914 11.8431 3572
477.456 11.8431 3572
485.045 11.8199 3565
491.355 11.7668 3549
496.743 11.6939 3527
505.178 11.6939 3527
512.592 11.6707 3520
518.79 11.621 3505
527.171 11.621 3505
535.553 11.621 3505
541.606 11.5712 3490
549.952 11.5712 3490
557.178 11.548 3483
565.507 11.548 3483
573.836 11.548 3483
582.164 11.548 3483
592.867 11.5944 3497
602.605 11.621 3505
612.206 11.6442 3512
620.605 11.6442 3512
632.943 11.7171 3534
642.846 11.7436 3542
655.545 11.8199 3565
664.07 11.8199 3565
678.255 11.9194 3595
686.852 11.9194 3595
695.449 11.9194 3595
704.045 11.9194 3595
714.228 11.9459 3603
722.844 11.9459 3603
731.46 11.9459 3603
740.076 11.9459 3603
748.692 11.9459 3603
1083.43 13.4246 4049
1093.11 13.4246 4049
1102.79 13.4246 4049
1101.76 13.2953 4010
1100.82 13.1693 3972
1120.94 13.2953 4010
1130.53 13.2953 4010
1140.12 13.2953 4010
1208.51 13.5241 4079
1218.26 13.5241 4079
1228.01 13.5241 4079
1231.7 13.4578 4059
1232.54 13.3616 4030
1233.23 13.2655 4001
1242.8 13.2655 4001
1252.37 13.2655 4001
1258.78 13.2323 3991
1256.25 13.1063 3953
1265.7 13.1063 3953
1287.41 13.2323 3991
1296.96 13.2323 3991
1312.72 13.2953 4010
1322.31 13.2953 4010
1331.9 13.2953 4010
1338.48 13.2655 4001
1348.05 13.2655 4001
1347.77 13.1693 3972
1357.27 13.1693 3972
1363.67 13.1395 3963
1366.57 13.0765 3944
1369.37 13.0135 3925
1378.75 13.0135 3925
1372.22 12.8643 3880
1375.09 12.8046 3862
1390.78 12.8643 3880
1400.06 12.8643 3880
1409.34 12.8643 3880
1415.33 12.8344 3871
1427.89 12.8643 3880
1443.84 12.924 3898
1463.23 13.0135 3925
1472.61 13.0135 3925
1482 13.0135 3925
1491.38 13.0135 3925
1500.77 13.0135 3925
1489.38 12.8344 3871
1498.64 12.8344 3871
1507.89 12.8344 3871
1517.15 12.8344 3871
1501.96 12.6289 3809
1511.07 12.6289 3809
1513.39 12.5725 3792
1522.46 12.5725 3792
1524.26 12.5128 3774
1516.22 12.3736 3732
1514.93 12.2907 3707
1487.62 11.9989 3619
1496.27 11.9989 3619
1479.14 11.7934 3557
1481.38 11.7436 3542
1489.85 11.7436 3542
1498.32 11.7436 3542
1506.79 11.7436 3542
1511.83 11.7171 3534
1495.33 11.5248 3476
1503.65 11.5248 3476
1511.96 11.5248 3476
1520.27 11.5248 3476
1534.74 11.5712 3490
1546.18 11.5944 3497
1554.54 11.5944 3497
1562.9 11.5944 3497
1574.86 11.621 3505
1583.24 11.621 3505
1591.62 11.621 3505
1600.01 11.621 3505
1615.27 11.6707 3520
1633.84 11.7436 3542
1645.55 11.7668 3549
1654.04 11.7668 3549
1666.27 11.7934 3557
1674.78 11.7934 3557
1683.28 11.7934 3557
1687.98 11.7668 3549
1682.61 11.6707 3520
1691.03 11.6707 3520
1699.44 11.6707 3520
1707.86 11.6707 3520
2235.21 11.7436 3542
2253.18 11.7934 3557
2266.77 11.8199 3565
2275.29 11.8199 3565
2283.82 11.8199 3565
2292.34 11.8199 3565
2300.87 11.8199 3565
2284.78 11.6939 3527
2269.16 11.5712 3490
2263.14 11.4983 3468
2271.44 11.4983 3468
1824.56 9.03815 2726
1831.08 9.03815 2726
1849.73 9.09783 2744
1859 9.1111 2748
1881.19 9.18735 2771
1891.22 9.20393 2776
1897.86 9.20393 2776
1907.24 9.21719 2780
1917.33 9.23377 2785
1930.21 9.26361 2794
1936.89 9.26361 2794
1943.57 9.26361 2794
1950.25 9.26361 2794
1963.94 9.29677 2804
1970.64 9.29677 2804
1990.74 9.35976 2823
2007.4 9.40618 2837
2017.74 9.42276 2842
2024.53 9.42276 2842
2034.9 9.43933 2847
2045.3 9.45591 2852
2062.19 9.50233 2866
2069.04 9.50233 2866
2075.9 9.50233 2866
2086.38 9.51891 2871
2093.25 9.51891 2871
2103.77 9.53548 2876
2110.65 9.53548 2876
2117.53 9.53548 2876
2128.1 9.55206 2881
2138.69 9.56864 2886
2145.59 9.56864 2886
2156.22 9.58522 2891
2166.88 9.6018 2896
2216.59 9.79078 2953
2223.65 9.79078 2953
2246.57 9.86041 2974
2265.81 9.91346 2990
2272.96 9.91346 2990
2280.11 9.91346 2990
2287.26 9.91346 2990
-2478.28 18.9036 3310
-2470.36 18.9036 3310
-2462.45 18.9036 3310
-2459.72 18.9435 3317
-2471.01 19.092 3343
-2473.33 19.172 3357
-2465.3 19.172 3357
-2457.27 19.172 3357
-2449.25 19.172 3357
-2441.22 19.172 3357
-2428.12 19.132 3350
-2429.5 19.2062 3363
-2431.54 19.2862 3377
-2423.46 19.2862 3377
-2415.39 19.2862 3377
-2427.27 19.4461 3405
-2419.13 19.4461 3405
-2410.99 19.4461 3405
-2402.84 19.4461 3405
-2394.7 19.4461 3405
-2386.56 19.4461 3405
-2383.31 19.4861 3412
-2375.15 19.4861 3412
-2366.99 19.4861 3412
-2358.83 19.4861 3412
-2360.32 19.566 3426
-2352.12 19.566 3426
-2343.93 19.566 3426
-2345.28 19.646 3440
-2337.06 19.646 3440
-2328.83 19.646 3440
-2330.05 19.726 3454
-2331.2 19.8059 3468
-2322.91 19.8059 3468
-2314.61 19.8059 3468
-2320.95 19.9315 3490
-2332.48 20.1029 3520
-2324.07 20.1029 3520
-2315.65 20.1029 3520
-2307.23 20.1029 3520
-2303.39 20.1429 3527
-2299.51 20.1828 3534
-2291.06 20.1828 3534
-2282.61 20.1828 3534
-2274.15 20.1828 3534
-2275.32 20.2685 3549
-2266.83 20.2685 3549
-2258.35 20.2685 3549
-2249.86 20.2685 3549
-2246.43 20.3142 3557
-2237.92 20.3142 3557
-2234.43 20.3599 3565
-2230.27 20.3999 3572
-2226.71 20.4455 3580
-2218.15 20.4455 3580
-2209.59 20.4455 3580
-2205.94 20.4912 3588
-2206.55 20.5769 3603
-2197.93 20.5769 3603
-2189.32 20.5769 3603
-2180.7 20.5769 3603
-2172.09 20.5769 3603
-2144.86 20.3999 3572
-2141.1 20.4455 3580
-2137.3 20.4912 3588
-2147.12 20.6683 3619
-2138.46 20.6683 3619
-2148.05 20.8453 3650
-2139.32 20.8453 3650
-2130.59 20.8453 3650
-2121.87 20.8453 3650
-2104.45 20.7597 3635
-2081.92 20.6226 3611
-2073.29 20.6226 3611
-2051.5 20.4912 3588
-2020.72 20.2685 3549
-1970.84 19.8516 3476
-1962.53 19.8516 3476
-1926.11 19.566 3426
-1906.16 19.4461 3405
-1886.31 19.3262 3384
-1878.22 19.3262 3384
-1833.1 18.9435 3317
-1807.01 18.7551 3284
-1799.16 18.7551 3284
-1791.3 18.7551 3284
-1783.45 18.7551 3284
-1775.6 18.7551 3284
-1764.51 18.7208 3278
-1745.96 18.6066 3258
-1738.17 18.6066 3258
-1724 18.5381 3246
-1716.24 18.5381 3246
-1708.48 18.5381 3246
-1700.72 18.5381 3246
-1689.3 18.4981 3239
-1675.33 18.4295 3227
-1673.81 18.4981 3239
-1669.67 18.5381 3246
-1661.91 18.5381 3246
-1657.2 18.5723 3252
-1656.02 18.6466 3265
-1648.21 18.6466 3265
-1640.4 18.6466 3265
-1635.59 18.6808 3271
-1634.24 18.7551 3284
-1629.36 18.7893 3290
-1621.49 18.7893 3290
-1617.06 18.8293 3297
-1615.52 18.9036 3310
-1607.6 18.9036 3310
-1599.69 18.9036 3310
-1598.03 18.9778 3323
-1590.08 18.9778 3323
-1582.13 18.9778 3323
-1574.19 18.9778 3323
-1566.24 18.9778 3323
-1570.96 19.132 3350
-1562.95 19.132 3350
-1554.93 19.132 3350
-1546.92 19.132 3350
-1532.94 19.0578 3337
-1524.96 19.0578 3337
-1513.8 19.0178 3330
-1499.96 18.9435 3317
-1512.72 19.2062 3363
-1507.81 19.2462 3370
-1499.75 19.2462 3370
-1491.69 19.2462 3370
-1483.63 19.2462 3370
-1475.57 19.2462 3370
-1464.46 19.2062 3363
-1447.76 19.092 3343
-1434.17 19.0178 3330
-1426.21 19.0178 3330
-736.903 9.93722 1740
-732.742 9.93722 1740
-736.118 10.04 1758
-731.914 10.04 1758
-727.71 10.04 1758
-721.86 10.0172 1754
-717.666 10.0172 1754
-714.285 10.0286 1756
-710.895 10.04 1758
-706.691 10.04 1758
-704.085 10.0629 1762
-700.269 10.0686 1763
-696.053 10.0686 1763
-691.837 10.0686 1763
-687.621 10.0686 1763
-683.018 10.0629 1762
-678.804 10.0629 1762
-673.059 10.04 1758
-668.855 10.04 1758
-664.652 10.04 1758
-660.448 10.04 1758
-656.244 10.04 1758
-652.04 10.04 1758
-646.362 10.0172 1754
-642.168 10.0172 1754
-636.882 10 1751
-631.972 9.98862 1749
-624.918 9.94293 1741
-618.972 9.91438 1736
-614.821 9.91438 1736
-609.263 9.89153 1732
-604.771 9.88582 1731
-598.55 9.85155 1725
-594.425 9.85155 1725
-589.274 9.83442 1722
-583.117 9.80015 1716
-577.326 9.7716 1711
-573.235 9.7716 1711
-567.48 9.74304 1706
-561.749 9.71449 1701
-554.731 9.66309 1692
-550.685 9.66309 1692
-545.023 9.63453 1687
-539.386 9.60598 1682
-534.091 9.58313 1678
-530.078 9.58313 1678
-525.752 9.57742 1677
-521.119 9.566 1675
-516.497 9.55458 1673
-511.577 9.53745 1670
-507.583 9.53745 1670
-503.59 9.53745 1670
-498.998 9.52602 1668
-494.119 9.50889 1665
-490.138 9.50889 1665
-485.572 9.49747 1663
-480.727 9.48034 1660
-476.183 9.46891 1658
-472.218 9.46891 1658
-467.971 9.4632 1657
-462.888 9.44036 1653
-458.935 9.44036 1653
-454.982 9.44036 1653
-450.757 9.43465 1652
-445.725 9.4118 1648
-441.784 9.4118 1648
-437.843 9.4118 1648
-433.639 9.40609 1647
-429.178 9.39467 1645
-425.245 9.39467 1645
-421.311 9.39467 1645
-417.124 9.38896 1644
-412.69 9.37754 1642
-408.763 9.37754 1642
-404.837 9.37754 1642
-400.91 9.37754 1642
-396.984 9.37754 1642
-393.057 9.37754 1642
-389.13 9.37754 1642
-385.204 9.37754 1642
-381.277 9.37754 1642
-377.351 9.37754 1642
-373.424 9.37754 1642
-369.948 9.38896 1644
-366.017 9.38896 1644
-362.085 9.38896 1644
-358.154 9.38896 1644
-354.223 9.38896 1644
-350.291 9.38896 1644
-346.36 9.38896 1644
-342.429 9.38896 1644
-338.497 9.38896 1644
-334.159 9.37754 1642
-330.233 9.37754 1642
-326.306 9.37754 1642
-322.38 9.37754 1642
-318.453 9.37754 1642
-314.143 9.36611 1640
-310.222 9.36611 1640
-306.3 9.36611 1640
-302.378 9.36611 1640
-298.457 9.36611 1640
-294.894 9.37754 1642
-290.967 9.37754 1642
-287.041 9.37754 1642
-283.459 9.38896 1644
-279.528 9.38896 1644
-275.764 9.39467 1645
-271.831 9.39467 1645
-268.223 9.40609 1647
-264.766 9.42323 1650
-260.82 9.42323 1650
-256.874 9.42323 1650
-253.235 9.43465 1652
-249.436 9.44036 1653
-245.78 9.45178 1655
-241.822 9.45178 1655
-238.152 9.4632 1657
-234.614 9.48034 1660
-230.644 9.48034 1660
-227.357 9.50889 1665
-223.376 9.50889 1665
-219.79 9.52602 1668
-216.448 9.55458 1673
-213.082 9.58313 1678
-209.069 9.58313 1678
-205.301 9.59456 1680
-201.643 9.61169 1683
-197.854 9.62311 1685
-193.824 9.62311 1685
-190.358 9.65167 1690
-186.537 9.66309 1692
-182.815 9.68022 1695
-178.761 9.68022 1695
-175.121 9.70307 1699
-171.259 9.71449 1701
-167.486 9.73162 1704
-163.412 9.73162 1704
-159.524 9.74304 1706
-155.718 9.76018 1709
-151.986 9.78302 1713
-147.889 9.78302 1713
-143.961 9.79444 1715
-139.941 9.80015 1716
-135.996 9.81158 1718
-131.888 9.81158 1718
-127.929 9.823 1720
-123.815 9.823 1720
-119.702 9.823 1720
-115.589 9.823 1720
-111.606 9.83442 1722
-107.488 9.83442 1722
-103.37 9.83442 1722
-99.2525 9.83442 1722
-95.1899 9.84013 1723
-91.1754 9.85155 1725
-87.0504 9.85155 1725
-82.9254 9.85155 1725
-78.9832 9.8744 1729
-74.8486 9.8744 1729
-70.7141 9.8744 1729
-66.5795 9.8744 1729
-62.4449 9.8744 1729
-58.2429 9.86298 1727
-54.1131 9.86298 1727
-49.9833 9.86298 1727
-45.8005 9.85155 1725
-41.6755 9.85155 1725
-37.4852 9.83442 1722
-33.3673 9.83442 1722
-29.2155 9.823 1720
-25.0441 9.80015 1716
-20.9407 9.80015 1716
-16.8372 9.80015 1716
-12.7114 9.78302 1713
200.78 20.9424 3667
215.207 21.5078 3766
224.212 21.5078 3766
233.218 21.5078 3766
238.429 21.1708 3707
247.293 21.1708 3707
256.78 21.2222 3716
266.238 21.2679 3724
275.143 21.2679 3724
284.048 21.2679 3724
292.953 21.2679 3724
301.859 21.2679 3724
312.85 21.4107 3749
321.815 21.4107 3749
330.78 21.4107 3749
339.745 21.4107 3749
348.71 21.4107 3749
356.816 21.3593 3740
364.195 21.2679 3724
369.794 21.0795 3691
378.62 21.0795 3691
386.607 21.0338 3683
393.696 20.9424 3667
401.478 20.891 3658
410.225 20.891 3658
418.056 20.8453 3650
422.224 20.6226 3611
429.905 20.5769 3603
438.52 20.5769 3603
447.136 20.5769 3603
453.855 20.4912 3588
460.373 20.3999 3572
467.995 20.3599 3565
476.52 20.3599 3565
482.868 20.2685 3549
490.386 20.2285 3542
495.758 20.1029 3520
504.175 20.1029 3520
510.408 20.0172 3505
517.605 19.9715 3497
525.968 19.9715 3497
534.33 19.9715 3497
540.52 19.8916 3483
548.849 19.8916 3483
554.778 19.8059 3468
563.071 19.8059 3468
571.364 19.8059 3468
579.657 19.8059 3468
590.493 19.8916 3483
600.026 19.9315 3490
609.592 19.9715 3497
617.954 19.9715 3497
629.003 20.0572 3512
641.394 20.1828 3534
651.316 20.2285 3542
659.786 20.2285 3542
671.086 20.3142 3557
683.986 20.4455 3580
695.449 20.5312 3595
704.045 20.5312 3595
712.642 20.5312 3595
719.835 20.4912 3588
728.415 20.4912 3588
736.995 20.4912 3588
736.016 20.2285 3542
1062.82 22.6843 3972
1072.32 22.6843 3972
1081.82 22.6843 3972
1091.32 22.6843 3972
1090.56 22.473 3935
1099.97 22.473 3935
1109.38 22.473 3935
1118.79 22.473 3935
1205.54 23.2382 4069
1215.27 23.2382 4069
1225 23.2382 4069
1214.1 22.8499 4001
1220.61 22.7928 3991
1230.15 22.7928 3991
1239.7 22.7928 3991
1249.24 22.7928 3991
1252.79 22.6843 3972
1253.39 22.5244 3944
1265.7 22.5758 3953
1284.51 22.7414 3982
1294.03 22.7414 3982
1309.77 22.8499 4001
1319.34 22.8499 4001
1328.91 22.8499 4001
1338.48 22.8499 4001
1348.05 22.8499 4001
1344.72 22.6329 3963
1354.2 22.6329 3963
1357.13 22.5244 3944
1359.98 22.4159 3925
1353.67 22.1589 3880
1362.95 22.1589 3880
1362.68 22.0047 3853
1375.09 22.0561 3862
1390.78 22.1589 3880
1400.06 22.1589 3880
1409.34 22.1589 3880
1415.33 22.1075 3871
1424.58 22.1075 3871
1437.17 22.1589 3880
1446.45 22.1589 3880
1455.73 22.1589 3880
1461.61 22.1075 3871
1470.87 22.1075 3871
1480.12 22.1075 3871
1482.45 22.0047 3853
1488.18 21.9533 3844
1497.38 21.9533 3844
1506.57 21.9533 3844
1488.16 21.5535 3774
1497.18 21.5535 3774
1499.42 21.4564 3757
1508.41 21.4564 3757
1517.39 21.4564 3757
1512.97 21.2679 3724
1508.39 21.0795 3691
1487.62 20.6683 3619
1496.27 20.6683 3619
1479.14 20.3142 3557
1484.3 20.2685 3549
1492.79 20.2685 3549
1501.28 20.2685 3549
1509.76 20.2685 3549
1511.83 20.1828 3534
1498.34 19.8916 3483
1506.67 19.8916 3483
1515 19.8916 3483
1523.33 19.8916 3483
1534.74 19.9315 3490
1546.18 19.9715 3497
1554.54 19.9715 3497
1562.9 19.9715 3497
1574.86 20.0172 3505
1583.24 20.0172 3505
1591.62 20.0172 3505
1600.01 20.0172 3505
1615.27 20.1029 3520
1626.92 20.1429 3527
1642.31 20.2285 3542
1650.78 20.2285 3542
1662.52 20.2685 3549
1671.01 20.2685 3549
1679.5 20.2685 3549
1680.85 20.1828 3534
1678.79 20.0572 3512
1683.82 20.0172 3505
1692.2 20.0172 3505
1689.91 19.8916 3483
2235.21 20.2285 3542
2253.18 20.3142 3557
2266.77 20.3599 3565
2275.29 20.3599 3565
2283.82 20.3599 3565
2292.34 20.3599 3565
2300.87 20.3599 3565
2304.21 20.3142 3557
2297.76 20.1828 3534
2326.44 20.3599 3565
2334.97 20.3599 3565
2343.49 20.3599 3565
1824.56 15.5683 2726
1831.08 15.5683 2726
1849.73 15.6711 2744
1871.85 15.8025 2767
1894.08 15.9338 2790
1900.76 15.9338 2790
1907.43 15.9338 2790
1916.84 15.9567 2794
1923.53 15.9567 2794
1937.12 16.0138 2804
1943.82 16.0138 2804
1950.53 16.0138 2804
1957.23 16.0138 2804
1963.94 16.0138 2804
1970.64 16.0138 2804
1990.74 16.1223 2823
2007.4 16.2022 2837
2017.74 16.2308 2842
2024.53 16.2308 2842
2034.9 16.2593 2847
2041.71 16.2593 2847
2059.31 16.345 2862
2066.15 16.345 2862
2075.9 16.3679 2866
2086.38 16.3964 2871
2093.25 16.3964 2871
2100.11 16.3964 2871
2106.98 16.3964 2871
2113.84 16.3964 2871
2120.71 16.3964 2871
2131.28 16.425 2876
2138.16 16.425 2876
2148.76 16.4535 2881
2163.14 16.5106 2891
2204.58 16.7733 2937
2211.6 16.7733 2937
2234.49 16.8933 2958
2261.26 17.0418 2984
2272.96 17.076 2990
2280.11 17.076 2990
2287.26 17.076 2990
-2478.28 26.8327 3310
-2470.36 26.8327 3310
-2462.45 26.8327 3310
-2459.72 26.8894 3317
-2471.01 27.1002 3343
-2473.33 27.2137 3357
-2465.3 27.2137 3357
-2457.27 27.2137 3357
-2449.25 27.2137 3357
-2441.22 27.2137 3357
-2428.12 27.157 3350
-2429.5 27.2623 3363
-2431.54 27.3758 3377
-2423.46 27.3758 3377
-2415.39 27.3758 3377
-2427.27 27.6028 3405
-2419.13 27.6028 3405
-2410.99 27.6028 3405
-2402.84 27.6028 3405
-2394.7 27.6028 3405
-2386.56 27.6028 3405
-2383.31 27.6596 3412
-2375.15 27.6596 3412
-2366.99 27.6596 3412
-2358.83 27.6596 3412
-2360.32 27.7731 3426
-2352.12 27.7731 3426
-2343.93 27.7731 3426
-2345.28 27.8865 3440
-2337.06 27.8865 3440
-2328.83 27.8865 3440
-2330.05 28 3454
-2331.2 28.1135 3468
-2322.91 28.1135 3468
-2314.61 28.1135 3468
-2320.95 28.2919 3490
-2332.48 28.5351 3520
-2324.07 28.5351 3520
-2315.65 28.5351 3520
-2307.23 28.5351 3520
-2303.39 28.5918 3527
-2299.51 28.6486 3534
-2291.06 28.6486 3534
-2282.61 28.6486 3534
-2274.15 28.6486 3534
-2275.32 28.7702 3549
-2266.83 28.7702 3549
-2258.35 28.7702 3549
-2249.86 28.7702 3549
-2246.43 28.835 3557
-2237.92 28.835 3557
-2234.43 28.8999 3565
-2230.27 28.9566 3572
-2226.71 29.0215 3580
-2218.15 29.0215 3580
-2209.59 29.0215 3580
-2205.94 29.0863 3588
-2206.55 29.2079 3603
-2197.93 29.2079 3603
-2189.32 29.2079 3603
-2180.7 29.2079 3603
-2172.09 29.2079 3603
-2144.86 28.9566 3572
-2141.1 29.0215 3580
-2137.3 29.0863 3588
-2147.12 29.3376 3619
-2138.46 29.3376 3619
-2148.05 29.5889 3650
-2139.32 29.5889 3650
-2130.59 29.5889 3650
-2121.87 29.5889 3650
-2104.45 29.4673 3635
-2081.92 29.2728 3611
-2073.29 29.2728 3611
-2051.5 29.0863 3588
-2020.72 28.7702 3549
-1970.84 28.1784 3476
-1962.53 28.1784 3476
-1926.11 27.7731 3426
-1906.16 27.6028 3405
-1886.31 27.4326 3384
-1878.22 27.4326 3384
-1833.1 26.8894 3317
-1807.01 26.6219 3284
-1799.16 26.6219 3284
-1791.3 26.6219 3284
-1783.45 26.6219 3284
-1775.6 26.6219 3284
-1764.51 26.5733 3278
-1745.96 26.4112 3258
-1738.17 26.4112 3258
-1724 26.3139 3246
-1716.24 26.3139 3246
-1708.48 26.3139 3246
-1700.72 26.3139 3246
-1689.3 26.2571 3239
-1675.33 26.1599 3227
-1673.81 26.2571 3239
-1669.67 26.3139 3246
-1661.91 26.3139 3246
-1657.2 26.3625 3252
-1656.02 26.4679 3265
-1648.21 26.4679 3265
-1640.4 26.4679 3265
-1635.59 26.5165 3271
-1634.24 26.6219 3284
-1629.36 26.6706 3290
-1621.49 26.6706 3290
-1617.06 26.7273 3297
-1615.52 26.8327 3310
-1607.6 26.8327 3310
-1599.69 26.8327 3310
-1598.03 26.9381 3323
-1590.08 26.9381 3323
-1582.13 26.9381 3323
-1574.19 26.9381 3323
-1566.24 26.9381 3323
-1570.96 27.157 3350
-1562.95 27.157 3350
-1554.93 27.157 3350
-1546.92 27.157 3350
-1532.94 27.0516 3337
-1524.96 27.0516 3337
-1513.8 26.9948 3330
-1499.96 26.8894 3317
-1512.72 27.2623 3363
-1507.81 27.3191 3370
-1499.75 27.3191 3370
-1494.79 27.3758 3377
-1486.71 27.3758 3377
-1478.64 27.3758 3377
-1470.56 27.3758 3377
-1459.45 27.3191 3370
-1439.77 27.1002 3343
-1431.77 27.1002 3343
-739.02 14.1459 1745
-734.847 14.1459 1745
-736.118 14.2513 1758
-731.914 14.2513 1758
-727.71 14.2513 1758
-723.506 14.2513 1758
-719.302 14.2513 1758
-714.285 14.2351 1756
-711.703 14.2675 1760
-707.495 14.2675 1760
-704.485 14.2919 1763
-701.063 14.3081 1765
-696.843 14.3081 1765
-692.622 14.3081 1765
-688.401 14.3081 1765
-683.018 14.2837 1762
-678.804 14.2837 1762
-673.059 14.2513 1758
-668.855 14.2513 1758
-665.408 14.2675 1760
-661.199 14.2675 1760
-656.99 14.2675 1760
-652.782 14.2675 1760
-647.099 14.2351 1756
-642.9 14.2351 1756
-636.882 14.1946 1751
-631.972 14.1784 1749
-626.354 14.1459 1745
-619.685 14.0892 1738
-615.529 14.0892 1738
-609.966 14.0568 1734
-605.121 14.0406 1732
-598.55 13.9838 1725
-594.425 13.9838 1725
-589.274 13.9595 1722
-583.117 13.9108 1716
-577.326 13.8703 1711
-573.235 13.8703 1711
-567.48 13.8298 1706
-561.749 13.7892 1701
-555.387 13.7325 1694
-551.336 13.7325 1694
-545.023 13.6758 1687
-539.386 13.6352 1682
-534.091 13.6028 1678
-530.078 13.6028 1678
-525.752 13.5947 1677
-521.119 13.5785 1675
-516.497 13.5623 1673
-511.577 13.5379 1670
-507.583 13.5379 1670
-503.59 13.5379 1670
-498.998 13.5217 1668
-494.119 13.4974 1665
-490.138 13.4974 1665
-485.572 13.4812 1663
-480.727 13.4569 1660
-476.183 13.4407 1658
-472.218 13.4407 1658
-467.971 13.4326 1657
-462.888 13.4001 1653
-458.935 13.4001 1653
-454.982 13.4001 1653
-450.757 13.392 1652
-445.725 13.3596 1648
-441.784 13.3596 1648
-437.843 13.3596 1648
-433.639 13.3515 1647
-429.178 13.3353 1645
-425.245 13.3353 1645
-421.311 13.3353 1645
-417.124 13.3272 1644
-412.69 13.311 1642
-408.763 13.311 1642
-404.837 13.311 1642
-400.91 13.311 1642
-396.984 13.311 1642
-393.057 13.311 1642
-389.13 13.311 1642
-385.204 13.311 1642
-381.277 13.311 1642
-377.351 13.311 1642
-373.424 13.311 1642
-369.948 13.3272 1644
-366.017 13.3272 1644
-362.085 13.3272 1644
-358.372 13.3353 1645
-354.438 13.3353 1645
-350.504 13.3353 1645
-346.36 13.3272 1644
-342.429 13.3272 1644
-338.497 13.3272 1644
-334.159 13.311 1642
-330.233 13.311 1642
-326.306 13.311 1642
-322.38 13.311 1642
-318.453 13.311 1642
-314.527 13.311 1642
-310.6 13.311 1642
-306.674 13.311 1642
-302.747 13.311 1642
-298.821 13.311 1642
-294.894 13.311 1642
-290.967 13.311 1642
-287.041 13.311 1642
-283.632 13.3353 1645
-279.698 13.3353 1645
-276.1 13.3515 1647
-272.161 13.3515 1647
-268.385 13.3596 1648
-264.766 13.3758 1650
-261.136 13.392 1652
-257.186 13.392 1652
-253.235 13.392 1652
-249.737 13.4163 1655
-245.78 13.4163 1655
-241.822 13.4163 1655
-238.152 13.4326 1657
-234.614 13.4569 1660
-230.922 13.4731 1662
-227.357 13.4974 1665
-223.376 13.4974 1665
-220.053 13.5379 1670
-216.448 13.5623 1673
-213.082 13.6028 1678
-209.069 13.6028 1678
-205.301 13.619 1680
-201.643 13.6433 1683
-197.854 13.6595 1685
-193.824 13.6595 1685
-190.358 13.7001 1690
-186.537 13.7163 1692
-182.815 13.7406 1695
-178.761 13.7406 1695
-175.121 13.773 1699
-171.259 13.7892 1701
-167.486 13.8136 1704
-163.412 13.8136 1704
-159.524 13.8298 1706
-155.718 13.8541 1709
-151.986 13.8865 1713
-147.889 13.8865 1713
-143.961 13.9027 1715
-139.941 13.9108 1716
-135.996 13.9271 1718
-131.888 13.9271 1718
-127.929 13.9433 1720
-123.815 13.9433 1720
-119.702 13.9433 1720
-115.589 13.9433 1720
-111.671 13.9676 1723
-107.551 13.9676 1723
-103.43 13.9676 1723
-99.3102 13.9676 1723
-95.1899 13.9676 1723
-91.1754 13.9838 1725
-87.1514 14 1727
-83.0216 14 1727
-78.9832 14.0162 1729
-74.8486 14.0162 1729
-70.7141 14.0162 1729
-66.5795 14.0162 1729
-62.4449 14.0162 1729
-58.3104 14.0162 1729
-54.1758 14.0162 1729
-50.0412 14.0162 1729
-45.8536 14 1727
-41.7238 14 1727
-37.5069 13.9676 1723
-33.3867 13.9676 1723
-29.2495 13.9595 1722
-25.1025 13.9433 1720
-20.9651 13.9271 1718
-16.8568 13.9271 1718
-12.7337 13.9108 1716
200.78 29.7267 3667
215.207 30.5293 3766
224.212 30.5293 3766
233.218 30.5293 3766
238.429 30.051 3707
247.293 30.051 3707
256.78 30.124 3716
266.238 30.1888 3724
275.143 30.1888 3724
284.048 30.1888 3724
292.953 30.1888 3724
301.859 30.1888 3724
312.85 30.3915 3749
321.815 30.3915 3749
330.78 30.3915 3749
339.745 30.3915 3749
348.71 30.3915 3749
356.816 30.3185 3740
364.195 30.1888 3724
369.794 29.9213 3691
378.62 29.9213 3691
386.607 29.8564 3683
393.696 29.7267 3667
401.478 29.6538 3658
410.225 29.6538 3658
418.056 29.5889 3650
422.224 29.2728 3611
429.905 29.2079 3603
438.52 29.2079 3603
447.136 29.2079 3603
453.855 29.0863 3588
460.373 28.9566 3572
467.995 28.8999 3565
476.52 28.8999 3565
482.868 28.7702 3549
490.386 28.7134 3542
495.758 28.5351 3520
504.175 28.5351 3520
510.408 28.4135 3505
517.605 28.3486 3497
525.968 28.3486 3497
534.33 28.3486 3497
540.52 28.2351 3483
548.849 28.2351 3483
554.778 28.1135 3468
563.071 28.1135 3468
571.364 28.1135 3468
579.657 28.1135 3468
590.493 28.2351 3483
600.026 28.2919 3490
609.592 28.3486 3497
617.954 28.3486 3497
629.003 28.4702 3512
641.394 28.6486 3534
651.316 28.7134 3542
659.786 28.7134 3542
671.086 28.835 3557
683.986 29.0215 3580
695.449 29.1431 3595
704.045 29.1431 3595
712.642 29.1431 3595
719.835 29.0863 3588
728.415 29.0863 3588
736.995 29.0863 3588
736.016 28.7134 3542
744.486 28.7134 3542
752.956 28.7134 3542
761.426 28.7134 3542
771.417 28.7702 3549
784.958 28.9566 3572
795.277 29.0215 3580
803.838 29.0215 3580
812.399 29.0215 3580
820.96 29.0215 3580
829.521 29.0215 3580
838.082 29.0215 3580
846.643 29.0215 3580
855.203 29.0215 3580
863.764 29.0215 3580
872.325 29.0215 3580
944.754 29.1431 3595
953.351 29.1431 3595
1062.82 32.1992 3972
1072.32 32.1992 3972
1081.82 32.1992 3972
1091.32 32.1992 3972
1090.56 31.8993 3935
1099.97 31.8993 3935
1109.38 31.8993 3935
1118.79 31.8993 3935
1051.36 29.7267 3667
1060.13 29.7267 3667
1068.9 29.7267 3667
1205.54 32.9856 4069
1215.27 32.9856 4069
1225 32.9856 4069
1214.1 32.4343 4001
1220.61 32.3533 3991
1230.15 32.3533 3991
1239.7 32.3533 3991
1249.24 32.3533 3991
1252.79 32.1992 3972
1253.39 31.9723 3944
1265.7 32.0452 3953
1284.51 32.2803 3982
1294.03 32.2803 3982
1309.77 32.4343 4001
1319.34 32.4343 4001
1328.91 32.4343 4001
1338.48 32.4343 4001
1348.05 32.4343 4001
1344.72 32.1263 3963
1354.2 32.1263 3963
1357.13 31.9723 3944
1359.98 31.8182 3925
1353.67 31.4534 3880
1362.95 31.4534 3880
1362.68 31.2346 3853
1375.09 31.3075 3862
1390.78 31.4534 3880
1400.06 31.4534 3880
1409.34 31.4534 3880
1415.33 31.3805 3871
1424.58 31.3805 3871
1437.17 31.4534 3880
1446.45 31.4534 3880
1455.73 31.4534 3880
1461.61 31.3805 3871
1470.87 31.3805 3871
1480.12 31.3805 3871
1482.45 31.2346 3853
1488.18 31.1616 3844
1497.38 31.1616 3844
1506.57 31.1616 3844
1488.16 30.5941 3774
1497.18 30.5941 3774
1499.42 30.4563 3757
1508.41 30.4563 3757
1517.39 30.4563 3757
1512.97 30.1888 3724
1508.39 29.9213 3691
1487.62 29.3376 3619
1496.27 29.3376 3619
1479.14 28.835 3557
1484.3 28.7702 3549
1492.79 28.7702 3549
1501.28 28.7702 3549
1509.76 28.7702 3549
1511.83 28.6486 3534
1498.34 28.2351 3483
1506.67 28.2351 3483
1515 28.2351 3483
1523.33 28.2351 3483
1534.74 28.2919 3490
1546.18 28.3486 3497
1554.54 28.3486 3497
1562.9 28.3486 3497
1574.86 28.4135 3505
1583.24 28.4135 3505
1591.62 28.4135 3505
1600.01 28.4135 3505
1615.27 28.5351 3520
1626.92 28.5918 3527
1642.31 28.7134 3542
1650.78 28.7134 3542
1662.52 28.7702 3549
1671.01 28.7702 3549
1679.5 28.7702 3549
1680.85 28.6486 3534
1693.13 28.7134 3542
1701.6 28.7134 3542
1710.07 28.7134 3542
1714.65 28.6486 3534
2235.21 28.7134 3542
2253.18 28.835 3557
2266.77 28.8999 3565
2275.29 28.8999 3565
2283.82 28.8999 3565
2292.34 28.8999 3565
2300.87 28.8999 3565
2309.39 28.8999 3565
2307.52 28.7702 3549
2326.44 28.8999 3565
2334.97 28.8999 3565
2343.49 28.8999 3565
2336.85 28.7134 3542
2345.32 28.7134 3542
2353.79 28.7134 3542
1824.56 22.0985 2726
1831.08 22.0985 2726
1849.73 22.2444 2744
1871.85 22.4308 2767
1900.19 22.6902 2799
1906.89 22.6902 2799
1913.58 22.6902 2799
1929.88 22.8037 2813
1936.61 22.8037 2813
1943.33 22.8037 2813
1950.06 22.8037 2813
1956.79 22.8037 2813
1960.72 22.7713 2809
1967.44 22.7713 2809
1970.64 22.7308 2804
1990.74 22.8848 2823
2003.86 22.9578 2832
2017.74 23.0388 2842
2024.53 23.0388 2842
2031.33 23.0388 2842
2041.71 23.0794 2847
2055.71 23.1604 2857
2062.55 23.1604 2857
2073 23.201 2862
2082.75 23.2334 2866
2089.6 23.2334 2866
2096.46 23.2334 2866
2103.31 23.2334 2866
2110.16 23.2334 2866
2120.71 23.2739 2871
2127.58 23.2739 2871
2134.44 23.2739 2871
2145.04 23.3145 2876
2155.65 23.355 2881
2193.32 23.6874 2922
2200.31 23.6874 2922
2226.18 23.89 2947
2245.35 24.0197 2963
2252.44 24.0197 2963
2259.52 24.0197 2963
2266.61 24.0197 2963
-2458.81 34.4888 3284
-2450.96 34.4888 3284
-2443.11 34.4888 3284
-2439.7 34.5518 3290
-2437.01 34.6253 3297
-2463.02 35.1084 3343
-2455.02 35.1084 3343
-2447.03 35.1084 3343
-2439.03 35.1084 3343
-2431.04 35.1084 3343
-2423.04 35.1084 3343
-2410.72 35.0454 3337
-2402.74 35.0454 3337
-2404.09 35.1819 3350
-2396.07 35.1819 3350
-2388.06 35.1819 3350
-2380.05 35.1819 3350
-2372.04 35.1819 3350
-2364.03 35.1819 3350
-2351.1 35.1084 3343
-2343.1 35.1084 3343
-2335.11 35.1084 3343
-2327.12 35.1084 3343
-2319.12 35.1084 3343
-2311.13 35.1084 3343
-2316.91 35.3184 3363
-2308.87 35.3184 3363
-2300.83 35.3184 3363
-2292.79 35.3184 3363
-2289.5 35.392 3370
-2281.44 35.392 3370
-2287.55 35.6125 3391
-2284.15 35.686 3398
-2285.4 35.833 3412
-2277.24 35.833 3412
-2301.67 36.3476 3461
-2307.97 36.5787 3483
-2299.64 36.5787 3483
-2291.31 36.5787 3483
-2297.4 36.8097 3505
-2293.59 36.8832 3512
-2294.95 37.0408 3527
-2286.52 37.0408 3527
-2278.08 37.0408 3527
-2269.65 37.0408 3527
-2261.22 37.0408 3527
-2252.78 37.0408 3527
-2253.89 37.1983 3542
-2245.42 37.1983 3542
-2241.37 37.2718 3549
-2232.89 37.2718 3549
-2229.41 37.3558 3557
-2225.9 37.4399 3565
-2221.73 37.5134 3572
-2213.19 37.5134 3572
-2204.65 37.5134 3572
-2201.03 37.5974 3580
-2206.55 37.8389 3603
-2197.93 37.8389 3603
-2189.32 37.8389 3603
-2180.7 37.8389 3603
-2172.09 37.8389 3603
-2144.86 37.5134 3572
-2132.13 37.4399 3565
-2137.3 37.6814 3588
-2147.12 38.007 3619
-2138.46 38.007 3619
-2148.05 38.3325 3650
-2139.32 38.3325 3650
-2130.59 38.3325 3650
-2113.15 38.175 3635
-2099.82 38.091 3627
-2072.7 37.7549 3595
-2064.1 37.7549 3595
-2042.36 37.5134 3572
-2012.18 37.1143 3534
-1942.49 35.9801 3426
-1934.3 35.9801 3426
-1902.49 35.539 3384
-1894.4 35.539 3384
-1860.11 35.0454 3337
-1852.13 35.0454 3337
-1814.86 34.4888 3284
-1792.7 34.2157 3258
-1781.62 34.1527 3252
-1773.85 34.1527 3252
-1766.07 34.1527 3252
-1758.3 34.1527 3252
-1747.29 34.0897 3246
-1735.78 34.0162 3239
-1728.03 34.0162 3239
-1713.91 33.8902 3227
-1706.19 33.8902 3227
-1698.48 33.8902 3227
-1690.76 33.8902 3227
-1683.04 33.8902 3227
-1675.33 33.8902 3227
-1667.61 33.8902 3227
-1666.07 34.0162 3239
-1658.32 34.0162 3239
-1654.14 34.0897 3246
-1649.42 34.1527 3252
-1648.21 34.2892 3265
-1640.4 34.2892 3265
-1632.59 34.2892 3265
-1627.77 34.3522 3271
-1623.42 34.4258 3278
-1615.58 34.4258 3278
-1617.06 34.6253 3297
-1612.1 34.6883 3303
-1607.6 34.7618 3310
-1599.69 34.7618 3310
-1598.03 34.8984 3323
-1590.08 34.8984 3323
-1582.13 34.8984 3323
-1574.19 34.8984 3323
-1566.24 34.8984 3323
-1564.86 35.0454 3337
-1556.88 35.0454 3337
-1548.9 35.0454 3337
-1540.92 35.0454 3337
-1529.72 34.9719 3330
-1521.76 34.9719 3330
-1504.71 34.7618 3310
-1499.96 34.8353 3317
-1512.72 35.3184 3363
-1507.81 35.392 3370
-1499.75 35.392 3370
-1494.79 35.4655 3377
-1486.71 35.4655 3377
-1478.64 35.4655 3377
-1470.56 35.4655 3377
-1459.45 35.392 3370
-1439.77 35.1084 3343
-1431.77 35.1084 3343
-739.02 18.3261 1745
-734.847 18.3261 1745
-736.118 18.4626 1758
-731.914 18.4626 1758
-727.71 18.4626 1758
-723.506 18.4626 1758
-719.302 18.4626 1758
-714.285 18.4416 1756
-711.703 18.4836 1760
-707.495 18.4836 1760
-704.485 18.5151 1763
-701.063 18.5361 1765
-696.843 18.5361 1765
-692.622 18.5361 1765
-688.401 18.5361 1765
-683.018 18.5046 1762
-678.804 18.5046 1762
-673.059 18.4626 1758
-668.855 18.4626 1758
-665.408 18.4836 1760
-661.199 18.4836 1760
-656.99 18.4836 1760
-652.782 18.4836 1760
-647.099 18.4416 1756
-642.9 18.4416 1756
-636.882 18.3891 1751
-631.972 18.3681 1749
-626.354 18.3261 1745
-619.685 18.2526 1738
-615.529 18.2526 1738
-609.966 18.2106 1734
-605.121 18.1896 1732
-598.55 18.1161 1725
-594.425 18.1161 1725
-589.274 18.0846 1722
-583.117 18.0215 1716
-577.326 17.969 1711
-573.235 17.969 1711
-567.48 17.9165 1706
-561.749 17.864 1701
-555.387 17.7905 1694
-551.336 17.7905 1694
-545.023 17.717 1687
-539.386 17.6645 1682
-534.091 17.6225 1678
-530.078 17.6225 1678
-525.752 17.612 1677
-521.119 17.591 1675
-516.497 17.57 1673
-511.577 17.5384 1670
-507.583 17.5384 1670
-502.987 17.5174 1668
-498.699 17.5069 1667
-494.119 17.4859 1665
-490.138 17.4859 1665
-485.572 17.4649 1663
-480.727 17.4334 1660
-476.183 17.4124 1658
-472.218 17.4124 1658
-467.971 17.4019 1657
-462.888 17.3599 1653
-458.658 17.3494 1652
-454.707 17.3494 1652
-450.757 17.3494 1652
-445.725 17.3074 1648
-441.516 17.2969 1647
-437.577 17.2969 1647
-433.639 17.2969 1647
-429.178 17.2759 1645
-424.986 17.2654 1644
-421.055 17.2654 1644
-416.616 17.2444 1642
-412.69 17.2444 1642
-408.763 17.2444 1642
-404.837 17.2444 1642
-400.91 17.2444 1642
-396.984 17.2444 1642
-393.057 17.2444 1642
-389.13 17.2444 1642
-384.735 17.2234 1640
-380.813 17.2234 1640
-377.351 17.2444 1642
-373.424 17.2444 1642
-369.948 17.2654 1644
-366.017 17.2654 1644
-362.085 17.2654 1644
-358.372 17.2759 1645
-354.438 17.2759 1645
-350.504 17.2759 1645
-346.36 17.2654 1644
-342.429 17.2654 1644
-338.497 17.2654 1644
-334.159 17.2444 1642
-330.233 17.2444 1642
-326.306 17.2444 1642
-322.38 17.2444 1642
-318.453 17.2444 1642
-314.527 17.2444 1642
-310.6 17.2444 1642
-306.674 17.2444 1642
-302.747 17.2444 1642
-298.821 17.2444 1642
-294.894 17.2444 1642
-290.967 17.2444 1642
-287.041 17.2444 1642
-283.632 17.2759 1645
-279.698 17.2759 1645
-276.1 17.2969 1647
-272.161 17.2969 1647
-268.385 17.3074 1648
-264.766 17.3284 1650
-261.136 17.3494 1652
-257.186 17.3494 1652
-253.235 17.3494 1652
-249.737 17.3809 1655
-245.78 17.3809 1655
-241.822 17.3809 1655
-238.152 17.4019 1657
-234.614 17.4334 1660
-230.922 17.4544 1662
-227.357 17.4859 1665
-223.376 17.4859 1665
-220.053 17.5384 1670
-216.448 17.57 1673
-213.082 17.6225 1678
-209.069 17.6225 1678
-205.301 17.6435 1680
-201.643 17.675 1683
-197.619 17.675 1683
-193.594 17.675 1683
-190.358 17.7485 1690
-186.537 17.7695 1692
-182.815 17.801 1695
-178.761 17.801 1695
-175.121 17.843 1699
-171.058 17.843 1699
-167.486 17.8955 1704
-163.412 17.8955 1704
-159.524 17.9165 1706
-155.718 17.948 1709
-151.986 17.99 1713
-147.889 17.99 1713
-143.793 17.99 1713
-139.86 18.011 1715
-135.996 18.0425 1718
-131.888 18.0425 1718
-127.78 18.0425 1718
-123.815 18.0635 1720
-119.702 18.0635 1720
-115.589 18.0635 1720
-111.671 18.0951 1723
-107.551 18.0951 1723
-103.43 18.0951 1723
-99.3102 18.0951 1723
-95.1899 18.0951 1723
-91.1754 18.1161 1725
-87.1514 18.1371 1727
-83.0216 18.1371 1727
-78.9832 18.1581 1729
-74.8486 18.1581 1729
-70.7141 18.1581 1729
-66.5795 18.1581 1729
-62.4449 18.1581 1729
-58.3104 18.1581 1729
-54.1758 18.1581 1729
-50.0412 18.1581 1729
-45.8536 18.1371 1727
-41.7238 18.1371 1727
-37.5069 18.0951 1723
-33.3867 18.0951 1723
-29.2495 18.0846 1722
-25.1025 18.0635 1720
-20.9651 18.0425 1718
-16.8568 18.0425 1718
-12.7337 18.0215 1716
200.78 38.5111 3667
209.549 38.5111 3667
218.318 38.5111 3667
228.078 38.6791 3683
236.885 38.6791 3683
245.692 38.6791 3683
256.158 38.9311 3707
265.666 39.0257 3716
274.552 39.0257 3716
283.438 39.0257 3716
292.324 39.0257 3716
301.859 39.1097 3724
311.431 39.1937 3732
320.356 39.1937 3732
330.78 39.3722 3749
339.745 39.3722 3749
348.71 39.3722 3749
356.053 39.1937 3732
364.195 39.1097 3724
369.794 38.7631 3691
378.62 38.7631 3691
385.767 38.5951 3675
392.73 38.4165 3658
401.478 38.4165 3658
410.225 38.4165 3658
417.14 38.2485 3642
421.289 37.8389 3603
429.905 37.8389 3603
437.547 37.7549 3595
446.143 37.7549 3595
451.831 37.5134 3572
460.373 37.5134 3572
465.895 37.2718 3549
474.382 37.2718 3549
481.916 37.1983 3542
489.278 37.1143 3534
495.758 36.9673 3520
504.175 36.9673 3520
510.408 36.8097 3505
517.605 36.7257 3497
523.862 36.5787 3483
532.191 36.5787 3483
539.434 36.5052 3476
546.485 36.4212 3468
553.658 36.3476 3461
561.935 36.3476 3461
569.058 36.2741 3454
577.317 36.2741 3454
587.95 36.4212 3468
596.243 36.4212 3468
605.931 36.5052 3476
614.243 36.5052 3476
625.063 36.6522 3490
633.408 36.6522 3490
643.041 36.7257 3497
651.404 36.7257 3497
665.426 37.0408 3527
678.063 37.2718 3549
688.098 37.3558 3557
696.604 37.3558 3557
705.109 37.3558 3557
713.615 37.3558 3557
722.121 37.3558 3557
730.627 37.3558 3557
736.016 37.1983 3542
744.486 37.1983 3542
752.956 37.1983 3542
761.426 37.1983 3542
771.417 37.2718 3549
784.958 37.5134 3572
795.277 37.5974 3580
803.838 37.5974 3580
812.399 37.5974 3580
820.96 37.5974 3580
829.521 37.5974 3580
838.082 37.5974 3580
846.643 37.5974 3580
855.203 37.5974 3580
863.764 37.5974 3580
872.325 37.5974 3580
944.754 37.7549 3595
953.351 37.7549 3595
989.776 38.8471 3699
998.621 38.8471 3699
1007.47 38.8471 3699
1016.31 38.8471 3699
1013.79 38.4165 3658
1025.06 38.5111 3667
1033.83 38.5111 3667
1042.6 38.5111 3667
1051.36 38.5111 3667
1060.13 38.5111 3667
1068.9 38.5111 3667
1185.4 42.0188 4001
1194.96 42.0188 4001
1204.53 42.0188 4001
1208.33 41.8192 3982
1214.8 41.7142 3972
1224.3 41.7142 3972
1233.79 41.7142 3972
1240.47 41.6197 3963
1237.97 41.2206 3925
1233.05 40.748 3880
1259.94 41.3256 3935
1269.35 41.3256 3935
1278.76 41.3256 3935
1306.5 41.9137 3991
1316.04 41.9137 3991
1325.59 41.9137 3991
1335.13 41.9137 3991
1335.24 41.6197 3963
1338.27 41.4201 3944
1347.7 41.4201 3944
1350.6 41.2206 3925
1347.51 40.8425 3889
1341.11 40.3699 3844
1350.3 40.3699 3844
1343.93 39.9078 3800
1371.89 40.4645 3853
1384.33 40.559 3862
1393.56 40.559 3862
1402.8 40.559 3862
1408.74 40.4645 3853
1408.02 40.1809 3826
1423.84 40.3699 3844
1433.03 40.3699 3844
1442.22 40.3699 3844
1451.41 40.3699 3844
1460.61 40.3699 3844
1469.8 40.3699 3844
1448.98 39.5508 3766
1451.4 39.3722 3749
1453.75 39.1937 3732
1472.47 39.4563 3757
1481.45 39.4563 3757
1490.44 39.4563 3757
1499.42 39.4563 3757
1508.41 39.4563 3757
1517.39 39.4563 3757
1512.97 39.1097 3724
1501.85 38.5951 3675
1477.75 37.7549 3595
1486.35 37.7549 3595
1479.14 37.3558 3557
1484.3 37.2718 3549
1492.79 37.2718 3549
1501.28 37.2718 3549
1509.76 37.2718 3549
1511.83 37.1143 3534
1498.34 36.5787 3483
1506.67 36.5787 3483
1515 36.5787 3483
1523.33 36.5787 3483
1534.74 36.6522 3490
1546.18 36.7257 3497
1554.54 36.7257 3497
1562.9 36.7257 3497
1571.27 36.7257 3497
1579.63 36.7257 3497
1591.62 36.8097 3505
1600.01 36.8097 3505
1611.6 36.8832 3512
1623.69 36.9673 3520
1638.6 37.1143 3534
1647.05 37.1143 3534
1655.5 37.1143 3534
1663.95 37.1143 3534
1676.19 37.1983 3542
1684.66 37.1983 3542
1696.47 37.2718 3549
1704.96 37.2718 3549
1713.44 37.2718 3549
1718.54 37.1983 3542
2132.47 35.7595 3405
2140.61 35.7595 3405
2216.27 36.8832 3512
2243.68 37.1983 3542
2266.77 37.4399 3565
2275.29 37.4399 3565
2283.82 37.4399 3565
2292.34 37.4399 3565
2300.87 37.4399 3565
2309.39 37.4399 3565
2307.52 37.2718 3549
2326.44 37.4399 3565
2334.97 37.4399 3565
2343.49 37.4399 3565
2336.85 37.1983 3542
2345.32 37.1983 3542
2353.79 37.1983 3542
2356.92 37.1143 3534
1871.85 29.0592 2767
1900.19 29.3953 2799
1906.89 29.3953 2799
1913.58 29.3953 2799
1936.74 29.6473 2823
1943.49 29.6473 2823
1950.24 29.6473 2823
1956.99 29.6473 2823
1963.74 29.6473 2823
1963.51 29.5423 2813
1970.24 29.5423 2813
1976.97 29.5423 2813
1990.74 29.6473 2823
2003.86 29.7418 2832
2017.74 29.8469 2842
2024.53 29.8469 2842
2031.33 29.8469 2842
2041.71 29.8994 2847
2055.71 30.0044 2857
2062.55 30.0044 2857
2073 30.0569 2862
2082.75 30.0989 2866
2089.6 30.0989 2866
2096.46 30.0989 2866
2103.31 30.0989 2866
2110.16 30.0989 2866
2120.71 30.1514 2871
2127.58 30.1514 2871
2134.44 30.1514 2871
2145.04 30.2039 2876
2155.65 30.2564 2881
2193.32 30.687 2922
2200.31 30.687 2922
2226.18 30.9496 2947
2245.35 31.1176 2963
2252.44 31.1176 2963
2259.52 31.1176 2963
2266.61 31.1176 2963
-2444.59 42.1106 3265
-2436.78 42.1106 3265
-2428.97 42.1106 3265
-2421.16 42.1106 3265
-2431.83 42.433 3290
-2443.86 42.7812 3317
-2435.93 42.7812 3317
-2432.39 42.8586 3323
-2424.44 42.8586 3323
-2416.49 42.8586 3323
-2408.55 42.8586 3323
-2400.6 42.8586 3323
-2392.66 42.8586 3323
-2389.73 42.9489 3330
-2381.77 42.9489 3330
-2378.8 43.0392 3337
-2370.82 43.0392 3337
-2362.84 43.0392 3337
-2354.86 43.0392 3337
-2341.95 42.9489 3330
-2333.99 42.9489 3330
-2326.03 42.9489 3330
-2318.07 42.9489 3330
-2305.25 42.8586 3323
-2297.3 42.8586 3323
-2294.18 42.9489 3330
-2286.21 42.9489 3330
-2283.04 43.0392 3337
-2279.15 43.1166 3343
-2271.16 43.1166 3343
-2263.16 43.1166 3343
-2259.89 43.2069 3350
-2265.32 43.4648 3370
-2271.33 43.7357 3391
-2263.22 43.7357 3391
-2264.42 43.9162 3405
-2274.83 44.2774 3433
-2285.11 44.6385 3461
-2276.84 44.6385 3461
-2273.15 44.7288 3468
-2283.79 45.1028 3497
-2290.4 45.3995 3520
-2281.98 45.3995 3520
-2273.56 45.3995 3520
-2265.15 45.3995 3520
-2256.73 45.3995 3520
-2248.31 45.3995 3520
-2244.35 45.4897 3527
-2235.91 45.4897 3527
-2227.48 45.4897 3527
-2219.05 45.4897 3527
-2210.61 45.4897 3527
-2220.91 45.8767 3557
-2212.4 45.8767 3557
-2203.9 45.8767 3557
-2204.65 46.0701 3572
-2201.03 46.1733 3580
-2201.65 46.3668 3595
-2193.05 46.3668 3595
-2184.46 46.3668 3595
-2175.86 46.3668 3595
-2167.26 46.3668 3595
-2144.86 46.0701 3572
-2132.13 45.9798 3565
-2123.6 45.9798 3565
-2128.72 46.2765 3588
-2120.14 46.2765 3588
-2129.81 46.6763 3619
-2125.84 46.7795 3627
-2117.17 46.7795 3627
-2108.5 46.7795 3627
-2081.3 46.3668 3595
-2064.05 46.1733 3580
-2055.49 46.1733 3580
-2025.2 45.6832 3542
-1999.65 45.2963 3512
-1918.68 43.6454 3384
-1910.59 43.6454 3384
-1890.69 43.3745 3363
-1871.45 43.1166 3343
-1852.31 42.8586 3323
-1815.5 42.188 3271
-1807.68 42.188 3271
-1789.4 41.9429 3252
-1781.62 41.9429 3252
-1773.85 41.9429 3252
-1766.07 41.9429 3252
-1755.05 41.8655 3246
-1747.29 41.8655 3246
-1732.56 41.6978 3233
-1724.83 41.6978 3233
-1710.72 41.5431 3221
-1703.02 41.5431 3221
-1695.32 41.5431 3221
-1687.62 41.5431 3221
-1676.26 41.4528 3214
-1668.58 41.4528 3214
-1664.51 41.5431 3221
-1659.89 41.6205 3227
-1652.18 41.6205 3227
-1650.58 41.7752 3239
-1646.38 41.8655 3246
-1641.65 41.9429 3252
-1633.87 41.9429 3252
-1629.09 42.0203 3258
-1624.79 42.1106 3265
-1616.98 42.1106 3265
-1609.17 42.1106 3265
-1607.74 42.2782 3278
-1602.83 42.3556 3284
-1607.6 42.691 3310
-1599.69 42.691 3310
-1595.14 42.7812 3317
-1590.08 42.8586 3323
-1582.13 42.8586 3323
-1574.19 42.8586 3323
-1566.24 42.8586 3323
-1561.58 42.9489 3330
-1556.88 43.0392 3337
-1548.9 43.0392 3337
-1540.92 43.0392 3337
-1526.51 42.8586 3323
-1518.56 42.8586 3323
-1504.71 42.691 3310
-1496.79 42.691 3310
-1503.72 43.1166 3343
-1504.67 43.3745 3363
-1496.63 43.3745 3363
-1494.79 43.5551 3377
-1486.71 43.5551 3377
-1478.64 43.5551 3377
-1470.56 43.5551 3377
-1459.45 43.4648 3370
-1439.77 43.1166 3343
-1431.77 43.1166 3343
-739.02 22.5063 1745
-734.847 22.5063 1745
-738.212 22.7384 1763
-733.996 22.7384 1763
-729.78 22.7384 1763
-725.153 22.7255 1762
-720.939 22.7255 1762
-715.098 22.6739 1758
-712.916 22.7384 1763
-708.701 22.7384 1763
-705.284 22.7642 1765
-701.063 22.7642 1765
-696.843 22.7642 1765
-692.622 22.7642 1765
-688.401 22.7642 1765
-683.405 22.7384 1763
-679.19 22.7384 1763
-674.591 22.7255 1762
-669.616 22.6997 1760
-666.542 22.7384 1763
-662.326 22.7384 1763
-658.11 22.7384 1763
-652.782 22.6997 1760
-647.099 22.6481 1756
-642.9 22.6481 1756
-636.882 22.5836 1751
-632.695 22.5836 1751
-626.354 22.5063 1745
-620.398 22.4418 1740
-616.238 22.4418 1740
-610.67 22.3902 1736
-605.121 22.3386 1732
-599.244 22.2741 1727
-595.114 22.2741 1727
-589.616 22.2225 1723
-583.117 22.1322 1716
-577.326 22.0677 1711
-573.235 22.0677 1711
-568.145 22.0291 1708
-562.08 21.9517 1702
-555.715 21.8614 1695
-551.661 21.8614 1695
-545.67 21.784 1689
-539.386 21.6937 1682
-534.727 21.6679 1680
-530.71 21.6679 1680
-525.752 21.6292 1677
-521.119 21.6034 1675
-516.497 21.5776 1673
-511.577 21.5389 1670
-507.583 21.5389 1670
-502.987 21.5132 1668
-498.101 21.4745 1665
-493.526 21.4487 1663
-489.549 21.4487 1663
-485.572 21.4487 1663
-480.147 21.3842 1658
-475.895 21.3713 1657
-471.933 21.3713 1657
-467.971 21.3713 1657
-462.608 21.3068 1652
-458.658 21.3068 1652
-454.707 21.3068 1652
-450.211 21.281 1650
-445.454 21.2423 1647
-441.516 21.2423 1647
-437.577 21.2423 1647
-433.112 21.2165 1645
-429.178 21.2165 1645
-424.986 21.2036 1644
-421.055 21.2036 1644
-416.616 21.1778 1642
-412.69 21.1778 1642
-408.763 21.1778 1642
-404.837 21.1778 1642
-400.91 21.1778 1642
-396.984 21.1778 1642
-393.057 21.1778 1642
-389.13 21.1778 1642
-384.735 21.152 1640
-380.813 21.152 1640
-377.351 21.1778 1642
-373.424 21.1778 1642
-369.948 21.2036 1644
-366.017 21.2036 1644
-362.085 21.2036 1644
-358.372 21.2165 1645
-354.438 21.2165 1645
-350.504 21.2165 1645
-346.36 21.2036 1644
-342.429 21.2036 1644
-338.497 21.2036 1644
-334.159 21.1778 1642
-330.233 21.1778 1642
-326.306 21.1778 1642
-322.38 21.1778 1642
-318.453 21.1778 1642
-314.527 21.1778 1642
-310.6 21.1778 1642
-306.674 21.1778 1642
-302.747 21.1778 1642
-298.821 21.1778 1642
-295.253 21.2036 1644
-291.322 21.2036 1644
-287.391 21.2036 1644
-283.977 21.2423 1647
-280.038 21.2423 1647
-276.1 21.2423 1647
-272.161 21.2423 1647
-268.385 21.2552 1648
-265.086 21.3068 1652
-261.136 21.3068 1652
-257.186 21.3068 1652
-253.695 21.3455 1655
-249.737 21.3455 1655
-246.077 21.3713 1657
-242.114 21.3713 1657
-238.583 21.41 1660
-234.896 21.4358 1662
-231.061 21.4487 1663
-227.767 21.5132 1668
-223.778 21.5132 1668
-220.053 21.5389 1670
-216.448 21.5776 1673
-213.082 21.6421 1678
-209.069 21.6421 1678
-205.301 21.6679 1680
-201.643 21.7066 1683
-197.854 21.7324 1685
-193.824 21.7324 1685
-190.358 21.7969 1690
-186.537 21.8227 1692
-182.815 21.8614 1695
-178.761 21.8614 1695
-174.914 21.8872 1697
-171.058 21.913 1699
-167.486 21.9775 1704
-163.412 21.9775 1704
-159.524 22.0033 1706
-155.626 22.0291 1708
-151.808 22.0677 1711
-147.717 22.0677 1711
-143.793 22.0935 1713
-139.86 22.1193 1715
-135.838 22.1322 1716
-131.735 22.1322 1716
-127.78 22.158 1718
-123.815 22.1838 1720
-119.702 22.1838 1720
-115.589 22.1838 1720
-111.671 22.2225 1723
-107.551 22.2225 1723
-103.43 22.2225 1723
-99.3102 22.2225 1723
-95.3004 22.2483 1725
-91.2812 22.2741 1727
-87.2523 22.2999 1729
-83.1177 22.2999 1729
-79.0745 22.3257 1731
-74.9352 22.3257 1731
-70.8367 22.3386 1732
-66.695 22.3386 1732
-62.5533 22.3386 1732
-58.3104 22.2999 1729
-54.1758 22.2999 1729
-50.0412 22.2999 1729
-45.9067 22.2999 1729
-41.7721 22.2999 1729
-37.6375 22.2999 1729
-33.4642 22.2741 1727
-29.3005 22.2483 1725
-25.1463 22.2225 1723
-21.0139 22.2096 1722
-16.896 22.2096 1722
-12.7485 22.158 1718
74.5691 45.206 3505
82.9506 45.206 3505
91.3321 45.206 3505
99.4861 45.1028 3497
106.954 44.7288 3468
115.247 44.7288 3468
122.044 44.1871 3426
200.78 47.2954 3667
209.549 47.2954 3667
218.318 47.2954 3667
227.087 47.2954 3667
235.856 47.2954 3667
244.625 47.2954 3667
251.666 46.973 3642
262.735 47.3986 3675
272.705 47.6049 3691
