157.621 -287.759 3683
166.428 -287.759 3683
175.616 -288.384 3691
184.842 -289.009 3699
193.687 -289.009 3699
202.532 -289.009 3699
211.378 -289.009 3699
220.223 -289.009 3699
229.069 -289.009 3699
237.914 -289.009 3699
246.76 -289.009 3699
255.052 -288.384 3691
263.879 -288.384 3691
272.705 -288.384 3691
280.921 -287.759 3683
289.099 -287.134 3675
297.887 -287.134 3675
306.675 -287.134 3675
314.776 -286.509 3667
323.545 -286.509 3667
331.498 -285.806 3658
340.246 -285.806 3658
348.23 -285.181 3650
356.958 -285.181 3650
364.885 -284.556 3642
373.594 -284.556 3642
382.303 -284.556 3642
391.012 -284.556 3642
399.721 -284.556 3642
408.431 -284.556 3642
416.338 -284.009 3635
425.03 -284.009 3635
432.768 -283.384 3627
441.441 -283.384 3627
450.115 -283.384 3627
457.776 -282.759 3619
464.368 -281.509 3603
471.934 -280.884 3595
480.53 -280.884 3595
488.175 -280.337 3588
493.57 -278.54 3565
504.208 -279.712 3580
512.769 -279.712 3580
521.33 -279.712 3580
529.891 -279.712 3580
537.248 -279.087 3572
545.79 -279.087 3572
1055.33 -308.152 3944
1064.76 -308.152 3944
1076.65 -308.855 3953
1086.1 -308.855 3953
1095.55 -308.855 3953
1105.01 -308.855 3953
1114.46 -308.855 3953
1123.91 -308.855 3953
1133.36 -308.855 3953
1153.8 -311.824 3991
1171.8 -314.09 4020
1181.41 -314.09 4020
1191.03 -314.09 4020
1200.64 -314.09 4020
1210.25 -314.09 4020
1219.86 -314.09 4020
1229.48 -314.09 4020
1239.09 -314.09 4020
1248.7 -314.09 4020
1258.32 -314.09 4020
1273.92 -315.574 4039
1286.76 -316.355 4049
1306.05 -318.699 4079
1319.03 -319.481 4089
1328.8 -319.481 4089
1338.58 -319.481 4089
1798.15 -319.481 4089
1807.93 -319.481 4089
1817.71 -319.481 4089
1823.02 -318.699 4079
1806.26 -314.09 4020
1815.87 -314.09 4020
1816.86 -312.605 4001
1817.75 -311.121 3982
1818.56 -309.636 3963
1828.03 -309.636 3963
1819.89 -306.667 3925
1820.89 -305.261 3907
2314.69 -303.854 3889
2340.12 -305.964 3916
2349.48 -305.964 3916
2358.85 -305.964 3916
2368.21 -305.964 3916
2377.58 -305.964 3916
2392.43 -306.667 3925
2413.44 -308.152 3944
2422.87 -308.152 3944
2432.3 -308.152 3944
2441.73 -308.152 3944
2422.58 -304.558 3898
2431.9 -304.558 3898
2413.04 -301.042 3853
2416.59 -300.339 3844
2420.1 -299.635 3835
2429.28 -299.635 3835
2438.45 -299.635 3835
2447.62 -299.635 3835
2451.02 -298.932 3826
2460.17 -298.932 3826
2480.94 -300.339 3844
2490.13 -300.339 3844
2499.32 -300.339 3844
2514.39 -301.042 3853
2523.6 -301.042 3853
2532.81 -301.042 3853
2542.03 -301.042 3853
2551.24 -301.042 3853
2560.46 -301.042 3853
2569.67 -301.042 3853
2572.86 -300.339 3844
2630.41 -305.964 3916
2664.72 -308.855 3953
2674.17 -308.855 3953
2690.42 -309.636 3963
2699.89 -309.636 3963
2709.37 -309.636 3963
2718.85 -309.636 3963
2721.44 -308.855 3953
2724.67 -308.152 3944
2727.86 -307.448 3935
2737.27 -307.448 3935
2720.86 -304.558 3898
2730.18 -304.558 3898
2720.53 -302.448 3871
2729.78 -302.448 3871
2688.8 -296.901 3800
2697.89 -296.901 3800
2706.97 -296.901 3800
2716.06 -296.901 3800
2706.5 -294.869 3774
2709.77 -294.244 3766
2712.28 -293.541 3757
2721.26 -293.541 3757
2730.25 -293.541 3757
2739.23 -293.541 3757
2729.93 -291.588 3732
2732.98 -290.963 3724
2747.78 -291.588 3732
2756.7 -291.588 3732
2765.63 -291.588 3732
2793.14 -293.541 3757
2802.12 -293.541 3757
2811.1 -293.541 3757
2826.84 -294.244 3766
2841.87 -294.869 3774
2870.54 -296.901 3800
2899.33 -298.932 3826
2908.48 -298.932 3826
2938.22 -301.042 3853
2947.43 -301.042 3853
-2392.92 -242.053 3196
-2385.28 -242.053 3196
-2373.17 -241.599 3190
-2365.55 -241.599 3190
-2375.66 -243.416 3214
-2395.97 -246.294 3252
-2388.19 -246.294 3252
-2399.45 -248.263 3278
-2414.96 -250.687 3310
-2421.59 -252.202 3330
-2413.62 -252.202 3330
-2415.05 -253.186 3343
-2417.14 -254.247 3357
-2409.11 -254.247 3357
-2401.08 -254.247 3357
-2393.05 -254.247 3357
-2394.26 -255.231 3370
-2396.12 -256.291 3384
-2388.02 -256.291 3384
-2384.86 -256.822 3391
-2386.56 -257.882 3405
-2378.42 -257.882 3405
-2370.27 -257.882 3405
-2362.13 -257.882 3405
-2397.54 -262.653 3468
-2419.56 -265.986 3512
-2411.17 -265.986 3512
-2408.24 -266.592 3520
-2419.59 -268.788 3549
-2421.98 -270 3565
-2413.45 -270 3565
-2415.05 -271.136 3580
-2416.57 -272.272 3595
-2407.97 -272.272 3595
-2404.72 -272.878 3603
-2412.06 -274.695 3627
-2418.63 -276.437 3650
-2409.9 -276.437 3650
-2422.88 -278.937 3683
-2435.7 -281.436 3716
-2448.37 -283.935 3749
-2439.4 -283.935 3749
-2469.34 -288.479 3809
-2506.09 -293.857 3880
-2525.77 -297.265 3925
-2516.38 -297.265 3925
-2506.99 -297.265 3925
-2468.97 -293.857 3880
-2459.69 -293.857 3880
-2427.68 -291.13 3844
-2385.77 -287.192 3792
-748.337 -133.826 1767
-744.112 -133.826 1767
-739.887 -133.826 1767
-735.661 -133.826 1767
-731.436 -133.826 1767
-727.21 -133.826 1767
-722.985 -133.826 1767
-718.759 -133.826 1767
-714.534 -133.826 1767
-705.083 -132.841 1754
-703.286 -133.296 1760
-699.077 -133.296 1760
-694.869 -133.296 1760
-690.66 -133.296 1760
-684.891 -132.993 1756
-679.141 -132.69 1752
-674.952 -132.69 1752
-669.614 -132.463 1749
-664.67 -132.311 1747
-658.224 -131.857 1741
-654.061 -131.857 1741
-649.524 -131.781 1740
-645.364 -131.781 1740
-638.992 -131.327 1734
-633.747 -131.099 1731
-629.607 -131.099 1731
-624.023 -130.797 1727
-618.457 -130.494 1723
-612.554 -130.115 1718
-608.446 -130.115 1718
-602.579 -129.736 1713
-597.085 -129.433 1709
-592.651 -129.358 1708
-588.567 -129.358 1708
-582.43 -128.903 1702
-578.359 -128.903 1702
-573.277 -128.676 1699
-569.214 -128.676 1699
-563.821 -128.373 1695
-559.768 -128.373 1695
-554.075 -127.994 1690
-550.034 -127.994 1690
-545.023 -127.767 1687
-538.745 -127.237 1680
-533.772 -127.01 1677
-529.762 -127.01 1677
-524.498 -126.707 1673
-518.942 -126.328 1668
-514.644 -126.252 1667
-510.045 -126.101 1665
-506.064 -126.101 1665
-501.479 -125.949 1663
-495.707 -125.495 1657
-491.151 -125.343 1655
-487.194 -125.343 1655
-482.652 -125.192 1653
-477.831 -124.965 1650
-473.311 -124.813 1648
-469.37 -124.813 1648
-465.429 -124.813 1648
-460.648 -124.586 1645
-456.437 -124.51 1644
-452.505 -124.51 1644
-448.574 -124.51 1644
-444.102 -124.359 1642
-440.175 -124.359 1642
-436.78 -124.51 1644
-432.849 -124.51 1644
-428.917 -124.51 1644
-424.986 -124.51 1644
-421.055 -124.51 1644
-417.124 -124.51 1644
-413.192 -124.51 1644
-409.261 -124.51 1644
-405.33 -124.51 1644
-401.398 -124.51 1644
-397.467 -124.51 1644
-393.536 -124.51 1644
-389.841 -124.586 1645
-385.908 -124.586 1645
-381.974 -124.586 1645
-378.04 -124.586 1645
-374.107 -124.586 1645
-370.173 -124.586 1645
-366.239 -124.586 1645
-362.306 -124.586 1645
-358.372 -124.586 1645
-354.438 -124.586 1645
-350.504 -124.586 1645
-346.36 -124.51 1644
-342.012 -124.359 1642
-338.086 -124.359 1642
-334.159 -124.359 1642
-329.83 -124.207 1640
-325.71 -124.132 1639
-321.791 -124.132 1639
-317.483 -123.98 1637
-313.569 -123.98 1637
-309.654 -123.98 1637
-305.74 -123.98 1637
-301.825 -123.98 1637
-297.911 -123.98 1637
-293.457 -123.753 1634
-290.081 -123.98 1637
-286.167 -123.98 1637
-282.597 -124.132 1639
-278.678 -124.132 1639
-274.926 -124.207 1640
-271.004 -124.207 1640
-267.083 -124.207 1640
-263.482 -124.359 1642
-259.555 -124.359 1642
-255.629 -124.359 1642
-252.009 -124.51 1644
-248.228 -124.586 1645
-244.592 -124.738 1647
-240.799 -124.813 1648
-236.859 -124.813 1648
-233.2 -124.965 1650
-229.672 -125.192 1653
-226.265 -125.495 1657
-222.303 -125.495 1657
-218.472 -125.571 1658
-215.413 -126.101 1665
-211.812 -126.328 1668
-207.824 -126.328 1668
-204.079 -126.48 1670
-200.924 -127.01 1677
-197.032 -127.085 1678
-193.019 -127.085 1678
-189.232 -127.237 1680
-185.435 -127.388 1682
-181.52 -127.464 1683
-177.496 -127.464 1683
-173.677 -127.616 1685
-169.85 -127.767 1687
-166.012 -127.919 1689
-161.973 -127.919 1689
-158.028 -127.994 1690
-154.169 -128.146 1692
-150.122 -128.146 1692
-146.076 -128.146 1692
-142.198 -128.297 1694
-138.229 -128.373 1695
-134.334 -128.524 1697
-130.276 -128.524 1697
-126.218 -128.524 1697
-122.16 -128.524 1697
-118.102 -128.524 1697
-114.044 -128.524 1697
-109.986 -128.524 1697
-105.928 -128.524 1697
-101.87 -128.524 1697
-97.8116 -128.524 1697
-93.864 -128.676 1699
-89.8012 -128.676 1699
-85.7384 -128.676 1699
-81.6756 -128.676 1699
-77.7041 -128.827 1701
-73.6365 -128.827 1701
-69.5689 -128.827 1701
-65.5013 -128.827 1701
-61.4337 -128.827 1701
-57.3661 -128.827 1701
-53.2985 -128.827 1701
-49.2309 -128.827 1701
-45.1632 -128.827 1701
-61.7433 -275.301 3635
-53.0509 -275.301 3635
-44.3585 -275.301 3635
-36.1371 -278.937 3683
-27.33 -278.937 3683
-18.5228 -278.937 3683
-9.71562 -278.937 3683
-0.902288 -277.043 3658
7.8644 -277.725 3667
16.6333 -277.725 3667
25.4022 -277.725 3667
34.1711 -277.725 3667
42.94 -277.725 3667
51.7089 -277.725 3667
60.4779 -277.725 3667
69.3978 -278.331 3675
78.1859 -278.331 3675
86.9739 -278.331 3675
95.7619 -278.331 3675
104.55 -278.331 3675
113.338 -278.331 3675
122.126 -278.331 3675
130.914 -278.331 3675
139.702 -278.331 3675
148.49 -278.331 3675
157.621 -278.937 3683
166.428 -278.937 3683
175.616 -279.543 3691
184.842 -280.148 3699
193.687 -280.148 3699
202.532 -280.148 3699
211.378 -280.148 3699
220.223 -280.148 3699
229.069 -280.148 3699
237.914 -280.148 3699
246.76 -280.148 3699
255.605 -280.148 3699
263.879 -279.543 3691
272.705 -279.543 3691
281.531 -279.543 3691
289.728 -278.937 3683
297.887 -278.331 3675
306.675 -278.331 3675
315.463 -278.331 3675
323.545 -277.725 3667
331.498 -277.043 3658
340.246 -277.043 3658
348.23 -276.437 3650
356.958 -276.437 3650
364.885 -275.831 3642
373.594 -275.831 3642
382.303 -275.831 3642
391.012 -275.831 3642
399.721 -275.831 3642
408.431 -275.831 3642
417.14 -275.831 3642
425.03 -275.301 3635
432.768 -274.695 3627
441.441 -274.695 3627
450.115 -274.695 3627
458.788 -274.695 3627
464.368 -272.878 3603
471.934 -272.272 3595
480.53 -272.272 3595
488.175 -271.742 3588
492.463 -269.394 3557
504.208 -271.136 3580
512.769 -271.136 3580
521.33 -271.136 3580
529.891 -271.136 3580
537.248 -270.53 3572
545.79 -270.53 3572
552.004 -269.394 3557
1062.82 -300.824 3972
1072.32 -300.824 3972
1084.55 -301.582 3982
1094.07 -301.582 3982
1103.59 -301.582 3982
1110.32 -300.824 3972
1119.81 -300.824 3972
1126.75 -300.143 3963
1138.81 -300.824 3972
1153.8 -302.263 3991
1174.71 -305.217 4030
1184.35 -305.217 4030
1193.99 -305.217 4030
1203.62 -305.217 4030
1213.26 -305.217 4030
1219.86 -304.46 4020
1229.48 -304.46 4020
1239.09 -304.46 4020
1248.7 -304.46 4020
1258.32 -304.46 4020
1273.92 -305.899 4039
1286.76 -306.656 4049
1306.05 -308.928 4079
1319.03 -309.686 4089
1328.8 -309.686 4089
1338.58 -309.686 4089
1784 -308.928 4079
1798.15 -309.686 4089
1807.93 -309.686 4089
1817.71 -309.686 4089
1818.55 -308.171 4069
1806.26 -304.46 4020
1815.87 -304.46 4020
1816.86 -303.021 4001
1817.75 -301.582 3982
1813.97 -299.385 3953
1823.42 -299.385 3953
1819.89 -297.265 3925
1816.69 -295.22 3898
2314.69 -294.538 3889
2340.12 -296.583 3916
2349.48 -296.583 3916
2358.85 -296.583 3916
2368.21 -296.583 3916
2372.11 -295.902 3907
2386.94 -296.583 3916
2413.44 -298.704 3944
2422.87 -298.704 3944
2432.3 -298.704 3944
2441.73 -298.704 3944
2445.57 -298.022 3935
2454.98 -298.022 3935
2441.22 -295.22 3898
2439.22 -293.857 3880
2425.78 -291.13 3844
2434.98 -291.13 3844
2444.17 -291.13 3844
2453.36 -291.13 3844
2456.79 -290.449 3835
2455.03 -289.161 3818
2469.32 -289.767 3826
2478.47 -289.767 3826
2499.32 -291.13 3844
2508.51 -291.13 3844
2517.71 -291.13 3844
2526.9 -291.13 3844
2547.97 -292.493 3862
2557.2 -292.493 3862
2566.44 -292.493 3862
2575.67 -292.493 3862
2584.91 -292.493 3862
2600.19 -293.175 3871
2639.78 -296.583 3916
2649.14 -296.583 3916
2683.63 -299.385 3953
2693.08 -299.385 3953
2702.53 -299.385 3953
2711.98 -299.385 3953
2721.44 -299.385 3953
2724.67 -298.704 3944
2727.86 -298.022 3935
2737.27 -298.022 3935
2727.14 -295.902 3907
2736.48 -295.902 3907
2739.5 -295.22 3898
2748.82 -295.22 3898
2701.54 -289.161 3818
2697.89 -287.798 3800
2706.97 -287.798 3800
2716.06 -287.798 3800
2725.15 -287.798 3800
2715.53 -285.829 3774
2731.05 -286.51 3783
2740.1 -286.51 3783
2749.14 -286.51 3783
2758.19 -286.51 3783
2742.36 -283.935 3749
2751.33 -283.935 3749
2760.29 -283.935 3749
2762.61 -283.254 3740
2784.15 -284.541 3757
2799.83 -285.223 3766
2821.51 -286.51 3783
2830.56 -286.51 3783
2839.6 -286.51 3783
2861.45 -287.798 3800
2890.18 -289.767 3826
2899.33 -289.767 3826
2942.69 -293.175 3871
2958.81 -293.857 3880
2968.08 -293.857 3880
-2392.92 -234.397 3196
-2385.28 -234.397 3196
-2373.17 -233.957 3190
-2365.55 -233.957 3190
-2380.83 -236.231 3221
-2415.13 -240.411 3278
-2407.29 -240.411 3278
-2408.23 -241.291 3290
-2420.06 -243.271 3317
-2431.04 -245.178 3343
-2423.04 -245.178 3343
-2439.61 -247.672 3377
-2431.54 -247.672 3377
-2423.46 -247.672 3377
-2415.39 -247.672 3377
-2402.32 -247.158 3370
-2409.18 -248.698 3391
-2406.03 -249.212 3398
-2397.9 -249.212 3398
-2404.55 -250.752 3419
-2401.28 -251.265 3426
-2393.09 -251.265 3426
-2384.89 -251.265 3426
-2376.7 -251.265 3426
-2403.07 -254.932 3476
-2419.56 -257.573 3512
-2411.17 -257.573 3512
-2408.24 -258.159 3520
-2430.5 -261.46 3565
-2421.98 -261.46 3565
-2423.61 -262.56 3580
-2425.17 -263.66 3595
-2421.95 -264.247 3603
-2413.33 -264.247 3603
-2420.73 -266.007 3627
-2427.36 -267.694 3650
-2440.49 -270.114 3683
-2431.69 -270.114 3683
-2444.59 -272.534 3716
-2451.43 -274.294 3740
-2476.45 -278.108 3792
-2467.38 -278.108 3792
-2515.36 -284.562 3880
-2535.15 -287.862 3925
-2543.78 -289.916 3953
-2534.33 -289.916 3953
-2524.88 -289.916 3953
-2515.43 -289.916 3953
-2505.97 -289.916 3953
-2427.68 -281.922 3844
-2402.13 -280.015 3818
-748.337 -129.593 1767
-744.112 -129.593 1767
-739.887 -129.593 1767
-735.661 -129.593 1767
-731.436 -129.593 1767
-727.21 -129.593 1767
-722.985 -129.593 1767
-718.759 -129.593 1767
-714.534 -129.593 1767
-705.887 -128.786 1756
-704.085 -129.226 1762
-699.872 -129.226 1762
-695.658 -129.226 1762
-691.445 -129.226 1762
-685.671 -128.933 1758
-679.917 -128.64 1754
-675.722 -128.64 1754
-670.379 -128.42 1751
-664.67 -128.126 1747
-658.98 -127.833 1743
-654.812 -127.833 1743
-649.898 -127.686 1741
-645.364 -127.613 1740
-639.729 -127.32 1736
-634.113 -127.026 1732
-629.971 -127.026 1732
-624.745 -126.806 1729
-619.175 -126.513 1725
-613.267 -126.146 1720
-609.154 -126.146 1720
-603.282 -125.779 1715
-597.784 -125.486 1711
-592.998 -125.339 1709
-588.912 -125.339 1709
-583.798 -125.119 1706
-578.359 -124.826 1702
-573.277 -124.606 1699
-569.214 -124.606 1699
-564.486 -124.459 1697
-559.768 -124.313 1695
-554.075 -123.946 1690
-550.034 -123.946 1690
-545.023 -123.726 1687
-538.745 -123.212 1680
-533.772 -122.992 1677
-529.762 -122.992 1677
-524.498 -122.699 1673
-518.63 -122.259 1667
-514.027 -122.112 1665
-509.433 -121.966 1663
-505.456 -121.966 1663
-501.479 -121.966 1663
-495.707 -121.526 1657
-491.151 -121.379 1655
-487.194 -121.379 1655
-482.652 -121.232 1653
-477.831 -121.012 1650
-473.885 -121.012 1650
-469.939 -121.012 1650
-465.429 -120.866 1648
-460.648 -120.646 1645
-456.437 -120.572 1644
-452.505 -120.572 1644
-448.574 -120.572 1644
-444.102 -120.426 1642
-440.175 -120.426 1642
-436.78 -120.572 1644
-432.849 -120.572 1644
-428.917 -120.572 1644
-424.986 -120.572 1644
-421.055 -120.572 1644
-417.124 -120.572 1644
-413.192 -120.572 1644
-409.261 -120.572 1644
-405.33 -120.572 1644
-401.398 -120.572 1644
-397.467 -120.572 1644
-393.775 -120.646 1645
-389.841 -120.646 1645
-385.908 -120.646 1645
-381.974 -120.646 1645
-378.04 -120.646 1645
-374.107 -120.646 1645
-370.173 -120.646 1645
-366.239 -120.646 1645
-362.306 -120.646 1645
-358.372 -120.646 1645
-354.438 -120.646 1645
-350.504 -120.646 1645
-346.36 -120.572 1644
-342.012 -120.426 1642
-338.086 -120.426 1642
-334.159 -120.426 1642
-329.83 -120.279 1640
-325.71 -120.205 1639
-321.791 -120.205 1639
-317.483 -120.059 1637
-313.569 -120.059 1637
-309.654 -120.059 1637
-305.74 -120.059 1637
-301.825 -120.059 1637
-297.911 -120.059 1637
-293.457 -119.839 1634
-290.081 -120.059 1637
-286.167 -120.059 1637
-282.597 -120.205 1639
-278.678 -120.205 1639
-274.926 -120.279 1640
-271.004 -120.279 1640
-267.083 -120.279 1640
-263.482 -120.426 1642
-259.555 -120.426 1642
-255.629 -120.426 1642
-252.162 -120.646 1645
-248.228 -120.646 1645
-244.74 -120.866 1648
-241.092 -121.012 1650
-237.146 -121.012 1650
-233.483 -121.159 1652
-229.672 -121.232 1653
-226.401 -121.599 1658
-222.437 -121.599 1658
-218.735 -121.746 1660
-215.413 -122.112 1665
-211.812 -122.332 1668
-207.824 -122.332 1668
-204.079 -122.479 1670
-200.924 -122.992 1677
-197.032 -123.066 1678
-193.019 -123.066 1678
-189.232 -123.212 1680
-185.435 -123.359 1682
-181.52 -123.432 1683
-177.496 -123.432 1683
-173.884 -123.726 1687
-169.85 -123.726 1687
-166.11 -123.946 1690
-162.069 -123.946 1690
-158.028 -123.946 1690
-154.169 -124.093 1692
-150.3 -124.239 1694
-146.249 -124.239 1694
-142.282 -124.313 1695
-138.392 -124.459 1697
-134.334 -124.459 1697
-130.276 -124.459 1697
-126.367 -124.606 1699
-122.304 -124.606 1699
-118.241 -124.606 1699
-114.178 -124.606 1699
-110.115 -124.606 1699
-105.928 -124.459 1697
-101.99 -124.606 1699
-97.9268 -124.606 1699
-93.9745 -124.753 1701
-89.9069 -124.753 1701
-85.8393 -124.753 1701
-81.7717 -124.753 1701
-77.7041 -124.753 1701
-73.6365 -124.753 1701
-69.5689 -124.753 1701
-65.5013 -124.753 1701
-61.4337 -124.753 1701
-57.2986 -124.606 1699
-53.2358 -124.606 1699
-49.173 -124.606 1699
-45.1101 -124.606 1699
-61.7433 -266.594 3635
-53.1531 -267.107 3642
-44.444 -267.107 3642
-36.0586 -269.527 3675
-27.2706 -269.527 3675
-18.4826 -269.527 3675
-9.69452 -269.527 3675
-0.902288 -268.28 3658
7.8451 -268.28 3658
16.5925 -268.28 3658
25.3399 -268.28 3658
34.0873 -268.28 3658
42.8346 -268.28 3658
51.582 -268.28 3658
60.3294 -268.28 3658
69.0768 -268.28 3658
78.0157 -268.941 3667
86.7846 -268.941 3667
95.5535 -268.941 3667
104.322 -268.941 3667
113.091 -268.941 3667
121.86 -268.941 3667
130.629 -268.941 3667
139.398 -268.941 3667
148.49 -269.527 3675
157.621 -270.114 3683
166.428 -270.114 3683
175.616 -270.701 3691
184.842 -271.287 3699
193.687 -271.287 3699
202.532 -271.287 3699
211.378 -271.287 3699
220.223 -271.287 3699
229.069 -271.287 3699
237.914 -271.287 3699
246.76 -271.287 3699
255.605 -271.287 3699
263.879 -270.701 3691
272.705 -270.701 3691
281.531 -270.701 3691
289.728 -270.114 3683
297.887 -269.527 3675
306.675 -269.527 3675
315.463 -269.527 3675
323.545 -268.941 3667
331.498 -268.28 3658
340.246 -268.28 3658
348.23 -267.694 3650
356.958 -267.694 3650
365.686 -267.694 3650
374.415 -267.694 3650
383.143 -267.694 3650
391.871 -267.694 3650
400.599 -267.694 3650
409.328 -267.694 3650
417.14 -267.107 3642
425.03 -266.594 3635
433.723 -266.594 3635
441.441 -266.007 3627
450.115 -266.007 3627
458.788 -266.007 3627
464.368 -264.247 3603
471.934 -263.66 3595
480.53 -263.66 3595
488.175 -263.147 3588
492.463 -260.873 3557
504.208 -262.56 3580
512.769 -262.56 3580
521.33 -262.56 3580
529.891 -262.56 3580
537.248 -261.973 3572
545.79 -261.973 3572
552.004 -260.873 3557
1070.58 -293.436 4001
1080.15 -293.436 4001
1089.72 -293.436 4001
1099.29 -293.436 4001
1108.86 -293.436 4001
1115.63 -292.703 3991
1125.17 -292.703 3991
1134.71 -292.703 3991
1144.26 -292.703 3991
1159.3 -294.096 4010
1174.71 -295.563 4030
1184.35 -295.563 4030
1193.99 -295.563 4030
1203.62 -295.563 4030
1213.26 -295.563 4030
1219.86 -294.83 4020
1229.48 -294.83 4020
1239.09 -294.83 4020
1248.7 -294.83 4020
1258.32 -294.83 4020
1273.92 -296.223 4039
1286.76 -296.957 4049
1306.05 -299.157 4079
1315.8 -299.157 4079
1325.55 -299.157 4079
1335.31 -299.157 4079
1759.04 -299.89 4089
1768.82 -299.89 4089
1778.59 -299.89 4089
1784 -299.157 4079
1793.75 -299.157 4079
1803.51 -299.157 4079
1813.26 -299.157 4079
1818.55 -298.423 4069
1806.26 -294.83 4020
1815.87 -294.83 4020
1816.86 -293.436 4001
1813.19 -291.309 3972
1813.97 -289.916 3953
1823.42 -289.916 3953
1819.89 -287.862 3925
1812.5 -285.222 3889
2309.33 -284.562 3880
2340.12 -287.202 3916
2349.48 -287.202 3916
2358.85 -287.202 3916
2368.21 -287.202 3916
2366.65 -285.882 3898
2386.94 -287.202 3916
2413.44 -289.256 3944
2422.87 -289.256 3944
2432.3 -289.256 3944
2441.73 -289.256 3944
2451.17 -289.256 3944
2460.6 -289.256 3944
2470.03 -289.256 3944
2461.86 -287.202 3916
2471.22 -287.202 3916
2480.58 -287.202 3916
2489.95 -287.202 3916
2470.59 -283.902 3871
2479.85 -283.902 3871
2489.11 -283.902 3871
2498.36 -283.902 3871
2495.96 -282.582 3853
2505.17 -282.582 3853
2526.13 -283.902 3871
2547.18 -285.222 3889
2556.48 -285.222 3889
2565.78 -285.222 3889
2575.08 -285.222 3889
2584.38 -285.222 3889
2593.68 -285.222 3889
2590.93 -283.902 3871
2600.19 -283.902 3871
2627.65 -285.882 3898
2636.97 -285.882 3898
2658.51 -287.202 3916
2674 -287.862 3925
2696.38 -289.256 3944
2705.81 -289.256 3944
2715.24 -289.256 3944
2724.67 -289.256 3944
2720.93 -287.862 3925
2730.32 -287.862 3925
2727.14 -286.542 3907
2736.48 -286.542 3907
2739.5 -285.882 3898
2748.82 -285.882 3898
2701.54 -280.015 3818
2710.67 -280.015 3818
2713.39 -279.355 3809
2722.49 -279.355 3809
2731.6 -279.355 3809
2715.53 -276.788 3774
2731.05 -277.448 3783
2740.1 -277.448 3783
2749.14 -277.448 3783
2758.19 -277.448 3783
2760.65 -276.788 3774
2751.33 -274.954 3749
2766.18 -275.541 3757
2775.17 -275.541 3757
2790.82 -276.201 3766
2825.1 -278.695 3800
2834.19 -278.695 3800
2843.28 -278.695 3800
2852.37 -278.695 3800
2901.36 -282.582 3853
2944.57 -285.882 3898
2953.89 -285.882 3898
2963.21 -285.882 3898
2979.4 -286.542 3907
2988.74 -286.542 3907
-2392.92 -226.741 3196
-2385.28 -226.741 3196
-2373.17 -226.315 3190
-2365.55 -226.315 3190
-2380.83 -228.515 3221
-2415.13 -232.558 3278
-2407.29 -232.558 3278
-2408.23 -233.41 3290
-2434.66 -236.744 3337
-2431.04 -237.17 3343
-2423.04 -237.17 3343
-2439.61 -239.582 3377
-2431.54 -239.582 3377
-2423.46 -239.582 3377
-2415.39 -239.582 3377
-2402.32 -239.085 3370
-2409.18 -240.575 3391
-2406.03 -241.072 3398
-2397.9 -241.072 3398
-2414.39 -243.555 3433
-2411.09 -244.052 3440
-2402.86 -244.052 3440
-2394.64 -244.052 3440
-2381.56 -243.555 3433
-2412.75 -247.599 3490
-2425.08 -249.727 3520
-2416.66 -249.727 3520
-2417.82 -250.72 3534
-2440.73 -253.984 3580
-2432.17 -253.984 3580
-2433.76 -255.048 3595
-2430.56 -255.616 3603
-2432.7 -256.751 3619
-2424.05 -256.751 3619
-2426.07 -257.886 3635
-2427.36 -258.95 3650
-2440.49 -261.291 3683
-2431.69 -261.291 3683
-2444.59 -263.633 3716
-2457.33 -265.974 3749
-2476.45 -269.024 3792
-2467.38 -269.024 3792
-2515.36 -275.268 3880
-2535.15 -278.46 3925
-2543.78 -280.447 3953
-2534.33 -280.447 3953
-2524.88 -280.447 3953
-2515.43 -280.447 3953
-2505.97 -280.447 3953
-2427.68 -272.714 3844
-2402.13 -270.869 3818
-748.337 -125.36 1767
-744.112 -125.36 1767
-739.887 -125.36 1767
-735.661 -125.36 1767
-731.436 -125.36 1767
-727.21 -125.36 1767
-722.985 -125.36 1767
-718.759 -125.36 1767
-714.534 -125.36 1767
-710.309 -125.36 1767
-706.083 -125.36 1767
-701.858 -125.36 1767
-697.632 -125.36 1767
-693.407 -125.36 1767
-687.231 -125.006 1762
-681.467 -124.722 1758
-677.263 -124.722 1758
-670.762 -124.296 1752
-666.192 -124.225 1751
-660.493 -123.941 1747
-656.315 -123.941 1747
-652.138 -123.941 1747
-645.735 -123.516 1741
-640.466 -123.303 1738
-634.845 -123.019 1734
-630.699 -123.019 1734
-625.468 -122.806 1731
-619.893 -122.522 1727
-613.981 -122.168 1722
-609.863 -122.168 1722
-603.634 -121.742 1716
-598.483 -121.529 1713
-593.692 -121.387 1711
-589.601 -121.387 1711
-583.798 -121.033 1706
-578.359 -120.749 1702
-573.277 -120.536 1699
-569.214 -120.536 1699
-564.486 -120.394 1697
-559.768 -120.252 1695
-554.075 -119.897 1690
-550.034 -119.897 1690
-545.023 -119.685 1687
-538.745 -119.188 1680
-533.772 -118.975 1677
-529.762 -118.975 1677
-524.498 -118.691 1673
-518.63 -118.266 1667
-514.027 -118.124 1665
-509.433 -117.982 1663
-505.456 -117.982 1663
-501.479 -117.982 1663
-495.707 -117.556 1657
-491.151 -117.414 1655
-487.194 -117.414 1655
-482.652 -117.272 1653
-478.41 -117.202 1652
-473.885 -117.06 1650
-469.939 -117.06 1650
-465.429 -116.918 1648
-460.648 -116.705 1645
-456.714 -116.705 1645
-452.781 -116.705 1645
-448.847 -116.705 1645
-444.643 -116.634 1644
-440.711 -116.634 1644
-437.046 -116.705 1645
-433.112 -116.705 1645
-429.178 -116.705 1645
-425.245 -116.705 1645
-421.311 -116.705 1645
-417.377 -116.705 1645
-413.444 -116.705 1645
-409.51 -116.705 1645
-405.576 -116.705 1645
-401.643 -116.705 1645
-397.709 -116.705 1645
-394.254 -116.847 1647
-390.315 -116.847 1647
-386.377 -116.847 1647
-381.974 -116.705 1645
-378.04 -116.705 1645
-374.107 -116.705 1645
-370.173 -116.705 1645
-366.239 -116.705 1645
-362.306 -116.705 1645
-358.372 -116.705 1645
-354.438 -116.705 1645
-350.504 -116.705 1645
-346.36 -116.634 1644
-342.429 -116.634 1644
-338.497 -116.634 1644
-334.159 -116.492 1642
-329.83 -116.35 1640
-325.71 -116.279 1639
-321.791 -116.279 1639
-317.483 -116.137 1637
-313.569 -116.137 1637
-309.654 -116.137 1637
-305.74 -116.137 1637
-301.825 -116.137 1637
-297.911 -116.137 1637
-293.457 -115.925 1634
-290.081 -116.137 1637
-286.167 -116.137 1637
-282.597 -116.279 1639
-278.678 -116.279 1639
-275.261 -116.492 1642
-271.335 -116.492 1642
-267.408 -116.492 1642
-263.482 -116.492 1642
-259.555 -116.492 1642
-255.629 -116.492 1642
-252.162 -116.705 1645
-248.53 -116.847 1647
-244.74 -116.918 1648
-241.092 -117.06 1650
-237.146 -117.06 1650
-233.483 -117.202 1652
-229.949 -117.414 1655
-226.401 -117.627 1658
-222.437 -117.627 1658
-218.735 -117.769 1660
-215.413 -118.124 1665
-212.066 -118.479 1670
-208.073 -118.479 1670
-204.079 -118.479 1670
-200.924 -118.975 1677
-197.032 -119.046 1678
-193.019 -119.046 1678
-189.457 -119.33 1682
-185.545 -119.401 1683
-181.736 -119.543 1685
-177.707 -119.543 1685
-173.884 -119.685 1687
-170.051 -119.827 1689
-166.11 -119.897 1690
-162.069 -119.897 1690
-158.215 -120.039 1692
-154.169 -120.039 1692
-150.389 -120.252 1695
-146.335 -120.252 1695
-142.282 -120.252 1695
-138.392 -120.394 1697
-134.492 -120.536 1699
-130.429 -120.536 1699
-126.367 -120.536 1699
-122.304 -120.536 1699
-118.241 -120.536 1699
-114.178 -120.536 1699
-110.115 -120.536 1699
-106.052 -120.536 1699
-102.11 -120.678 1701
-98.0421 -120.678 1701
-93.9745 -120.678 1701
-89.9069 -120.678 1701
-85.8898 -120.749 1702
-81.8198 -120.749 1702
-77.7498 -120.749 1702
-73.6798 -120.749 1702
-69.6098 -120.749 1702
-65.5398 -120.749 1702
-61.4337 -120.678 1701
-57.3661 -120.678 1701
-53.2985 -120.678 1701
-49.2309 -120.678 1701
-45.1632 -120.678 1701
-61.7433 -257.886 3635
-53.2699 -258.95 3650
-44.5416 -258.95 3650
-36.0586 -260.724 3675
-27.2706 -260.724 3675
-18.4826 -260.724 3675
-9.69452 -260.724 3675
-0.902288 -259.518 3658
7.8451 -259.518 3658
16.5925 -259.518 3658
25.3399 -259.518 3658
34.1711 -260.156 3667
42.94 -260.156 3667
51.7089 -260.156 3667
60.4779 -260.156 3667
69.2468 -260.156 3667
78.0157 -260.156 3667
86.7846 -260.156 3667
95.5535 -260.156 3667
104.322 -260.156 3667
113.091 -260.156 3667
121.86 -260.156 3667
130.629 -260.156 3667
139.398 -260.156 3667
148.49 -260.724 3675
157.621 -261.291 3683
166.428 -261.291 3683
175.616 -261.859 3691
184.842 -262.426 3699
193.687 -262.426 3699
202.532 -262.426 3699
211.378 -262.426 3699
220.223 -262.426 3699
229.069 -262.426 3699
237.914 -262.426 3699
246.76 -262.426 3699
255.605 -262.426 3699
263.879 -261.859 3691
272.705 -261.859 3691
281.531 -261.859 3691
289.728 -261.291 3683
297.887 -260.724 3675
306.675 -260.724 3675
315.463 -260.724 3675
323.545 -260.156 3667
331.498 -259.518 3658
340.246 -259.518 3658
348.23 -258.95 3650
356.958 -258.95 3650
365.686 -258.95 3650
374.415 -258.95 3650
383.143 -258.95 3650
391.871 -258.95 3650
400.599 -258.95 3650
409.328 -258.95 3650
418.056 -258.95 3650
425.03 -257.886 3635
433.723 -257.886 3635
442.415 -257.886 3635
451.107 -257.886 3635
458.788 -257.318 3627
464.368 -255.616 3603
471.934 -255.048 3595
480.53 -255.048 3595
488.175 -254.552 3588
492.463 -252.352 3557
504.208 -253.984 3580
512.769 -253.984 3580
521.33 -253.984 3580
529.891 -253.984 3580
537.248 -253.416 3572
545.79 -253.416 3572
552.004 -252.352 3557
1070.58 -283.852 4001
1080.15 -283.852 4001
1094.89 -285.2 4020
1104.51 -285.2 4020
1114.12 -285.2 4020
1120.94 -284.49 4010
1130.53 -284.49 4010
1140.12 -284.49 4010
1149.71 -284.49 4010
1162.19 -285.2 4020
1174.71 -285.909 4030
1184.35 -285.909 4030
1193.99 -285.909 4030
1203.62 -285.909 4030
1213.26 -285.909 4030
1219.86 -285.2 4020
1229.48 -285.2 4020
1239.09 -285.2 4020
1248.7 -285.2 4020
1258.32 -285.2 4020
1273.92 -286.548 4039
1286.76 -287.257 4049
1306.05 -289.386 4079
1315.8 -289.386 4079
1325.55 -289.386 4079
1335.31 -289.386 4079
1749.26 -290.095 4089
1759.04 -290.095 4089
1768.82 -290.095 4089
1778.59 -290.095 4089
1784 -289.386 4079
1793.75 -289.386 4079
1803.51 -289.386 4079
1813.26 -289.386 4079
1818.55 -288.676 4069
1806.26 -285.2 4020
1815.87 -285.2 4020
1816.86 -283.852 4001
1813.19 -281.794 3972
1813.97 -280.447 3953
1823.42 -280.447 3953
1819.89 -278.46 3925
1812.5 -275.906 3889
2314.69 -275.906 3889
2340.12 -277.822 3916
2349.48 -277.822 3916
2358.85 -277.822 3916
2368.21 -277.822 3916
2366.65 -276.545 3898
2386.94 -277.822 3916
2413.44 -279.808 3944
2428.4 -280.447 3953
2437.85 -280.447 3953
2447.31 -280.447 3953
2451.17 -279.808 3944
2460.6 -279.808 3944
2470.03 -279.808 3944
2479.46 -279.808 3944
2471.22 -277.822 3916
2480.58 -277.822 3916
2489.95 -277.822 3916
2499.31 -277.822 3916
2491.38 -275.906 3889
2500.68 -275.906 3889
2498.36 -274.629 3871
2507.62 -274.629 3871
2511.03 -273.991 3862
2532.01 -275.268 3880
2547.18 -275.906 3889
2556.48 -275.906 3889
2571.72 -276.545 3898
2581.04 -276.545 3898
2590.36 -276.545 3898
2599.68 -276.545 3898
2602.98 -275.906 3889
2600.19 -274.629 3871
2627.65 -276.545 3898
2636.97 -276.545 3898
2658.51 -277.822 3916
2674 -278.46 3925
2696.38 -279.808 3944
2705.81 -279.808 3944
2715.24 -279.808 3944
2724.67 -279.808 3944
2720.93 -278.46 3925
2730.32 -278.46 3925
2727.14 -277.183 3907
2736.48 -277.183 3907
2739.5 -276.545 3898
2748.82 -276.545 3898
2701.54 -270.869 3818
2710.67 -270.869 3818
2713.39 -270.23 3809
2722.49 -270.23 3809
2731.6 -270.23 3809
2715.53 -267.747 3774
2731.05 -268.386 3783
2740.1 -268.386 3783
2749.14 -268.386 3783
2758.19 -268.386 3783
2760.65 -267.747 3774
2763.8 -267.18 3766
2772.81 -267.18 3766
2781.82 -267.18 3766
2810.09 -269.024 3792
2825.1 -269.592 3800
2867.01 -272.714 3844
2876.2 -272.714 3844
2885.39 -272.714 3844
2908.14 -273.991 3862
2944.57 -276.545 3898
2953.89 -276.545 3898
2998.18 -279.808 3944
3014.47 -280.447 3953
3023.93 -280.447 3953
-2388.43 -218.674 3190
-2380.8 -218.674 3190
-2373.17 -218.674 3190
-2365.55 -218.674 3190
-2380.83 -220.799 3221
-2415.13 -224.706 3278
-2407.29 -224.706 3278
-2408.23 -225.529 3290
-2434.66 -228.75 3337
-2431.04 -229.162 3343
-2423.04 -229.162 3343
-2439.61 -231.492 3377
-2431.54 -231.492 3377
-2423.46 -231.492 3377
-2415.39 -231.492 3377
-2402.32 -231.013 3370
-2409.18 -232.452 3391
-2406.03 -232.932 3398
-2397.9 -232.932 3398
-2414.39 -235.331 3433
-2411.09 -235.811 3440
-2402.86 -235.811 3440
-2394.64 -235.811 3440
-2381.56 -235.331 3433
-2412.75 -239.239 3490
-2425.08 -241.295 3520
-2416.66 -241.295 3520
-2417.82 -242.255 3534
-2440.73 -245.408 3580
-2432.17 -245.408 3580
-2433.76 -246.436 3595
-2430.56 -246.985 3603
-2432.7 -248.081 3619
-2424.05 -248.081 3619
-2426.07 -249.178 3635
-2427.36 -250.207 3650
-2440.49 -252.469 3683
-2431.69 -252.469 3683
-2444.59 -254.731 3716
-2457.33 -256.993 3749
-2476.45 -259.941 3792
-2467.38 -259.941 3792
-2515.36 -265.973 3880
-2535.15 -269.058 3925
-2543.78 -270.977 3953
-2534.33 -270.977 3953
-2524.88 -270.977 3953
-2515.43 -270.977 3953
-2505.97 -270.977 3953
-2427.68 -263.505 3844
-2402.13 -261.723 3818
-746.643 -120.853 1763
-742.427 -120.853 1763
-738.212 -120.853 1763
-733.996 -120.853 1763
-730.608 -120.99 1765
-726.387 -120.99 1765
-722.985 -121.127 1767
-718.759 -121.127 1767
-714.534 -121.127 1767
-710.309 -121.127 1767
-706.083 -121.127 1767
-701.858 -121.127 1767
-697.632 -121.127 1767
-693.407 -121.127 1767
-687.231 -120.785 1762
-681.467 -120.51 1758
-677.263 -120.51 1758
-670.762 -120.099 1752
-666.192 -120.031 1751
-660.493 -119.756 1747
-656.315 -119.756 1747
-652.138 -119.756 1747
-645.735 -119.345 1741
-640.466 -119.139 1738
-634.845 -118.865 1734
-630.699 -118.865 1734
-625.468 -118.66 1731
-619.893 -118.385 1727
-613.981 -118.043 1722
-609.863 -118.043 1722
-603.634 -117.631 1716
-598.483 -117.426 1713
-593.692 -117.289 1711
-589.601 -117.289 1711
-583.798 -116.946 1706
-578.359 -116.672 1702
-573.277 -116.466 1699
-569.214 -116.466 1699
-564.486 -116.329 1697
-559.768 -116.192 1695
-554.075 -115.849 1690
-550.034 -115.849 1690
-545.023 -115.643 1687
-538.745 -115.164 1680
-533.136 -114.821 1675
-529.13 -114.821 1675
-524.184 -114.615 1672
-518.63 -114.272 1667
-514.027 -114.135 1665
-509.433 -113.998 1663
-505.456 -113.998 1663
-500.574 -113.793 1660
-495.707 -113.587 1657
-491.151 -113.45 1655
-487.194 -113.45 1655
-482.652 -113.313 1653
-478.41 -113.244 1652
-473.885 -113.107 1650
-469.939 -113.107 1650
-465.429 -112.97 1648
-460.648 -112.764 1645
-456.714 -112.764 1645
-452.781 -112.764 1645
-448.847 -112.764 1645
-444.643 -112.696 1644
-440.711 -112.696 1644
-437.046 -112.764 1645
-433.112 -112.764 1645
-429.178 -112.764 1645
-425.245 -112.764 1645
-421.311 -112.764 1645
-417.377 -112.764 1645
-413.444 -112.764 1645
-409.51 -112.764 1645
-405.576 -112.764 1645
-401.643 -112.764 1645
-397.709 -112.764 1645
-394.254 -112.901 1647
-390.315 -112.901 1647
-386.377 -112.901 1647
-381.974 -112.764 1645
-378.04 -112.764 1645
-374.107 -112.764 1645
-370.173 -112.764 1645
-366.239 -112.764 1645
-362.306 -112.764 1645
-358.372 -112.764 1645
-354.438 -112.764 1645
-350.504 -112.764 1645
-346.36 -112.696 1644
-342.429 -112.696 1644
-338.497 -112.696 1644
-334.159 -112.559 1642
-329.83 -112.422 1640
-325.71 -112.353 1639
-321.791 -112.353 1639
-317.483 -112.216 1637
-313.569 -112.216 1637
-309.654 -112.216 1637
-305.74 -112.216 1637
-301.825 -112.216 1637
-297.729 -112.147 1636
-293.457 -112.01 1634
-290.081 -112.216 1637
-286.167 -112.216 1637
-282.597 -112.353 1639
-278.678 -112.353 1639
-275.261 -112.559 1642
-271.335 -112.559 1642
-267.408 -112.559 1642
-263.482 -112.559 1642
-259.555 -112.559 1642
-255.629 -112.559 1642
-252.162 -112.764 1645
-248.53 -112.901 1647
-244.74 -112.97 1648
-241.092 -113.107 1650
-237.146 -113.107 1650
-233.483 -113.244 1652
-229.949 -113.45 1655
-226.401 -113.655 1658
-222.437 -113.655 1658
-218.735 -113.793 1660
-215.413 -114.135 1665
-212.066 -114.478 1670
-208.073 -114.478 1670
-204.079 -114.478 1670
-200.924 -114.958 1677
-197.032 -115.026 1678
-193.019 -115.026 1678
-189.457 -115.301 1682
-185.545 -115.369 1683
-181.736 -115.506 1685
-177.707 -115.506 1685
-173.884 -115.643 1687
-170.051 -115.78 1689
-166.11 -115.849 1690
-162.069 -115.849 1690
-158.215 -115.986 1692
-154.169 -115.986 1692
-150.389 -116.192 1695
-146.335 -116.192 1695
-142.282 -116.192 1695
-138.392 -116.329 1697
-134.492 -116.466 1699
-130.429 -116.466 1699
-126.367 -116.466 1699
-122.304 -116.466 1699
-118.241 -116.466 1699
-114.178 -116.466 1699
-110.115 -116.466 1699
-106.052 -116.466 1699
-102.11 -116.603 1701
-98.0421 -116.603 1701
-93.9745 -116.603 1701
-89.9069 -116.603 1701
-85.8898 -116.672 1702
-81.8198 -116.672 1702
-77.7498 -116.672 1702
-73.6798 -116.672 1702
-69.6098 -116.672 1702
-65.5398 -116.672 1702
-61.4337 -116.603 1701
-57.3661 -116.603 1701
-53.2985 -116.603 1701
-49.2309 -116.603 1701
-45.1632 -116.603 1701
-61.6074 -248.63 3627
-53.2699 -250.207 3650
-44.5416 -250.207 3650
-35.9801 -251.372 3667
-27.2112 -251.372 3667
-18.4423 -251.372 3667
-9.67342 -251.372 3667
-0.902288 -250.755 3658
7.8451 -250.755 3658
16.5925 -250.755 3658
25.3399 -250.755 3658
34.1711 -251.372 3667
42.94 -251.372 3667
51.7089 -251.372 3667
60.4779 -251.372 3667
69.2468 -251.372 3667
78.0157 -251.372 3667
86.7846 -251.372 3667
95.5535 -251.372 3667
104.322 -251.372 3667
113.091 -251.372 3667
121.86 -251.372 3667
130.629 -251.372 3667
139.398 -251.372 3667
148.49 -251.92 3675
157.621 -252.469 3683
166.428 -252.469 3683
175.616 -253.017 3691
184.442 -253.017 3691
193.268 -253.017 3691
202.094 -253.017 3691
210.921 -253.017 3691
219.747 -253.017 3691
228.573 -253.017 3691
237.4 -253.017 3691
246.226 -253.017 3691
255.052 -253.017 3691
263.879 -253.017 3691
272.705 -253.017 3691
280.921 -252.469 3683
289.728 -252.469 3683
297.887 -251.92 3675
306.675 -251.92 3675
315.463 -251.92 3675
323.545 -251.372 3667
331.498 -250.755 3658
340.246 -250.755 3658
348.23 -250.207 3650
356.958 -250.207 3650
365.686 -250.207 3650
374.415 -250.207 3650
383.143 -250.207 3650
391.871 -250.207 3650
400.599 -250.207 3650
409.328 -250.207 3650
418.056 -250.207 3650
425.03 -249.178 3635
433.723 -249.178 3635
442.415 -249.178 3635
451.107 -249.178 3635
458.788 -248.63 3627
464.368 -246.985 3603
471.934 -246.436 3595
480.53 -246.436 3595
488.175 -245.956 3588
492.463 -243.831 3557
503.081 -244.86 3572
511.623 -244.86 3572
520.165 -244.86 3572
528.706 -244.86 3572
536.195 -244.38 3565
544.72 -244.38 3565
549.676 -242.803 3542
1070.58 -274.267 4001
1080.15 -274.267 4001
1094.89 -275.57 4020
1104.51 -275.57 4020
1114.12 -275.57 4020
1120.94 -274.884 4010
1130.53 -274.884 4010
1140.12 -274.884 4010
1149.71 -274.884 4010
1162.19 -275.57 4020
1174.71 -276.255 4030
1184.35 -276.255 4030
1193.99 -276.255 4030
1203.62 -276.255 4030
1213.26 -276.255 4030
1219.86 -275.57 4020
1229.48 -275.57 4020
1239.09 -275.57 4020
1248.7 -275.57 4020
1258.32 -275.57 4020
1267.93 -275.57 4020
1286.76 -277.558 4049
1299.64 -278.243 4059
1315.8 -279.614 4079
1325.55 -279.614 4079
1335.31 -279.614 4079
1749.26 -280.3 4089
1759.04 -280.3 4089
1768.82 -280.3 4089
1778.59 -280.3 4089
1784 -279.614 4079
1789.36 -278.929 4069
1799.09 -278.929 4069
1808.82 -278.929 4069
1809.61 -277.558 4049
1801.77 -274.884 4010
1811.36 -274.884 4010
1808.23 -272.965 3982
1804.51 -270.977 3953
1796.99 -268.441 3916
1806.35 -268.441 3916
1803.2 -266.59 3889
1755.17 -258.158 3766
2314.69 -266.59 3889
2323.99 -266.59 3889
2338.68 -267.207 3898
2348.01 -267.207 3898
2357.33 -267.207 3898
2361.18 -266.59 3889
2370.48 -266.59 3889
2413.44 -270.36 3944
2428.4 -270.977 3953
2437.85 -270.977 3953
2447.31 -270.977 3953
2451.17 -270.36 3944
2460.6 -270.36 3944
2470.03 -270.36 3944
2479.46 -270.36 3944
2471.22 -268.441 3916
2480.58 -268.441 3916
2489.95 -268.441 3916
2499.31 -268.441 3916
2491.38 -266.59 3889
2500.68 -266.59 3889
2498.36 -265.356 3871
2507.62 -265.356 3871
2511.03 -264.739 3862
2532.01 -265.973 3880
2547.18 -266.59 3889
2556.48 -266.59 3889
2571.72 -267.207 3898
2581.04 -267.207 3898
2590.36 -267.207 3898
2599.68 -267.207 3898
2602.98 -266.59 3889
2594.14 -264.739 3862
2603.38 -264.739 3862
2612.61 -264.739 3862
2646.29 -267.207 3898
2661.74 -267.824 3907
2677.24 -268.441 3916
2686.6 -268.441 3916
2695.96 -268.441 3916
2699.11 -267.824 3907
2702.22 -267.207 3898
2717.8 -267.824 3907
2727.14 -267.824 3907
2736.48 -267.824 3907
2739.5 -267.207 3898
2748.82 -267.207 3898
2701.54 -261.723 3818
2710.67 -261.723 3818
2713.39 -261.106 3809
2722.49 -261.106 3809
2731.6 -261.106 3809
2715.53 -258.707 3774
2731.05 -259.324 3783
2740.1 -259.324 3783
2749.14 -259.324 3783
2758.19 -259.324 3783
2760.65 -258.707 3774
2763.8 -258.158 3766
2772.81 -258.158 3766
2781.82 -258.158 3766
2810.09 -259.941 3792
2825.1 -260.489 3800
2867.01 -263.505 3844
2876.2 -263.505 3844
2885.39 -263.505 3844
2908.14 -264.739 3862
2944.57 -267.207 3898
2953.89 -267.207 3898
2998.18 -270.36 3944
3014.47 -270.977 3953
3023.93 -270.977 3953
-2388.43 -211.032 3190
-2380.8 -211.032 3190
-2373.17 -211.032 3190
-2365.55 -211.032 3190
-2380.83 -213.083 3221
-2423.97 -217.647 3290
-2416.1 -217.647 3290
-2442.64 -220.757 3337
-2439.03 -221.154 3343
-2436.13 -221.617 3350
-2428.12 -221.617 3350
-2434.56 -222.94 3370
-2426.5 -222.94 3370
-2433.51 -224.329 3391
-2425.4 -224.329 3391
-2417.29 -224.329 3391
-2424.1 -225.718 3412
-2430.81 -227.107 3433
-2422.6 -227.107 3433
-2419.32 -227.571 3440
-2411.09 -227.571 3440
-2402.86 -227.571 3440
-2394.64 -227.571 3440
-2386.41 -227.571 3440
-2438.33 -233.326 3527
-2434.72 -233.789 3534
-2426.27 -233.789 3534
-2428.08 -234.781 3549
-2450.96 -237.824 3595
-2442.36 -237.824 3595
-2439.18 -238.354 3603
-2441.36 -239.412 3619
-2438.08 -239.941 3627
-2429.41 -239.941 3627
-2436.08 -241.463 3650
-2438.66 -242.588 3667
-2445.8 -244.175 3691
-2436.97 -244.175 3691
-2444.59 -245.829 3716
-2457.33 -248.012 3749
-2476.45 -250.857 3792
-2467.38 -250.857 3792
-2509.53 -256.083 3871
-2535.15 -259.655 3925
-2543.78 -261.508 3953
-2534.33 -261.508 3953
-2524.88 -261.508 3953
-2503.97 -260.317 3935
-2494.56 -260.317 3935
-2427.68 -254.297 3844
-2402.13 -252.577 3818
-750.031 -117.159 1771
-745.796 -117.159 1771
-741.561 -117.159 1771
-735.661 -116.895 1767
-732.264 -117.027 1769
-728.033 -117.027 1769
-726.258 -117.424 1775
-722.014 -117.424 1775
-717.769 -117.424 1775
-711.916 -117.159 1771
-707.681 -117.159 1771
-703.446 -117.159 1771
-699.211 -117.159 1771
-694.977 -117.159 1771
-688.401 -116.762 1765
-683.405 -116.63 1763
-679.19 -116.63 1763
-671.528 -116.035 1754
-667.334 -116.035 1754
-662.005 -115.836 1751
-657.818 -115.836 1751
-652.884 -115.704 1749
-647.218 -115.439 1745
-641.571 -115.174 1741
-636.31 -114.976 1738
-632.154 -114.976 1738
-625.83 -114.579 1732
-620.611 -114.381 1729
-614.337 -113.984 1723
-610.217 -113.984 1723
-604.338 -113.653 1718
-599.181 -113.454 1715
-594.386 -113.322 1713
-590.29 -113.322 1713
-583.798 -112.859 1706
-578.359 -112.594 1702
-573.277 -112.396 1699
-569.214 -112.396 1699
-563.821 -112.131 1695
-559.438 -112.065 1694
-554.075 -111.801 1690
-550.034 -111.801 1690
-543.731 -111.338 1683
-538.745 -111.139 1680
-532.499 -110.676 1673
-528.498 -110.676 1673
-523.557 -110.478 1670
-518.63 -110.279 1667
-514.027 -110.147 1665
-509.433 -110.014 1663
-505.456 -110.014 1663
-500.574 -109.816 1660
-495.707 -109.618 1657
-490.558 -109.353 1653
-486.605 -109.353 1653
-482.652 -109.353 1653
-478.41 -109.287 1652
-474.459 -109.287 1652
-470.509 -109.287 1652
-465.429 -109.022 1648
-460.648 -108.824 1645
-456.714 -108.824 1645
-452.781 -108.824 1645
-448.847 -108.824 1645
-444.643 -108.758 1644
-440.711 -108.758 1644
-437.046 -108.824 1645
-433.112 -108.824 1645
-429.178 -108.824 1645
-425.245 -108.824 1645
-421.311 -108.824 1645
-417.377 -108.824 1645
-413.444 -108.824 1645
-409.51 -108.824 1645
-405.576 -108.824 1645
-401.643 -108.824 1645
-397.709 -108.824 1645
-394.254 -108.956 1647
-390.315 -108.956 1647
-386.377 -108.956 1647
-381.974 -108.824 1645
-378.04 -108.824 1645
-374.107 -108.824 1645
-370.173 -108.824 1645
-366.239 -108.824 1645
-362.306 -108.824 1645
-358.372 -108.824 1645
-354.438 -108.824 1645
-350.504 -108.824 1645
-346.36 -108.758 1644
-342.429 -108.758 1644
-338.497 -108.758 1644
-333.752 -108.493 1640
-329.83 -108.493 1640
-325.71 -108.427 1639
-321.791 -108.427 1639
-317.483 -108.294 1637
-313.569 -108.294 1637
-309.654 -108.294 1637
-305.74 -108.294 1637
-301.825 -108.294 1637
-297.729 -108.228 1636
-293.816 -108.228 1636
-290.436 -108.427 1639
-286.517 -108.427 1639
-282.597 -108.427 1639
-278.848 -108.493 1640
-275.261 -108.625 1642
-271.335 -108.625 1642
-267.408 -108.625 1642
-263.803 -108.758 1644
-259.871 -108.758 1644
-255.94 -108.758 1644
-252.162 -108.824 1645
-248.53 -108.956 1647
-244.74 -109.022 1648
-241.384 -109.287 1652
-237.433 -109.287 1652
-233.624 -109.353 1653
-230.227 -109.618 1657
-226.675 -109.816 1660
-222.705 -109.816 1660
-218.735 -109.816 1660
-215.413 -110.147 1665
-212.066 -110.478 1670
-208.073 -110.478 1670
-204.079 -110.478 1670
-200.924 -110.941 1677
-197.266 -111.139 1680
-193.249 -111.139 1680
-189.457 -111.271 1682
-185.545 -111.338 1683
-181.736 -111.47 1685
-177.707 -111.47 1685
-173.884 -111.602 1687
-170.152 -111.801 1690
-166.307 -111.933 1692
-162.261 -111.933 1692
-158.215 -111.933 1692
-154.351 -112.065 1694
-150.389 -112.131 1695
-146.335 -112.131 1695
-142.282 -112.131 1695
-138.392 -112.264 1697
-134.492 -112.396 1699
-130.429 -112.396 1699
-126.515 -112.528 1701
-122.448 -112.528 1701
-118.38 -112.528 1701
-114.313 -112.528 1701
-110.245 -112.528 1701
-106.177 -112.528 1701
-102.17 -112.594 1702
-98.0998 -112.594 1702
-94.0298 -112.594 1702
-89.9598 -112.594 1702
-85.8898 -112.594 1702
-81.8198 -112.594 1702
-77.8411 -112.727 1704
-73.7664 -112.727 1704
-69.6916 -112.727 1704
-65.6168 -112.727 1704
-61.4337 -112.528 1701
-57.3661 -112.528 1701
-53.2985 -112.528 1701
-49.2309 -112.528 1701
-45.1632 -112.528 1701
-61.9981 -241.463 3650
-53.3866 -241.992 3658
-44.6392 -241.992 3658
-36.0586 -243.117 3675
-27.2706 -243.117 3675
-18.4826 -243.117 3675
-9.69452 -243.117 3675
-0.904508 -242.588 3667
7.8644 -242.588 3667
16.6333 -242.588 3667
25.4022 -242.588 3667
34.2457 -243.117 3675
43.0337 -243.117 3675
51.8218 -243.117 3675
60.4779 -242.588 3667
69.2468 -242.588 3667
78.0157 -242.588 3667
86.7846 -242.588 3667
95.5535 -242.588 3667
104.322 -242.588 3667
113.091 -242.588 3667
121.86 -242.588 3667
130.629 -242.588 3667
139.398 -242.588 3667
148.49 -243.117 3675
157.621 -243.646 3683
166.428 -243.646 3683
175.235 -243.646 3683
184.442 -244.175 3691
193.268 -244.175 3691
202.094 -244.175 3691
210.921 -244.175 3691
219.271 -243.646 3683
228.078 -243.646 3683
236.885 -243.646 3683
245.692 -243.646 3683
254.499 -243.646 3683
263.307 -243.646 3683
272.114 -243.646 3683
280.921 -243.646 3683
289.728 -243.646 3683
297.887 -243.117 3675
306.675 -243.117 3675
315.463 -243.117 3675
323.545 -242.588 3667
332.314 -242.588 3667
341.083 -242.588 3667
348.993 -241.992 3658
356.958 -241.463 3650
365.686 -241.463 3650
374.415 -241.463 3650
383.143 -241.463 3650
391.871 -241.463 3650
400.599 -241.463 3650
409.328 -241.463 3650
418.056 -241.463 3650
425.03 -240.471 3635
434.558 -240.934 3642
443.267 -240.934 3642
451.976 -240.934 3642
459.8 -240.471 3635
464.368 -238.354 3603
471.934 -237.824 3595
480.53 -237.824 3595
488.175 -237.361 3588
494.54 -236.303 3572
502.095 -235.84 3565
510.62 -235.84 3565
519.145 -235.84 3565
527.67 -235.84 3565
534.992 -235.311 3557
543.498 -235.311 3557
549.676 -234.318 3542
1053.81 -265.278 4010
1063.4 -265.278 4010
1075.67 -265.94 4020
1085.28 -265.94 4020
1094.89 -265.94 4020
1104.51 -265.94 4020
1114.12 -265.94 4020
1120.94 -265.278 4010
1130.53 -265.278 4010
1140.12 -265.278 4010
1149.71 -265.278 4010
1162.19 -265.94 4020
1171.8 -265.94 4020
1181.41 -265.94 4020
1191.03 -265.94 4020
1200.64 -265.94 4020
1210.25 -265.94 4020
1216.83 -265.278 4010
1226.42 -265.278 4010
1236.01 -265.278 4010
1245.6 -265.278 4010
1255.19 -265.278 4010
1267.93 -265.94 4020
1280.72 -266.602 4030
1296.44 -267.858 4049
1309.35 -268.52 4059
1319.06 -268.52 4059
1328.76 -268.52 4059
1338.47 -268.52 4059
1348.17 -268.52 4059
1729.7 -270.505 4089
1739.48 -270.505 4089
1749.26 -270.505 4089
1759.04 -270.505 4089
1768.82 -270.505 4089
1761.2 -267.858 4049
1770.88 -267.858 4049
1780.56 -267.858 4049
1790.24 -267.858 4049
1799.93 -267.858 4049
1792.18 -265.278 4010
1789.19 -263.426 3982
1798.71 -263.426 3982
1795.06 -261.508 3953
1787.62 -259.06 3916
1776.34 -256.083 3871
1785.59 -256.083 3871
1782.33 -254.297 3844
1755.17 -249.137 3766
2314.69 -257.274 3889
2323.99 -257.274 3889
2338.68 -257.869 3898
2348.01 -257.869 3898
2357.33 -257.869 3898
2361.18 -257.274 3889
2370.48 -257.274 3889
2413.44 -260.912 3944
2428.4 -261.508 3953
2437.85 -261.508 3953
2447.31 -261.508 3953
2456.76 -261.508 3953
2466.21 -261.508 3953
2475.66 -261.508 3953
2479.46 -260.912 3944
2471.22 -259.06 3916
2480.58 -259.06 3916
2489.95 -259.06 3916
2499.31 -259.06 3916
2491.38 -257.274 3889
2500.68 -257.274 3889
2509.98 -257.274 3889
2519.28 -257.274 3889
2528.58 -257.274 3889
2537.88 -257.274 3889
2553.07 -257.869 3898
2562.4 -257.869 3898
2577.66 -258.465 3907
2587 -258.465 3907
2596.34 -258.465 3907
2599.68 -257.869 3898
2602.98 -257.274 3889
2594.14 -255.488 3862
2603.38 -255.488 3862
2612.61 -255.488 3862
2621.85 -255.488 3862
2649.48 -257.274 3889
2671.08 -258.465 3907
