-1420.03 1233.02 2494
-1409.53 1229.07 2486
-1408.1 1233.02 2494
-1402.13 1233.02 2494
-1400.09 1236.48 2501
-1394.11 1236.48 2501
-1388.13 1236.48 2501
-1376.07 1231.04 2490
-1370.11 1231.04 2490
-1361.97 1229.07 2486
-1352.2 1225.6 2479
-1346.28 1225.6 2479
-1340.35 1225.6 2479
-1318.81 1211.27 2450
-1309.2 1207.81 2443
-1301.22 1205.83 2439
-1282.11 1193.47 2414
-1276.34 1193.47 2414
-1270.57 1193.47 2414
-1253.79 1183.09 2393
-1244.94 1180.12 2387
-1239.23 1180.12 2387
-1264.09 1243.9 2516
-1275.57 1261.2 2551
-1269.47 1261.2 2551
-1269.32 1267.13 2563
-1280.93 1284.93 2599
-1274.72 1284.93 2599
-1268.5 1284.93 2599
-1277.83 1300.75 2631
-1275.89 1305.2 2640
-1269.57 1305.2 2640
-1263.26 1305.2 2640
-1237.43 1284.93 2599
-1225.05 1278.51 2586
-1218.87 1278.51 2586
-1207.06 1272.57 2574
-1199.5 1271.09 2571
-1191.5 1269.11 2567
-1185.36 1269.11 2567
-1171.87 1261.2 2551
-1160.29 1255.27 2539
-1151.03 1251.81 2532
-1144.98 1251.81 2532
-1133.53 1245.88 2520
-1114.08 1231.04 2490
-1106.34 1229.07 2486
-1100.4 1229.07 2486
-1086.53 1220.17 2468
-1047.79 1183.09 2393
-1034.66 1174.68 2376
-1026.38 1171.72 2370
-1025.02 1176.66 2380
-1019.33 1176.66 2380
-1013.64 1176.66 2380
-1009.22 1178.14 2383
-1006.47 1181.6 2390
-1000.75 1181.6 2390
-999.2 1186.55 2400
-993.461 1186.55 2400
-990.603 1190.01 2407
-984.847 1190.01 2407
-983.565 1195.45 2418
-987.893 1207.81 2443
-998.13 1227.58 2483
-992.193 1227.58 2483
-996.582 1240.44 2509
-993.346 1243.9 2516
-987.33 1243.9 2516
-985.993 1249.83 2528
-984.212 1255.27 2539
-982.764 1261.2 2551
-976.664 1261.2 2551
-970.563 1261.2 2551
-965.975 1263.18 2555
-961.368 1265.16 2559
-955.249 1265.16 2559
-949.13 1265.16 2559
-943.01 1265.16 2559
-936.891 1265.16 2559
-930.772 1265.16 2559
-915.98 1253.29 2535
-905.97 1247.85 2524
-899.934 1247.85 2524
-893.899 1247.85 2524
-885.049 1243.9 2516
-872.394 1234.5 2497
-863.994 1231.04 2490
-858.04 1231.04 2490
-852.086 1231.04 2490
-843.752 1227.58 2483
-598.246 876.562 1773
-594.007 876.562 1773
-589.767 876.562 1773
-584.206 874.584 1769
-579.976 874.584 1769
-574.444 872.607 1765
-567.962 869.146 1758
-563.758 869.146 1758
-559.554 869.146 1758
-555.35 869.146 1758
-551.146 869.146 1758
-546.32 868.157 1756
-540.886 866.18 1752
-536.696 866.18 1752
-530.987 863.708 1747
-526.206 862.719 1745
-520.837 860.741 1741
-516.674 860.741 1741
-511.627 859.258 1738
-506.887 858.269 1736
-502.736 858.269 1736
-498.584 858.269 1736
-493.864 857.281 1734
-489.152 856.292 1732
-485.01 856.292 1732
-480.869 856.292 1732
-476.452 855.797 1731
-472.312 855.797 1731
-468.443 856.292 1732
-464.302 856.292 1732
-460.16 856.292 1732
-456.018 856.292 1732
-452.398 857.281 1734
-448.769 858.269 1736
-444.618 858.269 1736
-440.466 858.269 1736
-436.315 858.269 1736
-432.662 859.258 1738
-429.245 860.741 1741
-425.082 860.741 1741
-421.402 861.73 1743
-417.234 861.73 1743
-413.54 862.719 1745
-409.367 862.719 1745
-405.194 862.719 1745
-400.562 861.73 1743
-396.394 861.73 1743
-391.776 860.741 1741
-387.612 860.741 1741
-384.33 862.719 1745
-382.118 867.169 1754
-377.924 867.169 1754
-375.008 870.135 1760
-371.431 871.618 1763
-369.715 877.551 1775
-365.47 877.551 1775
-363.057 882 1784
-362.009 889.911 1800
-359.096 893.371 1807
-354.775 893.371 1807
-352.005 897.327 1815
-348.814 900.293 1821
-347.108 907.215 1835
-342.72 907.215 1835
-339.069 909.192 1839
-335.4 911.17 1843
-331.711 913.147 1847
-327.294 913.147 1847
-324.451 917.597 1856
-320.357 918.586 1858
-316.254 919.574 1860
-311.806 919.574 1860
-308.02 921.552 1864
-303.562 921.552 1864
-299.105 921.552 1864
-294.647 921.552 1864
-290.19 921.552 1864
-285.426 920.563 1862
-280.973 920.563 1862
-276.521 920.563 1862
-271.192 917.597 1856
-266.753 917.597 1856
-262.315 917.597 1856
-257.877 917.597 1856
-253.165 916.608 1854
-248.195 914.63 1850
-243.771 914.63 1850
-239.348 914.63 1850
-234.924 914.63 1850
-288.972 1216.71 2461
-283.087 1216.71 2461
-277.202 1216.71 2461
-268.45 1203.85 2435
-262.628 1203.85 2435
-255.328 1196.93 2421
-247.787 1188.53 2404
-240.629 1181.6 2390
-234.913 1181.6 2390
-228.239 1176.66 2380
-222.828 1178.14 2383
-217.494 1180.12 2387
-211.786 1180.12 2387
-206.078 1180.12 2387
-200.874 1183.09 2393
-195.478 1185.06 2397
-190.3 1188.53 2404
-184.551 1188.53 2404
-179.323 1191.99 2411
-173.558 1191.99 2411
-168.488 1196.93 2421
-162.699 1196.93 2421
-156.909 1196.93 2421
-151.37 1198.91 2425
-146.171 1203.85 2435
-140.348 1203.85 2435
-135.52 1212.75 2453
-129.654 1212.75 2453
-124.545 1220.17 2468
-119.172 1225.6 2479
-113.244 1225.6 2479
-107.489 1227.58 2483
-102.002 1233.02 2494
-96.3073 1236.48 2501
-90.3266 1236.48 2501
-84.346 1236.48 2501
-78.4907 1238.46 2505
-72.6162 1240.44 2509
-66.6164 1240.44 2509
-60.6167 1240.44 2509
-54.6169 1240.44 2509
-48.6171 1240.44 2509
-42.6173 1240.44 2509
-36.6175 1240.44 2509
-30.6178 1240.44 2509
-24.618 1240.44 2509
-18.5885 1238.46 2505
-12.6184 1240.44 2509
-6.61865 1240.44 2509
-0.618874 1240.44 2509
5.37233 1238.46 2505
11.3625 1238.46 2505
17.3528 1238.46 2505
23.343 1238.46 2505
29.3332 1238.46 2505
35.3234 1238.46 2505
41.2476 1236.48 2501
47.2283 1236.48 2501
53.2089 1236.48 2501
59.0949 1234.5 2497
65.066 1234.5 2497
71.0371 1234.5 2497
76.9157 1233.02 2494
82.7466 1231.04 2490
88.4516 1227.58 2483
94.3892 1227.58 2483
100.327 1227.58 2483
106.093 1225.6 2479
112.021 1225.6 2479
118.14 1227.58 2483
124.627 1233.02 2494
130.591 1233.02 2494
136.555 1233.02 2494
142.519 1233.02 2494
148.483 1233.02 2494
153.765 1227.58 2483
158.931 1221.65 2471
164.84 1221.65 2471
170.749 1221.65 2471
176.443 1220.17 2468
182.862 1223.63 2475
189.391 1227.58 2483
195.879 1231.04 2490
201.834 1231.04 2490
208.372 1234.5 2497
214.686 1236.48 2501
220.667 1236.48 2501
226.648 1236.48 2501
232.628 1236.48 2501
238.991 1238.46 2505
245.665 1241.92 2512
251.672 1241.92 2512
257.679 1241.92 2512
263.686 1241.92 2512
270.552 1245.88 2520
277.456 1249.83 2528
283.501 1249.83 2528
290.348 1253.29 2535
296.878 1255.27 2539
303.427 1257.25 2543
309.508 1257.25 2543
316.582 1261.2 2551
322.682 1261.2 2551
328.782 1261.2 2551
334.883 1261.2 2551
340.448 1259.22 2547
345.45 1255.27 2539
351.522 1255.27 2539
356.607 1251.81 2532
362.089 1249.83 2528
368.135 1249.83 2528
374.18 1249.83 2528
378.42 1243.9 2516
384.437 1243.9 2516
387.505 1234.5 2497
393.476 1234.5 2497
399.447 1234.5 2497
405.418 1234.5 2497
411.389 1234.5 2497
416.859 1233.02 2494
422.822 1233.02 2494
428.099 1231.04 2490
434.053 1231.04 2490
440.007 1231.04 2490
445.962 1231.04 2490
451.19 1229.07 2486
457.87 1231.04 2490
465.129 1234.5 2497
471.1 1234.5 2497
477.071 1234.5 2497
483.042 1234.5 2497
488.425 1233.02 2494
494.389 1233.02 2494
499.551 1231.04 2490
504.693 1229.07 2486
510.638 1229.07 2486
516.583 1229.07 2486
522.527 1229.07 2486
526.984 1225.6 2479
532.052 1223.63 2475
537.971 1223.63 2475
543.889 1223.63 2475
549.808 1223.63 2475
554.154 1220.17 2468
560.056 1220.17 2468
565.958 1220.17 2468
571.86 1220.17 2468
576.825 1218.19 2464
581.062 1214.73 2457
586.937 1214.73 2457
589.435 1207.81 2443
594.302 1205.83 2439
602.841 1211.27 2450
610.439 1214.73 2457
616.314 1214.73 2457
628.774 1227.58 2483
635.478 1229.07 2486
641.423 1229.07 2486
647.368 1229.07 2486
655.415 1233.02 2494
661.379 1233.02 2494
667.343 1233.02 2494
673.307 1233.02 2494
676.275 1227.58 2483
688.257 1238.46 2505
696.187 1241.92 2512
705.548 1247.85 2524
711.584 1247.85 2524
719.894 1251.81 2532
725.949 1251.81 2532
732.004 1251.81 2532
738.059 1251.81 2532
746.171 1255.27 2539
752.242 1255.27 2539
759.508 1257.25 2543
765.589 1257.25 2543
771.67 1257.25 2543
775.305 1253.29 2535
781.367 1253.29 2535
786.497 1251.81 2532
788.795 1245.88 2520
790.09 1238.46 2505
796.081 1238.46 2505
799.509 1234.5 2497
806.771 1236.48 2501
812.751 1236.48 2501
818.732 1236.48 2501
824.713 1236.48 2501
829.365 1234.5 2497
831.656 1229.07 2486
829.178 1216.71 2461
835.062 1216.71 2461
831.038 1202.37 2432
836.854 1202.37 2432
842.669 1202.37 2432
848.485 1202.37 2432
854.301 1202.37 2432
844.201 1180.12 2387
849.909 1180.12 2387
895.047 1234.5 2497
901.018 1234.5 2497
906.989 1234.5 2497
915.885 1238.46 2505
935.86 1257.25 2543
941.941 1257.25 2543
948.022 1257.25 2543
943.973 1243.9 2516
949.989 1243.9 2516
956.006 1243.9 2516
957.816 1238.46 2505
960.729 1234.5 2497
1004.33 1259.22 2547
1010.42 1259.22 2547
1016.51 1259.22 2547
1011.76 1245.88 2520
1016.17 1243.9 2516
1017.72 1238.46 2505
1023.71 1238.46 2505
1029.7 1238.46 2505
1035.69 1238.46 2505
1040.02 1236.48 2501
1046 1236.48 2501
1051.98 1236.48 2501
1050.34 1227.58 2483
1056.28 1227.58 2483
1062.22 1227.58 2483
1068.16 1227.58 2483
1070.63 1223.63 2475
1074.81 1221.65 2471
1071.54 1211.27 2450
1083.55 1218.19 2464
1089.44 1218.19 2464
1100.23 1223.63 2475
1107.93 1225.6 2479
1123.75 1236.48 2501
1129.73 1236.48 2501
1135.71 1236.48 2501
1141.69 1236.48 2501
1147.67 1236.48 2501
1153.65 1236.48 2501
1157.77 1234.5 2497
1163.75 1234.5 2497
1169.72 1234.5 2497
1177.57 1236.48 2501
1183.55 1236.48 2501
1194.76 1241.92 2512
1204.6 1245.88 2520
1217.83 1253.29 2535
1223.89 1253.29 2535
1233.83 1257.25 2543
1239.91 1257.25 2543
1245.99 1257.25 2543
1250.11 1255.27 2539
1254.2 1253.29 2535
1254.79 1247.85 2524
1260.83 1247.85 2524
1262.85 1243.9 2516
1265.33 1240.44 2509
1267.28 1236.48 2501
1273.26 1236.48 2501
1277.2 1234.5 2497
1277.51 1229.07 2486
1279.85 1225.6 2479
1285.77 1225.6 2479
1285.97 1220.17 2468
1286.11 1214.73 2457
1289.89 1212.75 2453
1278.85 1196.93 2421
1284.64 1196.93 2421
1285.1 1191.99 2411
1284.97 1186.55 2400
1289.1 1185.06 2397
1294.83 1185.06 2397
1298.39 1183.09 2393
1304.11 1183.09 2393
1309.84 1183.09 2393
1315.56 1183.09 2393
1327.35 1188.53 2404
1333.1 1188.53 2404
1340.52 1190.01 2407
1356.35 1198.91 2425
1362.15 1198.91 2425
1367.94 1198.91 2425
1375.44 1200.39 2428
1383.52 1202.37 2432
1389.34 1202.37 2432
1395.16 1202.37 2432
1396.94 1198.91 2425
1400.42 1196.93 2421
1408.54 1198.91 2425
1414.34 1198.91 2425
1421.89 1200.39 2428
1427.7 1200.39 2428
1433.5 1200.39 2428
1439.31 1200.39 2428
1447.5 1202.37 2432
1465.86 1212.75 2453
1474.13 1214.73 2457
1488.44 1221.65 2471
1494.34 1221.65 2471
1502.68 1223.63 2475
1513.48 1227.58 2483
1519.41 1227.58 2483
1525.35 1227.58 2483
1535.61 1231.04 2490
1544.04 1233.02 2494
1551.87 1234.5 2497
1557.84 1234.5 2497
1571.32 1240.44 2509
1589.27 1249.83 2528
1597.84 1251.81 2532
1603.89 1251.81 2532
1611.85 1253.29 2535
1617.92 1253.29 2535
1623.98 1253.29 2535
1628.11 1251.81 2532
1634.17 1251.81 2532
1635.04 1247.85 2524
1641.07 1247.85 2524
1629.49 1234.5 2497
1635.46 1234.5 2497
1644.06 1236.48 2501
1655.32 1240.44 2509
1661.32 1240.44 2509
1667.32 1240.44 2509
1675.32 1241.92 2512
1681.33 1241.92 2512
1687.33 1241.92 2512
1693.34 1241.92 2512
1699.35 1241.92 2512
1660.55 1209.29 2446
1666.4 1209.29 2446
1650.37 1193.47 2414
1705.54 1229.07 2486
1716.99 1233.02 2494
1722.95 1233.02 2494
1733.77 1236.48 2501
1739.75 1236.48 2501
1745.73 1236.48 2501
1751.71 1236.48 2501
1757.69 1236.48 2501
1763.67 1236.48 2501
1759.04 1229.07 2486
1760.02 1225.6 2479
1765.94 1225.6 2479
1756.15 1214.73 2457
1762.02 1214.73 2457
1786.61 1227.58 2483
1792.54 1227.58 2483
1798.48 1227.58 2483
1785.53 1214.73 2457
1788.48 1212.75 2453
1778.99 1202.37 2432
1784.8 1202.37 2432
1790.62 1202.37 2432
1788.31 1196.93 2421
1778.54 1186.55 2400
1784.28 1186.55 2400
1775.1 1176.66 2380
1775.55 1173.2 2373
1778.98 1171.72 2370
1784.64 1171.72 2370
1792.58 1173.2 2373
1798.25 1173.2 2373
1803.93 1173.2 2373
1786.72 1158.37 2343
1792.33 1158.37 2343
-1756.51 1165.47 2346
-1750.9 1165.47 2346
-1709.29 1199.25 2414
-1738.8 1224.09 2464
-1732.91 1224.09 2464
-1727.01 1224.09 2464
-1721.12 1224.09 2464
-1715.23 1224.09 2464
-1709.34 1224.09 2464
-1503.52 1239 2494
-1499.36 1240.49 2497
-1493.39 1240.49 2497
-1487.42 1240.49 2497
-1503.99 1259.36 2535
-1500.29 1261.35 2539
-1494.22 1261.35 2539
-1488.15 1261.35 2539
-1466.32 1247.94 2512
-1460.31 1247.94 2512
-1454.3 1247.94 2512
-1448.3 1247.94 2512
-1435.97 1242.47 2501
-1417.41 1231.54 2479
-1411.49 1231.54 2479
-1403.29 1229.56 2475
-1399.63 1231.54 2479
-1393.7 1231.54 2479
-1391.69 1235.02 2486
-1385.75 1235.02 2486
-1379.8 1235.02 2486
-1369.99 1231.54 2479
-1364.06 1231.54 2479
-1353.75 1227.57 2471
-1336.39 1217.14 2450
-1330.53 1217.14 2450
-1324.67 1217.14 2450
-1318.81 1217.14 2450
-1284.55 1190.81 2397
-1262.28 1175.41 2366
-1248.12 1167.46 2350
-1242.5 1167.46 2350
-1231.62 1162.49 2340
-1226.02 1162.49 2340
-1220.43 1162.49 2340
-1214.83 1162.49 2340
-1187.82 1168.95 2353
-1264.09 1249.92 2516
-1258.07 1249.92 2516
-1252.06 1249.92 2516
-1250 1253.9 2524
-1249.39 1259.36 2535
-1243.33 1259.36 2535
-1237.26 1259.36 2535
-1238.97 1267.31 2551
-1238.67 1273.27 2563
-1234.47 1275.26 2567
-1228.33 1275.26 2567
-1222.19 1275.26 2567
-1216.05 1275.26 2567
-1209.91 1275.26 2567
-1203.77 1275.26 2567
-1192.04 1269.3 2555
-1178.5 1261.35 2539
-1172.43 1261.35 2539
-1164.52 1259.36 2535
-1151.6 1251.91 2520
-1141.94 1247.94 2512
-1135.93 1247.94 2512
-1121.83 1239 2494
-1112.29 1235.02 2486
-1105.01 1233.53 2483
-1099.07 1233.53 2483
-1053.51 1188.82 2393
-1042.1 1182.36 2380
-1030.31 1175.41 2366
-1024.65 1175.41 2366
-1020.71 1177.39 2370
-1015.05 1177.39 2370
-1010.66 1178.88 2373
-1006.25 1180.37 2376
-1000.57 1180.37 2376
-994.89 1180.37 2376
-993.788 1185.84 2387
-988.08 1185.84 2387
-982.372 1185.84 2387
-976.664 1185.84 2387
-973.396 1188.82 2393
-977.783 1201.24 2418
-994.914 1229.56 2475
-988.996 1229.56 2475
-986.255 1233.53 2483
-993.346 1249.92 2516
-987.33 1249.92 2516
-985.993 1255.89 2528
-982.662 1259.36 2535
-982.764 1267.31 2551
-976.664 1267.31 2551
-970.563 1267.31 2551
-965.975 1269.3 2555
-961.368 1271.29 2559
-955.249 1271.29 2559
-949.13 1271.29 2559
-943.01 1271.29 2559
-933.962 1267.31 2551
-927.862 1267.31 2551
-915.98 1259.36 2535
-905.97 1253.9 2524
-899.934 1253.9 2524
-893.899 1253.9 2524
-885.049 1249.92 2516
-872.394 1240.49 2497
-863.994 1237.01 2490
-858.04 1237.01 2490
-849.69 1233.53 2483
-843.752 1233.53 2483
-598.246 880.809 1773
-594.007 880.809 1773
-589.767 880.809 1773
-584.206 878.822 1769
-579.976 878.822 1769
-574.444 876.835 1765
-569.254 875.345 1762
-564.399 874.351 1760
-560.19 874.351 1760
-555.982 874.351 1760
-551.146 873.357 1758
-546.32 872.364 1756
-540.886 870.377 1752
-536.696 870.377 1752
-531.595 868.886 1749
-526.206 866.899 1745
-521.435 865.906 1743
-517.267 865.906 1743
-512.216 864.415 1740
-507.471 863.422 1738
-502.736 862.428 1736
-498.584 862.428 1736
-493.864 861.434 1734
-489.152 860.441 1732
-485.01 860.441 1732
-480.869 860.441 1732
-476.727 860.441 1732
-472.585 860.441 1732
-468.984 861.434 1734
-464.838 861.434 1734
-460.691 861.434 1734
-456.545 861.434 1734
-452.92 862.428 1736
-449.286 863.422 1738
-445.13 863.422 1738
-440.974 863.422 1738
-436.818 863.422 1738
-433.408 864.912 1741
-429.738 865.906 1743
-425.57 865.906 1743
-421.886 866.899 1745
-418.192 867.893 1747
-414.014 867.893 1747
-409.836 867.893 1747
-405.659 867.893 1747
-401.022 866.899 1745
-396.849 866.899 1745
-392.676 866.899 1745
-388.503 866.899 1745
-385.211 868.886 1749
-382.554 872.364 1756
-378.355 872.364 1756
-375.647 875.841 1763
-372.695 878.822 1769
-371.173 885.28 1782
-366.912 885.28 1782
-365.092 891.242 1794
-363.417 897.7 1807
-360.686 901.674 1815
-356.345 901.674 1815
-353.169 904.655 1821
-350.347 908.63 1829
-347.486 912.604 1837
-343.093 912.604 1837
-339.438 914.591 1841
-335.764 916.578 1845
-332.25 919.062 1850
-327.826 919.062 1850
-324.451 922.043 1856
-320.357 923.036 1858
-316.594 925.024 1862
-312.142 925.024 1862
-308.02 926.017 1864
-303.562 926.017 1864
-299.105 926.017 1864
-294.647 926.017 1864
-290.19 926.017 1864
-285.733 926.017 1864
-281.275 926.017 1864
-276.224 924.03 1860
-271.192 922.043 1856
-266.466 921.049 1854
-262.032 921.049 1854
-257.599 921.049 1854
-252.892 920.056 1852
-248.195 919.062 1850
-243.771 919.062 1850
-239.348 919.062 1850
-234.924 919.062 1850
-288.972 1222.6 2461
-283.087 1222.6 2461
-277.202 1222.6 2461
-268.45 1209.68 2435
-262.628 1209.68 2435
-255.328 1202.73 2421
-247.787 1194.28 2404
-240.629 1187.33 2390
-234.913 1187.33 2390
-228.239 1182.36 2380
-222.548 1182.36 2380
-216.857 1182.36 2380
-211.165 1182.36 2380
-205.474 1182.36 2380
-200.034 1183.85 2383
-194.662 1185.84 2387
-189.192 1187.33 2390
-183.476 1187.33 2390
-178.282 1190.81 2397
-172.766 1192.3 2400
-167.305 1194.28 2404
-161.556 1194.28 2404
-156.002 1195.77 2407
-150.246 1195.77 2407
-145.331 1202.73 2421
-139.945 1206.21 2428
-134.139 1206.21 2428
-128.703 1209.68 2435
-123.788 1218.63 2453
-118.451 1224.09 2464
-112.559 1224.09 2464
-107.143 1229.56 2475
-101.552 1233.53 2483
-95.8837 1237.01 2490
-89.9294 1237.01 2490
-84.2111 1240.49 2497
-78.3653 1242.47 2501
-72.5005 1244.46 2505
-66.5102 1244.46 2505
-60.52 1244.46 2505
-54.6169 1246.45 2509
-48.6171 1246.45 2509
-42.6173 1246.45 2509
-36.5592 1244.46 2505
-30.569 1244.46 2505
-24.5787 1244.46 2505
-18.5588 1242.47 2501
-12.5782 1242.47 2501
-6.59755 1242.47 2501
-0.6169 1242.47 2501
5.36375 1242.47 2501
11.3444 1242.47 2501
17.325 1242.47 2501
23.3057 1242.47 2501
29.2863 1242.47 2501
35.2106 1240.49 2497
41.1817 1240.49 2497
47.1528 1240.49 2497
52.9749 1237.01 2490
58.8346 1235.02 2486
64.7012 1233.53 2483
70.6388 1233.53 2483
76.5764 1233.53 2483
82.0155 1226.08 2468
87.7748 1224.09 2464
93.667 1224.09 2464
99.5591 1224.09 2464
105.451 1224.09 2464
111.343 1224.09 2464
117.426 1226.08 2468
123.877 1231.54 2479
129.805 1231.54 2479
135.733 1231.54 2479
141.033 1226.08 2468
146.935 1226.08 2468
152.403 1222.6 2461
158.288 1222.6 2461
164.173 1222.6 2461
170.058 1222.6 2461
175.657 1220.61 2457
181.828 1222.6 2461
188.781 1229.56 2475
195.329 1233.53 2483
201.266 1233.53 2483
207.788 1237.01 2490
214.086 1239 2494
220.314 1240.49 2497
226.285 1240.49 2497
232.256 1240.49 2497
238.609 1242.47 2501
244.981 1244.46 2505
250.971 1244.46 2505
256.961 1244.46 2505
262.952 1244.46 2505
268.942 1244.46 2505
275.7 1247.94 2512
281.707 1247.94 2512
289.547 1255.89 2528
295.592 1255.89 2528
302.114 1257.87 2532
308.169 1257.87 2532
315.093 1261.35 2539
321.67 1263.34 2543
327.751 1263.34 2543
333.832 1263.34 2543
338.844 1259.36 2535
343.954 1255.89 2528
349.999 1255.89 2528
355.481 1253.9 2524
360.371 1249.92 2516
365.805 1247.94 2512
371.811 1247.94 2512
376.164 1242.47 2501
381.533 1240.49 2497
387.505 1240.49 2497
393.476 1240.49 2497
399.447 1240.49 2497
405.418 1240.49 2497
411.389 1240.49 2497
416.859 1239 2494
422.822 1239 2494
428.099 1237.01 2490
434.053 1237.01 2490
440.007 1237.01 2490
445.962 1237.01 2490
451.19 1235.02 2486
457.87 1237.01 2490
465.129 1240.49 2497
471.1 1240.49 2497
477.071 1240.49 2497
483.042 1240.49 2497
488.425 1239 2494
494.389 1239 2494
499.551 1237.01 2490
504.693 1235.02 2486
510.638 1235.02 2486
516.583 1235.02 2486
522.527 1235.02 2486
526.984 1231.54 2479
532.052 1229.56 2475
537.971 1229.56 2475
543.889 1229.56 2475
549.808 1229.56 2475
554.154 1226.08 2468
560.056 1226.08 2468
565.958 1226.08 2468
571.86 1226.08 2468
576.825 1224.09 2464
581.062 1220.61 2457
586.937 1220.61 2457
589.435 1213.66 2443
594.302 1211.67 2439
602.841 1217.14 2450
610.439 1220.61 2457
616.314 1220.61 2457
628.774 1233.53 2483
635.478 1235.02 2486
641.423 1235.02 2486
647.368 1235.02 2486
655.415 1239 2494
661.379 1239 2494
667.343 1239 2494
673.307 1239 2494
676.275 1233.53 2483
688.257 1244.46 2505
696.187 1247.94 2512
705.548 1253.9 2524
711.584 1253.9 2524
719.894 1257.87 2532
725.949 1257.87 2532
732.004 1257.87 2532
738.059 1257.87 2532
746.171 1261.35 2539
752.242 1261.35 2539
759.508 1263.34 2543
765.589 1263.34 2543
771.67 1263.34 2543
775.305 1259.36 2535
781.367 1259.36 2535
786.497 1257.87 2532
788.795 1251.91 2520
790.09 1244.46 2505
796.081 1244.46 2505
799.509 1240.49 2497
806.771 1242.47 2501
812.751 1242.47 2501
818.732 1242.47 2501
824.713 1242.47 2501
829.365 1240.49 2497
831.656 1235.02 2486
829.178 1222.6 2461
835.062 1222.6 2461
831.038 1208.19 2432
836.854 1208.19 2432
842.669 1208.19 2432
848.485 1208.19 2432
854.301 1208.19 2432
844.201 1185.84 2387
849.909 1185.84 2387
895.047 1240.49 2497
901.018 1240.49 2497
906.989 1240.49 2497
915.885 1244.46 2505
935.86 1263.34 2543
941.941 1263.34 2543
948.022 1263.34 2543
943.973 1249.92 2516
949.989 1249.92 2516
956.006 1249.92 2516
957.816 1244.46 2505
960.729 1240.49 2497
977.493 1224.09 2464
983.385 1224.09 2464
989.277 1224.09 2464
995.169 1224.09 2464
1001.06 1224.09 2464
1006.95 1224.09 2464
1011.61 1222.6 2461
1017.5 1222.6 2461
1026.29 1226.08 2468
1033.45 1227.57 2471
1039.36 1227.57 2471
1045.27 1227.57 2471
1049.9 1226.08 2468
1045.11 1213.66 2443
1050.95 1213.66 2443
1041.22 1195.77 2407
1042.62 1190.81 2397
1042.23 1183.85 2383
1047.93 1183.85 2383
1047.88 1177.39 2370
1061.11 1185.84 2387
1071.28 1190.81 2397
1083.31 1197.76 2411
1089.07 1197.76 2411
1098.02 1201.24 2418
1105.17 1202.73 2421
1119.22 1211.67 2439
1125.05 1211.67 2439
1134.13 1215.15 2446
1139.98 1215.15 2446
1147.7 1217.14 2450
1167.21 1231.54 2479
1173.14 1231.54 2479
1189.53 1242.47 2501
1204.6 1251.91 2520
1217.83 1259.36 2535
1223.89 1259.36 2535
1233.83 1263.34 2543
1239.91 1263.34 2543
1245.99 1263.34 2543
1248.14 1259.36 2535
1252.71 1257.87 2532
1254.79 1253.9 2524
1260.83 1253.9 2524
1259.33 1246.45 2509
1261.3 1242.47 2501
1265.25 1240.49 2497
1271.22 1240.49 2497
1271.57 1235.02 2486
1273.92 1231.54 2479
1274.17 1226.08 2468
1280.07 1226.08 2468
1280.24 1220.61 2457
1284.02 1218.63 2453
1284.63 1213.66 2443
1273.57 1197.76 2411
1279.33 1197.76 2411
1279.23 1192.3 2400
1278.01 1185.84 2387
1283.72 1185.84 2387
1289.43 1185.84 2387
1289.17 1180.37 2376
1294.85 1180.37 2376
1300.53 1180.37 2376
1306.21 1180.37 2376
1310.24 1178.88 2373
1315.91 1178.88 2373
1319.92 1177.39 2370
1321.67 1173.92 2363
1327.32 1173.92 2363
1332.97 1173.92 2363
1340.32 1175.41 2366
1353.94 1182.36 2380
1359.63 1182.36 2380
1365.33 1182.36 2380
1371.02 1182.36 2380
1382.49 1187.33 2390
1388.21 1187.33 2390
1393.92 1187.33 2390
1401.39 1188.82 2393
1407.12 1188.82 2393
1415.2 1190.81 2397
1429.23 1197.76 2411
1435 1197.76 2411
1453.31 1208.19 2432
1465.73 1213.66 2443
1480 1220.61 2457
1485.88 1220.61 2457
1498.43 1226.08 2468
1508.6 1229.56 2475
1516.97 1231.54 2479
1522.89 1231.54 2479
1531.29 1233.53 2483
1539.08 1235.02 2486
1550 1239 2494
1555.97 1239 2494
1563.81 1240.49 2497
1586.75 1253.9 2524
1595.31 1255.89 2528
1601.36 1255.89 2528
1609.95 1257.87 2532
1616 1257.87 2532
1622.06 1257.87 2532
1622.97 1253.9 2524
1623.84 1249.92 2516
1617.55 1240.49 2497
1623.52 1240.49 2497
1612.52 1227.57 2471
1618.43 1227.57 2471
1624.34 1227.57 2471
1635.53 1231.54 2479
1641.46 1231.54 2479
1647.38 1231.54 2479
1653.31 1231.54 2479
1656.56 1229.56 2475
1662.48 1229.56 2475
1660.98 1224.09 2464
1662.14 1220.61 2457
1660.55 1215.15 2446
1666.4 1215.15 2446
1650.37 1199.25 2414
1656.14 1199.25 2414
1696.34 1224.09 2464
1704.99 1226.08 2468
1712.97 1227.57 2471
1718.88 1227.57 2471
1735.26 1235.02 2486
1741.21 1235.02 2486
1747.15 1235.02 2486
1753.1 1235.02 2486
1746.31 1226.08 2468
1731.62 1211.67 2439
1737.45 1211.67 2439
1743.28 1211.67 2439
1749.11 1211.67 2439
1759.98 1215.15 2446
1765.83 1215.15 2446
1771.68 1215.15 2446
1777.53 1215.15 2446
1773.17 1208.19 2432
1770.94 1202.73 2421
1776.73 1202.73 2421
1780.31 1201.24 2418
1772.8 1192.3 2400
1763.72 1182.36 2380
1769.41 1182.36 2380
1767.64 1177.39 2370
1768.07 1173.92 2363
1771.47 1172.43 2360
1786.9 1178.88 2373
1792.58 1178.88 2373
1798.25 1178.88 2373
1803.93 1178.88 2373
1801.97 1173.92 2363
1807.62 1173.92 2363
-1756.51 1171.09 2346
-1750.9 1171.09 2346
-1709.29 1205.03 2414
-1721.16 1217.51 2439
-1725.17 1224.5 2453
-1719.3 1224.5 2453
-1719.03 1228.5 2461
-1713.14 1228.5 2461
-1707.26 1228.5 2461
-1481.21 1226.5 2457
-1499.36 1246.47 2497
-1493.39 1246.47 2497
-1487.42 1246.47 2497
-1503.99 1265.44 2535
-1500.29 1267.43 2539
-1494.22 1267.43 2539
-1488.15 1267.43 2539
-1466.32 1253.95 2512
-1460.31 1253.95 2512
-1454.3 1253.95 2512
-1448.3 1253.95 2512
-1435.97 1248.46 2501
-1417.41 1237.48 2479
-1411.49 1237.48 2479
-1403.29 1235.48 2475
-1399.63 1237.48 2479
-1393.7 1237.48 2479
-1391.69 1240.98 2486
-1385.75 1240.98 2486
-1379.8 1240.98 2486
-1369.99 1237.48 2479
-1364.06 1237.48 2479
-1353.75 1233.49 2471
-1336.39 1223.01 2450
-1330.53 1223.01 2450
-1324.67 1223.01 2450
-1318.81 1223.01 2450
-1284.55 1196.55 2397
-1262.28 1181.07 2366
-1248.12 1173.09 2350
-1242.5 1173.09 2350
-1231.62 1168.09 2340
-1226.02 1168.09 2340
-1220.43 1168.09 2340
-1214.83 1168.09 2340
-1190.92 1166.6 2337
-1185.33 1166.6 2337
-1187.82 1174.58 2353
-1264.09 1255.95 2516
-1258.07 1255.95 2516
-1252.06 1255.95 2516
-1250 1259.95 2524
-1249.39 1265.44 2535
-1243.33 1265.44 2535
-1237.26 1265.44 2535
-1238.97 1273.42 2551
-1238.67 1279.41 2563
-1234.47 1281.41 2567
-1228.33 1281.41 2567
-1222.19 1281.41 2567
-1216.05 1281.41 2567
-1209.91 1281.41 2567
-1203.77 1281.41 2567
-1192.04 1275.42 2555
-1178.5 1267.43 2539
-1172.43 1267.43 2539
-1164.52 1265.44 2535
-1151.6 1257.95 2520
-1141.94 1253.95 2512
-1135.93 1253.95 2512
-1121.83 1244.97 2494
-1112.29 1240.98 2486
-1105.01 1239.48 2483
-1099.07 1239.48 2483
-1053.51 1194.55 2393
-1042.1 1188.06 2380
-1030.31 1181.07 2366
-1024.65 1181.07 2366
-1020.71 1183.07 2370
-1015.05 1183.07 2370
-1010.66 1184.57 2373
-1006.25 1186.07 2376
-1000.57 1186.07 2376
-994.89 1186.07 2376
-993.788 1191.56 2387
-988.08 1191.56 2387
-982.372 1191.56 2387
-976.664 1191.56 2387
-973.396 1194.55 2393
-977.783 1207.03 2418
-994.914 1235.48 2475
-988.996 1235.48 2475
-986.255 1239.48 2483
-993.346 1255.95 2516
-987.33 1255.95 2516
-985.993 1261.94 2528
-982.662 1265.44 2535
-982.764 1273.42 2551
-976.664 1273.42 2551
-970.563 1273.42 2551
-965.975 1275.42 2555
-961.368 1277.42 2559
-955.249 1277.42 2559
-949.13 1277.42 2559
-943.01 1277.42 2559
-933.962 1273.42 2551
-927.862 1273.42 2551
-915.98 1265.44 2535
-905.97 1259.95 2524
-899.934 1259.95 2524
-893.899 1259.95 2524
-878.365 1246.47 2497
-871.346 1244.97 2494
-861.565 1239.48 2483
-855.628 1239.48 2483
-849.69 1239.48 2483
-839.675 1233.49 2471
-598.246 885.057 1773
-594.007 885.057 1773
-589.767 885.057 1773
-584.206 883.06 1769
-579.976 883.06 1769
-574.444 881.063 1765
-569.254 879.565 1762
-565.04 879.565 1762
-560.827 879.565 1762
-556.613 879.565 1762
-551.773 878.567 1760
-546.32 876.57 1756
-540.886 874.574 1752
-536.696 874.574 1752
-532.203 874.074 1751
-527.412 873.076 1749
-522.033 871.079 1745
-517.861 871.079 1745
-512.51 869.083 1741
-508.055 868.583 1740
-502.736 866.587 1736
-498.584 866.587 1736
-494.433 866.587 1736
-489.717 865.588 1734
-485.57 865.588 1734
-481.424 865.588 1734
-477.277 865.588 1734
-473.131 865.588 1734
-469.525 866.587 1736
-465.374 866.587 1736
-461.223 866.587 1736
-457.071 866.587 1736
-453.442 867.585 1738
-449.286 867.585 1738
-445.13 867.585 1738
-440.974 867.585 1738
-437.32 868.583 1740
-433.408 869.083 1741
-429.738 870.081 1743
-425.57 870.081 1743
-421.886 871.079 1745
-418.192 872.078 1747
-414.488 873.076 1749
-410.306 873.076 1749
-406.123 873.076 1749
-401.941 873.076 1749
-397.758 873.076 1749
-393.126 872.078 1747
-388.948 872.078 1747
-385.872 874.574 1752
-383.425 878.567 1760
-379.217 878.567 1760
-375.647 880.065 1763
-373.538 885.057 1773
-372.423 892.544 1788
-368.147 892.544 1788
-365.499 896.538 1796
-363.819 903.027 1809
-361.083 907.021 1817
-356.738 907.021 1817
-353.169 909.017 1821
-350.73 914.009 1831
-347.865 918.003 1839
-343.467 918.003 1839
-339.438 919.001 1841
-336.128 921.996 1847
-332.25 923.494 1850
-327.826 923.494 1850
-324.451 926.489 1856
-320.357 927.487 1858
-316.594 929.484 1862
-312.142 929.484 1862
-308.02 930.482 1864
-303.562 930.482 1864
-299.105 930.482 1864
-294.647 930.482 1864
-290.19 930.482 1864
-285.733 930.482 1864
-281.275 930.482 1864
-276.224 928.486 1860
-270.899 925.491 1854
-266.466 925.491 1854
-262.032 925.491 1854
-257.321 924.492 1852
-252.619 923.494 1850
-247.793 921.996 1847
-243.376 921.996 1847
-238.959 921.996 1847
-234.543 921.996 1847
-288.972 1228.5 2461
-283.087 1228.5 2461
-277.202 1228.5 2461
-268.45 1215.52 2435
-262.628 1215.52 2435
-255.75 1210.53 2425
-248.096 1201.54 2407
-240.629 1193.05 2390
-234.913 1193.05 2390
-228.239 1188.06 2380
-222.548 1188.06 2380
-216.492 1186.07 2376
-210.81 1186.07 2376
-205.129 1186.07 2376
-198.943 1183.07 2370
-193.52 1184.57 2373
-187.846 1184.57 2373
-182.171 1184.57 2373
-177.017 1188.06 2380
-171.326 1188.06 2380
-166.122 1191.56 2387
-160.414 1191.56 2387
-154.706 1191.56 2387
-149.809 1198.05 2400
-144.31 1200.04 2404
-139.772 1210.53 2425
-133.973 1210.53 2425
-128.333 1212.02 2428
-123.284 1219.51 2443
-117.922 1224.5 2453
-112.057 1224.5 2453
-106.364 1226.5 2457
-101.061 1233.49 2471
-95.3061 1235.48 2475
-89.3876 1235.48 2475
-83.8401 1240.98 2486
-78.146 1244.97 2494
-72.2689 1246.47 2497
-66.2978 1246.47 2497
-60.3268 1246.47 2497
-54.3557 1246.47 2497
-48.3846 1246.47 2497
-42.4135 1246.47 2497
-36.3986 1244.97 2494
-30.4347 1244.97 2494
-24.4708 1244.97 2494
-18.5069 1244.97 2494
-12.5782 1248.46 2501
-6.59755 1248.46 2501
-0.6169 1248.46 2501
5.34874 1244.97 2494
11.3126 1244.97 2494
17.2766 1244.97 2494
23.2405 1244.97 2494
29.2044 1244.97 2494
35.1119 1242.97 2490
40.9508 1239.48 2483
46.8884 1239.48 2483
52.7409 1237.48 2479
58.6689 1237.48 2479
64.3885 1233.49 2471
70.2121 1231.99 2468
76.1138 1231.99 2468
81.65 1226.5 2457
87.5254 1226.5 2457
93.2488 1224.5 2453
99.1147 1224.5 2453
104.981 1224.5 2453
110.711 1223.01 2450
116.57 1223.01 2450
122.578 1224.5 2453
128.444 1224.5 2453
134.31 1224.5 2453
140.176 1224.5 2453
146.042 1224.5 2453
151.907 1224.5 2453
157.58 1223.01 2450
163.172 1221.01 2446
169.021 1221.01 2446
174.37 1217.51 2439
181.015 1223.01 2450
187.713 1228.5 2461
194.699 1235.48 2475
200.618 1235.48 2475
207.204 1239.48 2483
213.399 1240.98 2486
220.049 1244.97 2494
226.013 1244.97 2494
231.977 1244.97 2494
238.227 1246.47 2497
244.59 1248.46 2501
250.57 1248.46 2501
256.551 1248.46 2501
261.377 1242.97 2490
267.331 1242.97 2490
274.493 1248.46 2501
280.474 1248.46 2501
287.371 1252.46 2509
293.721 1253.95 2512
299.728 1253.95 2512
305.735 1253.95 2512
313.231 1259.95 2524
319.267 1259.95 2524
325.302 1259.95 2524
331.338 1259.95 2524
337.374 1259.95 2524
342.321 1255.95 2516
348.337 1255.95 2516
353.368 1252.46 2509
359.368 1252.46 2509
364.203 1248.46 2501
370.183 1248.46 2501
375.111 1244.97 2494
378.783 1237.48 2479
385.797 1240.98 2486
393.003 1244.97 2494
398.967 1244.97 2494
404.931 1244.97 2494
409.577 1240.98 2486
415.02 1239.48 2483
420.958 1239.48 2483
426.895 1239.48 2483
432.833 1239.48 2483
438.77 1239.48 2483
444.708 1239.48 2483
450.646 1239.48 2483
455.848 1237.48 2479
463.825 1242.97 2490
469.779 1242.97 2490
475.733 1242.97 2490
481.688 1242.97 2490
486.271 1239.48 2483
492.209 1239.48 2483
497.344 1237.48 2479
503.272 1237.48 2479
509.2 1237.48 2479
515.128 1237.48 2479
520.215 1235.48 2475
526.134 1235.48 2475
532.052 1235.48 2475
535.58 1229.99 2464
541.472 1229.99 2464
546.698 1228.5 2461
551.685 1226.5 2457
557.56 1226.5 2457
563.435 1226.5 2457
569.311 1226.5 2457
575.186 1226.5 2457
576.805 1217.51 2439
582.637 1217.51 2439
588.47 1217.51 2439
585.774 1200.04 2404
591.522 1200.04 2404
598.016 1201.54 2407
603.772 1201.54 2407
609.528 1201.54 2407
616.307 1203.54 2411
622.072 1203.54 2411
629.66 1207.03 2418
635.442 1207.03 2418
641.225 1207.03 2418
647.007 1207.03 2418
652.789 1207.03 2418
655.575 1201.54 2407
669.024 1215.52 2435
677.064 1219.51 2443
690.733 1233.49 2471
696.642 1233.49 2471
709.943 1246.47 2497
717.061 1248.46 2501
724.198 1250.46 2505
730.188 1250.46 2505
737.354 1252.46 2509
743.354 1252.46 2509
749.354 1252.46 2509
755.353 1252.46 2509
761.353 1252.46 2509
762.765 1244.97 2494
768.729 1244.97 2494
774.693 1244.97 2494
780.657 1244.97 2494
784.098 1240.98 2486
790.042 1240.98 2486
795.027 1239.48 2483
800.964 1239.48 2483
806.902 1239.48 2483
812.839 1239.48 2483
818.777 1239.48 2483
824.715 1239.48 2483
823.293 1228.5 2461
824.124 1221.01 2446
829.973 1221.01 2446
822.495 1201.54 2407
822.401 1193.05 2390
828.117 1193.05 2390
833.832 1193.05 2390
839.547 1193.05 2390
844.201 1191.56 2387
849.909 1191.56 2387
855.617 1191.56 2387
868.542 1201.54 2407
874.298 1201.54 2407
895.776 1223.01 2450
901.634 1223.01 2450
907.493 1223.01 2450
913.352 1223.01 2450
912.457 1214.02 2432
915.63 1210.53 2425
948.786 1246.47 2497
954.758 1246.47 2497
960.729 1246.47 2497
924.114 1191.56 2387
929.822 1191.56 2387
935.53 1191.56 2387
941.238 1191.56 2387
977.493 1229.99 2464
983.385 1229.99 2464
989.277 1229.99 2464
995.169 1229.99 2464
1001.06 1229.99 2464
1006.95 1229.99 2464
1011.61 1228.5 2461
1017.5 1228.5 2461
1026.29 1231.99 2468
1033.45 1233.49 2471
1039.36 1233.49 2471
1045.27 1233.49 2471
1049.9 1231.99 2468
1045.11 1219.51 2443
1050.95 1219.51 2443
1041.22 1201.54 2407
1042.62 1196.55 2397
1042.23 1189.56 2383
1047.93 1189.56 2383
1047.88 1183.07 2370
1061.11 1191.56 2387
1071.28 1196.55 2397
1083.31 1203.54 2411
1089.07 1203.54 2411
1098.02 1207.03 2418
1105.17 1208.53 2421
1119.22 1217.51 2439
1125.05 1217.51 2439
1134.13 1221.01 2446
1139.98 1221.01 2446
1147.7 1223.01 2450
1167.21 1237.48 2479
1173.14 1237.48 2479
1189.53 1248.46 2501
1204.6 1257.95 2520
1217.83 1265.44 2535
1223.89 1265.44 2535
1233.83 1269.43 2543
1239.91 1269.43 2543
1245.99 1269.43 2543
1248.14 1265.44 2535
1252.71 1263.94 2532
1254.79 1259.95 2524
1260.83 1259.95 2524
1259.33 1252.46 2509
1261.3 1248.46 2501
1265.25 1246.47 2497
1271.22 1246.47 2497
1271.57 1240.98 2486
1273.92 1237.48 2479
1274.17 1231.99 2468
1280.07 1231.99 2468
1280.24 1226.5 2457
1284.02 1224.5 2453
1284.63 1219.51 2443
1273.57 1203.54 2411
1279.33 1203.54 2411
1279.23 1198.05 2400
1278.01 1191.56 2387
1283.72 1191.56 2387
1289.43 1191.56 2387
1289.17 1186.07 2376
1294.85 1186.07 2376
1300.53 1186.07 2376
1306.21 1186.07 2376
1310.24 1184.57 2373
1315.91 1184.57 2373
1319.92 1183.07 2370
1321.67 1179.58 2363
1327.32 1179.58 2363
1332.97 1179.58 2363
1340.32 1181.07 2366
1353.94 1188.06 2380
1359.63 1188.06 2380
1365.33 1188.06 2380
1371.02 1188.06 2380
1382.49 1193.05 2390
1388.21 1193.05 2390
1393.92 1193.05 2390
1401.39 1194.55 2393
1407.12 1194.55 2393
1415.2 1196.55 2397
1429.23 1203.54 2411
1435 1203.54 2411
1453.31 1214.02 2432
1465.73 1219.51 2443
1480 1226.5 2457
1485.88 1226.5 2457
1498.43 1231.99 2468
1508.6 1235.48 2475
1516.97 1237.48 2479
1522.89 1237.48 2479
1531.29 1239.48 2483
1539.08 1240.98 2486
1545.03 1240.98 2486
1550.97 1240.98 2486
1561.93 1244.97 2494
1574.81 1250.46 2505
1590.26 1257.95 2520
1596.29 1257.95 2520
1602.32 1257.95 2520
1608.34 1257.95 2520
1614.37 1257.95 2520
1610.75 1250.46 2505
1609.64 1244.97 2494
1598.76 1231.99 2468
1604.66 1231.99 2468
1589.03 1215.52 2435
1594.85 1215.52 2435
1605.93 1219.51 2443
1616.39 1223.01 2450
1622.25 1223.01 2450
1628.11 1223.01 2450
1633.97 1223.01 2450
1635.14 1219.51 2443
1640.99 1219.51 2443
1644.13 1217.51 2439
1647.26 1215.52 2435
1632.04 1200.04 2404
1637.78 1200.04 2404
1643.53 1200.04 2404
1649.28 1200.04 2404
1661.92 1205.03 2414
1697.39 1226.5 2457
1710.89 1231.99 2468
1716.8 1231.99 2468
1724.79 1233.49 2471
1730.7 1233.49 2471
1736.61 1233.49 2471
1742.52 1233.49 2471
1728.62 1219.51 2443
1721.68 1210.53 2425
1727.48 1210.53 2425
1715.41 1198.05 2400
1721.15 1198.05 2400
1742 1208.53 2421
1747.78 1208.53 2421
1753.57 1208.53 2421
1752.1 1203.54 2411
1754.95 1201.54 2407
1760.7 1201.54 2407
1766.46 1201.54 2407
1764.85 1196.55 2397
1758.03 1188.06 2380
1756.31 1183.07 2370
1761.97 1183.07 2370
1760.18 1178.08 2360
1765.83 1178.08 2360
1771.47 1178.08 2360
1786.9 1184.57 2373
1792.58 1184.57 2373
1798.25 1184.57 2373
1803.93 1184.57 2373
1801.97 1179.58 2363
1807.62 1179.58 2363
-1778.97 1191.76 2376
-1773.29 1191.76 2376
-1767.61 1191.76 2376
-1761.92 1191.76 2376
-1707.16 1209.31 2411
-1706.34 1212.82 2418
-1715.32 1223.36 2439
-1709.49 1223.36 2439
-1706.45 1225.36 2443
-1700.61 1225.36 2443
-1694.77 1225.36 2443
-1664.04 1207.31 2407
-1503.09 1193.76 2380
-1497.4 1193.76 2380
-1491.71 1193.76 2380
-1486.02 1193.76 2380
-1499.36 1252.45 2497
-1493.39 1252.45 2497
-1487.42 1252.45 2497
-1500.29 1273.52 2539
-1494.22 1273.52 2539
-1488.15 1273.52 2539
-1462.23 1256.46 2505
-1453.91 1254.45 2501
-1447.93 1254.45 2501
-1437.92 1250.94 2494
-1431.95 1250.94 2494
-1415.13 1241.41 2475
-1409.21 1241.41 2475
-1403.29 1241.41 2475
-1397.37 1241.41 2475
-1391.45 1241.41 2475
-1385.53 1241.41 2475
-1377.39 1239.41 2471
-1371.48 1239.41 2471
-1363.91 1237.9 2468
-1358.01 1237.9 2468
-1338.41 1225.36 2443
-1320.57 1214.33 2421
-1314.78 1214.33 2421
-1303.58 1209.31 2411
-1297.82 1209.31 2411
-1267.94 1186.74 2366
-1255.34 1180.22 2353
-1244.4 1175.21 2343
-1238.8 1175.21 2343
-1226.36 1168.68 2330
-1220.78 1168.68 2330
-1215.21 1168.68 2330
-1209.64 1168.68 2330
-1190.92 1172.2 2337
-1185.33 1172.2 2337
-1187.82 1180.22 2353
-1183.7 1181.73 2356
-1254.57 1258.47 2509
-1248.57 1258.47 2509
-1242.57 1258.47 2509
-1229.18 1250.94 2494
-1223.22 1250.94 2494
-1217.25 1250.94 2494
-1225.86 1265.99 2524
-1223.69 1270 2532
-1222.93 1275.52 2543
-1216.84 1275.52 2543
-1210.76 1275.52 2543
-1204.68 1275.52 2543
-1198.6 1275.52 2543
-1190.64 1273.52 2539
-1182.71 1271.51 2535
-1169.68 1263.99 2520
-1163.66 1263.99 2520
-1155.79 1261.98 2516
-1147.95 1259.97 2512
-1135.12 1252.45 2497
-1129.15 1252.45 2497
-1120.03 1248.94 2490
-1112.29 1246.93 2486
-1082.31 1219.85 2432
-1076.49 1219.85 2432
-1053.51 1200.28 2393
-1042.1 1193.76 2380
-1030.31 1186.74 2366
-1023.35 1185.24 2363
-1017.7 1185.24 2363
-1009.05 1181.73 2356
-1005.12 1183.73 2360
-999.477 1183.73 2360
-996.36 1186.74 2366
-990.703 1186.74 2366
-986.71 1188.75 2370
-981.043 1188.75 2370
-977.845 1191.76 2376
-972.163 1191.76 2376
-969.329 1195.27 2383
-967.674 1200.28 2393
-972.001 1212.82 2418
-966.219 1212.82 2418
-983.077 1241.41 2475
-980.317 1245.43 2483
-987.33 1261.98 2516
-981.313 1261.98 2516
-982.662 1271.51 2535
-978.141 1273.52 2539
-975.132 1277.53 2547
-969.041 1277.53 2547
-964.463 1279.53 2551
-958.363 1279.53 2551
-952.263 1279.53 2551
-946.162 1279.53 2551
-940.062 1279.53 2551
-928.104 1271.51 2535
-922.042 1271.51 2535
-913.451 1268 2528
-903.098 1261.98 2516
-897.082 1261.98 2516
-891.065 1261.98 2516
-878.365 1252.45 2497
-871.346 1250.94 2494
-861.565 1245.43 2483
-855.628 1245.43 2483
-849.69 1245.43 2483
-839.675 1239.41 2471
-598.246 889.304 1773
-594.007 889.304 1773
-589.767 889.304 1773
-584.206 887.297 1769
-579.976 887.297 1769
-575.095 886.294 1767
-569.577 884.288 1763
-567.927 888.301 1771
-563.692 888.301 1771
-559.457 888.301 1771
-553.968 886.294 1767
-548.187 883.786 1762
-542.121 880.777 1756
-537.922 880.777 1756
-532.507 878.771 1752
-528.016 878.269 1751
-522.632 876.263 1747
-518.454 876.263 1747
-513.688 875.26 1745
-508.347 873.253 1741
-503.315 871.748 1738
-499.159 871.748 1738
-495.003 871.748 1738
-490.282 870.745 1736
-486.131 870.745 1736
-481.979 870.745 1736
-477.277 869.742 1734
-473.677 870.745 1736
-470.066 871.748 1738
-465.91 871.748 1738
-461.754 871.748 1738
-457.598 871.748 1738
-453.964 872.752 1740
-449.803 872.752 1740
-445.642 872.752 1740
-441.735 873.253 1741
-437.572 873.253 1741
-434.404 875.26 1745
-430.231 875.26 1745
-426.058 875.26 1745
-422.369 876.263 1747
-419.149 878.269 1751
-414.962 878.269 1751
-410.775 878.269 1751
-406.588 878.269 1751
-402.4 878.269 1751
-398.213 878.269 1751
-394.026 878.269 1751
-389.839 878.269 1751
-386.312 879.774 1754
-384.079 884.288 1763
-379.863 884.288 1763
-376.073 885.291 1765
-373.959 890.307 1775
-372.839 897.831 1790
-368.559 897.831 1790
-365.499 900.84 1796
-363.819 907.361 1809
-361.083 911.373 1817
-356.738 911.373 1817
-353.169 913.38 1821
-350.73 918.396 1831
-347.865 922.408 1839
-343.467 922.408 1839
-339.438 923.411 1841
-336.128 926.421 1847
-332.25 927.926 1850
-327.826 927.926 1850
-324.451 930.935 1856
-320.357 931.938 1858
-316.934 934.948 1864
-312.477 934.948 1864
-308.02 934.948 1864
-303.562 934.948 1864
-299.426 935.951 1866
-294.964 935.951 1866
-290.501 935.951 1866
-285.733 934.948 1864
-281.275 934.948 1864
-276.224 932.941 1860
-270.899 929.932 1854
-266.466 929.932 1854
-262.032 929.932 1854
-257.321 928.929 1852
-252.619 927.926 1850
-247.793 926.421 1847
-243.376 926.421 1847
-238.959 926.421 1847
-234.543 926.421 1847
-291.907 1246.93 2486
-285.963 1246.93 2486
-280.018 1246.93 2486
-272.86 1241.41 2475
-266.942 1241.41 2475
-256.488 1219.85 2432
-248.817 1210.82 2414
-241.333 1202.29 2397
-235.601 1202.29 2397
-228.527 1195.27 2383
-222.548 1193.76 2380
-216.857 1193.76 2380
-211.165 1193.76 2380
-204.87 1190.25 2373
-199.195 1190.25 2373
-193.765 1191.76 2376
-188.083 1191.76 2376
-182.402 1191.76 2376
-177.017 1193.76 2380
-171.326 1193.76 2380
-165.844 1195.27 2383
-160.145 1195.27 2383
-154.447 1195.27 2383
-149.185 1198.78 2390
-144.31 1205.8 2404
-138.562 1205.8 2404
-132.813 1205.8 2404
-128.174 1216.33 2425
-122.729 1219.85 2432
-117.442 1225.36 2443
-111.6 1225.36 2443
-105.888 1226.87 2446
-100.488 1232.39 2457
-94.8825 1235.9 2464
-88.9903 1235.9 2464
-83.4691 1241.41 2475
-77.8013 1245.43 2483
-71.9506 1246.93 2486
-66.0058 1246.93 2486
-60.2543 1250.94 2494
-54.2904 1250.94 2494
-48.3265 1250.94 2494
-42.3625 1250.94 2494
-36.3986 1250.94 2494
-30.3859 1248.94 2490
-24.4316 1248.94 2490
-18.4772 1248.94 2490
-12.543 1250.94 2494
-6.57908 1250.94 2494
-0.615174 1250.94 2494
5.34016 1248.94 2490
11.2945 1248.94 2490
17.2211 1246.93 2486
23.1659 1246.93 2486
29.1107 1246.93 2486
35.0132 1245.43 2483
40.8848 1243.42 2479
46.8129 1243.42 2479
52.5707 1239.41 2471
58.4796 1239.41 2471
64.3885 1239.41 2471
69.8991 1232.39 2457
75.7746 1232.39 2457
81.5171 1230.38 2453
87.3829 1230.38 2453
93.1348 1228.87 2450
98.9935 1228.87 2450
104.852 1228.87 2450
110.53 1226.87 2446
116.57 1228.87 2450
122.428 1228.87 2450
128.287 1228.87 2450
134.146 1228.87 2450
139.776 1226.87 2446
145.625 1226.87 2446
151.474 1226.87 2446
156.873 1223.36 2439
162.705 1223.36 2439
168.538 1223.36 2439
173.584 1217.84 2428
179.168 1216.33 2425
186.035 1223.36 2439
193.598 1234.39 2461
199.483 1234.39 2461
205.618 1235.9 2464
211.854 1237.9 2468
217.755 1237.9 2468
223.657 1237.9 2468
229.559 1237.9 2468
235.747 1239.41 2471
242.047 1241.41 2475
247.965 1241.41 2475
253.884 1241.41 2475
259.802 1241.41 2475
264.969 1237.9 2468
272.517 1245.43 2483
278.455 1245.43 2483
284.393 1245.43 2483
290.33 1245.43 2483
298.416 1254.45 2501
304.396 1254.45 2501
311.742 1259.97 2512
318.255 1261.98 2516
324.271 1261.98 2516
330.288 1261.98 2516
336.304 1261.98 2516
341.369 1258.47 2509
347.368 1258.47 2509
352.241 1254.45 2501
358.222 1254.45 2501
363.183 1250.94 2494
369.147 1250.94 2494
372.855 1243.42 2479
377.561 1239.41 2471
384.09 1241.41 2475
391.27 1245.43 2483
397.207 1245.43 2483
403.145 1245.43 2483
409.082 1245.43 2483
415.02 1245.43 2483
420.958 1245.43 2483
425.52 1241.41 2475
431.438 1241.41 2475
437.357 1241.41 2475
443.275 1241.41 2475
448.468 1239.41 2471
454.377 1239.41 2471
461.031 1241.41 2475
466.949 1241.41 2475
472.868 1241.41 2475
478.786 1241.41 2475
484.704 1241.41 2475
490.623 1241.41 2475
495.137 1237.9 2468
501.039 1237.9 2468
507.557 1239.41 2471
513.466 1239.41 2471
519.375 1239.41 2471
524.646 1237.9 2468
530.547 1237.9 2468
534.928 1234.39 2461
540.813 1234.39 2461
544.921 1230.38 2453
550.113 1228.87 2450
555.971 1228.87 2450
561.83 1228.87 2450
565.14 1223.36 2439
570.972 1223.36 2439
573.494 1216.33 2425
579.293 1216.33 2425
580.025 1205.8 2404
584.068 1202.29 2397
588.816 1200.28 2393
594.538 1200.28 2393
600.26 1200.28 2393
605.983 1200.28 2393
611.705 1200.28 2393
617.428 1200.28 2393
623.15 1200.28 2393
628.872 1200.28 2393
634.595 1200.28 2393
638.712 1197.27 2387
646.04 1200.28 2393
651.762 1200.28 2393
658.583 1202.29 2397
674.847 1221.35 2435
682.906 1225.36 2443
688.748 1225.36 2443
700.561 1235.9 2464
707.6 1237.9 2468
715.525 1241.41 2475
721.443 1241.41 2475
729.713 1245.43 2483
735.651 1245.43 2483
741.588 1245.43 2483
747.526 1245.43 2483
753.463 1245.43 2483
754.813 1237.9 2468
760.715 1237.9 2468
766.617 1237.9 2468
772.519 1237.9 2468
773.689 1230.38 2453
780.826 1232.39 2457
788.943 1235.9 2464
794.835 1235.9 2464
800.727 1235.9 2464
806.62 1235.9 2464
812.512 1235.9 2464
817.408 1234.39 2461
814.595 1221.35 2435
810.983 1207.31 2407
816.739 1207.31 2407
815.661 1197.27 2387
818.96 1193.76 2380
824.652 1193.76 2380
831.39 1195.27 2383
837.088 1195.27 2383
842.787 1195.27 2383
844.924 1190.25 2373
848.09 1186.74 2366
858.799 1193.76 2380
864.491 1193.76 2380
872.741 1197.27 2387
878.449 1197.27 2387
884.157 1197.27 2387
889.866 1197.27 2387
889.195 1188.75 2370
893.352 1186.74 2366
899.01 1186.74 2366
904.668 1186.74 2366
918.406 1197.27 2387
924.114 1197.27 2387
929.822 1197.27 2387
935.53 1197.27 2387
941.238 1197.27 2387
950.913 1202.29 2397
956.645 1202.29 2397
962.377 1202.29 2397
966.493 1200.28 2393
972.216 1200.28 2393
980.799 1203.8 2400
986.538 1203.8 2400
1011.3 1226.87 2446
1024.63 1235.9 2464
1032.2 1237.9 2468
1038.1 1237.9 2468
1044 1237.9 2468
1048.2 1235.9 2464
1029.71 1207.31 2407
1035.46 1207.31 2407
1036.89 1202.29 2397
1036.53 1195.27 2383
1036.55 1188.75 2370
1042.21 1188.75 2370
1047.88 1188.75 2370
1054.88 1190.25 2373
1066.81 1197.27 2387
1077.02 1202.29 2397
1082.75 1202.29 2397
1093.02 1207.31 2407
1101.97 1210.82 2414
1109.58 1212.82 2418
1115.36 1212.82 2418
1121.14 1212.82 2418
1125.06 1210.82 2414
1130.84 1210.82 2414
1146.5 1221.35 2435
1152.32 1221.35 2435
1175.26 1239.41 2471
1195.51 1254.45 2501
1206.78 1259.97 2512
1212.78 1259.97 2512
1226.55 1268 2528
1232.6 1268 2528
1238.65 1268 2528
1244.69 1268 2528
1248.76 1265.99 2524
1243.36 1254.45 2501
1249.34 1254.45 2501
1242.27 1241.41 2475
1248.19 1241.41 2475
1247.01 1234.39 2461
1252.9 1234.39 2461
1256.74 1232.39 2457
1259.01 1228.87 2450
1264.87 1228.87 2450
1268.66 1226.87 2446
1274.51 1226.87 2446
1278.79 1225.36 2443
1284.63 1225.36 2443
1271.45 1207.31 2407
1277.21 1207.31 2407
1277.63 1202.29 2397
1278.01 1197.27 2387
1281.57 1195.27 2383
1287.27 1195.27 2383
1289.17 1191.76 2376
1293.21 1190.25 2373
1295.06 1186.74 2366
1300.72 1186.74 2366
1306.37 1186.74 2366
1312.03 1186.74 2366
1317.69 1186.74 2366
1321.67 1185.24 2363
1327.32 1185.24 2363
1332.97 1185.24 2363
1340.32 1186.74 2366
1348.25 1188.75 2370
1353.92 1188.75 2370
1359.59 1188.75 2370
1368.71 1191.76 2376
1374.39 1191.76 2376
1382.4 1193.76 2380
1388.09 1193.76 2380
1399.64 1198.78 2390
1405.35 1198.78 2390
1411.07 1198.78 2390
1418.56 1200.28 2393
1424.28 1200.28 2393
1438.37 1207.31 2407
1452.53 1214.33 2421
1469.16 1223.36 2439
1474.99 1223.36 2439
1489.33 1230.38 2453
1500.07 1234.39 2461
1510.24 1237.9 2468
1516.14 1237.9 2468
1526.36 1241.41 2475
1532.27 1241.41 2475
1545.03 1246.93 2486
1550.97 1246.93 2486
1561.93 1250.94 2494
1574.81 1256.46 2505
1590.26 1263.99 2520
1596.29 1263.99 2520
1602.32 1263.99 2520
1608.34 1263.99 2520
1614.37 1263.99 2520
1610.75 1256.46 2505
1609.64 1250.94 2494
1598.76 1237.9 2468
1604.66 1237.9 2468
1589.03 1221.35 2435
1594.85 1221.35 2435
1605.93 1225.36 2443
1616.39 1228.87 2450
1622.25 1228.87 2450
1628.11 1228.87 2450
1633.97 1228.87 2450
1637.15 1226.87 2446
1643 1226.87 2446
1648.85 1226.87 2446
1647.26 1221.35 2435
1632.04 1205.8 2404
1637.78 1205.8 2404
1643.53 1205.8 2404
1649.28 1205.8 2404
1661.92 1210.82 2414
1697.39 1232.39 2457
1710.89 1237.9 2468
1716.8 1237.9 2468
1724.79 1239.41 2471
1730.7 1239.41 2471
1736.61 1239.41 2471
1742.52 1239.41 2471
1730.74 1226.87 2446
1734.46 1225.36 2443
1740.3 1225.36 2443
1746.14 1225.36 2443
1721.15 1203.8 2400
1742 1214.33 2421
1747.78 1214.33 2421
1753.57 1214.33 2421
1752.1 1209.31 2411
1754.95 1207.31 2407
1760.7 1207.31 2407
1766.46 1207.31 2407
1764.85 1202.29 2397
1758.03 1193.76 2380
1756.31 1188.75 2370
