555.651 77.4255 745
557.432 77.4255 745
559.214 77.4255 745
560.995 77.4255 745
563.532 77.5295 746
566.832 77.7373 748
569.381 77.8413 749
571.172 77.8413 749
572.963 77.8413 749
-2317.3 329.068 3095
-2309.9 329.068 3095
-2302.5 329.068 3095
-2295.1 329.068 3095
-2292.13 329.706 3101
-2289.14 330.344 3107
-2281.71 330.344 3107
-2277.94 330.875 3112
-2274.87 331.513 3118
-2267.42 331.513 3118
-2259.96 331.513 3118
-2256.84 332.151 3124
-2262.33 334.065 3142
-2263.43 335.341 3154
-2255.89 335.341 3154
-2252.62 335.979 3160
-2245.07 335.979 3160
-2246.01 337.255 3172
-2238.42 337.255 3172
-2230.84 337.255 3172
-2210.63 335.341 3154
-2203.09 335.341 3154
-2521.86 393.287 3699
-2513.01 393.287 3699
-2504.17 393.287 3699
-2495.32 393.287 3699
-2486.48 393.287 3699
-2424.05 384.781 3619
-2404.72 383.08 3603
-2390.78 382.229 3595
-2382.18 382.229 3595
-2358.4 379.784 3572
-2334.73 377.338 3549
-2326.24 377.338 3549
-2328.2 379.039 3565
-2319.68 379.039 3565
-2311.15 379.039 3565
-2302.63 379.039 3565
-2294.1 379.039 3565
-2290.07 379.784 3572
-2281.52 379.784 3572
-2272.98 379.784 3572
-2269.51 380.634 3580
-2270.42 382.229 3595
-2261.83 382.229 3595
-2258.25 383.08 3603
-2249.63 383.08 3603
-2241.01 383.08 3603
-2232.4 383.08 3603
-2228.72 383.93 3611
-2220.08 383.93 3611
-2211.45 383.93 3611
-2179.02 379.784 3572
-1892.17 382.229 3595
-1883.57 382.229 3595
-1874.97 382.229 3595
-1866.38 382.229 3595
-1886.2 388.077 3650
-1877.48 388.077 3650
-1881.55 390.735 3675
-1872.76 390.735 3675
-1863.97 390.735 3675
-1855.18 390.735 3675
-1818.26 384.781 3619
-1785.37 388.927 3658
-1776.62 388.927 3658
-1767.87 388.927 3658
-1917.86 432.626 4069
-1908.13 432.626 4069
-1898.4 432.626 4069
-1897.95 434.752 4089
-1888.17 434.752 4089
-1878.39 434.752 4089
-1868.61 434.752 4089
-1858.84 434.752 4089
-1849.06 434.752 4089
-1839.28 434.752 4089
-1829.5 434.752 4089
-1819.72 434.752 4089
-1805.52 433.689 4079
-1800.17 434.752 4089
-1790.39 434.752 4089
-1780.61 434.752 4089
-1766.5 433.689 4079
-1756.75 433.689 4079
-1734.15 430.499 4049
-1691.67 422.313 3972
-1650.83 414.445 3898
-1626.35 410.617 3862
-1617.11 410.617 3862
-1607.88 410.617 3862
-1606.1 412.531 3880
-1596.82 412.531 3880
-1587.54 412.531 3880
-1574.6 411.574 3871
-1547.15 406.79 3826
-1545.23 408.703 3844
-1536.04 408.703 3844
-1526.85 408.703 3844
-1507.39 405.939 3818
-634.304 189.148 1779
-630.05 189.148 1779
-625.796 189.148 1779
-620.144 188.722 1775
-615.899 188.722 1775
-604.418 186.49 1754
-595.433 185.001 1740
-589.233 184.363 1734
-584.075 184.044 1731
-579.935 184.044 1731
-574.465 183.619 1727
-567.363 182.662 1718
-561.616 182.13 1713
-557.52 182.13 1713
-552.131 181.705 1709
-547.082 181.386 1706
-541.73 180.961 1702
-537.66 180.961 1702
-532.022 180.429 1697
-525.786 179.685 1690
-520.201 179.153 1685
-516.172 179.153 1685
-509.103 178.09 1675
-504.495 177.877 1673
-497.502 176.814 1663
-491.745 176.176 1657
-487.783 176.176 1657
-481.776 175.432 1650
-476.383 174.9 1645
-471.587 174.581 1642
-467.661 174.581 1642
-463.169 174.369 1640
-458.128 173.943 1636
-453.66 173.731 1634
-449.753 173.731 1634
-445.845 173.731 1634
-441.127 173.412 1631
-437.226 173.412 1631
-433.326 173.412 1631
-428.636 173.093 1628
-424.743 173.093 1628
-419.816 172.668 1624
-415.933 172.668 1624
-411.795 172.561 1623
-407.412 172.349 1621
-403.286 172.242 1620
-399.412 172.242 1620
-395.05 172.03 1618
-391.181 172.03 1618
-387.073 171.923 1617
-383.206 171.923 1617
-379.339 171.923 1617
-375.008 171.711 1615
-371.146 171.711 1615
-367.284 171.711 1615
-363.422 171.711 1615
-359.56 171.711 1615
-355.258 171.498 1613
-351.401 171.498 1613
-347.543 171.498 1613
-343.686 171.498 1613
-339.829 171.498 1613
-335.972 171.498 1613
-332.115 171.498 1613
-328.257 171.498 1613
-324.4 171.498 1613
-320.543 171.498 1613
-316.686 171.498 1613
-312.829 171.498 1613
-308.78 171.392 1612
-304.547 171.179 1610
-300.697 171.179 1610
-296.847 171.179 1610
-292.997 171.179 1610
-289.147 171.179 1610
-285.297 171.179 1610
-281.272 171.073 1609
-277.08 170.86 1607
-273.237 170.86 1607
-269.394 170.86 1607
-265.386 170.754 1606
-261.546 170.754 1606
-257.384 170.541 1604
-253.549 170.541 1604
-249.713 170.541 1604
-245.877 170.541 1604
-242.343 170.754 1606
-238.651 170.86 1607
-234.809 170.86 1607
-230.966 170.86 1607
-227.406 171.073 1609
-224.114 171.498 1613
-221.213 172.242 1620
-217.339 172.242 1620
-213.992 172.668 1624
-210.755 173.199 1629
-207.114 173.412 1631
-203.214 173.412 1631
-199.435 173.518 1632
-196.971 174.794 1644
-193.509 175.219 1648
-189.568 175.219 1648
-186.416 175.964 1655
-183.34 176.814 1663
-180.873 178.303 1677
-176.863 178.303 1677
-173.677 179.153 1685
-169.648 179.153 1685
-165.619 179.153 1685
-161.589 179.153 1685
-332.63 398.603 3749
-325.823 401.261 3774
-316.798 401.261 3774
-307.773 401.261 3774
-300.173 403.175 3792
-292.411 404.982 3809
-283.302 404.982 3809
-276.713 408.703 3844
-268.774 410.617 3862
-261.353 413.488 3889
-252.053 413.488 3889
-243.315 414.445 3898
-233.994 414.445 3898
-224.673 414.445 3898
-215.351 414.445 3898
-205.554 413.488 3889
-195.8 412.531 3880
-186.522 412.531 3880
-177.244 412.531 3880
-167.576 411.574 3871
-157.951 410.617 3862
-148.716 410.617 3862
-141.431 416.359 3916
-132.067 416.359 3916
-122.984 417.315 3925
-113.888 418.379 3935
-104.956 420.293 3953
-95.5033 420.293 3953
-86.464 422.313 3972
-77.1596 423.376 3982
-67.7903 424.333 3991
-58.2466 424.333 3991
-49.5327 431.563 4059
-39.8264 431.563 4059
-30.1201 431.563 4059
311.126 433.689 4079
320.88 433.689 4079
330.634 433.689 4079
339.554 432.626 4069
346.709 429.436 4039
352.132 424.333 3991
361.676 424.333 3991
371.22 424.333 3991
380.763 424.333 3991
390.307 424.333 3991
398.949 423.376 3982
408.471 423.376 3982
412.01 417.315 3925
417.531 413.488 3889
411.465 398.603 3749
420.43 398.603 3749
423.668 393.287 3699
425.849 387.226 3642
426.206 379.784 3572
430.122 375.743 3534
438.573 375.743 3534
438.676 368.726 3468
445.164 367.238 3454
449.748 364.261 3426
457.941 364.261 3426
464.229 362.772 3412
469.48 360.539 3391
480.547 362.772 3412
494.722 367.238 3454
502.981 367.238 3454
512.277 367.982 3461
520.553 367.982 3461
528.83 367.982 3461
537.106 367.982 3461
544.279 367.238 3454
575.094 382.229 3595
583.691 382.229 3595
592.288 382.229 3595
678.313 425.396 4001
694.414 429.436 4039
704.072 429.436 4039
713.731 429.436 4039
723.389 429.436 4039
733.048 429.436 4039
735.719 425.396 4001
739.884 422.313 3972
749.382 422.313 3972
758.881 422.313 3972
768.379 422.313 3972
777.877 422.313 3972
789.358 423.376 3982
800.686 424.333 3991
810.229 424.333 3991
823.676 426.353 4010
835.343 427.416 4020
844.956 427.416 4020
854.569 427.416 4020
864.182 427.416 4020
873.795 427.416 4020
885.605 428.479 4030
897.242 429.436 4039
906.9 429.436 4039
916.559 429.436 4039
930.804 431.563 4059
940.51 431.563 4059
950.216 431.563 4059
962.287 432.626 4069
972.018 432.626 4069
986.573 434.752 4089
996.351 434.752 4089
1006.13 434.752 4089
1013.42 433.689 4079
1023.18 433.689 4079
1032.93 433.689 4079
1040.13 432.626 4069
1047.28 431.563 4059
1056.99 431.563 4059
1064.06 430.499 4049
1076.4 431.563 4059
1086.1 431.563 4059
1095.81 431.563 4059
1105.52 431.563 4059
1115.22 431.563 4059
1122.16 430.499 4049
1126.53 428.479 4030
1136.17 428.479 4030
1142.96 427.416 4020
1155.44 428.479 4030
1173.46 431.563 4059
1186.08 432.626 4069
1195.81 432.626 4069
1208.51 433.689 4079
1218.26 433.689 4079
1228.01 433.689 4079
1237.77 433.689 4079
1247.52 433.689 4079
1260.36 434.752 4089
1270.14 434.752 4089
1279.91 434.752 4089
1289.69 434.752 4089
1289.94 431.563 4059
1302.84 432.626 4069
1315.8 433.689 4079
1328.8 434.752 4089
1338.58 434.752 4089
1348.36 434.752 4089
1358.14 434.752 4089
1367.92 434.752 4089
1455.92 434.752 4089
1465.7 434.752 4089
1475.48 434.752 4089
1485.25 434.752 4089
1495.03 434.752 4089
1504.81 434.752 4089
1514.59 434.752 4089
1524.37 434.752 4089
1749.26 434.752 4089
1759.04 434.752 4089
1768.82 434.752 4089
1761.2 430.499 4049
1762.57 428.479 4030
1746.7 422.313 3972
1756.2 422.313 3972
1753.25 419.336 3944
1746.14 415.402 3907
1747.4 413.488 3889
1756.7 413.488 3889
1757.82 411.574 3871
1758.86 409.66 3853
1755.69 406.79 3826
1764.84 406.79 3826
1766.1 404.982 3809
1771.02 404.025 3800
1772.14 402.218 3783
1773.18 400.41 3766
1782.19 400.41 3766
1786.91 399.453 3757
1787.77 397.646 3740
1761.65 389.884 3667
1770.42 389.884 3667
1755.89 384.781 3619
1756.75 383.08 3603
1761.44 382.229 3595
1770.04 382.229 3595
1778.64 382.229 3595
1779.78 380.634 3580
1780.84 379.039 3565
1781.34 377.338 3549
1789.83 377.338 3549
1794.77 376.594 3542
1795.6 374.999 3527
1800.45 374.255 3520
1808.87 374.255 3520
1805.41 371.809 3497
1798.73 368.726 3468
1796.08 366.493 3447
1804.33 366.493 3447
1808.89 365.749 3440
1817.12 365.749 3440
1825.34 365.749 3440
1841.03 367.238 3454
1856.79 368.726 3468
1865.08 368.726 3468
1873.37 368.726 3468
1886.01 369.577 3476
1894.32 369.577 3476
1902.63 369.577 3476
1891.15 365.749 3440
533.206 79.3165 746
534.99 79.3165 746
536.774 79.3165 746
537.836 79.2102 745
539.617 79.2102 745
541.399 79.2102 745
543.909 79.3165 746
545.693 79.3165 746
547.477 79.3165 746
548.525 79.2102 745
550.306 79.2102 745
552.088 79.2102 745
553.126 79.1039 744
554.905 79.1039 744
556.684 79.1039 744
559.214 79.2102 745
560.995 79.2102 745
562.777 79.2102 745
565.316 79.3165 746
568.62 79.5292 748
570.409 79.5292 748
572.198 79.5292 748
-2309.07 335.286 3084
-2305.42 335.83 3089
-2298.04 335.83 3089
-2295.1 336.482 3095
-2292.13 337.134 3101
-2284.72 337.134 3101
-2277.3 337.134 3101
-2274.28 337.787 3107
-2266.85 337.787 3107
-2259.42 337.787 3107
-2251.99 337.787 3107
-2244.56 337.787 3107
-2249.37 339.635 3124
-2250.51 340.939 3136
-2243.01 340.939 3136
-2239.79 341.592 3142
-2232.28 341.592 3142
-2229.01 342.244 3148
-2221.48 342.244 3148
-2213.96 342.244 3148
-2206.43 342.244 3148
-2198.9 342.244 3148
-2521.86 402.148 3699
-2513.01 402.148 3699
-2504.17 402.148 3699
-2495.32 402.148 3699
-2486.48 402.148 3699
-2424.05 393.45 3619
-2394.7 390.08 3588
-2375.48 388.34 3572
-2366.94 388.34 3572
-2353.78 387.579 3565
-2330.12 385.079 3542
-2321.65 385.079 3542
-2328.2 387.579 3565
-2319.68 387.579 3565
-2311.15 387.579 3565
-2302.63 387.579 3565
-2294.1 387.579 3565
-2290.07 388.34 3572
-2281.52 388.34 3572
-2272.98 388.34 3572
-2269.51 389.21 3580
-2270.42 390.841 3595
-2261.83 390.841 3595
-2258.25 391.711 3603
-2249.63 391.711 3603
-2241.01 391.711 3603
-2232.4 391.711 3603
-2228.72 392.58 3611
-2220.08 392.58 3611
-2211.45 392.58 3611
-2179.02 388.34 3572
-1892.17 390.841 3595
-1883.57 390.841 3595
-1874.97 390.841 3595
-1866.38 390.841 3595
-1886.2 396.82 3650
-1877.48 396.82 3650
-1881.55 399.538 3675
-1872.76 399.538 3675
-1863.97 399.538 3675
-1855.18 399.538 3675
-1818.26 393.45 3619
-1917.86 442.373 4069
-1908.13 442.373 4069
-1898.4 442.373 4069
-1897.95 444.548 4089
-1888.17 444.548 4089
-1878.39 444.548 4089
-1868.61 444.548 4089
-1858.84 444.548 4089
-1849.06 444.548 4089
-1839.28 444.548 4089
-1829.5 444.548 4089
-1819.72 444.548 4089
-1805.52 443.46 4079
-1800.17 444.548 4089
-1790.39 444.548 4089
-1780.61 444.548 4089
-1766.5 443.46 4079
-1756.75 443.46 4079
-1734.15 440.199 4049
-1691.67 431.828 3972
-1650.83 423.782 3898
-1626.35 419.869 3862
-1617.11 419.869 3862
-1607.88 419.869 3862
-1606.1 421.826 3880
-1596.82 421.826 3880
-1587.54 421.826 3880
-1574.6 420.847 3871
-1547.15 415.955 3826
-1545.23 417.912 3844
-1536.04 417.912 3844
-1526.85 417.912 3844
-1507.39 415.085 3818
-634.304 193.409 1779
-630.05 193.409 1779
-625.796 193.409 1779
-620.144 192.974 1775
-615.899 192.974 1775
-604.418 190.691 1754
-595.433 189.169 1740
-589.233 188.517 1734
-584.075 188.191 1731
-579.935 188.191 1731
-574.465 187.756 1727
-567.363 186.777 1718
-561.616 186.234 1713
-557.52 186.234 1713
-552.131 185.799 1709
-547.082 185.473 1706
-541.73 185.038 1702
-537.66 185.038 1702
-532.022 184.494 1697
-525.786 183.733 1690
-520.201 183.19 1685
-516.172 183.19 1685
-509.103 182.103 1675
-504.495 181.885 1673
-497.502 180.798 1663
-491.745 180.146 1657
-487.783 180.146 1657
-481.776 179.385 1650
-476.383 178.841 1645
-471.587 178.515 1642
-467.661 178.515 1642
-463.169 178.297 1640
-458.128 177.863 1636
-453.66 177.645 1634
-449.753 177.645 1634
-445.845 177.645 1634
-441.127 177.319 1631
-437.226 177.319 1631
-433.326 177.319 1631
-428.636 176.993 1628
-424.743 176.993 1628
-419.816 176.558 1624
-415.933 176.558 1624
-411.795 176.449 1623
-407.412 176.232 1621
-403.286 176.123 1620
-399.412 176.123 1620
-395.05 175.906 1618
-391.181 175.906 1618
-387.073 175.797 1617
-383.206 175.797 1617
-379.339 175.797 1617
-375.008 175.579 1615
-371.146 175.579 1615
-367.284 175.579 1615
-363.422 175.579 1615
-359.56 175.579 1615
-355.258 175.362 1613
-351.401 175.362 1613
-347.543 175.362 1613
-343.686 175.362 1613
-339.829 175.362 1613
-335.972 175.362 1613
-332.115 175.362 1613
-328.257 175.362 1613
-324.4 175.362 1613
-320.543 175.362 1613
-316.686 175.362 1613
-312.829 175.362 1613
-308.78 175.253 1612
-304.547 175.036 1610
-300.697 175.036 1610
-296.847 175.036 1610
-292.997 175.036 1610
-289.147 175.036 1610
-285.297 175.036 1610
-281.272 174.927 1609
-277.08 174.71 1607
-273.237 174.71 1607
-269.394 174.71 1607
-265.386 174.601 1606
-261.546 174.601 1606
-257.384 174.384 1604
-253.549 174.384 1604
-249.713 174.384 1604
-245.877 174.384 1604
-242.343 174.601 1606
-238.651 174.71 1607
-234.809 174.71 1607
-230.966 174.71 1607
-227.406 174.927 1609
-224.114 175.362 1613
-221.213 176.123 1620
-217.339 176.123 1620
-213.86 176.449 1623
-210.755 177.102 1629
-207.114 177.319 1631
-203.214 177.319 1631
-199.313 177.319 1631
-196.491 178.297 1640
-193.392 179.058 1647
-189.453 179.058 1647
-186.19 179.711 1653
-182.789 180.254 1658
-180.658 182.103 1675
-176.652 182.103 1675
-172.956 182.429 1678
-168.943 182.429 1678
-164.931 182.429 1678
-160.63 182.103 1675
-335.646 411.28 3783
-326.6 411.28 3783
-317.554 411.28 3783
-308.507 411.28 3783
-300.173 412.258 3792
-292.411 414.107 3809
-283.302 414.107 3809
-276.713 417.912 3844
-268.774 419.869 3862
-261.353 422.804 3889
-252.053 422.804 3889
-243.315 423.782 3898
-233.994 423.782 3898
-224.673 423.782 3898
-215.351 423.782 3898
-205.554 422.804 3889
-195.8 421.826 3880
-186.522 421.826 3880
-177.244 421.826 3880
-167.576 420.847 3871
-157.951 419.869 3862
-148.716 419.869 3862
-141.431 425.739 3916
-132.067 425.739 3916
-122.984 426.718 3925
-113.888 427.805 3935
-104.956 429.762 3953
-95.5033 429.762 3953
-86.464 431.828 3972
-77.334 433.893 3991
-67.7903 433.893 3991
-58.2466 433.893 3991
-49.5327 441.286 4059
-39.8264 441.286 4059
-30.1201 441.286 4059
291.618 443.46 4079
301.372 443.46 4079
311.126 443.46 4079
320.88 443.46 4079
330.634 443.46 4079
339.554 442.373 4069
346.709 439.112 4039
352.132 433.893 3991
361.676 433.893 3991
371.22 433.893 3991
380.763 433.893 3991
390.307 433.893 3991
399.851 433.893 3991
409.394 433.893 3991
413.06 427.805 3935
417.531 422.804 3889
413.331 409.432 3766
422.337 409.432 3766
424.585 403.017 3707
427.72 397.69 3658
428.115 390.08 3588
431.948 385.84 3549
440.435 385.84 3549
441.458 379.426 3490
446.969 377.034 3468
453.424 375.512 3454
461.683 375.512 3454
466.133 372.468 3426
472.388 370.946 3412
484.49 373.99 3440
497.873 377.904 3476
506.185 377.904 3476
516.569 379.426 3490
524.915 379.426 3490
533.261 379.426 3490
539.434 377.904 3476
546.485 377.034 3468
575.094 390.841 3595
583.691 390.841 3595
592.288 390.841 3595
678.313 434.98 4001
694.414 439.112 4039
704.072 439.112 4039
713.731 439.112 4039
723.389 439.112 4039
733.048 439.112 4039
735.719 434.98 4001
739.884 431.828 3972
749.382 431.828 3972
758.881 431.828 3972
768.379 431.828 3972
777.877 431.828 3972
789.358 432.915 3982
800.686 433.893 3991
810.229 433.893 3991
825.73 437.046 4020
835.343 437.046 4020
844.956 437.046 4020
854.569 437.046 4020
864.182 437.046 4020
873.795 437.046 4020
885.605 438.133 4030
897.242 439.112 4039
906.9 439.112 4039
918.828 440.199 4049
930.804 441.286 4059
940.51 441.286 4059
950.216 441.286 4059
962.287 442.373 4069
972.018 442.373 4069
986.573 444.548 4089
996.351 444.548 4089
1006.13 444.548 4089
1013.42 443.46 4079
1023.18 443.46 4079
1032.93 443.46 4079
1040.13 442.373 4069
1047.28 441.286 4059
1056.99 441.286 4059
1064.06 440.199 4049
1076.4 441.286 4059
1086.1 441.286 4059
1095.81 441.286 4059
1105.52 441.286 4059
1115.22 441.286 4059
1122.16 440.199 4049
1126.53 438.133 4030
1136.17 438.133 4030
1142.96 437.046 4020
1155.44 438.133 4030
1173.46 441.286 4059
1186.08 442.373 4069
1195.81 442.373 4069
1208.51 443.46 4079
1218.26 443.46 4079
1228.01 443.46 4079
1237.77 443.46 4079
1247.52 443.46 4079
1260.36 444.548 4089
1270.14 444.548 4089
1279.91 444.548 4089
1289.69 444.548 4089
1289.94 441.286 4059
1302.84 442.373 4069
1315.8 443.46 4079
1328.8 444.548 4089
1338.58 444.548 4089
1348.36 444.548 4089
1358.14 444.548 4089
1367.92 444.548 4089
1377.69 444.548 4089
1455.92 444.548 4089
1465.7 444.548 4089
1475.48 444.548 4089
1485.25 444.548 4089
1495.03 444.548 4089
1504.81 444.548 4089
1514.59 444.548 4089
1524.37 444.548 4089
1749.26 444.548 4089
1759.04 444.548 4089
1768.82 444.548 4089
1765.55 441.286 4059
1762.57 438.133 4030
1746.7 431.828 3972
1756.2 431.828 3972
1753.25 428.784 3944
1754.19 426.718 3925
1755.49 424.761 3907
1764.83 424.761 3907
1766 422.804 3889
1767.08 420.847 3871
1759.82 416.933 3835
1768.99 416.933 3835
1778.16 416.933 3835
1771.02 413.128 3800
1780.11 413.128 3800
1776.95 410.301 3774
1785.98 410.301 3774
1791.19 409.432 3766
1787.77 406.605 3740
1761.65 398.669 3667
1770.42 398.669 3667
1755.89 393.45 3619
1756.75 391.711 3603
1761.44 390.841 3595
1770.04 390.841 3595
1778.64 390.841 3595
1779.78 389.21 3580
1780.84 387.579 3565
1781.34 385.84 3549
1789.83 385.84 3549
1794.77 385.079 3542
1795.6 383.448 3527
1800.45 382.687 3520
1808.87 382.687 3520
1805.41 380.187 3497
1798.73 377.034 3468
1799.73 375.512 3454
1807.99 375.512 3454
1812.57 374.751 3447
1820.81 374.751 3447
1836.48 376.273 3461
1848.49 377.034 3468
1861.07 377.904 3476
1869.38 377.904 3476
1877.69 377.904 3476
1897.4 380.187 3497
1905.76 380.187 3497
1914.12 380.187 3497
1910.94 377.904 3476
2577.82 439.112 4039
2587.47 439.112 4039
2597.13 439.112 4039
2600.98 438.133 4030
533.206 81.1036 746
534.99 81.1036 746
536.774 81.1036 746
537.836 80.9949 745
539.617 80.9949 745
541.399 80.9949 745
543.909 81.1036 746
545.693 81.1036 746
547.477 81.1036 746
548.525 80.9949 745
550.306 80.9949 745
552.088 80.9949 745
553.126 80.8861 744
554.905 80.8861 744
556.684 80.8861 744
559.214 80.9949 745
560.995 80.9949 745
562.777 80.9949 745
565.316 81.1036 746
568.62 81.321 748
570.409 81.321 748
572.198 81.321 748
-2304.57 342.007 3078
-2301.69 342.674 3084
-2294.32 342.674 3084
-2286.94 342.674 3084
-2279.57 342.674 3084
-2275.88 343.229 3089
-2268.49 343.229 3089
-2265.49 343.896 3095
-2258.09 343.896 3095
-2250.69 343.896 3095
-2243.29 343.896 3095
-2240.23 344.563 3101
-2249.37 347.118 3124
-2241.9 347.118 3124
-2234.43 347.118 3124
-2235.51 348.452 3136
-2228.01 348.452 3136
-2224.76 349.118 3142
-2217.25 349.118 3142
-2213.96 349.785 3148
-2206.43 349.785 3148
-2198.9 349.785 3148
-2530.71 411.009 3699
-2521.86 411.009 3699
-2513.01 411.009 3699
-2504.17 411.009 3699
-2495.32 411.009 3699
-2486.48 411.009 3699
-2434.76 403.897 3635
-2404.72 400.342 3603
-2386.12 398.675 3588
-2377.54 398.675 3588
-2353.78 396.119 3565
-2334.73 394.342 3549
-2326.24 394.342 3549
-2328.2 396.119 3565
-2319.68 396.119 3565
-2311.15 396.119 3565
-2302.63 396.119 3565
-2294.1 396.119 3565
-2290.07 396.897 3572
-2281.52 396.897 3572
-2272.98 396.897 3572
-2269.51 397.786 3580
-2270.42 399.453 3595
-2261.83 399.453 3595
-2258.25 400.342 3603
-2249.63 400.342 3603
-2245.99 401.231 3611
-2237.35 401.231 3611
-2238.59 403.008 3627
-2229.92 403.008 3627
-2221.25 403.008 3627
-1892.83 397.786 3580
-1892.17 399.453 3595
-1883.57 399.453 3595
-1874.97 399.453 3595
-1866.38 399.453 3595
-1870.18 402.12 3619
-1861.53 402.12 3619
-1868.75 405.564 3650
-1860.02 405.564 3650
-1851.29 405.564 3650
-1842.56 405.564 3650
-1818.26 402.12 3619
-1839.28 454.343 4089
-1829.5 454.343 4089
-1819.72 454.343 4089
-1805.52 453.232 4079
-1800.17 454.343 4089
-1790.39 454.343 4089
-1780.61 454.343 4089
-1766.5 453.232 4079
-1756.75 453.232 4079
-1734.15 449.898 4049
-1691.67 441.343 3972
-1650.83 433.12 3898
-1626.35 429.12 3862
-1617.11 429.12 3862
-1607.88 429.12 3862
-1606.1 431.12 3880
-1596.82 431.12 3880
-1587.54 431.12 3880
-1574.6 430.12 3871
-1550.79 426.12 3835
-1545.23 427.12 3844
-1536.04 427.12 3844
-1526.85 427.12 3844
-1507.39 424.231 3818
-634.304 197.671 1779
-630.05 197.671 1779
-625.796 197.671 1779
-620.843 197.449 1777
-616.593 197.449 1777
-603.729 194.671 1752
-595.433 193.337 1740
-590.593 193.115 1738
-584.412 192.448 1732
-580.27 192.448 1732
-575.131 192.115 1729
-567.363 190.893 1718
-561.616 190.337 1713
-557.52 190.337 1713
-552.131 189.893 1709
-547.082 189.56 1706
-541.73 189.115 1702
-537.66 189.115 1702
-532.022 188.559 1697
-525.786 187.782 1690
-520.201 187.226 1685
-516.172 187.226 1685
-509.711 186.337 1677
-504.495 185.893 1673
-498.699 185.226 1667
-492.042 184.226 1658
-488.077 184.226 1658
-482.652 183.671 1653
-476.383 182.782 1645
-471.587 182.448 1642
-467.661 182.448 1642
-463.169 182.226 1640
-458.408 181.893 1637
-453.66 181.559 1634
-449.753 181.559 1634
-445.845 181.559 1634
-441.127 181.226 1631
-437.226 181.226 1631
-433.326 181.226 1631
-428.636 180.893 1628
-424.221 180.67 1626
-419.816 180.448 1624
-415.933 180.448 1624
-411.795 180.337 1623
-407.16 180.004 1620
-403.286 180.004 1620
-399.412 180.004 1620
-395.05 179.782 1618
-391.181 179.782 1618
-387.073 179.67 1617
-382.732 179.448 1615
-378.87 179.448 1615
-375.008 179.448 1615
-371.146 179.448 1615
-367.284 179.448 1615
-363.422 179.448 1615
-359.115 179.226 1613
-355.258 179.226 1613
-351.401 179.226 1613
-347.974 179.448 1615
-344.112 179.448 1615
-340.25 179.448 1615
-336.388 179.448 1615
-332.526 179.448 1615
-328.257 179.226 1613
-324.4 179.226 1613
-320.543 179.226 1613
-316.686 179.226 1613
-312.829 179.226 1613
-308.972 179.226 1613
-304.925 179.115 1612
-301.07 179.115 1612
-297.216 179.115 1612
-293.361 179.115 1612
-289.147 178.893 1610
-285.297 178.893 1610
-281.447 178.893 1610
-277.425 178.782 1609
-273.577 178.782 1609
-269.729 178.782 1609
-265.882 178.782 1609
-261.708 178.559 1607
-257.705 178.448 1606
-253.549 178.226 1604
-250.024 178.448 1606
-246.184 178.448 1606
-242.494 178.559 1607
-238.651 178.559 1607
-235.101 178.782 1609
-231.253 178.782 1609
-227.406 178.782 1609
-224.114 179.226 1613
-220.939 179.782 1618
-217.07 179.782 1618
-213.992 180.448 1624
-210.755 181.004 1629
-207.114 181.226 1631
-203.214 181.226 1631
-199.435 181.337 1632
-196.731 182.448 1642
-193.157 182.782 1645
-189.223 182.782 1645
-186.19 183.671 1653
-182.458 183.893 1655
-180.658 186.115 1675
-176.652 186.115 1675
-172.647 186.115 1675
-168.641 186.115 1675
-164.636 186.115 1675
-335.646 420.342 3783
-326.6 420.342 3783
-317.554 420.342 3783
-308.507 420.342 3783
-300.173 421.342 3792
-292.411 423.231 3809
-283.302 423.231 3809
-275.418 425.12 3826
-268.147 428.12 3853
-260.748 431.12 3880
-251.47 431.12 3880
-242.753 432.12 3889
-233.994 433.12 3898
-224.673 433.12 3898
-215.351 433.12 3898
-205.554 432.12 3889
-195.8 431.12 3880
-186.09 430.12 3871
-176.833 430.12 3871
-167.186 429.12 3862
-157.583 428.12 3853
-148.369 428.12 3853
-141.106 434.12 3907
-131.763 434.12 3907
-122.984 436.12 3925
-113.888 437.231 3935
-104.956 439.231 3953
-95.5033 439.231 3953
-86.464 441.343 3972
-77.334 443.454 3991
-67.7903 443.454 3991
-58.2466 443.454 3991
-49.5327 451.009 4059
-39.8264 451.009 4059
-30.1201 451.009 4059
291.618 453.232 4079
301.372 453.232 4079
311.126 453.232 4079
320.88 453.232 4079
330.634 453.232 4079
338.719 451.009 4059
345.078 446.676 4020
352.132 443.454 3991
361.676 443.454 3991
371.22 443.454 3991
380.763 443.454 3991
390.307 443.454 3991
399.851 443.454 3991
409.394 443.454 3991
413.06 437.231 3935
417.531 432.12 3889
413.331 418.453 3766
422.337 418.453 3766
424.585 411.897 3707
427.72 406.453 3658
428.115 398.675 3588
431.948 394.342 3549
440.435 394.342 3549
441.458 387.786 3490
446.969 385.341 3468
453.424 383.786 3454
461.683 383.786 3454
466.133 380.675 3426
472.388 379.119 3412
484.49 382.23 3440
497.873 386.23 3476
506.185 386.23 3476
516.569 387.786 3490
524.915 387.786 3490
533.261 387.786 3490
539.434 386.23 3476
546.485 385.341 3468
573.975 398.675 3588
582.555 398.675 3588
591.135 398.675 3588
678.313 444.565 4001
694.414 448.787 4039
704.072 448.787 4039
713.731 448.787 4039
723.389 448.787 4039
733.048 448.787 4039
735.719 444.565 4001
739.884 441.343 3972
749.382 441.343 3972
758.881 441.343 3972
768.379 441.343 3972
777.877 441.343 3972
789.358 442.454 3982
800.686 443.454 3991
810.229 443.454 3991
825.73 446.676 4020
835.343 446.676 4020
844.956 446.676 4020
854.569 446.676 4020
864.182 446.676 4020
873.795 446.676 4020
885.605 447.787 4030
897.242 448.787 4039
906.9 448.787 4039
918.828 449.898 4049
930.804 451.009 4059
940.51 451.009 4059
950.216 451.009 4059
962.287 452.121 4069
972.018 452.121 4069
984.161 453.232 4079
993.915 453.232 4079
1003.67 453.232 4079
1013.42 453.232 4079
1023.18 453.232 4079
1032.93 453.232 4079
1040.13 452.121 4069
1044.7 449.898 4049
1054.38 449.898 4049
1064.06 449.898 4049
1076.4 451.009 4059
1086.1 451.009 4059
1095.81 451.009 4059
1102.79 449.898 4049
1112.48 449.898 4049
1116.89 447.787 4030
1123.73 446.676 4020
1133.35 446.676 4020
1140.12 445.565 4010
1152.57 446.676 4020
1165.08 447.787 4030
1177.34 448.787 4039
1187 448.787 4039
1199.62 449.898 4049
1209.3 449.898 4049
1228.01 453.232 4079
1237.77 453.232 4079
1247.52 453.232 4079
1257.28 453.232 4079
1267.03 453.232 4079
1276.78 453.232 4079
1280.23 451.009 4059
1289.94 451.009 4059
1302.84 452.121 4069
1315.8 453.232 4079
1325.55 453.232 4079
1335.31 453.232 4079
1348.36 454.343 4089
1358.14 454.343 4089
1367.92 454.343 4089
1377.69 454.343 4089
1452.36 453.232 4079
1462.11 453.232 4079
1471.87 453.232 4079
1481.62 453.232 4079
1495.03 454.343 4089
1504.81 454.343 4089
1514.59 454.343 4089
1524.37 454.343 4089
1749.26 454.343 4089
1759.04 454.343 4089
1768.82 454.343 4089
1765.55 451.009 4059
1762.57 447.787 4030
1746.7 441.343 3972
1756.2 441.343 3972
1753.25 438.231 3944
1754.19 436.12 3925
1755.49 434.12 3907
1764.83 434.12 3907
1766 432.12 3889
1767.08 430.12 3871
1759.82 426.12 3835
1768.99 426.12 3835
1778.16 426.12 3835
1771.02 422.231 3800
1780.11 422.231 3800
1776.95 419.342 3774
1785.98 419.342 3774
1791.19 418.453 3766
1787.77 415.564 3740
1749.64 404.675 3642
1758.35 404.675 3642
1748.13 400.342 3603
1749.43 398.675 3588
1754.09 397.786 3580
1762.66 397.786 3580
1771.22 397.786 3580
1772.32 396.119 3565
1772.85 394.342 3549
1777.83 393.564 3542
1786.3 393.564 3542
1783.62 391.119 3520
1792.04 391.119 3520
1800.45 391.119 3520
1808.87 391.119 3520
1801.8 387.786 3490
1795.1 384.564 3461
1799.73 383.786 3454
1807.99 383.786 3454
1812.57 383.008 3447
1820.81 383.008 3447
1836.48 384.564 3461
1848.49 385.341 3468
1861.07 386.23 3476
1869.38 386.23 3476
1877.69 386.23 3476
1897.4 388.564 3497
1905.76 388.564 3497
1914.12 388.564 3497
1910.94 386.23 3476
2544.82 453.232 4079
2554.57 453.232 4079
2570.62 454.343 4089
2580.39 454.343 4089
2590.17 454.343 4089
2599.95 454.343 4089
2584.2 449.898 4049
2587.47 448.787 4039
2597.13 448.787 4039
2600.98 447.787 4030
533.206 82.8906 746
534.99 82.8906 746
536.774 82.8906 746
537.836 82.7795 745
538.893 82.6684 744
540.672 82.6684 744
543.18 82.7795 745
544.962 82.7795 745
546.743 82.7795 745
548.525 82.7795 745
548.829 82.5573 743
550.606 82.5573 743
552.382 82.5573 743
554.159 82.5573 743
555.936 82.5573 743
557.713 82.5573 743
559.489 82.5573 743
562.021 82.6684 744
564.558 82.7795 745
567.1 82.8906 746
568.884 82.8906 746
570.668 82.8906 746
-2291.85 347.451 3061
-2289 348.132 3067
-2281.67 348.132 3067
-2282.49 349.381 3078
-2279.57 350.062 3084
-2272.19 350.062 3084
-2264.82 350.062 3084
-2257.44 350.062 3084
-2253.72 350.629 3089
-2246.33 350.629 3089
-2238.94 350.629 3089
-2240.23 351.991 3101
-2249.37 354.602 3124
-2241.9 354.602 3124
-2234.43 354.602 3124
-2239.79 356.645 3142
-2245.07 358.688 3160
-2246.01 360.05 3172
-2238.42 360.05 3172
-2230.84 360.05 3172
-2530.71 419.87 3699
-2521.86 419.87 3699
-2513.01 419.87 3699
-2504.17 419.87 3699
-2495.32 419.87 3699
-2486.48 419.87 3699
-2450.17 415.216 3658
-2415.39 410.789 3619
-2396.1 408.973 3603
-2387.48 408.973 3603
-2358.4 405.454 3572
-2345.25 404.659 3565
-2336.73 404.659 3565
-2332.77 405.454 3572
-2324.23 405.454 3572
-2315.69 405.454 3572
-2307.15 405.454 3572
-2298.61 405.454 3572
-2290.07 405.454 3572
-2281.52 405.454 3572
-2278.07 406.362 3580
-2274.58 407.27 3588
-2275.48 408.973 3603
-2266.86 408.973 3603
-2263.26 409.881 3611
-2259.62 410.789 3619
-2255.94 411.697 3627
-2247.27 411.697 3627
-2243.53 412.605 3635
-2234.84 412.605 3635
-2226.15 412.605 3635
-2212.57 411.697 3627
-1892.83 406.362 3580
-1892.17 408.065 3595
-1883.57 408.065 3595
-1874.97 408.065 3595
-1866.38 408.065 3595
-1870.18 410.789 3619
-1861.53 410.789 3619
-1852.88 410.789 3619
-1844.22 410.789 3619
-1835.57 410.789 3619
-1826.91 410.789 3619
-1818.26 410.789 3619
-1893.31 463.003 4079
-1883.55 463.003 4079
-1873.8 463.003 4079
-1859.47 461.868 4069
-1849.74 461.868 4069
-1844.54 463.003 4079
-1839.28 464.138 4089
-1829.5 464.138 4089
-1819.72 464.138 4089
-1805.52 463.003 4079
-1795.77 463.003 4079
-1786.01 463.003 4079
-1776.26 463.003 4079
-1766.5 463.003 4079
-1756.75 463.003 4079
-1734.15 459.598 4049
-1691.67 450.858 3972
-1650.83 442.458 3898
-1626.35 438.372 3862
-1617.11 438.372 3862
-1607.88 438.372 3862
-1606.1 440.415 3880
-1596.82 440.415 3880
-1587.54 440.415 3880
-1574.6 439.393 3871
-1550.79 435.307 3835
-1545.23 436.328 3844
-1536.04 436.328 3844
-1526.85 436.328 3844
-1507.39 433.377 3818
-634.304 201.932 1779
-630.05 201.932 1779
-625.796 201.932 1779
-620.843 201.705 1777
-616.593 201.705 1777
-603.729 198.868 1752
-597.829 198.3 1747
-591.272 197.506 1740
-584.412 196.597 1732
-580.27 196.597 1732
-575.796 196.484 1731
-568.024 195.235 1720
-561.616 194.441 1713
-557.52 194.441 1713
-552.131 193.987 1709
-547.082 193.646 1706
-541.73 193.192 1702
-537.66 193.192 1702
-532.022 192.625 1697
-526.408 192.057 1692
-520.201 191.263 1685
-516.172 191.263 1685
-510.015 190.468 1678
-505.098 190.127 1675
-498.998 189.333 1668
-492.042 188.198 1658
-488.077 188.198 1658
-483.236 187.857 1655
-476.383 186.722 1645
-471.587 186.382 1642
-467.661 186.382 1642
-463.169 186.155 1640
-458.408 185.814 1637
-453.66 185.474 1634
-449.753 185.474 1634
-445.845 185.474 1634
-441.127 185.133 1631
-436.69 184.906 1629
-432.795 184.906 1629
-428.636 184.793 1628
-424.221 184.566 1626
-419.557 184.225 1623
-415.676 184.225 1623
-411.288 183.998 1621
-407.16 183.884 1620
-402.788 183.657 1618
-398.919 183.657 1618
-395.05 183.657 1618
-390.939 183.544 1617
-387.073 183.544 1617
-382.732 183.317 1615
-378.87 183.317 1615
-375.008 183.317 1615
-370.686 183.09 1613
-366.829 183.09 1613
-362.972 183.09 1613
-359.115 183.09 1613
-355.258 183.09 1613
-351.836 183.317 1615
-347.974 183.317 1615
-344.112 183.317 1615
-340.25 183.317 1615
-336.388 183.317 1615
-332.526 183.317 1615
-328.664 183.317 1615
-324.803 183.317 1615
-320.941 183.317 1615
-317.079 183.317 1615
-313.217 183.317 1615
-308.972 183.09 1613
-305.114 183.09 1613
-301.257 183.09 1613
-297.4 183.09 1613
-293.543 183.09 1613
-289.506 182.976 1612
-285.651 182.976 1612
-281.447 182.749 1610
-277.597 182.749 1610
-273.577 182.636 1609
-269.729 182.636 1609
-265.882 182.636 1609
-262.034 182.636 1609
-257.866 182.409 1607
-253.549 182.068 1604
-250.18 182.409 1607
-246.337 182.409 1607
-242.494 182.409 1607
-238.948 182.636 1609
-235.101 182.636 1609
-231.253 182.636 1609
-227.406 182.636 1609
-224.114 183.09 1613
-221.213 183.884 1620
-217.339 183.884 1620
-213.992 184.339 1624
-210.755 184.906 1629
-207.114 185.133 1631
-203.214 185.133 1631
-199.435 185.247 1632
-196.731 186.382 1642
-193.157 186.722 1645
-189.223 186.722 1645
-185.627 187.063 1648
-182.238 187.63 1653
-180.442 189.9 1673
-176.441 189.9 1673
-172.647 190.127 1675
-168.641 190.127 1675
-164.636 190.127 1675
-335.646 429.404 3783
-327.377 430.426 3792
-318.309 430.426 3792
-309.241 430.426 3792
-301.519 432.356 3809
-293.716 434.285 3826
-284.567 434.285 3826
-276.065 435.307 3835
-268.147 437.35 3853
-259.539 438.372 3862
-250.303 438.372 3862
-242.192 440.415 3880
-233.454 441.436 3889
-224.154 441.436 3889
-214.854 441.436 3889
-205.554 441.436 3889
-195.346 439.393 3871
-185.657 438.372 3862
-176.422 438.372 3862
-167.186 438.372 3862
-157.583 437.35 3853
-148.369 437.35 3853
-140.456 441.436 3889
-131.156 441.436 3889
-122.702 444.501 3916
-113.599 445.523 3925
-104.956 448.701 3953
-95.5033 448.701 3953
-86.464 450.858 3972
-77.334 453.014 3991
-67.7903 453.014 3991
-58.2466 453.014 3991
-49.5327 460.733 4059
-39.8264 460.733 4059
-30.1201 460.733 4059
291.618 463.003 4079
301.372 463.003 4079
311.126 463.003 4079
319.307 460.733 4059
329.013 460.733 4059
335.465 456.306 4020
342.588 453.014 3991
352.132 453.014 3991
361.676 453.014 3991
371.22 453.014 3991
380.763 453.014 3991
390.307 453.014 3991
399.851 453.014 3991
409.394 453.014 3991
413.06 446.658 3935
418.497 442.458 3898
415.197 429.404 3783
424.243 429.404 3783
427.448 423.615 3732
431.578 418.962 3691
430.859 409.881 3611
436.695 407.27 3588
445.275 407.27 3588
446.139 400.346 3527
449.804 396.146 3490
456.312 394.557 3476
464.624 394.557 3476
469.943 392.06 3454
474.326 388.882 3426
489.561 394.557 3476
500.881 396.941 3497
509.243 396.941 3497
517.605 396.941 3497
525.968 396.941 3497
534.33 396.941 3497
541.606 396.146 3490
546.485 393.649 3468
575.094 408.065 3595
583.691 408.065 3595
592.288 408.065 3595
678.313 454.149 4001
692.866 457.441 4030
702.503 457.441 4030
712.14 457.441 4030
721.777 457.441 4030
731.414 457.441 4030
735.719 454.149 4001
739.884 450.858 3972
749.382 450.858 3972
758.881 450.858 3972
768.379 450.858 3972
777.877 450.858 3972
789.358 451.993 3982
798.88 451.993 3982
808.402 451.993 3982
825.73 456.306 4020
835.343 456.306 4020
844.956 456.306 4020
854.569 456.306 4020
864.182 456.306 4020
873.795 456.306 4020
883.408 456.306 4020
895.242 457.441 4030
904.879 457.441 4030
918.828 459.598 4049
930.804 460.733 4059
940.51 460.733 4059
950.216 460.733 4059
959.922 460.733 4059
969.629 460.733 4059
981.748 461.868 4069
991.478 461.868 4069
1001.21 461.868 4069
1010.94 461.868 4069
1020.67 461.868 4069
1027.87 460.733 4059
1035.02 459.598 4049
1042.12 458.463 4039
1051.78 458.463 4039
1059.07 457.441 4030
1071.09 458.463 4039
1080.75 458.463 4039
1090.41 458.463 4039
1100.07 458.463 4039
1107.26 457.441 4030
1111.35 455.171 4010
1118.42 454.149 4001
1127.99 454.149 4001
1137.56 454.149 4001
1149.71 455.171 4010
1162.19 456.306 4020
1174.71 457.441 4030
1184.35 457.441 4030
1196.65 458.463 4039
1206.31 458.463 4039
1215.97 458.463 4039
1225.63 458.463 4039
1235.29 458.463 4039
1251.11 460.733 4059
1260.82 460.733 4059
1270.52 460.733 4059
1280.23 460.733 4059
1289.94 460.733 4059
1302.84 461.868 4069
1312.57 461.868 4069
1322.31 461.868 4069
1332.04 461.868 4069
1345.06 463.003 4079
1358.14 464.138 4089
1367.92 464.138 4089
1377.69 464.138 4089
1475.48 464.138 4089
1485.25 464.138 4089
1495.03 464.138 4089
1504.81 464.138 4089
1514.59 464.138 4089
1524.37 464.138 4089
1739.48 464.138 4089
1749.26 464.138 4089
1759.04 464.138 4089
1764.49 463.003 4079
1765.55 460.733 4059
1762.57 457.441 4030
1755.05 453.014 3991
1764.6 453.014 3991
1761.7 449.836 3963
1762.68 447.679 3944
1763.57 445.523 3925
1772.96 445.523 3925
1774.17 443.479 3907
1775.3 441.436 3889
1776.34 439.393 3871
1785.59 439.393 3871
1790.68 438.372 3862
1787.33 435.307 3835
1796.5 435.307 3835
1801.43 434.285 3826
1810.58 434.285 3826
1807.37 431.334 3800
1795.9 426.453 3757
1769.33 418.053 3683
1778.14 418.053 3683
1744.25 408.065 3595
1745.53 406.362 3580
1746.74 404.659 3565
1755.27 404.659 3565
1763.79 404.659 3565
1772.32 404.659 3565
1772.85 402.843 3549
1770.3 400.346 3527
1778.73 400.346 3527
1783.62 399.551 3520
1792.04 399.551 3520
1796.36 398.643 3512
1804.76 398.643 3512
1801.8 396.146 3490
1798.73 393.649 3468
1807.03 393.649 3468
1823.17 395.352 3483
1831.5 395.352 3483
1843.53 396.146 3490
1851.87 396.146 3490
1868.21 397.849 3505
1884.63 399.551 3520
1893.04 399.551 3520
1901.46 399.551 3520
1909.88 399.551 3520
1918.3 399.551 3520
1926.71 399.551 3520
1926.88 397.849 3505
2544.82 463.003 4079
2554.57 463.003 4079
2570.62 464.138 4089
2580.39 464.138 4089
2590.17 464.138 4089
2599.95 464.138 4089
2584.2 459.598 4049
2587.47 458.463 4039
2597.13 458.463 4039
2600.98 457.441 4030
532.491 84.5642 745
534.272 84.5642 745
536.054 84.5642 745
537.836 84.5642 745
538.168 84.3371 743
539.945 84.3371 743
541.722 84.3371 743
543.499 84.3371 743
545.275 84.3371 743
547.052 84.3371 743
548.829 84.3371 743
550.606 84.3371 743
551.639 84.2236 742
553.413 84.2236 742
555.188 84.2236 742
556.962 84.2236 742
558.736 84.2236 742
561.266 84.3371 743
563.801 84.4507 744
566.34 84.5642 745
568.121 84.5642 745
569.903 84.5642 745
-2291.85 354.784 3061
-2289 355.479 3067
-2281.67 355.479 3067
-2282.49 356.754 3078
-2279.57 357.449 3084
-2272.19 357.449 3084
-2264.82 357.449 3084
-2257.44 357.449 3084
-2253.72 358.029 3089
-2246.33 358.029 3089
-2238.94 358.029 3089
-2240.23 359.42 3101
-2249.37 362.086 3124
-2241.9 362.086 3124
-2234.43 362.086 3124
-2244.07 364.867 3148
-2253.59 367.649 3172
-2254.5 369.04 3184
-2246.89 369.04 3184
-2239.27 369.04 3184
-2530.71 428.731 3699
-2521.86 428.731 3699
-2513.01 428.731 3699
-2504.17 428.731 3699
-2495.32 428.731 3699
-2486.48 428.731 3699
-2450.17 423.978 3658
-2426.07 421.313 3635
-2396.1 417.604 3603
-2387.48 417.604 3603
-2373.59 416.677 3595
-2349.86 414.011 3572
-2341.32 414.011 3572
-2332.77 414.011 3572
-2324.23 414.011 3572
-2315.69 414.011 3572
-2307.15 414.011 3572
-2298.61 414.011 3572
-2295.19 414.938 3580
-2286.63 414.938 3580
-2278.07 414.938 3580
-2274.58 415.865 3588
-2275.48 417.604 3603
-2266.86 417.604 3603
-2268.27 419.458 3619
-2259.62 419.458 3619
-2255.94 420.385 3627
-2247.27 420.385 3627
-2243.53 421.313 3635
-2234.84 421.313 3635
-2226.15 421.313 3635
-2212.57 420.385 3627
-1892.83 414.938 3580
-1892.17 416.677 3595
-1883.57 416.677 3595
-1874.97 416.677 3595
-1866.38 416.677 3595
-1870.18 419.458 3619
-1861.53 419.458 3619
-1856.97 420.385 3627
-1855.94 422.124 3642
-1847.23 422.124 3642
-1838.52 422.124 3642
-1818.26 419.458 3619
-1922.57 472.774 4079
-1912.81 472.774 4079
-1903.06 472.774 4079
-1893.31 472.774 4079
-1883.55 472.774 4079
-1873.8 472.774 4079
-1859.47 471.615 4069
-1849.74 471.615 4069
-1844.54 472.774 4079
-1839.28 473.933 4089
-1829.5 473.933 4089
-1819.72 473.933 4089
-1805.52 472.774 4079
-1795.77 472.774 4079
-1786.01 472.774 4079
-1776.26 472.774 4079
-1766.5 472.774 4079
-1756.75 472.774 4079
-1734.15 469.297 4049
-1691.67 460.372 3972
-1650.83 451.796 3898
-1626.35 447.623 3862
-1617.11 447.623 3862
-1607.88 447.623 3862
-1606.1 449.709 3880
-1596.82 449.709 3880
-1587.54 449.709 3880
-1574.6 448.666 3871
-1550.79 444.494 3835
-1545.23 445.537 3844
-1536.04 445.537 3844
-1526.85 445.537 3844
-1507.39 442.523 3818
-634.304 206.194 1779
-630.05 206.194 1779
-625.796 206.194 1779
-620.843 205.962 1777
-616.593 205.962 1777
-603.729 203.065 1752
-597.829 202.485 1747
-591.272 201.674 1740
-585.087 200.978 1734
-580.94 200.978 1734
-575.796 200.631 1731
-568.024 199.356 1720
-562.272 198.776 1715
-558.171 198.776 1715
-553.423 198.544 1713
-548.044 198.081 1709
-542.366 197.501 1704
-538.291 197.501 1704
-532.022 196.69 1697
-527.031 196.342 1694
-520.819 195.531 1687
-516.785 195.531 1687
-510.623 194.719 1680
-506.002 194.488 1678
-499.596 193.56 1670
-492.635 192.401 1660
-488.666 192.401 1660
-483.236 191.822 1655
-476.383 190.663 1645
-471.587 190.315 1642
-467.661 190.315 1642
-463.169 190.083 1640
-458.408 189.736 1637
-453.66 189.388 1634
-449.753 189.388 1634
-445.845 189.388 1634
-441.127 189.04 1631
-436.69 188.808 1629
-432.795 188.808 1629
-428.636 188.692 1628
-424.221 188.461 1626
-419.557 188.113 1623
-415.676 188.113 1623
-411.288 187.881 1621
-407.16 187.765 1620
-402.788 187.533 1618
-398.919 187.533 1618
-395.05 187.533 1618
-391.181 187.533 1618
-387.073 187.417 1617
-382.732 187.186 1615
-378.87 187.186 1615
-375.008 187.186 1615
-371.146 187.186 1615
-367.284 187.186 1615
-363.422 187.186 1615
-359.115 186.954 1613
-355.258 186.954 1613
-351.836 187.186 1615
-348.405 187.417 1617
-344.538 187.417 1617
-340.672 187.417 1617
-336.805 187.417 1617
-332.938 187.417 1617
-329.072 187.417 1617
-325.205 187.417 1617
-321.338 187.417 1617
-317.471 187.417 1617
-313.217 187.186 1615
-309.355 187.186 1615
-305.114 186.954 1613
-301.257 186.954 1613
-297.4 186.954 1613
-293.543 186.954 1613
-289.506 186.838 1612
-285.651 186.838 1612
-281.797 186.838 1612
-277.597 186.606 1610
-273.577 186.49 1609
-269.729 186.49 1609
-265.882 186.49 1609
-262.034 186.49 1609
-257.866 186.258 1607
-253.549 185.911 1604
-250.18 186.258 1607
-246.337 186.258 1607
-242.494 186.258 1607
-238.948 186.49 1609
-235.101 186.49 1609
-231.253 186.49 1609
-227.406 186.49 1609
-224.114 186.954 1613
-221.213 187.765 1620
-217.339 187.765 1620
-213.992 188.229 1624
-210.755 188.808 1629
-207.114 189.04 1631
-203.214 189.04 1631
-199.435 189.156 1632
-196.731 190.315 1642
-193.157 190.663 1645
-189.223 190.663 1645
-185.627 191.011 1648
-182.238 191.59 1653
-180.442 193.908 1673
-176.441 193.908 1673
-172.647 194.14 1675
-168.641 194.14 1675
-164.636 194.14 1675
-344.253 449.709 3880
-334.974 449.709 3880
-325.696 449.709 3880
-316.418 449.709 3880
-305.715 447.623 3862
-296.479 447.623 3862
-285.905 445.537 3844
-277.361 446.58 3853
-268.147 446.58 3853
-260.143 448.666 3871
-250.887 448.666 3871
-242.192 449.709 3880
-233.994 451.796 3898
-224.673 451.796 3898
-215.351 451.796 3898
-206.03 451.796 3898
-195.8 449.709 3880
-185.657 447.623 3862
-176.422 447.623 3862
-167.186 447.623 3862
-157.951 447.623 3862
-148.369 446.58 3853
-140.456 450.752 3889
-131.156 450.752 3889
-122.702 453.882 3916
-113.338 453.882 3916
-104.213 454.925 3925
-94.8268 454.925 3925
-86.0504 458.17 3953
-76.9658 460.372 3972
-67.7903 462.575 3991
-58.2466 462.575 3991
-49.4107 469.297 4049
-39.9245 471.615 4069
-30.1943 471.615 4069
-20.4641 471.615 4069
290.188 470.456 4059
299.894 470.456 4059
309.6 470.456 4059
316.239 465.936 4020
325.852 465.936 4020
333.879 463.734 4001
340.957 460.372 3972
347.985 457.127 3944
359.954 460.372 3972
371.22 462.575 3991
380.763 462.575 3991
390.307 462.575 3991
399.851 462.575 3991
409.394 462.575 3991
413.06 456.084 3935
418.497 451.796 3898
415.197 438.467 3783
424.243 438.467 3783
427.448 432.555 3732
431.578 427.803 3691
430.859 418.531 3611
436.695 415.865 3588
445.275 415.865 3588
446.139 408.795 3527
450.706 405.318 3497
457.231 403.695 3483
465.56 403.695 3483
472.936 402.884 3476
475.295 397.9 3433
489.561 402.884 3476
503.029 407.056 3512
511.427 407.056 3512
519.826 407.056 3512
528.224 407.056 3512
536.622 407.056 3512
541.606 404.507 3490
546.485 401.957 3468
575.094 416.677 3595
583.691 416.677 3595
592.288 416.677 3595
676.618 462.575 3991
689.428 464.777 4010
699.017 464.777 4010
708.606 464.777 4010
718.195 464.777 4010
727.784 464.777 4010
730.386 460.372 3972
739.884 460.372 3972
749.382 460.372 3972
758.881 460.372 3972
768.379 460.372 3972
777.877 460.372 3972
787.375 460.372 3972
798.88 461.532 3982
808.402 461.532 3982
825.73 465.936 4020
835.343 465.936 4020
844.956 465.936 4020
854.569 465.936 4020
862.032 464.777 4010
869.665 463.734 4001
881.21 464.777 4010
895.242 467.095 4030
904.879 467.095 4030
914.516 467.095 4030
926.217 468.138 4039
938.193 469.297 4049
947.875 469.297 4049
959.922 470.456 4059
969.629 470.456 4059
979.335 470.456 4059
989.041 470.456 4059
998.748 470.456 4059
1008.45 470.456 4059
1018.16 470.456 4059
1022.8 468.138 4039
1030.16 467.095 4030
1039.8 467.095 4030
1049.43 467.095 4030
1056.44 465.936 4020
1066.06 465.936 4020
1075.67 465.936 4020
1085.28 465.936 4020
1092.17 464.777 4010
1101.76 464.777 4010
1108.86 463.734 4001
1115.63 462.575 3991
1125.17 462.575 3991
1132.16 461.532 3982
1144.26 462.575 3991
1159.3 464.777 4010
1171.8 465.936 4020
1181.41 465.936 4020
1191.03 465.936 4020
1203.62 467.095 4030
1215.97 468.138 4039
1225.63 468.138 4039
1235.29 468.138 4039
1251.11 470.456 4059
1260.82 470.456 4059
1270.52 470.456 4059
1280.23 470.456 4059
1289.94 470.456 4059
1306.05 472.774 4079
1315.8 472.774 4079
1325.55 472.774 4079
1335.31 472.774 4079
1345.06 472.774 4079
1358.14 473.933 4089
1367.92 473.933 4089
1377.69 473.933 4089
1475.48 473.933 4089
1485.25 473.933 4089
1495.03 473.933 4089
1739.48 473.933 4089
1749.26 473.933 4089
1759.04 473.933 4089
1760.16 471.615 4069
1761.2 469.297 4049
1762.57 467.095 4030
1763.41 464.777 4010
1773 464.777 4010
1765.7 460.372 3972
1771.17 459.329 3963
1780.65 459.329 3963
1790.13 459.329 3963
1790.97 457.127 3944
1796.3 456.084 3935
1801.12 454.925 3925
1810.5 454.925 3925
1807.37 451.796 3898
1804.11 448.666 3871
1809.15 447.623 3862
1809.91 445.537 3844
1819.1 445.537 3844
1824.01 444.494 3835
1816.45 440.437 3800
1780.86 429.658 3707
1789.73 429.658 3707
1752.01 418.531 3611
1745.53 414.938 3580
1750.17 414.011 3572
1758.72 414.011 3572
1767.26 414.011 3572
1775.8 414.011 3572
1772.85 411.345 3549
1770.3 408.795 3527
1778.73 408.795 3527
1783.62 407.984 3520
1792.04 407.984 3520
1796.36 407.056 3512
1804.76 407.056 3512
1801.8 404.507 3490
1802.88 402.884 3476
1814.84 403.695 3483
1826.84 404.507 3490
1835.18 404.507 3490
1843.53 404.507 3490
1855.59 405.318 3497
1876.21 407.984 3520
1888.37 408.795 3527
1896.81 408.795 3527
1909.02 409.606 3534
1917.47 409.606 3534
1925.93 409.606 3534
1930.54 408.795 3527
1938.98 408.795 3527
2531.5 473.933 4089
2541.28 473.933 4089
2551.06 473.933 4089
2554.57 472.774 4079
2570.62 473.933 4089
2580.39 473.933 4089
2590.17 473.933 4089
2599.95 473.933 4089
2584.2 469.297 4049
2568.9 464.777 4010
2578.49 464.777 4010
2570 461.532 3982
2579.53 461.532 3982
529.638 86.4647 746
531.422 86.4647 746
533.206 86.4647 746
534.272 86.3488 745
536.054 86.3488 745
537.114 86.2329 744
538.168 86.117 743
539.945 86.117 743
541.722 86.117 743
542.767 86.0011 742
544.542 86.0011 742
546.316 86.0011 742
548.09 86.0011 742
549.865 86.0011 742
551.639 86.0011 742
553.413 86.0011 742
555.188 86.0011 742
556.962 86.0011 742
558.736 86.0011 742
560.511 86.0011 742
563.043 86.117 743
565.58 86.2329 744
567.359 86.2329 744
569.138 86.2329 744
-2283.61 360.815 3050
-2280.05 361.406 3055
-2272.74 361.406 3055
-2269.89 362.116 3061
-2262.57 362.116 3061
-2255.25 362.116 3061
-2247.93 362.116 3061
-2245 362.826 3067
-2250.07 364.837 3084
-2246.33 365.429 3089
-2238.94 365.429 3089
-2240.23 366.848 3101
-2249.37 369.569 3124
-2241.9 369.569 3124
-2234.43 369.569 3124
-2244.07 372.408 3148
-2253.59 375.247 3172
-2254.5 376.667 3184
-2246.89 376.667 3184
-2239.27 376.667 3184
-2530.71 437.592 3699
-2521.86 437.592 3699
-2513.01 437.592 3699
-2504.17 437.592 3699
-2467.67 432.741 3658
-2458.92 432.741 3658
-2450.17 432.741 3658
-2426.07 430.02 3635
-2396.1 426.235 3603
-2387.48 426.235 3603
-2373.59 425.288 3595
-2349.86 422.567 3572
-2341.32 422.567 3572
-2332.77 422.567 3572
-2324.23 422.567 3572
-2315.69 422.567 3572
-2307.15 422.567 3572
-2298.61 422.567 3572
-2295.19 423.514 3580
-2286.63 423.514 3580
-2278.07 423.514 3580
-2274.58 424.46 3588
-2275.48 426.235 3603
-2266.86 426.235 3603
-2268.27 428.128 3619
-2259.62 428.128 3619
-2255.94 429.074 3627
-2247.27 429.074 3627
-2243.53 430.02 3635
-2234.84 430.02 3635
