-2384.01 -412.17 3691
-2375.19 -412.17 3691
-2366.36 -412.17 3691
-2357.53 -412.17 3691
-2327.71 -408.485 3658
-2304.38 -405.916 3635
-2310.21 -408.485 3658
-2301.47 -408.485 3658
-2292.72 -408.485 3658
-2283.97 -408.485 3658
-2275.22 -408.485 3658
-730.249 -195.867 1754
-726.882 -196.091 1756
-722.683 -196.091 1756
-718.484 -196.091 1756
-713.471 -195.867 1754
-709.277 -195.867 1754
-702.269 -195.086 1747
-696.493 -194.639 1743
-691.133 -194.304 1740
-686.972 -194.304 1740
-682.811 -194.304 1740
-678.651 -194.304 1740
-673.714 -194.081 1738
-669.558 -194.081 1738
-664.637 -193.857 1736
-658.583 -193.299 1731
-653.687 -193.076 1729
-648.802 -192.852 1727
-644.672 -192.852 1727
-640.542 -192.852 1727
-636.412 -192.852 1727
-633.015 -193.076 1729
-629.971 -193.411 1732
-625.83 -193.411 1732
-621.688 -193.411 1732
-618.259 -193.634 1734
-615.529 -194.081 1738
-611.373 -194.081 1738
-607.217 -194.081 1738
-603.061 -194.081 1738
-598.905 -194.081 1738
-594.749 -194.081 1738
-591.272 -194.304 1740
-587.112 -194.304 1740
-582.951 -194.304 1740
-578.79 -194.304 1740
-574.629 -194.304 1740
-570.468 -194.304 1740
-566.307 -194.304 1740
-562.146 -194.304 1740
-556.061 -193.634 1734
-551.915 -193.634 1734
-547.768 -193.634 1734
-542.681 -193.299 1731
-537.92 -193.076 1729
-531.933 -192.405 1723
-527.813 -192.405 1723
-522.173 -191.847 1718
-517.16 -191.512 1715
-512.46 -191.289 1713
-508.364 -191.289 1713
-503.679 -191.065 1711
-498.711 -190.73 1708
-494.048 -190.507 1706
-489.394 -190.284 1704
-485.319 -190.284 1704
-480.68 -190.06 1702
-476.33 -189.949 1701
-472.262 -189.949 1701
-468.194 -189.949 1701
-463.581 -189.725 1699
-459.518 -189.725 1699
-454.919 -189.502 1697
-450.861 -189.502 1697
-446.803 -189.502 1697
-442.223 -189.279 1695
-438.17 -189.279 1695
-434.117 -189.279 1695
-430.064 -189.279 1695
-425.759 -189.167 1694
-421.21 -188.944 1692
-417.164 -188.944 1692
-413.118 -188.944 1692
-409.072 -188.944 1692
-405.026 -188.944 1692
-400.98 -188.944 1692
-396.934 -188.944 1692
-393.352 -189.167 1694
-389.991 -189.502 1697
-386.387 -189.725 1699
-382.325 -189.725 1699
-378.262 -189.725 1699
-374.199 -189.725 1699
-370.136 -189.725 1699
-366.073 -189.725 1699
-362.437 -189.949 1701
-358.58 -190.06 1702
-354.51 -190.06 1702
-350.44 -190.06 1702
-346.37 -190.06 1702
-342.702 -190.284 1704
-338.627 -190.284 1704
-334.552 -190.284 1704
-330.478 -190.284 1704
-326.403 -190.284 1704
-322.328 -190.284 1704
-318.253 -190.284 1704
-314.178 -190.284 1704
-310.104 -190.284 1704
-306.029 -190.284 1704
-301.954 -190.284 1704
-297.879 -190.284 1704
-293.805 -190.284 1704
-289.73 -190.284 1704
-285.99 -190.507 1706
-281.911 -190.507 1706
-277.831 -190.507 1706
-274.072 -190.73 1708
-270.146 -190.842 1709
-266.059 -190.842 1709
-261.973 -190.842 1709
-258.188 -191.065 1711
-254.393 -191.289 1713
-250.297 -191.289 1713
-246.632 -191.624 1716
-242.528 -191.624 1716
-239.259 -192.294 1722
-235.141 -192.294 1722
-231.023 -192.294 1722
-227.3 -192.629 1725
-223.952 -193.299 1731
-219.812 -193.299 1731
-216.047 -193.634 1734
-212.145 -193.857 1736
-208.592 -194.416 1741
-204.429 -194.416 1741
-200.496 -194.639 1743
-197.567 -195.867 1754
-194.255 -196.761 1762
-190.041 -196.761 1762
-186.988 -197.989 1773
-184.088 -199.441 1786
-181.227 -201.004 1800
-176.922 -201.004 1800
-173.001 -201.451 1804
-169.342 -202.232 1811
-165.558 -202.902 1817
-161.213 -202.902 1817
-157.559 -203.796 1825
-153.866 -204.689 1833
-150.298 -205.806 1843
-145.891 -205.806 1843
-141.791 -206.252 1847
-138.044 -207.257 1856
-134.037 -207.927 1862
-129.585 -207.927 1862
-125.401 -208.374 1866
-121.069 -208.597 1868
-116.851 -209.044 1872
-112.375 -209.044 1872
-108.013 -209.268 1874
-103.532 -209.268 1874
-99.2095 -209.602 1877
-94.721 -209.602 1877
-90.4248 -210.049 1881
-86.0181 -210.273 1883
-81.775 -210.943 1889
-77.2579 -210.943 1889
-72.7407 -210.943 1889
-67.9346 -210.049 1881
-63.4365 -210.049 1881
-98.6635 -414.962 3716
-89.7774 -414.962 3716
-81.2396 -416.748 3732
-72.3153 -416.748 3732
-63.8156 -419.54 3757
-54.8315 -419.54 3757
-45.8473 -419.54 3757
-37.03 -421.438 3774
-28.0052 -421.438 3774
-19.0257 -422.443 3783
-9.97942 -422.443 3783
-0.93312 -422.443 3783
8.13248 -423.448 3792
17.2003 -423.448 3792
26.2681 -423.448 3792
35.2521 -422.443 3783
44.2984 -422.443 3783
53.3447 -422.443 3783
62.391 -422.443 3783
71.4373 -422.443 3783
80.2921 -421.438 3774
89.3169 -421.438 3774
97.8987 -419.54 3757
106.655 -418.647 3749
115.096 -416.748 3732
124.02 -416.748 3732
132.66 -415.855 3724
141.565 -415.855 3724
150.147 -414.962 3716
159.033 -414.962 3716
167.512 -413.957 3707
175.235 -411.277 3683
184.042 -411.277 3683
192.849 -411.277 3683
201.218 -410.383 3675
209.549 -409.49 3667
218.318 -409.49 3667
227.583 -410.383 3675
236.371 -410.383 3675
245.159 -410.383 3675
252.772 -408.485 3658
261.519 -408.485 3658
270.267 -408.485 3658
278.404 -407.591 3650
287.132 -407.591 3650
296.509 -408.485 3658
305.256 -408.485 3658
314.004 -408.485 3658
322.751 -408.485 3658
330.773 -407.591 3650
339.502 -407.591 3650
348.23 -407.591 3650
356.958 -407.591 3650
365.686 -407.591 3650
374.415 -407.591 3650
382.303 -406.698 3642
390.261 -405.916 3635
398.953 -405.916 3635
407.646 -405.916 3635
417.14 -406.698 3642
425.849 -406.698 3642
434.558 -406.698 3642
445.214 -408.485 3658
455.079 -409.49 3667
463.848 -409.49 3667
474.679 -411.277 3683
484.536 -412.17 3691
495.501 -413.957 3707
504.366 -413.957 3707
515.584 -415.855 3724
525.616 -416.748 3732
538.121 -419.54 3757
547.105 -419.54 3757
557.421 -420.545 3766
584.927 -434.28 3889
595.602 -435.285 3898
604.923 -435.285 3898
618.499 -438.3 3925
630.924 -440.422 3944
640.356 -440.422 3944
649.787 -440.422 3944
657.714 -439.417 3935
1059.63 -438.3 3925
1069.02 -438.3 3925
1078.41 -438.3 3925
1080.31 -435.285 3898
1074.54 -429.255 3844
1083.73 -429.255 3844
1092.92 -429.255 3844
1102.11 -429.255 3844
1108.7 -428.25 3835
1120.5 -429.255 3844
1129.69 -429.255 3844
1152.21 -434.28 3889
1166.89 -436.29 3907
1178.94 -437.295 3916
1188.31 -437.295 3916
1197.67 -437.295 3916
1218.44 -441.427 3953
1239.7 -445.671 3991
1249.24 -445.671 3991
1258.78 -445.671 3991
1268.33 -445.671 3991
1277.87 -445.671 3991
1293.54 -447.792 4010
1303.13 -447.792 4010
1312.72 -447.792 4010
1335.17 -452.147 4049
1344.85 -452.147 4049
1354.54 -452.147 4049
1364.22 -452.147 4049
1373.9 -452.147 4049
1383.58 -452.147 4049
1389.82 -451.031 4039
1399.48 -451.031 4039
1406 -450.026 4030
1422.31 -452.147 4049
1431.99 -452.147 4049
1441.68 -452.147 4049
1458.53 -454.381 4069
1468.26 -454.381 4069
1477.99 -454.381 4069
1487.72 -454.381 4069
1497.45 -454.381 4069
1510.88 -455.497 4079
1520.64 -455.497 4079
1530.39 -455.497 4079
1540.15 -455.497 4079
1759.04 -456.614 4089
1768.82 -456.614 4089
1778.59 -456.614 4089
1770.88 -452.147 4049
1776.16 -451.031 4039
1785.82 -451.031 4039
1787.03 -448.909 4020
1809.61 -452.147 4049
1823.78 -453.264 4059
1833.49 -453.264 4059
1843.2 -453.264 4059
2456.43 -450.026 4030
2466.07 -450.026 4030
2475.7 -450.026 4030
2479.17 -448.909 4020
2465.26 -444.665 3982
2456.76 -441.427 3953
2466.21 -441.427 3953
2475.66 -441.427 3953
2473.8 -439.417 3935
2483.21 -439.417 3935
2492.62 -439.417 3935
2478.5 -435.285 3898
2464.85 -431.265 3862
2451.02 -427.245 3826
2438.31 -423.448 3792
2475.13 -428.25 3835
2484.3 -428.25 3835
2516.88 -432.27 3871
2526.13 -432.27 3871
2535.39 -432.27 3871
2544.65 -432.27 3871
2542.03 -430.26 3853
2551.24 -430.26 3853
2560.46 -430.26 3853
2557.66 -428.25 3835
2566.84 -428.25 3835
2569.96 -427.245 3826
2579.11 -427.245 3826
2588.26 -427.245 3826
2603.52 -428.25 3835
2618.82 -429.255 3844
2628.01 -429.255 3844
2637.2 -429.255 3844
2610.6 -423.448 3792
2625.19 -424.342 3800
2658.54 -428.25 3835
2686.49 -431.265 3862
2695.73 -431.265 3862
2704.96 -431.265 3862
2701.55 -429.255 3844
2710.74 -429.255 3844
2713.57 -428.25 3835
2722.74 -428.25 3835
2725.5 -427.245 3826
2766.81 -432.27 3871
2776.07 -432.27 3871
2785.32 -432.27 3871
2801.08 -433.275 3880
2823.39 -435.285 3898
2852.33 -438.3 3925
2861.72 -438.3 3925
2871.11 -438.3 3925
2880.49 -438.3 3925
2938.47 -445.671 3991
2948.02 -445.671 3991
2957.56 -445.671 3991
2967.1 -445.671 3991
2976.65 -445.671 3991
2965.24 -442.544 3963
2946.19 -438.3 3925
2955.58 -438.3 3925
2964.97 -438.3 3925
2967.53 -437.295 3916
2976.9 -437.295 3916
2951.94 -432.27 3871
2961.2 -432.27 3871
-2321.73 -368.251 3370
-2313.68 -368.251 3370
-2305.62 -368.251 3370
-2316.65 -371.311 3398
-2351.32 -378.195 3461
-2343.05 -378.195 3461
-2369.17 -383.768 3512
-2370.86 -385.407 3527
-2372.47 -387.046 3542
-2364 -387.046 3542
-2365.51 -388.685 3557
-2382.18 -392.838 3595
-2394.71 -396.335 3627
-2386.04 -396.335 3627
-2377.37 -396.335 3627
-2373.92 -397.209 3635
-2380.19 -399.722 3658
-2371.44 -399.722 3658
-2421.47 -409.666 3749
-2412.51 -409.666 3749
-2403.54 -409.666 3749
-2394.58 -409.666 3749
-2348.71 -403.328 3691
-2329.74 -401.58 3675
-2356.95 -407.808 3732
-2348.02 -407.808 3732
-2339.1 -407.808 3732
-2330.17 -407.808 3732
-2321.25 -407.808 3732
-730.249 -191.666 1754
-726.882 -191.884 1756
-722.683 -191.884 1756
-718.484 -191.884 1756
-713.471 -191.666 1754
-709.277 -191.666 1754
-702.269 -190.901 1747
-696.493 -190.464 1743
-691.133 -190.136 1740
-686.972 -190.136 1740
-682.811 -190.136 1740
-678.651 -190.136 1740
-673.714 -189.917 1738
-669.558 -189.917 1738
-664.637 -189.699 1736
-658.963 -189.261 1732
-653.687 -188.934 1729
-648.802 -188.715 1727
-644.672 -188.715 1727
-640.542 -188.715 1727
-636.412 -188.715 1727
-633.015 -188.934 1729
-629.971 -189.261 1732
-625.83 -189.261 1732
-622.406 -189.48 1734
-618.259 -189.48 1734
-615.529 -189.917 1738
-611.373 -189.917 1738
-607.217 -189.917 1738
-603.061 -189.917 1738
-599.594 -190.136 1740
-595.433 -190.136 1740
-591.272 -190.136 1740
-587.112 -190.136 1740
-582.951 -190.136 1740
-578.79 -190.136 1740
-574.629 -190.136 1740
-570.468 -190.136 1740
-566.307 -190.136 1740
-562.146 -190.136 1740
-556.703 -189.699 1736
-551.915 -189.48 1734
-547.768 -189.48 1734
-542.995 -189.261 1732
-538.542 -189.152 1731
-532.55 -188.497 1725
-528.425 -188.497 1725
-522.781 -187.95 1720
-517.461 -187.513 1716
-512.46 -187.185 1713
-508.364 -187.185 1713
-503.679 -186.967 1711
-498.711 -186.639 1708
-494.048 -186.42 1706
-489.394 -186.202 1704
-485.319 -186.202 1704
-480.68 -185.983 1702
-476.33 -185.874 1701
-472.262 -185.874 1701
-468.194 -185.874 1701
-463.581 -185.655 1699
-459.518 -185.655 1699
-454.919 -185.437 1697
-450.861 -185.437 1697
-446.803 -185.437 1697
-442.223 -185.218 1695
-438.17 -185.218 1695
-434.117 -185.218 1695
-430.064 -185.218 1695
-425.759 -185.109 1694
-421.21 -184.891 1692
-417.164 -184.891 1692
-413.118 -184.891 1692
-409.072 -184.891 1692
-405.026 -184.891 1692
-400.98 -184.891 1692
-396.934 -184.891 1692
-393.584 -185.218 1695
-389.991 -185.437 1697
-386.387 -185.655 1699
-382.325 -185.655 1699
-378.262 -185.655 1699
-374.199 -185.655 1699
-370.136 -185.655 1699
-366.073 -185.655 1699
-362.437 -185.874 1701
-358.58 -185.983 1702
-354.51 -185.983 1702
-350.44 -185.983 1702
-346.37 -185.983 1702
-342.702 -186.202 1704
-338.627 -186.202 1704
-334.552 -186.202 1704
-330.478 -186.202 1704
-326.403 -186.202 1704
-322.328 -186.202 1704
-318.253 -186.202 1704
-314.178 -186.202 1704
-310.104 -186.202 1704
-306.029 -186.202 1704
-301.954 -186.202 1704
-297.879 -186.202 1704
-293.805 -186.202 1704
-289.73 -186.202 1704
-285.655 -186.202 1704
-281.58 -186.202 1704
-277.831 -186.42 1706
-274.072 -186.639 1708
-269.988 -186.639 1708
-265.904 -186.639 1708
-261.973 -186.748 1709
-257.886 -186.748 1709
-254.393 -187.185 1713
-250.297 -187.185 1713
-246.488 -187.404 1715
-242.528 -187.513 1716
-239.259 -188.169 1722
-235.141 -188.169 1722
-231.023 -188.169 1722
-227.3 -188.497 1725
-223.952 -189.152 1731
-219.812 -189.152 1731
-215.798 -189.261 1732
-212.145 -189.699 1736
-208.592 -190.245 1741
-204.429 -190.245 1741
-200.496 -190.464 1743
-197.342 -191.447 1752
-194.034 -192.321 1760
-189.825 -192.321 1760
-186.566 -193.305 1769
-183.882 -194.944 1784
-181.025 -196.474 1798
-176.726 -196.474 1798
-172.618 -196.692 1800
-168.968 -197.457 1807
-165.558 -198.55 1817
-161.213 -198.55 1817
-157.559 -199.424 1825
-153.866 -200.298 1833
-150.135 -201.172 1841
-145.733 -201.172 1841
-141.638 -201.609 1845
-137.895 -202.593 1854
-134.037 -203.467 1862
-129.585 -203.467 1862
-125.401 -203.904 1866
-121.069 -204.123 1868
-116.851 -204.56 1872
-112.375 -204.56 1872
-107.898 -204.56 1872
-103.532 -204.778 1874
-99.2095 -205.106 1877
-94.721 -205.106 1877
-90.3286 -205.325 1879
-86.0181 -205.762 1883
-81.5153 -205.762 1883
-77.0125 -205.762 1883
-72.5096 -205.762 1883
-106.363 -401.58 3675
-98.6635 -406.06 3716
-89.7774 -406.06 3716
-80.8913 -406.06 3716
-72.3153 -407.808 3732
-63.6797 -409.666 3749
-54.7147 -409.666 3749
-45.7497 -409.666 3749
-36.7847 -409.666 3749
-27.8197 -409.666 3749
-18.8547 -409.666 3749
-9.88973 -409.666 3749
-0.926707 -410.54 3757
8.07672 -411.524 3766
17.0824 -411.524 3766
26.088 -411.524 3766
35.0098 -410.54 3757
43.9939 -410.54 3757
52.978 -410.54 3757
61.9622 -410.54 3757
70.9463 -410.54 3757
79.7602 -409.666 3749
88.7252 -409.666 3749
97.4557 -408.682 3740
105.944 -406.934 3724
114.602 -406.06 3716
123.489 -406.06 3716
132.375 -406.06 3716
140.919 -405.076 3707
149.137 -403.328 3691
157.963 -403.328 3691
166.428 -402.454 3683
174.854 -401.58 3675
183.642 -401.58 3675
192.43 -401.58 3675
200.78 -400.705 3667
209.549 -400.705 3667
217.782 -399.722 3658
226.53 -399.722 3658
235.277 -399.722 3658
244.025 -399.722 3658
252.772 -399.722 3658
260.947 -398.848 3650
269.676 -398.848 3650
278.404 -398.848 3650
287.132 -398.848 3650
296.509 -399.722 3658
305.256 -399.722 3658
314.004 -399.722 3658
322.751 -399.722 3658
330.773 -398.848 3650
339.502 -398.848 3650
348.23 -398.848 3650
356.176 -397.974 3642
364.885 -397.974 3642
373.594 -397.974 3642
382.303 -397.974 3642
390.261 -397.209 3635
398.953 -397.209 3635
407.646 -397.209 3635
417.14 -397.974 3642
425.849 -397.974 3642
434.558 -397.974 3642
445.214 -399.722 3658
453.962 -399.722 3658
462.709 -399.722 3658
473.648 -401.58 3675
484.536 -403.328 3691
494.432 -404.202 3699
503.277 -404.202 3699
514.476 -406.06 3716
526.742 -408.682 3740
538.121 -410.54 3757
547.105 -410.54 3757
557.421 -411.524 3766
584.927 -424.964 3889
595.602 -425.948 3898
604.923 -425.948 3898
618.499 -428.898 3925
630.924 -430.974 3944
640.356 -430.974 3944
649.787 -430.974 3944
657.714 -429.991 3935
1057.74 -431.958 3953
1069.89 -433.05 3963
1079.37 -433.05 3963
1088.85 -433.05 3963
1090.56 -429.991 3935
1089.63 -425.948 3898
1098.95 -425.948 3898
1105.71 -424.964 3889
1109.85 -422.997 3871
1111.3 -420.047 3844
1120.5 -420.047 3844
1129.69 -420.047 3844
1152.21 -424.964 3889
1166.89 -426.931 3907
1178.94 -427.915 3916
1188.31 -427.915 3916
1197.67 -427.915 3916
1218.44 -431.958 3953
1239.7 -436.11 3991
1249.24 -436.11 3991
1258.78 -436.11 3991
1268.33 -436.11 3991
1277.87 -436.11 3991
1290.64 -437.203 4001
1300.21 -437.203 4001
1309.77 -437.203 4001
1335.17 -442.448 4049
1344.85 -442.448 4049
1354.54 -442.448 4049
1364.22 -442.448 4049
1370.51 -441.355 4039
1380.17 -441.355 4039
1389.82 -441.355 4039
1399.48 -441.355 4039
1409.14 -441.355 4039
1425.82 -443.541 4059
1435.53 -443.541 4059
1452.36 -445.726 4079
1462.11 -445.726 4079
1471.87 -445.726 4079
1477.99 -444.633 4069
1487.72 -444.633 4069
1497.45 -444.633 4069
1507.18 -444.633 4069
1520.64 -445.726 4079
1530.39 -445.726 4079
1540.15 -445.726 4079
1759.04 -446.819 4089
1768.82 -446.819 4089
1778.59 -446.819 4089
1770.88 -442.448 4049
1776.16 -441.355 4039
1785.82 -441.355 4039
1787.03 -439.279 4020
1809.61 -442.448 4049
1828.28 -444.633 4069
1847.04 -446.819 4089
1856.82 -446.819 4089
1866.6 -446.819 4089
2456.43 -440.372 4030
2466.07 -440.372 4030
2475.7 -440.372 4030
2479.17 -439.279 4020
2465.26 -435.127 3982
2456.76 -431.958 3953
2466.21 -431.958 3953
2475.66 -431.958 3953
2473.8 -429.991 3935
2483.21 -429.991 3935
2492.62 -429.991 3935
2478.5 -425.948 3898
2464.85 -422.014 3862
2451.02 -418.08 3826
2438.31 -414.365 3792
2475.13 -419.063 3835
2484.3 -419.063 3835
2505.17 -421.03 3853
2514.39 -421.03 3853
2523.6 -421.03 3853
2532.81 -421.03 3853
2542.03 -421.03 3853
2551.24 -421.03 3853
2560.46 -421.03 3853
2557.66 -419.063 3835
2566.84 -419.063 3835
2569.96 -418.08 3826
2579.11 -418.08 3826
2588.26 -418.08 3826
2603.52 -419.063 3835
2612.69 -419.063 3835
2621.86 -419.063 3835
2624.86 -418.08 3826
2610.6 -414.365 3792
2625.19 -415.239 3800
2658.54 -419.063 3835
2686.49 -422.014 3862
2695.73 -422.014 3862
2704.96 -422.014 3862
2701.55 -420.047 3844
2710.74 -420.047 3844
2713.57 -419.063 3835
2722.74 -419.063 3835
2725.5 -418.08 3826
2766.81 -422.997 3871
2776.07 -422.997 3871
2785.32 -422.997 3871
2801.08 -423.981 3880
2823.39 -425.948 3898
2852.33 -428.898 3925
2861.72 -428.898 3925
2871.11 -428.898 3925
2880.49 -428.898 3925
2938.47 -436.11 3991
2948.02 -436.11 3991
2957.56 -436.11 3991
2967.1 -436.11 3991
2976.65 -436.11 3991
2965.24 -433.05 3963
2946.19 -428.898 3925
2955.58 -428.898 3925
2964.97 -428.898 3925
2967.53 -427.915 3916
2976.9 -427.915 3916
2951.94 -422.997 3871
2961.2 -422.997 3871
-2321.73 -360.178 3370
-2313.68 -360.178 3370
-2305.62 -360.178 3370
-2316.65 -363.171 3398
-2351.32 -369.904 3461
-2343.05 -369.904 3461
-2349.61 -372.256 3483
-2370.86 -376.958 3527
-2367.11 -377.706 3534
-2358.66 -377.706 3534
-2365.51 -380.165 3557
-2377.54 -383.478 3588
-2394.71 -387.646 3627
-2386.04 -387.646 3627
-2377.37 -387.646 3627
-2373.92 -388.501 3635
-2380.19 -390.959 3658
-2371.44 -390.959 3658
-2421.47 -400.685 3749
-2412.51 -400.685 3749
-2403.54 -400.685 3749
-2394.58 -400.685 3749
-2348.71 -394.486 3691
-2329.74 -392.776 3675
-2356.95 -398.868 3732
-2348.02 -398.868 3732
-2339.1 -398.868 3732
-2330.17 -398.868 3732
-2321.25 -398.868 3732
-730.249 -187.464 1754
-726.054 -187.464 1754
-721.86 -187.464 1754
-717.666 -187.464 1754
-712.658 -187.25 1752
-708.468 -187.25 1752
-702.269 -186.716 1747
-695.694 -186.074 1741
-691.133 -185.967 1740
-686.972 -185.967 1740
-682.027 -185.754 1738
-677.871 -185.754 1738
-673.714 -185.754 1738
-669.558 -185.754 1738
-663.871 -185.326 1734
-658.963 -185.112 1732
-653.687 -184.792 1729
-648.802 -184.578 1727
-644.672 -184.578 1727
-640.542 -184.578 1727
-636.412 -184.578 1727
-633.015 -184.792 1729
-629.971 -185.112 1732
-625.83 -185.112 1732
-622.406 -185.326 1734
-618.259 -185.326 1734
-615.529 -185.754 1738
-611.373 -185.754 1738
-607.217 -185.754 1738
-603.061 -185.754 1738
-599.594 -185.967 1740
-595.433 -185.967 1740
-591.272 -185.967 1740
-587.112 -185.967 1740
-582.951 -185.967 1740
-578.79 -185.967 1740
-574.629 -185.967 1740
-570.468 -185.967 1740
-566.307 -185.967 1740
-561.5 -185.754 1738
-556.703 -185.54 1736
-551.915 -185.326 1734
-547.768 -185.326 1734
-542.995 -185.112 1732
-538.542 -185.006 1731
-532.55 -184.364 1725
-528.425 -184.364 1725
-522.781 -183.83 1720
-517.461 -183.402 1716
-512.46 -183.082 1713
-508.364 -183.082 1713
-503.679 -182.868 1711
-498.711 -182.547 1708
-494.048 -182.334 1706
-489.394 -182.12 1704
-485.319 -182.12 1704
-480.68 -181.906 1702
-476.33 -181.799 1701
-472.262 -181.799 1701
-468.194 -181.799 1701
-463.581 -181.585 1699
-459.518 -181.585 1699
-454.919 -181.372 1697
-450.861 -181.372 1697
-446.803 -181.372 1697
-442.223 -181.158 1695
-438.17 -181.158 1695
-434.117 -181.158 1695
-430.064 -181.158 1695
-425.759 -181.051 1694
-421.21 -180.837 1692
-417.164 -180.837 1692
-413.118 -180.837 1692
-409.072 -180.837 1692
-405.026 -180.837 1692
-400.98 -180.837 1692
-396.934 -180.837 1692
-393.584 -181.158 1695
-389.991 -181.372 1697
-386.387 -181.585 1699
-382.325 -181.585 1699
-378.262 -181.585 1699
-374.199 -181.585 1699
-370.136 -181.585 1699
-366.073 -181.585 1699
-362.437 -181.799 1701
-358.58 -181.906 1702
-354.51 -181.906 1702
-350.44 -181.906 1702
-346.37 -181.906 1702
-342.702 -182.12 1704
-338.627 -182.12 1704
-334.552 -182.12 1704
-330.478 -182.12 1704
-326.403 -182.12 1704
-322.328 -182.12 1704
-318.253 -182.12 1704
-314.178 -182.12 1704
-310.104 -182.12 1704
-306.029 -182.12 1704
-301.954 -182.12 1704
-297.879 -182.12 1704
-293.805 -182.12 1704
-289.73 -182.12 1704
-285.655 -182.12 1704
-281.58 -182.12 1704
-277.831 -182.334 1706
-273.752 -182.334 1706
-269.988 -182.547 1708
-265.904 -182.547 1708
-261.973 -182.654 1709
-257.886 -182.654 1709
-254.096 -182.868 1711
-250.005 -182.868 1711
-246.488 -183.296 1715
-242.387 -183.296 1715
-238.981 -183.83 1720
-234.868 -183.83 1720
-231.023 -184.044 1722
-227.3 -184.364 1725
-223.952 -185.006 1731
-219.812 -185.006 1731
-215.798 -185.112 1732
-212.145 -185.54 1736
-208.592 -186.074 1741
-204.429 -186.074 1741
-200.496 -186.288 1743
-197.342 -187.25 1752
-194.034 -188.105 1760
-189.825 -188.105 1760
-186.144 -188.639 1765
-183.676 -190.456 1782
-180.824 -191.953 1796
-176.529 -191.953 1796
-172.618 -192.38 1800
-168.781 -192.915 1805
-165.376 -193.983 1815
-161.036 -193.983 1815
-157.386 -194.838 1823
-153.53 -195.48 1829
-149.809 -196.335 1837
-145.416 -196.335 1837
-141.484 -196.976 1843
-137.746 -197.938 1852
-133.894 -198.793 1860
-129.446 -198.793 1860
-125.401 -199.434 1866
-121.069 -199.648 1868
-116.726 -199.862 1870
-112.255 -199.862 1870
-107.898 -200.075 1872
-103.532 -200.289 1874
-99.2095 -200.61 1877
-94.721 -200.61 1877
-90.3286 -200.824 1879
-86.0181 -201.251 1883
-81.5153 -201.251 1883
-77.0125 -201.251 1883
-72.5096 -201.251 1883
-106.363 -392.776 3675
-98.4245 -396.196 3707
-89.56 -396.196 3707
-80.8913 -397.158 3716
-72.0052 -397.158 3716
-63.3909 -398.868 3732
-54.4666 -398.868 3732
-45.5423 -398.868 3732
-36.6179 -398.868 3732
-27.6936 -398.868 3732
-18.7692 -398.868 3732
-9.84488 -398.868 3732
-0.920541 -398.868 3732
8.02096 -399.723 3740
17.0053 -400.685 3749
25.9703 -400.685 3749
34.9352 -400.685 3749
43.9002 -400.685 3749
52.8652 -400.685 3749
61.8302 -400.685 3749
70.6253 -399.723 3740
79.5687 -399.723 3740
88.5122 -399.723 3740
97.0388 -398.013 3724
105.46 -396.196 3707
114.078 -395.341 3699
122.924 -395.341 3699
131.769 -395.341 3699
140.31 -394.486 3691
149.137 -394.486 3691
157.963 -394.486 3691
166.066 -392.776 3675
174.854 -392.776 3675
183.642 -392.776 3675
192.43 -392.776 3675
199.85 -390.104 3650
208.578 -390.104 3650
217.782 -390.959 3658
226.53 -390.959 3658
235.277 -390.959 3658
244.025 -390.959 3658
252.219 -390.104 3650
260.947 -390.104 3650
269.676 -390.104 3650
278.404 -390.104 3650
287.132 -390.104 3650
295.86 -390.104 3650
305.256 -390.959 3658
314.004 -390.959 3658
322.751 -390.959 3658
330.773 -390.104 3650
339.502 -390.104 3650
347.467 -389.249 3642
356.176 -389.249 3642
364.885 -389.249 3642
373.594 -389.249 3642
382.303 -389.249 3642
390.261 -388.501 3635
398.953 -388.501 3635
407.646 -388.501 3635
416.338 -388.501 3635
425.03 -388.501 3635
434.558 -389.249 3642
444.241 -390.104 3650
453.962 -390.959 3658
462.709 -390.959 3658
472.617 -391.921 3667
484.536 -394.486 3691
494.432 -395.341 3699
503.277 -395.341 3699
513.23 -396.196 3707
526.742 -399.723 3740
538.121 -401.54 3757
547.105 -401.54 3757
557.421 -402.502 3766
584.927 -415.648 3889
595.602 -416.61 3898
604.923 -416.61 3898
618.499 -419.496 3925
630.924 -421.526 3944
640.356 -421.526 3944
649.787 -421.526 3944
657.714 -420.564 3935
1057.74 -422.488 3953
1069.89 -423.557 3963
1079.37 -423.557 3963
1088.85 -423.557 3963
1090.56 -420.564 3935
1089.63 -416.61 3898
1098.95 -416.61 3898
1105.71 -415.648 3889
1109.85 -413.724 3871
1111.3 -410.839 3844
1120.5 -410.839 3844
1129.69 -410.839 3844
1152.21 -415.648 3889
1166.89 -417.572 3907
1178.94 -418.534 3916
1188.31 -418.534 3916
1197.67 -418.534 3916
1218.44 -422.488 3953
1231 -423.557 3963
1243.29 -424.519 3972
1252.79 -424.519 3972
1268.33 -426.55 3991
1277.87 -426.55 3991
1290.64 -427.618 4001
1300.21 -427.618 4001
1309.77 -427.618 4001
1335.17 -432.749 4049
1344.85 -432.749 4049
1354.54 -432.749 4049
1364.22 -432.749 4049
1370.51 -431.68 4039
1380.17 -431.68 4039
1389.82 -431.68 4039
1399.48 -431.68 4039
1409.14 -431.68 4039
1425.82 -433.817 4059
1435.53 -433.817 4059
1452.36 -435.955 4079
1462.11 -435.955 4079
1471.87 -435.955 4079
1477.99 -434.886 4069
1487.72 -434.886 4069
1520.64 -435.955 4079
1530.39 -435.955 4079
1540.15 -435.955 4079
1759.04 -437.024 4089
1768.82 -437.024 4089
1778.59 -437.024 4089
1770.88 -432.749 4049
1776.16 -431.68 4039
1785.82 -431.68 4039
1782.59 -428.58 4010
1809.61 -432.749 4049
1828.28 -434.886 4069
1847.04 -437.024 4089
1856.82 -437.024 4089
1866.6 -437.024 4089
2442.6 -431.68 4039
2452.26 -431.68 4039
2461.91 -431.68 4039
2466.07 -430.718 4030
2475.7 -430.718 4030
2479.17 -429.649 4020
2465.26 -425.588 3982
2456.76 -422.488 3953
2466.21 -422.488 3953
2475.66 -422.488 3953
2479.46 -421.526 3944
2483.21 -420.564 3935
2492.62 -420.564 3935
2478.5 -416.61 3898
2482.08 -415.648 3889
2456.79 -409.877 3835
2438.31 -405.281 3792
2475.13 -409.877 3835
2484.3 -409.877 3835
2505.17 -411.8 3853
2514.39 -411.8 3853
2523.6 -411.8 3853
2532.81 -411.8 3853
2547.97 -412.762 3862
2557.2 -412.762 3862
2566.44 -412.762 3862
2575.67 -412.762 3862
2566.84 -409.877 3835
2576.01 -409.877 3835
2585.18 -409.877 3835
2594.35 -409.877 3835
2603.52 -409.877 3835
2612.69 -409.877 3835
2621.86 -409.877 3835
2624.86 -408.915 3826
2610.6 -405.281 3792
2637.63 -408.06 3818
2677.26 -412.762 3862
2686.49 -412.762 3862
2695.73 -412.762 3862
2704.96 -412.762 3862
2701.55 -410.839 3844
2710.74 -410.839 3844
2707.2 -408.915 3826
2716.35 -408.915 3826
2725.5 -408.915 3826
2747.51 -410.839 3844
2756.7 -410.839 3844
2765.89 -410.839 3844
2801.08 -414.686 3880
2823.39 -416.61 3898
2852.33 -419.496 3925
2861.72 -419.496 3925
2871.11 -419.496 3925
2880.49 -419.496 3925
2938.47 -426.55 3991
2948.02 -426.55 3991
2957.56 -426.55 3991
2967.1 -426.55 3991
2976.65 -426.55 3991
2965.24 -423.557 3963
2946.19 -419.496 3925
2955.58 -419.496 3925
2964.97 -419.496 3925
2967.53 -418.534 3916
2956.37 -415.648 3889
2945.08 -412.762 3862
2954.32 -412.762 3862
-2392.5 -343.747 3290
-2384.63 -343.747 3290
-2376.76 -343.747 3290
-2368.9 -343.747 3290
-2361.03 -343.747 3290
-2348.87 -343.12 3284
-2341.02 -343.12 3284
-2342.4 -344.478 3297
-2348.68 -346.568 3317
-2340.74 -346.568 3317
-2332.81 -346.568 3317
-2324.88 -346.568 3317
-2316.95 -346.568 3317
-2286.04 -343.12 3284
-2274.03 -342.493 3278
-2302.14 -347.926 3330
-2326.56 -352.837 3377
-2318.48 -352.837 3377
-2310.41 -352.837 3377
-2326.19 -356.494 3412
-2337.06 -359.419 3440
-2328.83 -359.419 3440
-2354.33 -364.643 3490
-2366.15 -367.778 3520
-2362.43 -368.509 3527
-2353.99 -368.509 3527
-2370.83 -372.48 3565
-2377.54 -374.883 3588
-2394.71 -378.958 3627
-2386.04 -378.958 3627
-2387.2 -380.525 3642
-2388.94 -382.196 3658
-2380.19 -382.196 3658
-2430.44 -391.704 3749
-2449.25 -396.197 3792
-2462.06 -399.75 3826
-2452.91 -399.75 3826
-2443.76 -399.75 3826
-2412.98 -396.197 3792
-2403.91 -396.197 3792
-2356.95 -389.928 3732
-2363.75 -392.54 3757
-2360.41 -393.481 3766
-2351.4 -393.481 3766
-2342.4 -393.481 3766
-730.249 -183.262 1754
-726.054 -183.262 1754
-721.86 -183.262 1754
-717.666 -183.262 1754
-711.438 -182.74 1749
-707.255 -182.74 1749
-700.661 -182.113 1743
-695.294 -181.799 1740
-690.339 -181.59 1738
-686.183 -181.59 1738
-682.027 -181.59 1738
-677.871 -181.59 1738
-672.939 -181.381 1736
-668.788 -181.381 1736
-663.871 -181.172 1734
-658.963 -180.963 1732
-653.687 -180.65 1729
-648.802 -180.441 1727
-644.672 -180.441 1727
-640.542 -180.441 1727
-636.412 -180.441 1727
-633.747 -180.859 1731
-629.971 -180.963 1732
-625.83 -180.963 1732
-622.406 -181.172 1734
-618.972 -181.381 1736
-615.529 -181.59 1738
-611.373 -181.59 1738
-607.217 -181.59 1738
-603.061 -181.59 1738
-599.594 -181.799 1740
-595.433 -181.799 1740
-591.272 -181.799 1740
-587.112 -181.799 1740
-582.951 -181.799 1740
-578.79 -181.799 1740
-574.629 -181.799 1740
-570.468 -181.799 1740
-566.307 -181.799 1740
-561.5 -181.59 1738
-557.344 -181.59 1738
-552.551 -181.381 1736
-548.4 -181.381 1736
-542.995 -180.963 1732
-538.542 -180.859 1731
-532.55 -180.232 1725
-528.425 -180.232 1725
-522.781 -179.71 1720
-517.461 -179.292 1716
-512.46 -178.978 1713
-508.364 -178.978 1713
-503.679 -178.769 1711
-498.711 -178.456 1708
-494.048 -178.247 1706
-489.394 -178.038 1704
-485.319 -178.038 1704
-480.68 -177.829 1702
-476.33 -177.725 1701
-471.707 -177.516 1699
-467.644 -177.516 1699
-463.581 -177.516 1699
-458.977 -177.307 1697
-454.919 -177.307 1697
-450.861 -177.307 1697
-446.803 -177.307 1697
-442.223 -177.098 1695
-437.912 -176.993 1694
-433.861 -176.993 1694
-429.81 -176.993 1694
-425.256 -176.784 1692
-421.21 -176.784 1692
-417.164 -176.784 1692
-413.118 -176.784 1692
-409.072 -176.784 1692
-405.026 -176.784 1692
-401.454 -176.993 1694
-397.403 -176.993 1694
-393.584 -177.098 1695
-389.991 -177.307 1697
-386.387 -177.516 1699
-382.325 -177.516 1699
-378.262 -177.516 1699
-374.199 -177.516 1699
-370.136 -177.516 1699
-366.073 -177.516 1699
-362.437 -177.725 1701
-358.369 -177.725 1701
-354.51 -177.829 1702
-350.44 -177.829 1702
-346.37 -177.829 1702
-342.3 -177.829 1702
-338.627 -178.038 1704
-334.552 -178.038 1704
-330.478 -178.038 1704
-326.02 -177.829 1702
-321.95 -177.829 1702
-318.253 -178.038 1704
-314.178 -178.038 1704
-310.104 -178.038 1704
-305.67 -177.829 1702
-301.6 -177.829 1702
-297.53 -177.829 1702
-293.805 -178.038 1704
-289.73 -178.038 1704
-285.655 -178.038 1704
-281.58 -178.038 1704
-277.831 -178.247 1706
-273.752 -178.247 1706
-269.988 -178.456 1708
-265.904 -178.456 1708
-261.819 -178.456 1708
-257.886 -178.56 1709
-254.096 -178.769 1711
-250.005 -178.769 1711
-246.201 -178.978 1713
-242.387 -179.187 1715
-238.981 -179.71 1720
-234.868 -179.71 1720
-231.023 -179.919 1722
-227.3 -180.232 1725
-223.952 -180.859 1731
-219.812 -180.859 1731
-215.798 -180.963 1732
-212.145 -181.381 1736
-208.592 -181.904 1741
-204.429 -181.904 1741
-200.496 -182.113 1743
-197.342 -183.053 1752
-193.814 -183.68 1758
-189.61 -183.68 1758
-186.144 -184.411 1765
-183.676 -186.188 1782
-180.824 -187.65 1796
-176.529 -187.65 1796
-172.618 -188.068 1800
-168.781 -188.591 1805
-165.376 -189.635 1815
-161.036 -189.635 1815
-157.213 -190.262 1821
-153.53 -191.098 1829
-149.809 -191.934 1837
-145.416 -191.934 1837
-141.484 -192.561 1843
-137.598 -193.292 1850
-133.75 -194.128 1858
-129.306 -194.128 1858
-125.132 -194.546 1862
-120.939 -194.964 1866
-116.726 -195.382 1870
-112.255 -195.382 1870
-107.898 -195.591 1872
-103.698 -196.113 1877
-99.2095 -196.113 1877
-94.721 -196.113 1877
-90.3286 -196.322 1879
-86.0181 -196.74 1883
-81.5153 -196.74 1883
-77.0125 -196.74 1883
-72.5096 -196.74 1883
-106.363 -383.973 3675
-97.7873 -384.809 3683
-88.9801 -384.809 3683
-80.6954 -387.316 3707
-72.0052 -388.256 3716
-63.1192 -388.256 3716
-54.2331 -388.256 3716
-45.347 -388.256 3716
-36.3726 -387.316 3707
-27.5081 -387.316 3707
-18.6435 -387.316 3707
-9.75783 -386.48 3699
-0.912401 -386.48 3699
7.93303 -386.48 3699
16.7785 -386.48 3699
25.6239 -386.48 3699
34.5439 -387.316 3707
43.4084 -387.316 3707
52.273 -387.316 3707
61.1376 -387.316 3707
70.0021 -387.316 3707
78.6965 -386.48 3699
87.5419 -386.48 3699
96.3873 -386.48 3699
105.233 -386.48 3699
113.831 -385.644 3691
122.658 -385.644 3691
131.199 -384.809 3683
139.702 -383.973 3675
148.167 -383.137 3667
156.936 -383.137 3667
165.298 -382.196 3658
173.665 -381.361 3650
182.393 -381.361 3650
191.121 -381.361 3650
199.85 -381.361 3650
208.578 -381.361 3650
217.306 -381.361 3650
226.034 -381.361 3650
234.763 -381.361 3650
242.957 -380.525 3642
251.666 -380.525 3642
260.375 -380.525 3642
269.085 -380.525 3642
277.794 -380.525 3642
286.503 -380.525 3642
295.86 -381.361 3650
304.589 -381.361 3650
313.317 -381.361 3650
322.045 -381.361 3650
330.048 -380.525 3642
338.758 -380.525 3642
347.467 -380.525 3642
356.176 -380.525 3642
364.885 -380.525 3642
373.594 -380.525 3642
381.568 -379.793 3635
390.261 -379.793 3635
398.075 -378.958 3627
406.748 -378.958 3627
416.338 -379.793 3635
425.03 -379.793 3635
434.558 -380.525 3642
443.267 -380.525 3642
452.969 -381.361 3650
461.697 -381.361 3650
471.457 -382.196 3658
483.486 -384.809 3683
493.362 -385.644 3691
502.189 -385.644 3691
512.123 -386.48 3699
526.742 -390.764 3740
538.121 -392.54 3757
547.105 -392.54 3757
557.421 -393.481 3766
575.451 -399.75 3826
594.227 -406.332 3889
603.526 -406.332 3889
612.826 -406.332 3889
620.686 -405.392 3880
629.964 -405.392 3880
639.243 -405.392 3880
648.521 -405.392 3880
1057.74 -413.019 3953
1069.89 -414.064 3963
1079.37 -414.064 3963
1088.85 -414.064 3963
1090.56 -411.138 3935
1089.63 -407.272 3898
1098.95 -407.272 3898
1105.71 -406.332 3889
1109.85 -404.451 3871
1111.3 -401.63 3844
1120.5 -401.63 3844
1129.69 -401.63 3844
1149.55 -405.392 3880
1166.89 -408.213 3907
1176.23 -408.213 3907
1185.57 -408.213 3907
1194.92 -408.213 3907
1207.03 -409.153 3916
1231 -414.064 3963
1240.47 -414.064 3963
1249.95 -414.064 3963
1262.29 -415.004 3972
1277.87 -416.989 3991
1290.64 -418.034 4001
1300.21 -418.034 4001
1309.77 -418.034 4001
1335.17 -423.049 4049
1344.85 -423.049 4049
1354.54 -423.049 4049
1364.22 -423.049 4049
1370.51 -422.004 4039
1380.17 -422.004 4039
1389.82 -422.004 4039
1406.41 -424.094 4059
1416.12 -424.094 4059
1432.85 -426.184 4079
1442.6 -426.184 4079
1452.36 -426.184 4079
1462.11 -426.184 4079
1471.87 -426.184 4079
1759.04 -427.228 4089
1768.82 -427.228 4089
1778.59 -427.228 4089
1770.88 -423.049 4049
1763.41 -418.974 4010
1773 -418.974 4010
1782.59 -418.974 4010
1801.12 -421.064 4030
1828.28 -425.139 4069
1847.04 -427.228 4089
1856.82 -427.228 4089
1866.6 -427.228 4089
2451.01 -425.139 4069
2460.74 -425.139 4069
2470.47 -425.139 4069
2468.01 -423.049 4049
2459.95 -420.019 4020
2469.56 -420.019 4020
2479.17 -420.019 4020
2465.26 -416.049 3982
2456.76 -413.019 3953
2466.21 -413.019 3953
2475.66 -413.019 3953
2479.46 -412.078 3944
2483.21 -411.138 3935
2492.62 -411.138 3935
2484.23 -408.213 3907
2482.08 -406.332 3889
2456.79 -400.69 3835
2438.31 -396.197 3792
2475.13 -400.69 3835
2484.3 -400.69 3835
2505.17 -402.571 3853
2514.39 -402.571 3853
2523.6 -402.571 3853
2532.81 -402.571 3853
2547.97 -403.511 3862
2557.2 -403.511 3862
2566.44 -403.511 3862
2575.67 -403.511 3862
2566.84 -400.69 3835
2576.01 -400.69 3835
2585.18 -400.69 3835
2594.35 -400.69 3835
2603.52 -400.69 3835
2612.69 -400.69 3835
2621.86 -400.69 3835
2624.86 -399.75 3826
2616.1 -397.033 3800
2637.63 -398.914 3818
2677.26 -403.511 3862
2686.49 -403.511 3862
2695.73 -403.511 3862
2704.96 -403.511 3862
2701.55 -401.63 3844
2710.74 -401.63 3844
2713.57 -400.69 3835
2716.35 -399.75 3826
2725.5 -399.75 3826
2741.08 -400.69 3835
2750.25 -400.69 3835
2759.42 -400.69 3835
2788.08 -403.511 3862
2810.35 -405.392 3880
2826.17 -406.332 3889
2835.47 -406.332 3889
2844.77 -406.332 3889
2867.28 -408.213 3907
2910.49 -413.019 3953
2919.95 -413.019 3953
2936.81 -414.064 3963
2946.29 -414.064 3963
2955.76 -414.064 3963
2957.76 -413.019 3953
2939.44 -409.153 3916
2942.02 -408.213 3907
2951.37 -408.213 3907
2947.07 -406.332 3889
2922.16 -401.63 3844
2931.35 -401.63 3844
2940.55 -401.63 3844
-2392.5 -335.866 3290
-2384.63 -335.866 3290
-2376.76 -335.866 3290
-2368.9 -335.866 3290
-2361.03 -335.866 3290
-2348.87 -335.253 3284
-2341.02 -335.253 3284
-2342.4 -336.58 3297
-2352.92 -339.235 3323
-2344.98 -339.235 3323
-2341.95 -339.949 3330
-2333.99 -339.949 3330
-2326.03 -339.949 3330
-2309.02 -338.622 3317
-2305.25 -339.235 3323
-2311.13 -341.276 3343
-2350.67 -348.32 3412
-2342.51 -348.32 3412
-2353.51 -351.179 3440
-2345.28 -351.179 3440
-2371.02 -356.283 3490
-2362.68 -356.283 3490
-2359.06 -356.998 3497
-2366.15 -359.346 3520
-2367.11 -360.775 3534
-2358.66 -360.775 3534
-2370.83 -363.94 3565
-2382.18 -367.002 3595
-2394.71 -370.269 3627
-2395.91 -371.8 3642
-2397.69 -373.434 3658
-2405.27 -375.986 3683
-2396.46 -375.986 3683
-2441.46 -384.459 3766
-2494.46 -394.259 3862
-2485.22 -394.259 3862
-2475.99 -394.259 3862
-2466.75 -394.259 3862
-2434.61 -390.584 3826
-2425.46 -390.584 3826
-2367.68 -382.724 3749
-2374.45 -385.276 3774
-2376.7 -387.113 3792
-2367.64 -387.113 3792
-2358.57 -387.113 3792
-729 -178.754 1751
-724.813 -178.754 1751
-720.625 -178.754 1751
-715.62 -178.55 1749
-709.81 -178.142 1745
-705.638 -178.142 1745
-699.455 -177.631 1740
-693.696 -177.223 1736
-689.544 -177.223 1736
-685.393 -177.223 1736
-681.242 -177.223 1736
-677.09 -177.223 1736
-672.939 -177.223 1736
-668.788 -177.223 1736
-663.871 -177.019 1734
-658.963 -176.814 1732
-652.931 -176.304 1727
-648.802 -176.304 1727
-644.672 -176.304 1727
-640.542 -176.304 1727
-637.149 -176.508 1729
-633.747 -176.712 1731
-630.699 -177.019 1734
-626.552 -177.019 1734
-622.406 -177.019 1734
-618.972 -177.223 1736
-615.529 -177.427 1738
-611.373 -177.427 1738
-607.217 -177.427 1738
-603.061 -177.427 1738
-599.594 -177.631 1740
-595.433 -177.631 1740
-591.272 -177.631 1740
-587.112 -177.631 1740
-582.951 -177.631 1740
-578.79 -177.631 1740
-574.629 -177.631 1740
-570.468 -177.631 1740
-566.307 -177.631 1740
-561.5 -177.427 1738
-557.344 -177.427 1738
-552.551 -177.223 1736
-548.4 -177.223 1736
-542.995 -176.814 1732
-538.542 -176.712 1731
-532.55 -176.1 1725
-528.425 -176.1 1725
-522.781 -175.589 1720
-517.461 -175.181 1716
-512.46 -174.875 1713
-508.364 -174.875 1713
-503.679 -174.671 1711
-498.711 -174.364 1708
-493.469 -173.956 1704
-489.394 -173.956 1704
-485.319 -173.956 1704
-480.68 -173.752 1702
-476.33 -173.65 1701
-471.707 -173.446 1699
-467.644 -173.446 1699
-463.035 -173.241 1697
-458.977 -173.241 1697
-454.919 -173.241 1697
-450.861 -173.241 1697
-446.277 -173.037 1695
-442.223 -173.037 1695
-437.912 -172.935 1694
-433.861 -172.935 1694
-429.81 -172.935 1694
-425.256 -172.731 1692
-421.21 -172.731 1692
-417.164 -172.731 1692
-413.118 -172.731 1692
-409.072 -172.731 1692
-405.026 -172.731 1692
-401.454 -172.935 1694
-397.403 -172.935 1694
-393.584 -173.037 1695
-389.991 -173.241 1697
-386.387 -173.446 1699
-382.325 -173.446 1699
-378.262 -173.446 1699
-374.199 -173.446 1699
-370.136 -173.446 1699
-366.073 -173.446 1699
-362.437 -173.65 1701
-358.369 -173.65 1701
-354.301 -173.65 1701
-350.234 -173.65 1701
-346.37 -173.752 1702
-342.3 -173.752 1702
-338.23 -173.752 1702
-334.16 -173.752 1702
-330.09 -173.752 1702
-326.02 -173.752 1702
-321.95 -173.752 1702
-317.88 -173.752 1702
-313.625 -173.65 1701
-309.558 -173.65 1701
-305.49 -173.65 1701
-301.422 -173.65 1701
-297.355 -173.65 1701
-293.46 -173.752 1702
-289.39 -173.752 1702
-285.655 -173.956 1704
-281.58 -173.956 1704
-277.505 -173.956 1704
-273.752 -174.16 1706
-269.672 -174.16 1706
-265.592 -174.16 1706
-261.819 -174.364 1708
-257.735 -174.364 1708
-254.096 -174.671 1711
-250.005 -174.671 1711
-246.201 -174.875 1713
-242.387 -175.079 1715
-238.981 -175.589 1720
-234.868 -175.589 1720
-231.023 -175.794 1722
-227.037 -175.896 1723
-223.434 -176.304 1727
-219.304 -176.304 1727
-215.673 -176.712 1731
-212.145 -177.223 1736
-208.473 -177.631 1740
-204.312 -177.631 1740
-200.266 -177.733 1741
-197.229 -178.754 1751
-193.814 -179.469 1758
-189.61 -179.469 1758
-185.933 -179.979 1763
-183.676 -181.919 1782
-180.824 -183.348 1796
-176.529 -183.348 1796
-172.618 -183.756 1800
-168.781 -184.267 1805
-165.376 -185.288 1815
-161.036 -185.288 1815
-157.213 -185.9 1821
-153.53 -186.717 1829
-149.809 -187.534 1837
-145.416 -187.534 1837
-141.331 -187.942 1841
-137.374 -188.554 1847
-133.606 -189.473 1856
-129.167 -189.473 1856
-125.132 -190.086 1862
-120.939 -190.494 1866
-116.726 -190.902 1870
-112.255 -190.902 1870
-107.898 -191.107 1872
-103.698 -191.617 1877
-99.2095 -191.617 1877
-94.721 -191.617 1877
-90.3286 -191.821 1879
-85.9268 -192.025 1881
-81.5153 -192.23 1883
-77.0125 -192.23 1883
-72.5096 -192.23 1883
-106.363 -375.169 3675
-97.5749 -375.169 3675
-88.7869 -375.169 3675
-80.3471 -376.803 3691
-71.6758 -377.619 3699
-62.9663 -378.436 3707
-54.1017 -378.436 3707
-45.2372 -378.436 3707
-36.2941 -377.619 3699
-27.3893 -376.803 3691
-18.563 -376.803 3691
-9.73673 -376.803 3691
-0.910428 -376.803 3691
7.93303 -377.619 3699
16.7785 -377.619 3699
25.6239 -377.619 3699
34.5439 -378.436 3707
43.4084 -378.436 3707
52.273 -378.436 3707
61.1376 -378.436 3707
70.0021 -378.436 3707
78.6965 -377.619 3699
87.5419 -377.619 3699
96.3873 -377.619 3699
105.005 -376.803 3691
113.585 -375.986 3683
122.392 -375.986 3683
130.914 -375.169 3675
139.398 -374.352 3667
147.803 -373.434 3658
156.551 -373.434 3658
165.298 -373.434 3658
173.665 -372.617 3650
182.393 -372.617 3650
191.121 -372.617 3650
199.85 -372.617 3650
208.578 -372.617 3650
217.306 -372.617 3650
226.034 -372.617 3650
234.763 -372.617 3650
243.491 -372.617 3650
251.666 -371.8 3642
260.375 -371.8 3642
269.085 -371.8 3642
277.794 -371.8 3642
285.952 -371.086 3635
295.212 -371.8 3642
303.921 -371.8 3642
312.63 -371.8 3642
321.339 -371.8 3642
330.048 -371.8 3642
338.758 -371.8 3642
346.799 -371.086 3635
355.491 -371.086 3635
364.184 -371.086 3635
372.876 -371.086 3635
381.568 -371.086 3635
389.402 -370.269 3627
397.197 -369.452 3619
405.851 -369.452 3619
415.422 -370.269 3627
424.095 -370.269 3627
433.723 -371.086 3635
442.415 -371.086 3635
451.976 -371.8 3642
460.685 -371.8 3642
470.426 -372.617 3650
481.385 -374.352 3667
492.293 -375.986 3683
501.1 -375.986 3683
511.015 -376.803 3691
524.489 -380.171 3724
535.686 -381.805 3740
544.629 -381.805 3740
556.089 -383.54 3757
568.984 -386.195 3783
585.975 -391.503 3835
595.146 -391.503 3835
604.317 -391.503 3835
620.686 -396.097 3880
629.964 -396.097 3880
639.243 -396.097 3880
1034.1 -401.712 3935
1043.51 -401.712 3935
1052.92 -401.712 3935
1067.19 -403.549 3953
1076.65 -403.549 3953
1086.1 -403.549 3953
1087.79 -400.691 3925
1089.63 -397.935 3898
1098.95 -397.935 3898
1105.71 -397.016 3889
1109.85 -395.178 3871
1111.3 -392.422 3844
1120.5 -392.422 3844
1127.04 -391.503 3835
1141.55 -393.341 3853
1158.82 -396.097 3880
1168.1 -396.097 3880
1177.38 -396.097 3880
1181.15 -394.259 3862
1201.49 -397.935 3898
1227.89 -403.549 3953
1237.34 -403.549 3953
1246.8 -403.549 3953
1259.43 -404.57 3963
1277.87 -407.429 3991
1290.64 -408.449 4001
1300.21 -408.449 4001
1309.77 -408.449 4001
1335.17 -413.35 4049
1344.85 -413.35 4049
1354.54 -413.35 4049
1364.22 -413.35 4049
1370.51 -412.329 4039
1380.17 -412.329 4039
1389.82 -412.329 4039
1406.41 -414.371 4059
1416.12 -414.371 4059
1432.85 -416.412 4079
1442.6 -416.412 4079
1452.36 -416.412 4079
1754.74 -416.412 4079
1764.49 -416.412 4079
1774.24 -416.412 4079
1762.57 -411.41 4030
1759.45 -408.449 4001
1769.02 -408.449 4001
1774.14 -407.429 3991
1792.18 -409.368 4010
1823.78 -414.371 4059
1842.52 -416.412 4079
1852.28 -416.412 4079
1862.03 -416.412 4079
2437.53 -416.412 4079
2447.28 -416.412 4079
2457.03 -416.412 4079
2460.74 -415.391 4069
2470.47 -415.391 4069
2468.01 -413.35 4049
2459.95 -410.389 4020
2469.56 -410.389 4020
2479.17 -410.389 4020
2465.26 -406.51 3982
2456.76 -403.549 3953
2466.21 -403.549 3953
2475.66 -403.549 3953
2479.46 -402.631 3944
2483.21 -401.712 3935
2492.62 -401.712 3935
2484.23 -398.853 3907
2482.08 -397.016 3889
2456.79 -391.503 3835
2438.31 -387.113 3792
2475.13 -391.503 3835
2484.3 -391.503 3835
2505.17 -393.341 3853
2514.39 -393.341 3853
2523.6 -393.341 3853
2532.81 -393.341 3853
2547.97 -394.259 3862
2557.2 -394.259 3862
2566.44 -394.259 3862
2575.67 -394.259 3862
2566.84 -391.503 3835
2576.01 -391.503 3835
2585.18 -391.503 3835
2594.35 -391.503 3835
2603.52 -391.503 3835
2612.69 -391.503 3835
2621.86 -391.503 3835
2624.86 -390.584 3826
2622.3 -388.849 3809
2637.63 -389.768 3818
2677.26 -394.259 3862
2686.49 -394.259 3862
2695.73 -394.259 3862
2704.96 -394.259 3862
2701.55 -392.422 3844
2710.74 -392.422 3844
2713.57 -391.503 3835
2716.35 -390.584 3826
2725.5 -390.584 3826
2741.08 -391.503 3835
2750.25 -391.503 3835
2759.42 -391.503 3835
2788.08 -394.259 3862
2810.35 -396.097 3880
2826.17 -397.016 3889
2835.47 -397.016 3889
2844.77 -397.016 3889
2867.28 -398.853 3907
2910.49 -403.549 3953
2919.95 -403.549 3953
2936.81 -404.57 3963
2946.29 -404.57 3963
2955.76 -404.57 3963
2957.76 -403.549 3953
2939.44 -399.772 3916
2942.02 -398.853 3907
2951.37 -398.853 3907
2947.07 -397.016 3889
2922.16 -392.422 3844
2931.35 -392.422 3844
2940.55 -392.422 3844
-2392.5 -327.985 3290
-2384.63 -327.985 3290
-2376.76 -327.985 3290
-2368.9 -327.985 3290
-2361.03 -327.985 3290
-2348.87 -327.386 3284
-2341.02 -327.386 3284
-2342.4 -328.682 3297
-2352.92 -331.274 3323
-2344.98 -331.274 3323
-2341.95 -331.972 3330
-2333.99 -331.972 3330
-2326.03 -331.972 3330
-2309.02 -330.676 3317
-2305.25 -331.274 3323
-2324.95 -335.262 3363
-2369.96 -342.938 3440
-2361.73 -342.938 3440
-2358.3 -343.636 3447
-2350.05 -343.636 3447
-2371.02 -347.923 3490
-2362.68 -347.923 3490
-2364.45 -349.418 3505
-2366.15 -350.914 3520
-2367.11 -352.309 3534
-2358.66 -352.309 3534
-2370.83 -355.4 3565
-2382.18 -358.39 3595
-2394.71 -361.581 3627
-2395.91 -363.076 3642
-2414.07 -367.163 3683
-2432.04 -371.251 3724
-2423.14 -371.251 3724
-2452.48 -377.132 3783
-2500.27 -385.905 3871
-2496.81 -386.802 3880
-2487.53 -386.802 3880
-2478.25 -386.802 3880
-2440.34 -382.316 3835
-2431.17 -382.316 3835
-2367.68 -373.743 3749
-2385.77 -378.03 3792
-2376.7 -378.03 3792
-2367.64 -378.03 3792
-2358.57 -378.03 3792
-729 -174.56 1751
-724.813 -174.56 1751
-720.625 -174.56 1751
-715.62 -174.36 1749
-709.81 -173.961 1745
-705.638 -173.961 1745
-699.455 -173.463 1740
-693.696 -173.064 1736
-689.544 -173.064 1736
-685.393 -173.064 1736
-681.242 -173.064 1736
-677.09 -173.064 1736
-672.939 -173.064 1736
-668.788 -173.064 1736
-663.871 -172.865 1734
-658.963 -172.665 1732
-652.931 -172.167 1727
-648.802 -172.167 1727
-644.672 -172.167 1727
-640.542 -172.167 1727
-637.149 -172.366 1729
-633.747 -172.566 1731
-630.699 -172.865 1734
-626.552 -172.865 1734
-622.406 -172.865 1734
-618.972 -173.064 1736
-615.529 -173.264 1738
-611.373 -173.264 1738
-607.217 -173.264 1738
-603.061 -173.264 1738
-599.594 -173.463 1740
-595.433 -173.463 1740
-591.272 -173.463 1740
-587.112 -173.463 1740
-582.951 -173.463 1740
-578.79 -173.463 1740
-574.629 -173.463 1740
-570.468 -173.463 1740
-566.307 -173.463 1740
-561.5 -173.264 1738
-557.344 -173.264 1738
-552.551 -173.064 1736
-548.4 -173.064 1736
-542.995 -172.665 1732
-538.542 -172.566 1731
-532.55 -171.968 1725
-528.425 -171.968 1725
-522.781 -171.469 1720
-517.461 -171.07 1716
-512.46 -170.771 1713
-508.364 -170.771 1713
-503.679 -170.572 1711
-498.711 -170.273 1708
-493.469 -169.874 1704
-489.394 -169.874 1704
-485.319 -169.874 1704
-480.68 -169.675 1702
-476.33 -169.575 1701
-471.707 -169.376 1699
-467.644 -169.376 1699
-463.035 -169.176 1697
-458.977 -169.176 1697
-454.919 -169.176 1697
-450.861 -169.176 1697
-446.277 -168.977 1695
-442.223 -168.977 1695
-437.912 -168.877 1694
-433.861 -168.877 1694
-429.81 -168.877 1694
-425.256 -168.678 1692
-421.21 -168.678 1692
-417.164 -168.678 1692
-413.118 -168.678 1692
-409.072 -168.678 1692
-405.026 -168.678 1692
-401.454 -168.877 1694
-397.403 -168.877 1694
-393.584 -168.977 1695
-389.991 -169.176 1697
-386.387 -169.376 1699
-382.325 -169.376 1699
-378.262 -169.376 1699
-374.199 -169.376 1699
-370.136 -169.376 1699
-366.073 -169.376 1699
-362.437 -169.575 1701
-358.369 -169.575 1701
-354.301 -169.575 1701
-350.234 -169.575 1701
-346.37 -169.675 1702
-342.3 -169.675 1702
-338.23 -169.675 1702
-334.16 -169.675 1702
-330.09 -169.675 1702
-326.02 -169.675 1702
-321.95 -169.675 1702
-317.88 -169.675 1702
-313.625 -169.575 1701
-309.558 -169.575 1701
-305.49 -169.575 1701
-301.422 -169.575 1701
-297.355 -169.575 1701
-293.46 -169.675 1702
-289.39 -169.675 1702
-285.655 -169.874 1704
-281.58 -169.874 1704
-277.505 -169.874 1704
-273.752 -170.073 1706
-269.672 -170.073 1706
-265.592 -170.073 1706
-261.819 -170.273 1708
-257.886 -170.372 1709
-254.096 -170.572 1711
-250.005 -170.572 1711
-246.201 -170.771 1713
-242.387 -170.971 1715
-238.981 -171.469 1720
-234.868 -171.469 1720
-231.023 -171.668 1722
-227.037 -171.768 1723
-223.434 -172.167 1727
-219.304 -172.167 1727
-215.673 -172.566 1731
-212.145 -173.064 1736
-208.473 -173.463 1740
