-160.016 -318.293 1628
-156.123 -318.293 1628
-152.23 -318.293 1628
-148.61 -318.88 1631
-144.799 -319.075 1632
-140.896 -319.075 1632
-136.994 -319.075 1632
-133.091 -319.075 1632
-129.347 -319.466 1634
-125.593 -319.857 1636
-121.681 -319.857 1636
-117.985 -320.444 1639
-114.135 -320.639 1640
-110.213 -320.639 1640
-106.291 -320.639 1640
-102.37 -320.639 1640
-98.448 -320.639 1640
-94.5262 -320.639 1640
-119.068 -742.944 3800
-110.241 -744.704 3809
-101.133 -744.704 3809
-92.0243 -744.704 3809
-82.1539 -737.861 3774
-72.7997 -734.537 3757
-63.8156 -734.537 3757
-54.7147 -732.973 3749
-45.8473 -734.537 3757
-36.8632 -734.537 3757
-28.0052 -737.861 3774
-19.1112 -742.944 3800
-10.0243 -742.944 3800
-0.939534 -744.704 3809
8.16894 -744.704 3809
17.2774 -744.704 3809
26.3859 -744.704 3809
35.2521 -739.621 3783
44.193 -737.861 3774
53.2178 -737.861 3774
62.2425 -737.861 3774
71.7583 -742.944 3800
81.0367 -744.704 3809
90.1452 -744.704 3809
99.2537 -744.704 3809
108.618 -746.464 3818
119.105 -755.066 3862
128.639 -756.826 3871
137.896 -756.826 3871
147.153 -756.826 3871
156.41 -756.826 3871
166.822 -762.105 3898
176.143 -762.105 3898
185.465 -762.105 3898
194.786 -762.105 3898
204.107 -762.105 3898
211.95 -756.826 3871
222.75 -762.105 3898
233.678 -767.383 3925
244.798 -772.858 3953
254.251 -772.858 3953
264.971 -776.572 3972
275.783 -780.287 3991
285.326 -780.287 3991
294.87 -780.287 3991
303.727 -778.528 3982
318.52 -791.627 4049
331.445 -799.447 4089
341.223 -799.447 4089
351.001 -799.447 4089
359.897 -797.492 4079
369.651 -797.492 4079
379.405 -797.492 4079
389.159 -797.492 4079
395.979 -791.627 4049
402.756 -785.957 4020
412.369 -785.957 4020
416.944 -776.572 3972
422.469 -769.339 3935
429.794 -765.624 3916
442.298 -771.098 3944
451.73 -771.098 3944
461.161 -771.098 3944
470.592 -771.098 3944
480.023 -771.098 3944
489.455 -771.098 3944
498.886 -771.098 3944
509.477 -772.858 3953
522.737 -778.528 3982
532.259 -778.528 3982
544.367 -782.242 4001
553.934 -782.242 4001
563.502 -782.242 4001
1751.51 -791.627 4049
1761.2 -791.627 4049
1770.88 -791.627 4049
1780.56 -791.627 4049
1799.09 -795.537 4069
1808.82 -795.537 4069
1823.02 -797.492 4079
1832.77 -797.492 4079
1842.52 -797.492 4079
1852.28 -797.492 4079
1852.9 -793.582 4059
1858.02 -791.627 4049
1867.7 -791.627 4049
1872.75 -789.672 4039
1868.89 -784.002 4010
1874.26 -782.242 4001
1874.89 -778.528 3982
1884.41 -778.528 3982
1889.17 -776.572 3972
1880.98 -769.339 3935
2873.72 -753.307 3853
2882.93 -753.307 3853
2898.9 -755.066 3862
2928.47 -760.345 3889
2937.77 -760.345 3889
2947.07 -760.345 3889
2970.05 -763.864 3907
2979.4 -763.864 3907
2988.74 -763.864 3907
-714.475 -345.292 1788
-710.199 -345.292 1788
-705.923 -345.292 1788
-701.648 -345.292 1788
-695.032 -344.133 1782
-685.731 -341.623 1769
-681.501 -341.623 1769
-673.825 -339.884 1760
-666.573 -338.34 1752
-662.005 -338.146 1751
-657.818 -338.146 1751
-650.644 -336.602 1743
-646.476 -336.602 1743
-641.571 -336.215 1741
-637.042 -336.022 1740
-632.881 -336.022 1740
-626.552 -334.863 1734
-621.329 -334.284 1731
-615.763 -333.512 1727
-611.633 -333.512 1727
-606.097 -332.739 1723
-600.23 -331.774 1718
-595.427 -331.387 1716
-591.324 -331.387 1716
-585.509 -330.422 1711
-580.738 -330.036 1709
-574.964 -329.07 1704
-570.89 -329.07 1704
-566.15 -328.684 1702
-561.089 -328.104 1699
-555.715 -327.332 1695
-551.661 -327.332 1695
-545.993 -326.366 1690
-540.989 -325.787 1687
-535.682 -325.015 1683
-531.657 -325.015 1683
-526.692 -324.435 1680
-521.119 -323.47 1675
-516.497 -323.083 1673
-512.496 -323.083 1673
-508.495 -323.083 1673
-504.193 -322.89 1672
-499.596 -322.504 1670
-495.009 -322.118 1668
-491.021 -322.118 1668
-486.74 -321.925 1667
-482.175 -321.538 1665
-477.331 -320.959 1662
-473.357 -320.959 1662
-468.818 -320.573 1660
-464.008 -319.994 1657
-459.491 -319.607 1655
-455.533 -319.607 1655
-451.03 -319.221 1653
-446.806 -319.028 1652
-442.32 -318.642 1650
-438.374 -318.642 1650
-433.902 -318.255 1648
-429.7 -318.062 1647
-425.245 -317.676 1645
-421.311 -317.676 1645
-417.377 -317.676 1645
-412.69 -317.097 1642
-407.518 -316.131 1637
-403.604 -316.131 1637
-398.468 -315.166 1632
-394.566 -315.166 1632
-390.424 -314.973 1631
-386.05 -314.586 1629
-382.154 -314.586 1629
-378.259 -314.586 1629
-373.674 -314.007 1626
-369.331 -313.621 1624
-365.447 -313.621 1624
-361.341 -313.428 1623
-357.46 -313.428 1623
-353.579 -313.428 1623
-349.698 -313.428 1623
-345.817 -313.428 1623
-341.514 -313.041 1621
-337.43 -312.848 1620
-333.556 -312.848 1620
-329.682 -312.848 1620
-325.808 -312.848 1620
-321.934 -312.848 1620
-318.06 -312.848 1620
-314.186 -312.848 1620
-309.929 -312.462 1618
-306.06 -312.462 1618
-302.191 -312.462 1618
-298.322 -312.462 1618
-294.271 -312.269 1617
-290.404 -312.269 1617
-286.715 -312.462 1618
-282.845 -312.462 1618
-278.976 -312.462 1618
-275.617 -313.041 1621
-271.741 -313.041 1621
-267.865 -313.041 1621
-263.988 -313.041 1621
-260.112 -313.041 1621
-256.552 -313.428 1623
-252.671 -313.428 1623
-248.79 -313.428 1623
-244.607 -313.041 1621
-240.731 -313.041 1621
-237.147 -313.428 1623
-233.265 -313.428 1623
-229.526 -313.621 1624
-225.92 -314.007 1626
-222.032 -314.007 1626
-218.144 -314.007 1626
-214.255 -314.007 1626
-210.367 -314.007 1626
-206.479 -314.007 1626
-202.591 -314.007 1626
-198.702 -314.007 1626
-194.574 -313.621 1624
-190.691 -313.621 1624
-186.807 -313.621 1624
-182.924 -313.621 1624
-178.93 -313.428 1623
-175.049 -313.428 1623
-171.168 -313.428 1623
-167.39 -313.621 1624
-163.507 -313.621 1624
-160.016 -314.393 1628
-156.123 -314.393 1628
-152.23 -314.393 1628
-148.428 -314.586 1629
-144.71 -314.973 1631
-140.81 -314.973 1631
-136.91 -314.973 1631
-133.01 -314.973 1631
-129.189 -315.166 1632
-125.439 -315.552 1634
-121.532 -315.552 1634
-117.769 -315.938 1636
-114.065 -316.517 1639
-110.146 -316.517 1639
-106.227 -316.517 1639
-102.307 -316.517 1639
-98.3879 -316.517 1639
-94.4686 -316.517 1639
-119.882 -738.863 3826
-110.733 -738.863 3826
-101.584 -738.863 3826
-92.435 -738.863 3826
-83.1117 -737.318 3818
-73.4779 -732.297 3792
-64.4101 -732.297 3792
-55.2109 -730.559 3783
-46.1646 -730.559 3783
-37.2851 -733.841 3800
-28.1982 -733.841 3800
-19.2017 -737.318 3818
-10.0717 -737.318 3818
-0.948167 -742.339 3844
8.244 -742.339 3844
17.4362 -742.339 3844
26.4482 -737.318 3818
35.4944 -735.58 3809
44.4974 -733.841 3800
53.5844 -733.841 3800
62.6713 -733.841 3800
71.9283 -735.58 3809
81.0367 -735.58 3809
90.1452 -735.58 3809
99.2537 -735.58 3809
108.618 -737.318 3818
118.828 -744.077 3853
128.041 -744.077 3853
137.255 -744.077 3853
146.469 -744.077 3853
156.41 -747.553 3871
166.822 -752.767 3898
176.143 -752.767 3898
185.465 -752.767 3898
194.786 -752.767 3898
204.107 -752.767 3898
211.95 -747.553 3871
222.75 -752.767 3898
233.678 -757.981 3925
244.798 -763.388 3953
254.251 -763.388 3953
264.971 -767.057 3972
275.783 -770.727 3991
285.326 -770.727 3991
294.87 -770.727 3991
303.727 -768.989 3982
317.733 -779.996 4039
329.013 -783.859 4059
338.719 -783.859 4059
348.426 -783.859 4059
359.897 -787.721 4079
369.651 -787.721 4079
379.405 -787.721 4079
387.251 -783.859 4059
394.121 -778.258 4030
397.947 -767.057 3972
407.445 -767.057 3972
414.004 -761.65 3944
421.396 -757.981 3925
429.794 -756.243 3916
442.298 -761.65 3944
451.73 -761.65 3944
461.161 -761.65 3944
470.592 -761.65 3944
480.023 -761.65 3944
489.455 -761.65 3944
500.024 -763.388 3953
510.766 -765.319 3963
525.231 -772.658 4001
534.799 -772.658 4001
544.367 -772.658 4001
553.934 -772.658 4001
563.502 -772.658 4001
1760.16 -785.79 4069
1769.9 -785.79 4069
1779.63 -785.79 4069
1780.56 -781.927 4049
1790.24 -781.927 4049
1799.93 -781.927 4049
1814.08 -783.859 4059
1823.78 -783.859 4059
1833.49 -783.859 4059
1843.2 -783.859 4059
1852.9 -783.859 4059
1853.43 -779.996 4039
1863.09 -779.996 4039
1868.57 -778.258 4030
1864.7 -772.658 4001
1860.68 -767.057 3972
1856.99 -761.65 3944
1866.42 -761.65 3944
1871.58 -759.912 3935
1876.2 -757.981 3925
2918.04 -757.981 3925
2941.59 -761.65 3944
2951.02 -761.65 3944
2960.46 -761.65 3944
2969.89 -761.65 3944
2979.32 -761.65 3944
2988.75 -761.65 3944
3005.02 -763.388 3953
3014.47 -763.388 3953
3023.93 -763.388 3953
-716.073 -341.771 1792
-711.788 -341.771 1792
-707.503 -341.771 1792
-703.217 -341.771 1792
-695.812 -340.246 1784
-686.506 -337.766 1771
-682.271 -337.766 1771
-673.825 -335.668 1760
-668.095 -334.906 1756
-662.005 -333.952 1751
-657.818 -333.952 1751
-652.138 -333.189 1747
-646.476 -332.426 1743
-641.571 -332.045 1741
-637.042 -331.854 1740
-632.881 -331.854 1740
-625.83 -330.328 1732
-621.329 -330.137 1731
-615.763 -329.375 1727
-611.633 -329.375 1727
-606.097 -328.612 1723
-600.23 -327.658 1718
-595.427 -327.277 1716
-591.324 -327.277 1716
-585.509 -326.323 1711
-580.738 -325.942 1709
-574.964 -324.988 1704
-570.89 -324.988 1704
-565.817 -324.416 1701
-561.089 -324.034 1699
-555.715 -323.272 1695
-551.661 -323.272 1695
-545.993 -322.318 1690
-540.989 -321.746 1687
-535.682 -320.983 1683
-531.657 -320.983 1683
-526.692 -320.411 1680
-521.119 -319.457 1675
-516.497 -319.076 1673
-512.496 -319.076 1673
-508.495 -319.076 1673
-504.193 -318.885 1672
-499.596 -318.504 1670
-495.009 -318.122 1668
-491.021 -318.122 1668
-486.74 -317.931 1667
-482.175 -317.55 1665
-477.331 -316.978 1662
-473.357 -316.978 1662
-468.253 -316.215 1658
-464.008 -316.024 1657
-459.491 -315.643 1655
-455.533 -315.643 1655
-451.03 -315.261 1653
-446.806 -315.071 1652
-442.32 -314.689 1650
-438.374 -314.689 1650
-433.902 -314.308 1648
-429.7 -314.117 1647
-425.762 -314.117 1647
-421.823 -314.117 1647
-417.377 -313.736 1645
-412.69 -313.163 1642
-407.518 -312.21 1637
-403.604 -312.21 1637
-398.957 -311.638 1634
-394.566 -311.256 1632
-390.424 -311.065 1631
-386.524 -311.065 1631
-382.623 -311.065 1631
-378.259 -310.684 1629
-374.134 -310.493 1628
-369.786 -310.112 1626
-365.897 -310.112 1626
-361.564 -309.73 1624
-357.46 -309.54 1623
-353.579 -309.54 1623
-349.698 -309.54 1623
-345.817 -309.54 1623
-341.514 -309.158 1621
-337.638 -309.158 1621
-333.762 -309.158 1621
-329.886 -309.158 1621
-326.009 -309.158 1621
-321.934 -308.967 1620
-318.06 -308.967 1620
-314.186 -308.967 1620
-309.929 -308.586 1618
-306.06 -308.586 1618
-302.191 -308.586 1618
-298.322 -308.586 1618
-294.453 -308.586 1618
-290.584 -308.586 1618
-287.069 -308.967 1620
-283.195 -308.967 1620
-279.321 -308.967 1620
-275.617 -309.158 1621
-271.741 -309.158 1621
-268.195 -309.54 1623
-264.314 -309.54 1623
-260.433 -309.54 1623
-256.552 -309.54 1623
-252.671 -309.54 1623
-248.79 -309.54 1623
-244.909 -309.54 1623
-241.028 -309.54 1623
-237.147 -309.54 1623
-233.265 -309.54 1623
-229.526 -309.73 1624
-225.92 -310.112 1626
-222.032 -310.112 1626
-218.144 -310.112 1626
-214.255 -310.112 1626
-210.367 -310.112 1626
-206.479 -310.112 1626
-202.591 -310.112 1626
-198.702 -310.112 1626
-194.574 -309.73 1624
-190.691 -309.73 1624
-186.807 -309.73 1624
-182.924 -309.73 1624
-179.04 -309.73 1624
-175.157 -309.73 1624
-171.168 -309.54 1623
-167.39 -309.73 1624
-163.507 -309.73 1624
-160.016 -310.493 1628
-156.123 -310.493 1628
-152.23 -310.493 1628
-148.428 -310.684 1629
-144.71 -311.065 1631
-140.81 -311.065 1631
-136.91 -311.065 1631
-133.01 -311.065 1631
-129.189 -311.256 1632
-125.439 -311.638 1634
-121.532 -311.638 1634
-117.769 -312.019 1636
-114.065 -312.591 1639
-110.146 -312.591 1639
-106.227 -312.591 1639
-102.307 -312.591 1639
-98.3879 -312.591 1639
-94.4686 -312.591 1639
-121.856 -741.713 3889
-112.557 -741.713 3889
-103.257 -741.713 3889
-93.957 -741.713 3889
-83.6777 -733.13 3844
-73.9817 -728.172 3818
-64.8517 -728.172 3818
-55.459 -724.739 3800
-46.3721 -724.739 3800
-37.2851 -724.739 3800
-28.3317 -728.172 3818
-19.2017 -728.172 3818
-10.1641 -734.847 3853
-0.950387 -734.847 3853
8.2633 -734.847 3853
17.477 -734.847 3853
26.6283 -733.13 3844
35.7366 -731.414 3835
44.6028 -726.455 3809
53.7113 -726.455 3809
62.8198 -726.455 3809
71.9283 -726.455 3809
81.0367 -726.455 3809
90.1452 -726.455 3809
99.2537 -726.455 3809
108.618 -728.172 3818
118.828 -734.847 3853
128.041 -734.847 3853
137.255 -734.847 3853
146.469 -734.847 3853
156.41 -738.28 3871
166.822 -743.429 3898
176.143 -743.429 3898
185.465 -743.429 3898
194.786 -743.429 3898
204.107 -743.429 3898
211.95 -738.28 3871
222.75 -743.429 3898
233.678 -748.579 3925
244.798 -753.919 3953
254.251 -753.919 3953
264.971 -757.543 3972
275.783 -761.166 3991
285.326 -761.166 3991
294.87 -761.166 3991
303.727 -759.45 3982
317.733 -770.321 4039
329.013 -774.135 4059
338.719 -774.135 4059
348.426 -774.135 4059
359.897 -777.95 4079
369.651 -777.95 4079
379.405 -777.95 4079
387.251 -774.135 4059
394.121 -768.604 4030
397.947 -757.543 3972
407.445 -757.543 3972
414.004 -752.202 3944
421.396 -748.579 3925
429.794 -746.862 3916
442.298 -752.202 3944
451.73 -752.202 3944
461.161 -752.202 3944
470.592 -752.202 3944
480.023 -752.202 3944
489.455 -752.202 3944
500.024 -753.919 3953
510.766 -755.826 3963
525.231 -763.073 4001
534.799 -763.073 4001
544.367 -763.073 4001
553.934 -763.073 4001
563.502 -763.073 4001
1760.16 -776.042 4069
1769.9 -776.042 4069
1779.63 -776.042 4069
1780.56 -772.228 4049
1790.24 -772.228 4049
1799.93 -772.228 4049
1814.08 -774.135 4059
1823.78 -774.135 4059
1833.49 -774.135 4059
1843.2 -774.135 4059
1852.9 -774.135 4059
1853.43 -770.321 4039
1863.09 -770.321 4039
1868.57 -768.604 4030
1864.7 -763.073 4001
1860.68 -757.543 3972
1856.99 -752.202 3944
1866.42 -752.202 3944
1871.58 -750.486 3935
1876.2 -748.579 3925
2916.06 -750.486 3935
2925.47 -750.486 3935
2941.59 -752.202 3944
2951.02 -752.202 3944
2960.46 -752.202 3944
2984.19 -755.826 3963
2993.67 -755.826 3963
3003.15 -755.826 3963
3012.62 -755.826 3963
3036.59 -759.45 3982
3046.11 -759.45 3982
-720.069 -339.362 1802
-715.76 -339.362 1802
-711.451 -339.362 1802
-707.141 -339.362 1802
-698.932 -337.479 1792
-691.546 -335.972 1784
-687.28 -335.972 1784
-677.271 -333.147 1769
-668.855 -331.076 1758
-663.139 -330.322 1754
-658.945 -330.322 1754
-652.884 -329.381 1749
-647.96 -329.004 1747
-642.308 -328.251 1743
-637.042 -327.686 1740
-632.881 -327.686 1740
-625.83 -326.179 1732
-621.688 -326.179 1732
-615.763 -325.238 1727
-611.633 -325.238 1727
-606.097 -324.484 1723
-600.928 -323.919 1720
-595.427 -323.166 1716
-591.324 -323.166 1716
-586.194 -322.601 1713
-581.418 -322.224 1711
-575.639 -321.283 1706
-571.56 -321.283 1706
-566.15 -320.529 1702
-561.749 -320.341 1701
-555.715 -319.211 1695
-551.661 -319.211 1695
-546.639 -318.646 1692
-541.631 -318.081 1689
-535.682 -316.951 1683
-531.657 -316.951 1683
-527.633 -316.951 1683
-521.119 -315.445 1675
-517.114 -315.445 1675
-512.496 -315.068 1673
-508.495 -315.068 1673
-504.193 -314.88 1672
-499.596 -314.503 1670
-495.009 -314.126 1668
-491.021 -314.126 1668
-486.74 -313.938 1667
-482.175 -313.561 1665
-477.331 -312.996 1662
-473.357 -312.996 1662
-468.253 -312.243 1658
-464.008 -312.055 1657
-459.491 -311.678 1655
-455.533 -311.678 1655
-451.03 -311.302 1653
-446.806 -311.113 1652
-442.32 -310.737 1650
-438.374 -310.737 1650
-433.902 -310.36 1648
-429.7 -310.172 1647
-425.762 -310.172 1647
-421.823 -310.172 1647
-417.885 -310.172 1647
-413.192 -309.607 1644
-408.016 -308.665 1639
-404.097 -308.665 1639
-399.445 -308.1 1636
-395.049 -307.723 1634
-390.663 -307.347 1632
-386.524 -307.158 1631
-382.623 -307.158 1631
-378.723 -307.158 1631
-374.134 -306.593 1628
-370.241 -306.593 1628
-366.347 -306.593 1628
-362.009 -306.217 1626
-357.68 -305.84 1624
-353.797 -305.84 1624
-349.913 -305.84 1624
-345.817 -305.652 1623
-341.514 -305.275 1621
-337.638 -305.275 1621
-333.762 -305.275 1621
-329.886 -305.275 1621
-326.009 -305.275 1621
-321.934 -305.087 1620
-318.06 -305.087 1620
-314.186 -305.087 1620
-310.312 -305.087 1620
-306.06 -304.71 1618
-302.191 -304.71 1618
-298.322 -304.71 1618
-294.817 -305.087 1620
-290.943 -305.087 1620
-287.069 -305.087 1620
-283.195 -305.087 1620
-279.321 -305.087 1620
-275.617 -305.275 1621
-271.741 -305.275 1621
-268.195 -305.652 1623
-264.314 -305.652 1623
-260.433 -305.652 1623
-256.552 -305.652 1623
-252.671 -305.652 1623
-248.79 -305.652 1623
-244.909 -305.652 1623
-241.028 -305.652 1623
-237.293 -305.84 1624
-233.409 -305.84 1624
-229.808 -306.217 1626
-225.92 -306.217 1626
-222.032 -306.217 1626
-218.144 -306.217 1626
-214.255 -306.217 1626
-210.367 -306.217 1626
-206.479 -306.217 1626
-202.591 -306.217 1626
-198.702 -306.217 1626
-194.814 -306.217 1626
-190.926 -306.217 1626
-186.807 -305.84 1624
-182.924 -305.84 1624
-179.04 -305.84 1624
-175.157 -305.84 1624
-171.274 -305.84 1624
-167.39 -305.84 1624
-163.708 -306.217 1626
-160.016 -306.593 1628
-156.123 -306.593 1628
-152.23 -306.593 1628
-148.428 -306.782 1629
-144.533 -306.782 1629
-140.637 -306.782 1629
-136.742 -306.782 1629
-132.847 -306.782 1629
-129.109 -307.158 1631
-125.286 -307.347 1632
-121.383 -307.347 1632
-117.625 -307.723 1634
-113.857 -308.1 1636
-109.944 -308.1 1636
-106.032 -308.1 1636
-102.12 -308.1 1636
-98.2078 -308.1 1636
-94.2957 -308.1 1636
-122.42 -735.786 3907
-113.078 -735.786 3907
-103.735 -735.786 3907
-94.3919 -735.786 3907
-85.0491 -735.786 3907
-75.0087 -729.007 3871
-65.752 -729.007 3871
-56.1012 -723.922 3844
-46.909 -723.922 3844
-37.7168 -723.922 3844
-28.5915 -725.617 3853
-19.3778 -725.617 3853
-10.2353 -730.702 3880
-0.957047 -730.702 3880
8.32121 -730.702 3880
17.5995 -730.702 3880
26.8777 -730.702 3880
35.9044 -725.617 3853
45.0127 -723.922 3844
54.2048 -723.922 3844
63.397 -723.922 3844
71.9283 -717.331 3809
81.0367 -717.331 3809
90.1452 -717.331 3809
99.2537 -717.331 3809
108.618 -719.026 3818
118.272 -722.227 3835
127.443 -722.227 3835
136.614 -722.227 3835
146.127 -723.922 3844
155.682 -725.617 3853
166.437 -732.397 3889
175.737 -732.397 3889
185.036 -732.397 3889
194.336 -732.397 3889
203.636 -732.397 3889
211.95 -729.007 3871
222.75 -734.091 3898
232.607 -735.786 3907
243.064 -739.176 3925
252.45 -739.176 3925
264.371 -746.333 3963
274.47 -748.028 3972
283.968 -748.028 3972
293.466 -748.028 3972
302.964 -748.028 3972
313.249 -749.911 3982
328.202 -762.529 4049
338.719 -764.412 4059
348.426 -764.412 4059
358.132 -764.412 4059
367.838 -764.412 4059
377.544 -764.412 4059
384.484 -758.95 4030
390.307 -751.606 3991
395.142 -742.754 3944
404.573 -742.754 3944
412.01 -739.176 3925
420.43 -737.481 3916
429.794 -737.481 3916
440.167 -739.176 3925
449.553 -739.176 3925
461.161 -742.754 3944
470.592 -742.754 3944
480.023 -742.754 3944
489.455 -742.754 3944
500.024 -744.449 3953
510.766 -746.333 3963
525.231 -753.489 4001
534.799 -753.489 4001
544.367 -753.489 4001
553.934 -753.489 4001
563.502 -753.489 4001
1760.16 -766.295 4069
1769.9 -766.295 4069
1779.63 -766.295 4069
1772.21 -758.95 4030
1790.24 -762.529 4049
1799.93 -762.529 4049
1809.61 -762.529 4049
1819.29 -762.529 4049
1828.97 -762.529 4049
1838.65 -762.529 4049
1843.77 -760.645 4039
1849.3 -758.95 4030
1858.94 -758.95 4030
1863.94 -757.067 4020
1864.7 -753.489 4001
1856.46 -746.333 3963
1856.99 -742.754 3944
1866.42 -742.754 3944
1853.98 -734.091 3898
2916.06 -741.06 3935
2925.47 -741.06 3935
2941.59 -742.754 3944
2951.02 -742.754 3944
2960.46 -742.754 3944
2984.19 -746.333 3963
2993.67 -746.333 3963
3003.15 -746.333 3963
3012.62 -746.333 3963
3036.59 -749.911 3982
3046.11 -749.911 3982
-720.069 -335.045 1802
-715.76 -335.045 1802
-711.451 -335.045 1802
-707.141 -335.045 1802
-698.932 -333.186 1792
-691.546 -331.699 1784
-687.28 -331.699 1784
-677.271 -328.91 1769
-668.855 -326.864 1758
-663.139 -326.121 1754
-658.945 -326.121 1754
-652.884 -325.191 1749
-647.96 -324.819 1747
-642.308 -324.075 1743
-637.042 -323.518 1740
-632.881 -323.518 1740
-625.83 -322.03 1732
-621.688 -322.03 1732
-615.763 -321.101 1727
-611.633 -321.101 1727
-606.097 -320.357 1723
-600.928 -319.799 1720
-595.427 -319.055 1716
-591.324 -319.055 1716
-586.194 -318.497 1713
-581.418 -318.126 1711
-575.639 -317.196 1706
-571.56 -317.196 1706
-566.15 -316.452 1702
-561.749 -316.266 1701
-555.715 -315.151 1695
-551.661 -315.151 1695
-546.639 -314.593 1692
-541.631 -314.035 1689
-535.682 -312.92 1683
-531.657 -312.92 1683
-527.633 -312.92 1683
-521.119 -311.432 1675
-517.114 -311.432 1675
-512.496 -311.06 1673
-508.495 -311.06 1673
-504.193 -310.874 1672
-499.596 -310.503 1670
-494.713 -309.945 1667
-490.726 -309.945 1667
-486.156 -309.573 1665
-482.175 -309.573 1665
-476.757 -308.643 1660
-472.787 -308.643 1660
-468.253 -308.271 1658
-463.448 -307.714 1655
-459.491 -307.714 1655
-455.533 -307.714 1655
-451.03 -307.342 1653
-446.806 -307.156 1652
-442.32 -306.784 1650
-438.374 -306.784 1650
-433.902 -306.412 1648
-429.7 -306.226 1647
-425.762 -306.226 1647
-421.823 -306.226 1647
-417.885 -306.226 1647
-413.192 -305.668 1644
-408.016 -304.739 1639
-404.097 -304.739 1639
-399.445 -304.181 1636
-395.049 -303.809 1634
-390.663 -303.437 1632
-386.524 -303.251 1631
-382.623 -303.251 1631
-378.723 -303.251 1631
-374.134 -302.693 1628
-370.241 -302.693 1628
-366.347 -302.693 1628
-362.009 -302.322 1626
-357.68 -301.95 1624
-353.797 -301.95 1624
-349.913 -301.95 1624
-345.817 -301.764 1623
-341.514 -301.392 1621
-337.638 -301.392 1621
-333.762 -301.392 1621
-329.886 -301.392 1621
-326.009 -301.392 1621
-321.934 -301.206 1620
-318.06 -301.206 1620
-314.186 -301.206 1620
-310.312 -301.206 1620
-306.06 -300.834 1618
-302.191 -300.834 1618
-298.322 -300.834 1618
-294.817 -301.206 1620
-290.943 -301.206 1620
-287.069 -301.206 1620
-283.195 -301.206 1620
-279.321 -301.206 1620
-275.617 -301.392 1621
-271.741 -301.392 1621
-268.195 -301.764 1623
-264.314 -301.764 1623
-260.433 -301.764 1623
-256.552 -301.764 1623
-252.671 -301.764 1623
-248.79 -301.764 1623
-244.909 -301.764 1623
-241.028 -301.764 1623
-237.293 -301.95 1624
-233.409 -301.95 1624
-229.808 -302.322 1626
-225.92 -302.322 1626
-222.032 -302.322 1626
-218.144 -302.322 1626
-214.255 -302.322 1626
-210.367 -302.322 1626
-206.479 -302.322 1626
-202.591 -302.322 1626
-198.702 -302.322 1626
-194.814 -302.322 1626
-190.926 -302.322 1626
-186.807 -301.95 1624
-182.924 -301.95 1624
-179.04 -301.95 1624
-175.157 -301.95 1624
-171.274 -301.95 1624
-167.39 -301.95 1624
-163.708 -302.322 1626
-160.016 -302.693 1628
-156.123 -302.693 1628
-152.23 -302.693 1628
-148.428 -302.879 1629
-144.533 -302.879 1629
-140.637 -302.879 1629
-136.742 -302.879 1629
-132.847 -302.879 1629
-129.109 -303.251 1631
-125.209 -303.251 1631
-121.309 -303.251 1631
-117.409 -303.251 1631
-113.509 -303.251 1631
-109.608 -303.251 1631
-105.708 -303.251 1631
-101.808 -303.251 1631
-97.9077 -303.251 1631
-94.0075 -303.251 1631
-122.42 -726.427 3907
-113.078 -726.427 3907
-103.735 -726.427 3907
-94.3919 -726.427 3907
-85.0491 -726.427 3907
-75.0087 -719.734 3871
-65.752 -719.734 3871
-56.1012 -714.714 3844
-46.909 -714.714 3844
-37.7168 -714.714 3844
-28.5915 -716.387 3853
-19.3778 -716.387 3853
-10.2353 -721.407 3880
-0.957047 -721.407 3880
8.32121 -721.407 3880
17.5995 -721.407 3880
26.8777 -721.407 3880
35.9044 -716.387 3853
45.0127 -714.714 3844
54.2048 -714.714 3844
63.397 -714.714 3844
71.9283 -708.206 3809
81.0367 -708.206 3809
90.1452 -708.206 3809
99.2537 -708.206 3809
108.618 -709.879 3818
117.748 -709.879 3818
126.878 -709.879 3818
136.008 -709.879 3818
145.138 -709.879 3818
155.682 -716.387 3853
166.052 -721.407 3880
175.33 -721.407 3880
184.608 -721.407 3880
193.886 -721.407 3880
203.165 -721.407 3880
211.95 -719.734 3871
221.207 -719.734 3871
232.607 -726.427 3907
243.064 -729.774 3925
252.45 -729.774 3925
264.371 -736.839 3963
274.47 -738.513 3972
283.968 -738.513 3972
293.466 -738.513 3972
301.515 -734.98 3953
312.463 -738.513 3972
325.041 -745.578 4010
336.299 -749.297 4030
345.936 -749.297 4030
355.573 -749.297 4030
365.21 -749.297 4030
374.847 -749.297 4030
381.717 -743.905 4001
385.71 -733.307 3944
392.336 -728.101 3916
401.701 -728.101 3916
409.176 -724.754 3898
416.564 -721.407 3880
426.831 -723.08 3889
440.167 -729.774 3925
449.553 -729.774 3925
458.939 -729.774 3925
468.325 -729.774 3925
477.711 -729.774 3925
487.097 -729.774 3925
500.024 -734.98 3953
510.766 -736.839 3963
523.919 -742.045 3991
533.462 -742.045 3991
544.367 -743.905 4001
553.934 -743.905 4001
563.502 -743.905 4001
1747.19 -750.97 4039
1756.85 -750.97 4039
1766.5 -750.97 4039
1772.21 -749.297 4030
1781.84 -749.297 4030
1791.48 -749.297 4030
1805.14 -750.97 4039
1814.8 -750.97 4039
1824.46 -750.97 4039
1834.11 -750.97 4039
1843.77 -750.97 4039
1844.71 -747.437 4020
1854.32 -747.437 4020
1859.3 -745.578 4010
1868.89 -745.578 4010
1856.46 -736.839 3963
2870 -724.754 3898
2879.32 -724.754 3898
2916.06 -731.633 3935
2925.47 -731.633 3935
2941.59 -733.307 3944
2951.02 -733.307 3944
2960.46 -733.307 3944
2984.19 -736.839 3963
2993.67 -736.839 3963
3003.15 -736.839 3963
3012.62 -736.839 3963
3036.59 -740.372 3982
3046.11 -740.372 3982
-720.868 -331.096 1804
-716.554 -331.096 1804
-712.24 -331.096 1804
-707.141 -330.729 1802
-702.832 -330.729 1802
-691.546 -327.425 1784
-687.28 -327.425 1784
-678.036 -325.039 1771
-670.377 -323.387 1762
-663.895 -322.286 1756
-659.696 -322.286 1756
-654.004 -321.552 1752
-648.702 -321.001 1749
-643.782 -320.634 1747
-637.408 -319.533 1741
-633.245 -319.533 1741
-626.552 -318.248 1734
-621.688 -317.881 1732
-615.763 -316.963 1727
-611.633 -316.963 1727
-606.097 -316.229 1723
-600.928 -315.679 1720
-595.427 -314.945 1716
-591.324 -314.945 1716
-586.194 -314.394 1713
-581.418 -314.027 1711
-575.639 -313.109 1706
-571.56 -313.109 1706
-566.15 -312.375 1702
-561.749 -312.192 1701
-555.715 -311.09 1695
-551.661 -311.09 1695
-546.639 -310.54 1692
-541.631 -309.989 1689
-536.319 -309.255 1685
-532.289 -309.255 1685
-527.633 -308.888 1683
-521.742 -307.787 1677
-517.114 -307.42 1675
-512.496 -307.053 1673
-508.495 -307.053 1673
-504.193 -306.869 1672
-499.596 -306.502 1670
-494.713 -305.951 1667
-490.726 -305.951 1667
-486.74 -305.951 1667
-482.175 -305.584 1665
-476.757 -304.667 1660
-472.787 -304.667 1660
-468.253 -304.3 1658
-464.008 -304.116 1657
-459.491 -303.749 1655
-455.533 -303.749 1655
-451.575 -303.749 1655
-446.806 -303.198 1652
-442.856 -303.198 1652
-438.906 -303.198 1652
-434.428 -302.831 1650
-429.961 -302.464 1648
-425.762 -302.281 1647
-421.823 -302.281 1647
-417.885 -302.281 1647
-413.192 -301.73 1644
-408.265 -300.996 1640
-404.343 -300.996 1640
-399.689 -300.445 1637
-395.049 -299.895 1634
-391.142 -299.895 1634
-386.761 -299.528 1632
-382.858 -299.528 1632
-378.723 -299.344 1631
-374.363 -298.977 1629
-370.241 -298.794 1628
-366.347 -298.794 1628
-362.009 -298.427 1626
-358.121 -298.427 1626
-353.797 -298.059 1624
-349.913 -298.059 1624
-346.03 -298.059 1624
-341.936 -297.876 1623
-338.055 -297.876 1623
-334.174 -297.876 1623
-329.886 -297.509 1621
-326.009 -297.509 1621
-322.133 -297.509 1621
-318.257 -297.509 1621
-314.38 -297.509 1621
-310.312 -297.325 1620
-306.439 -297.325 1620
-302.565 -297.325 1620
-298.322 -296.958 1618
-294.817 -297.325 1620
-290.943 -297.325 1620
-287.069 -297.325 1620
-283.195 -297.325 1620
-279.494 -297.509 1621
-275.957 -297.876 1623
-272.076 -297.876 1623
-268.36 -298.059 1624
-264.477 -298.059 1624
-260.593 -298.059 1624
-256.71 -298.059 1624
-252.827 -298.059 1624
-248.943 -298.059 1624
-244.909 -297.876 1623
-241.176 -298.059 1624
-237.293 -298.059 1624
-233.409 -298.059 1624
-229.808 -298.427 1626
-225.92 -298.427 1626
-222.032 -298.427 1626
-218.144 -298.427 1626
-214.519 -298.794 1628
-210.626 -298.794 1628
-206.733 -298.794 1628
-202.591 -298.427 1626
-198.702 -298.427 1626
-194.814 -298.427 1626
-190.926 -298.427 1626
-187.037 -298.427 1626
-182.924 -298.059 1624
-179.04 -298.059 1624
-175.157 -298.059 1624
-171.274 -298.059 1624
-167.39 -298.059 1624
-163.708 -298.427 1626
-160.016 -298.794 1628
-156.123 -298.794 1628
-152.324 -298.977 1629
-148.428 -298.977 1629
-144.533 -298.977 1629
-140.637 -298.977 1629
-136.742 -298.977 1629
-133.01 -299.344 1631
-129.109 -299.344 1631
-125.209 -299.344 1631
-121.309 -299.344 1631
-117.481 -299.528 1632
-113.717 -299.895 1634
-109.81 -299.895 1634
-105.903 -299.895 1634
-101.995 -299.895 1634
-98.0878 -299.895 1634
-94.1804 -299.895 1634
-141.756 -720.372 3925
-132.37 -720.372 3925
-123.862 -725.51 3953
-114.698 -727.346 3963
-105.222 -727.346 3963
-95.7449 -727.346 3963
-85.8545 -723.859 3944
-75.8807 -718.72 3916
-66.5163 -718.72 3916
-57.152 -718.72 3916
-47.8975 -720.372 3925
-38.698 -723.859 3944
-29.3335 -725.51 3953
-19.8807 -725.51 3953
-10.5044 -730.833 3982
-0.986893 -734.32 4001
8.58071 -734.32 4001
18.1483 -734.32 4001
27.4527 -727.346 3963
36.9294 -727.346 3963
46.4062 -727.346 3963
55.2201 -718.72 3916
64.5845 -718.72 3916
74.3076 -722.207 3935
83.7174 -722.207 3935
93.1272 -722.207 3935
102.042 -718.72 3916
109.87 -708.809 3862
119.105 -708.809 3862
128.34 -708.809 3862
136.614 -703.853 3835
145.442 -702.202 3826
156.046 -708.809 3862
166.437 -713.764 3889
175.737 -713.764 3889
185.036 -713.764 3889
194.336 -713.764 3889
203.636 -713.764 3889
211.95 -710.461 3871
223.264 -717.068 3907
232.607 -717.068 3907
243.064 -720.372 3925
252.45 -720.372 3925
263.104 -723.859 3944
273.848 -727.346 3963
283.324 -727.346 3963
292.801 -727.346 3963
300.829 -723.859 3944
310.968 -725.51 3953
322.772 -730.833 3982
334.63 -735.972 4010
344.219 -735.972 4010
353.809 -735.972 4010
362.582 -734.32 4001
372.15 -734.32 4001
378.092 -727.346 3963
382.972 -718.72 3916
388.73 -712.112 3880
398.008 -712.112 3880
407.286 -712.112 3880
416.564 -712.112 3880
424.855 -710.461 3871
438.149 -717.068 3907
447.492 -717.068 3907
456.835 -717.068 3907
466.177 -717.068 3907
475.52 -717.068 3907
483.746 -715.416 3898
496.483 -720.372 3925
510.766 -727.346 3963
523.919 -732.485 3991
533.462 -732.485 3991
543.006 -732.485 3991
552.55 -732.485 3991
562.093 -732.485 3991
1733.66 -739.643 4030
1743.29 -739.643 4030
1752.93 -739.643 4030
1762.57 -739.643 4030
1772.21 -739.643 4030
1781.84 -739.643 4030
1787.03 -737.807 4020
1801.12 -739.643 4030
1810.75 -739.643 4030
1820.39 -739.643 4030
1830.03 -739.643 4030
1835.1 -737.807 4020
1840.12 -735.972 4010
1849.71 -735.972 4010
1859.3 -735.972 4010
1868.89 -735.972 4010
2910.49 -725.51 3953
2919.95 -725.51 3953
2929.4 -725.51 3953
2932.16 -723.859 3944
2941.59 -723.859 3944
2951.02 -723.859 3944
2960.46 -723.859 3944
2969.89 -723.859 3944
2979.32 -723.859 3944
2988.75 -723.859 3944
3012.62 -727.346 3963
3036.59 -730.833 3982
3046.11 -730.833 3982
-720.868 -326.774 1804
-716.554 -326.774 1804
-712.24 -326.774 1804
-707.141 -326.412 1802
-702.832 -326.412 1802
-694.647 -324.6 1792
-690.362 -324.6 1792
-681.099 -322.246 1779
-671.519 -319.71 1765
-665.408 -318.804 1760
-661.199 -318.804 1760
-654.751 -317.717 1754
-649.814 -317.355 1752
-643.782 -316.449 1747
-638.14 -315.725 1743
-633.972 -315.725 1743
-626.552 -314.094 1734
-621.688 -313.732 1732
-615.763 -312.826 1727
-611.633 -312.826 1727
-606.097 -312.102 1723
-600.928 -311.558 1720
-595.427 -310.834 1716
-591.324 -310.834 1716
-586.194 -310.29 1713
-581.418 -309.928 1711
-575.639 -309.023 1706
-571.56 -309.023 1706
-566.15 -308.298 1702
-561.749 -308.117 1701
-556.37 -307.392 1697
-552.312 -307.392 1697
-546.639 -306.487 1692
-541.951 -306.124 1690
-536.319 -305.219 1685
-532.289 -305.219 1685
-527.633 -304.856 1683
-521.742 -303.77 1677
-517.114 -303.407 1675
-512.496 -303.045 1673
-508.495 -303.045 1673
-504.193 -302.864 1672
-499.596 -302.502 1670
-494.713 -301.958 1667
-490.726 -301.958 1667
-486.74 -301.958 1667
-482.175 -301.596 1665
-476.757 -300.69 1660
-472.787 -300.69 1660
-468.253 -300.328 1658
-464.288 -300.328 1658
-460.046 -300.147 1657
-456.083 -300.147 1657
-451.575 -299.784 1655
-447.077 -299.422 1653
-442.856 -299.241 1652
-438.906 -299.241 1652
-434.428 -298.879 1650
-430.483 -298.879 1650
-426.02 -298.516 1648
-422.079 -298.516 1648
-417.885 -298.335 1647
-413.444 -297.973 1645
-408.763 -297.43 1642
-404.837 -297.43 1642
-400.178 -296.886 1639
-395.533 -296.343 1636
-391.142 -295.981 1634
-386.761 -295.618 1632
-382.858 -295.618 1632
-378.955 -295.618 1632
-374.363 -295.075 1629
-370.241 -294.894 1628
-366.347 -294.894 1628
-362.009 -294.531 1626
-358.121 -294.531 1626
-353.797 -294.169 1624
-349.913 -294.169 1624
-346.03 -294.169 1624
-341.936 -293.988 1623
-338.055 -293.988 1623
-334.174 -293.988 1623
-330.293 -293.988 1623
-326.411 -293.988 1623
-322.133 -293.626 1621
-318.257 -293.626 1621
-314.38 -293.626 1621
-310.312 -293.445 1620
-306.439 -293.445 1620
-302.565 -293.445 1620
-298.691 -293.445 1620
-294.817 -293.445 1620
-290.943 -293.445 1620
-287.246 -293.626 1621
-283.37 -293.626 1621
-279.494 -293.626 1621
-275.957 -293.988 1623
-272.244 -294.169 1624
-268.36 -294.169 1624
-264.477 -294.169 1624
-260.593 -294.169 1624
-256.71 -294.169 1624
-252.827 -294.169 1624
-248.943 -294.169 1624
-245.06 -294.169 1624
-241.176 -294.169 1624
-237.293 -294.169 1624
-233.409 -294.169 1624
-229.808 -294.531 1626
-226.198 -294.894 1628
-222.305 -294.894 1628
-218.412 -294.894 1628
-214.519 -294.894 1628
-210.626 -294.894 1628
-206.733 -294.894 1628
-202.84 -294.894 1628
-198.947 -294.894 1628
-194.814 -294.531 1626
-190.926 -294.531 1626
-187.037 -294.531 1626
-183.149 -294.531 1626
-179.261 -294.531 1626
-175.373 -294.531 1626
-171.484 -294.531 1626
-167.596 -294.531 1626
-163.909 -294.894 1628
-160.115 -295.075 1629
-156.219 -295.075 1629
-152.324 -295.075 1629
-148.702 -295.618 1632
-144.799 -295.618 1632
-140.896 -295.618 1632
-136.994 -295.618 1632
-133.091 -295.618 1632
-129.189 -295.618 1632
-125.593 -296.343 1636
-121.681 -296.343 1636
-117.769 -296.343 1636
-113.857 -296.343 1636
-110.146 -296.886 1639
-106.227 -296.886 1639
-102.37 -297.067 1640
-98.448 -297.067 1640
-94.5262 -297.067 1640
-90.6045 -297.067 1640
-143.129 -717.852 3963
-133.652 -717.852 3963
-124.77 -721.294 3982
-115.248 -721.294 3982
-105.726 -721.294 3982
-96.2039 -721.294 3982
-86.6817 -721.294 3982
-76.5976 -716.041 3953
-67.1448 -716.041 3953
-57.5606 -714.411 3944
-48.2392 -716.041 3953
-38.9728 -719.483 3972
-29.6897 -724.736 4001
-20.1221 -724.736 4001
-10.6046 -728.177 4020
-0.991579 -728.177 4020
8.62146 -728.177 4020
18.2345 -728.177 4020
27.7783 -726.366 4010
37.1903 -722.924 3991
46.734 -722.924 3991
56.0098 -719.483 3972
65.508 -719.483 3972
74.8364 -717.852 3963
84.3131 -717.852 3963
93.7898 -717.852 3963
103.006 -716.041 3953
111.15 -707.709 3907
119.938 -704.448 3889
129.238 -704.448 3889
138.537 -704.448 3889
147.837 -704.448 3889
157.137 -704.448 3889
166.437 -704.448 3889
175.737 -704.448 3889
185.036 -704.448 3889
194.336 -704.448 3889
203.636 -704.448 3889
211.95 -701.188 3871
223.264 -707.709 3907
232.607 -707.709 3907
243.064 -710.969 3925
252.45 -710.969 3925
263.104 -714.411 3944
273.848 -717.852 3963
283.324 -717.852 3963
292.801 -717.852 3963
300.829 -714.411 3944
310.968 -716.041 3953
322.772 -721.294 3982
334.63 -726.366 4010
344.219 -726.366 4010
353.809 -726.366 4010
362.582 -724.736 4001
372.15 -724.736 4001
378.092 -717.852 3963
382.972 -709.339 3916
388.73 -702.818 3880
398.008 -702.818 3880
407.286 -702.818 3880
416.564 -702.818 3880
424.855 -701.188 3871
438.149 -707.709 3907
447.492 -707.709 3907
456.835 -707.709 3907
466.177 -707.709 3907
475.52 -707.709 3907
483.746 -706.078 3898
496.483 -710.969 3925
510.766 -717.852 3963
523.919 -722.924 3991
533.462 -722.924 3991
543.006 -722.924 3991
552.55 -722.924 3991
562.093 -722.924 3991
1719.74 -728.177 4020
1733.66 -729.989 4030
1743.29 -729.989 4030
1752.93 -729.989 4030
1762.57 -729.989 4030
1772.21 -729.989 4030
1781.84 -729.989 4030
1787.03 -728.177 4020
1801.12 -729.989 4030
1810.75 -729.989 4030
1820.39 -729.989 4030
1830.03 -729.989 4030
1835.1 -728.177 4020
1840.12 -726.366 4010
1849.71 -726.366 4010
1859.3 -726.366 4010
1868.89 -726.366 4010
2910.49 -716.041 3953
2919.95 -716.041 3953
2929.4 -716.041 3953
2946.29 -717.852 3963
2955.76 -717.852 3963
2965.24 -717.852 3963
2974.72 -717.852 3963
2984.19 -717.852 3963
2993.67 -717.852 3963
2988.75 -714.411 3944
3012.62 -717.852 3963
3036.59 -721.294 3982
3046.11 -721.294 3982
-720.868 -322.453 1804
-716.554 -322.453 1804
-712.24 -322.453 1804
-707.141 -322.095 1802
-702.832 -322.095 1802
-696.973 -321.38 1798
-692.673 -321.38 1798
-682.248 -318.52 1782
-673.802 -316.554 1771
-666.542 -315.124 1763
-662.326 -315.124 1763
-656.99 -314.588 1760
-649.814 -313.158 1752
-644.519 -312.622 1749
-638.14 -311.549 1743
-633.972 -311.549 1743
-627.275 -310.298 1736
-621.688 -309.583 1732
-615.763 -308.689 1727
-611.633 -308.689 1727
-606.097 -307.974 1723
-600.928 -307.438 1720
-595.427 -306.723 1716
-591.324 -306.723 1716
-586.194 -306.187 1713
-581.418 -305.829 1711
-575.639 -304.936 1706
-571.56 -304.936 1706
-566.15 -304.221 1702
-561.749 -304.042 1701
-556.37 -303.327 1697
-552.312 -303.327 1697
-546.639 -302.433 1692
-541.951 -302.076 1690
-536.319 -301.182 1685
-532.289 -301.182 1685
-527.633 -300.825 1683
-521.742 -299.752 1677
-517.114 -299.395 1675
-512.496 -299.037 1673
-508.495 -299.037 1673
-504.193 -298.859 1672
-499.596 -298.501 1670
-494.713 -297.965 1667
-490.726 -297.965 1667
-486.74 -297.965 1667
-482.175 -297.607 1665
-476.757 -296.714 1660
-472.787 -296.714 1660
-468.818 -296.714 1660
-464.288 -296.356 1658
-460.324 -296.356 1658
-456.359 -296.356 1658
-451.575 -295.82 1655
-447.618 -295.82 1655
-442.856 -295.284 1652
-438.906 -295.284 1652
-434.955 -295.284 1652
-430.483 -294.926 1650
-426.537 -294.926 1650
-422.592 -294.926 1650
-418.138 -294.569 1648
-413.444 -294.032 1645
-408.763 -293.496 1642
-404.837 -293.496 1642
-400.178 -292.96 1639
-395.775 -292.603 1637
-391.142 -292.066 1634
-386.761 -291.709 1632
-382.858 -291.709 1632
-378.955 -291.709 1632
-374.363 -291.173 1629
-370.241 -290.994 1628
-366.347 -290.994 1628
-362.454 -290.994 1628
-358.121 -290.636 1626
-354.233 -290.636 1626
-350.344 -290.636 1626
-346.03 -290.279 1624
-341.936 -290.1 1623
-338.055 -290.1 1623
-334.174 -290.1 1623
-330.293 -290.1 1623
-326.411 -290.1 1623
-322.133 -289.743 1621
-318.257 -289.743 1621
-314.38 -289.743 1621
-310.504 -289.743 1621
-306.439 -289.564 1620
-302.565 -289.564 1620
-298.691 -289.564 1620
-294.999 -289.743 1621
-291.122 -289.743 1621
-287.246 -289.743 1621
-283.37 -289.743 1621
-279.838 -290.1 1623
-275.957 -290.1 1623
-272.244 -290.279 1624
-268.36 -290.279 1624
-264.477 -290.279 1624
-260.914 -290.636 1626
-257.026 -290.636 1626
-253.138 -290.636 1626
-249.25 -290.636 1626
-245.361 -290.636 1626
-241.473 -290.636 1626
-237.585 -290.636 1626
-233.697 -290.636 1626
-229.808 -290.636 1626
-226.198 -290.994 1628
-222.305 -290.994 1628
-218.412 -290.994 1628
-214.519 -290.994 1628
-210.626 -290.994 1628
-206.733 -290.994 1628
-202.84 -290.994 1628
-198.947 -290.994 1628
-194.814 -290.636 1626
-190.926 -290.636 1626
-187.037 -290.636 1626
-183.149 -290.636 1626
-179.261 -290.636 1626
-175.373 -290.636 1626
-171.484 -290.636 1626
-167.802 -290.994 1628
-163.909 -290.994 1628
-160.115 -291.173 1629
-156.219 -291.173 1629
-152.604 -291.709 1632
-148.702 -291.709 1632
-144.799 -291.709 1632
-140.896 -291.709 1632
-137.162 -292.066 1634
-133.254 -292.066 1634
-129.505 -292.424 1636
-125.593 -292.424 1636
-121.681 -292.424 1636
-117.841 -292.603 1637
-113.926 -292.603 1637
-110.146 -292.96 1639
-106.227 -292.96 1639
-102.37 -293.139 1640
-98.7481 -294.032 1645
-94.8144 -294.032 1645
-90.8807 -294.032 1645
-143.129 -708.359 3963
-133.652 -708.359 3963
-124.77 -711.755 3982
-115.798 -715.151 4001
-106.231 -715.151 4001
-96.6629 -715.151 4001
-86.8776 -713.364 3991
-76.5976 -706.572 3953
-67.1448 -706.572 3953
-57.692 -706.572 3953
-48.471 -709.968 3972
-39.0709 -711.755 3982
-29.7565 -716.76 4010
-20.1674 -716.76 4010
-10.6046 -718.547 4020
-0.991579 -718.547 4020
8.62146 -718.547 4020
18.2345 -718.547 4020
27.7783 -716.76 4010
37.2835 -715.151 4001
46.8511 -715.151 4001
56.0098 -709.968 3972
65.508 -709.968 3972
75.0063 -709.968 3972
84.5046 -709.968 3972
94.0028 -709.968 3972
103.006 -706.572 3953
111.15 -698.349 3907
119.938 -695.132 3889
129.238 -695.132 3889
138.537 -695.132 3889
147.837 -695.132 3889
157.137 -695.132 3889
166.437 -695.132 3889
175.737 -695.132 3889
185.036 -695.132 3889
194.336 -695.132 3889
203.636 -695.132 3889
211.95 -691.915 3871
223.264 -698.349 3907
233.143 -699.958 3916
243.684 -703.354 3935
253.093 -703.354 3935
262.503 -703.354 3935
273.157 -706.572 3953
282.61 -706.572 3953
292.062 -706.572 3953
300.829 -704.963 3944
310.968 -706.572 3953
321.961 -709.968 3972
333.879 -715.151 4001
343.447 -715.151 4001
353.014 -715.151 4001
362.582 -715.151 4001
372.15 -715.151 4001
375.421 -703.354 3935
382.092 -698.349 3907
388.73 -693.523 3880
398.008 -693.523 3880
407.286 -693.523 3880
416.564 -693.523 3880
423.867 -690.306 3862
436.13 -695.132 3889
445.43 -695.132 3889
454.73 -695.132 3889
464.03 -695.132 3889
473.329 -695.132 3889
482.629 -695.132 3889
496.483 -701.567 3925
510.766 -708.359 3963
523.919 -713.364 3991
533.462 -713.364 3991
543.006 -713.364 3991
552.55 -713.364 3991
562.093 -713.364 3991
1719.74 -718.547 4020
1733.66 -720.335 4030
1743.29 -720.335 4030
1752.93 -720.335 4030
1758.19 -718.547 4020
1755.05 -713.364 3991
1764.6 -713.364 3991
1774.14 -713.364 3991
1796.65 -718.547 4020
1806.26 -718.547 4020
1815.87 -718.547 4020
1825.49 -718.547 4020
1826.43 -715.151 4001
1831.4 -713.364 3991
1840.95 -713.364 3991
1850.49 -713.364 3991
1860.04 -713.364 3991
2910.49 -706.572 3953
2919.95 -706.572 3953
2929.4 -706.572 3953
2946.29 -708.359 3963
2955.76 -708.359 3963
2965.24 -708.359 3963
2974.72 -708.359 3963
2984.19 -708.359 3963
2993.67 -708.359 3963
2988.75 -704.963 3944
3012.62 -708.359 3963
3036.59 -711.755 3982
3046.11 -711.755 3982
-715.76 -317.778 1802
-711.451 -317.778 1802
-707.141 -317.778 1802
-702.832 -317.778 1802
-696.973 -317.073 1798
-692.673 -317.073 1798
-682.248 -314.251 1782
-673.802 -312.312 1771
-666.542 -310.901 1763
-662.326 -310.901 1763
-656.99 -310.372 1760
-649.814 -308.961 1752
-644.519 -308.432 1749
-638.14 -307.374 1743
-633.972 -307.374 1743
-627.275 -306.139 1736
-621.688 -305.434 1732
-615.763 -304.552 1727
-611.633 -304.552 1727
-606.097 -303.847 1723
-600.23 -302.965 1718
-595.427 -302.613 1716
-591.324 -302.613 1716
-586.194 -302.083 1713
-581.418 -301.731 1711
-575.639 -300.849 1706
-571.56 -300.849 1706
-566.15 -300.144 1702
-561.749 -299.967 1701
-556.37 -299.262 1697
-552.312 -299.262 1697
-546.639 -298.38 1692
-541.951 -298.027 1690
-536.319 -297.146 1685
-532.289 -297.146 1685
-527.633 -296.793 1683
-521.742 -295.735 1677
-517.114 -295.382 1675
-512.496 -295.03 1673
-508.495 -295.03 1673
-504.193 -294.853 1672
-498.998 -294.148 1668
-494.713 -293.971 1667
-490.726 -293.971 1667
-486.74 -293.971 1667
-482.175 -293.619 1665
-476.757 -292.737 1660
-472.787 -292.737 1660
-468.818 -292.737 1660
-464.288 -292.384 1658
-460.324 -292.384 1658
-456.359 -292.384 1658
-451.575 -291.855 1655
-447.618 -291.855 1655
-442.856 -291.326 1652
-438.906 -291.326 1652
-434.955 -291.326 1652
-430.483 -290.974 1650
-426.537 -290.974 1650
-422.592 -290.974 1650
-418.138 -290.621 1648
-413.444 -290.092 1645
-408.763 -289.563 1642
-404.837 -289.563 1642
-400.178 -289.034 1639
-395.775 -288.681 1637
-391.142 -288.152 1634
-386.761 -287.799 1632
-382.858 -287.799 1632
-378.955 -287.799 1632
-374.363 -287.27 1629
-370.241 -287.094 1628
-366.347 -287.094 1628
-362.454 -287.094 1628
-358.121 -286.741 1626
-354.233 -286.741 1626
-350.344 -286.741 1626
-346.03 -286.389 1624
-341.936 -286.212 1623
-338.055 -286.212 1623
-334.174 -286.212 1623
-330.293 -286.212 1623
-326.411 -286.212 1623
-322.133 -285.859 1621
-318.257 -285.859 1621
-314.38 -285.859 1621
-310.504 -285.859 1621
-306.439 -285.683 1620
-302.565 -285.683 1620
-298.691 -285.683 1620
-294.999 -285.859 1621
-291.122 -285.859 1621
-287.246 -285.859 1621
-283.37 -285.859 1621
-279.838 -286.212 1623
-275.957 -286.212 1623
-272.244 -286.389 1624
-268.36 -286.389 1624
-264.477 -286.389 1624
-260.914 -286.741 1626
-257.026 -286.741 1626
-253.138 -286.741 1626
-249.25 -286.741 1626
-245.361 -286.741 1626
-241.473 -286.741 1626
-237.585 -286.741 1626
-233.697 -286.741 1626
-229.808 -286.741 1626
-226.198 -287.094 1628
-222.305 -287.094 1628
-218.412 -287.094 1628
-214.519 -287.094 1628
-210.626 -287.094 1628
-206.733 -287.094 1628
-202.84 -287.094 1628
-198.947 -287.094 1628
-194.814 -286.741 1626
-190.926 -286.741 1626
-187.037 -286.741 1626
-183.149 -286.741 1626
-179.261 -286.741 1626
-175.373 -286.741 1626
-171.484 -286.741 1626
-167.802 -287.094 1628
-163.909 -287.094 1628
-160.115 -287.27 1629
-156.219 -287.27 1629
-152.604 -287.799 1632
-148.702 -287.799 1632
-144.799 -287.799 1632
-140.896 -287.799 1632
-137.162 -288.152 1634
-133.254 -288.152 1634
-129.505 -288.505 1636
-125.593 -288.505 1636
-121.681 -288.505 1636
-117.841 -288.681 1637
-113.926 -288.681 1637
-110.146 -289.034 1639
-106.227 -289.034 1639
-102.37 -289.21 1640
-98.7481 -290.092 1645
-94.8144 -290.092 1645
-90.8807 -290.092 1645
-143.129 -698.866 3963
-133.652 -698.866 3963
-124.77 -702.216 3982
-115.798 -705.567 4001
-106.231 -705.567 4001
-96.6629 -705.567 4001
-86.8776 -703.803 3991
-76.5976 -697.102 3953
-67.1448 -697.102 3953
-57.692 -697.102 3953
-48.471 -700.453 3972
-39.0709 -702.216 3982
-29.7565 -707.154 4010
-20.1674 -707.154 4010
-10.6046 -708.917 4020
-0.991579 -708.917 4020
8.62146 -708.917 4020
18.2345 -708.917 4020
27.7783 -707.154 4010
37.2835 -705.567 4001
46.8511 -705.567 4001
56.0098 -700.453 3972
65.508 -700.453 3972
75.0063 -700.453 3972
84.5046 -700.453 3972
94.0028 -700.453 3972
103.006 -697.102 3953
111.15 -688.99 3907
119.938 -685.816 3889
129.238 -685.816 3889
138.537 -685.816 3889
147.837 -685.816 3889
157.137 -685.816 3889
166.437 -685.816 3889
175.737 -685.816 3889
185.036 -685.816 3889
223.264 -688.99 3907
233.143 -690.577 3916
243.684 -693.928 3935
253.093 -693.928 3935
262.503 -693.928 3935
272.535 -695.515 3944
281.966 -695.515 3944
291.397 -695.515 3944
300.829 -695.515 3944
310.26 -695.515 3944
321.231 -698.866 3963
333.045 -703.803 3991
342.588 -703.803 3991
352.132 -703.803 3991
361.676 -703.803 3991
371.22 -703.803 3991
374.466 -692.164 3925
382.092 -688.99 3907
388.73 -684.229 3880
398.008 -684.229 3880
407.286 -684.229 3880
414.632 -681.055 3862
422.879 -679.467 3853
434.112 -682.642 3871
443.368 -682.642 3871
452.625 -682.642 3871
462.956 -684.229 3880
472.234 -684.229 3880
481.512 -684.229 3880
491.929 -685.816 3889
508.317 -695.515 3944
521.424 -700.453 3972
530.923 -700.453 3972
540.421 -700.453 3972
549.919 -700.453 3972
559.417 -700.453 3972
1719.74 -708.917 4020
1729.36 -708.917 4020
1738.97 -708.917 4020
1748.58 -708.917 4020
1753.82 -707.154 4010
1734.39 -695.515 3944
1752.22 -698.866 3963
1761.7 -698.866 3963
1783.69 -703.803 3991
1797.72 -705.567 4001
1807.29 -705.567 4001
1816.86 -705.567 4001
1830.53 -707.154 4010
1840.12 -707.154 4010
1849.71 -707.154 4010
1855.13 -705.567 4001
1860.04 -703.803 3991
1860.68 -700.453 3972
2950.89 -702.216 3982
2967.1 -703.803 3991
2976.65 -703.803 3991
2986.19 -703.803 3991
2995.73 -703.803 3991
2990.97 -700.453 3972
3000.47 -700.453 3972
3003.15 -698.866 3963
3005.02 -697.102 3953
3022.1 -698.866 3963
3031.58 -698.866 3963
-715.76 -313.462 1802
-711.451 -313.462 1802
-707.141 -313.462 1802
-702.832 -313.462 1802
-696.973 -312.766 1798
-692.673 -312.766 1798
-682.248 -309.983 1782
-673.802 -308.069 1771
-667.298 -307.025 1765
-663.077 -307.025 1765
-656.99 -306.156 1760
-651.298 -305.46 1756
-644.519 -304.242 1749
-638.14 -303.199 1743
-633.972 -303.199 1743
-627.275 -301.981 1736
-621.688 -301.285 1732
-615.763 -300.415 1727
-611.633 -300.415 1727
-606.097 -299.719 1723
-600.23 -298.85 1718
-595.427 -298.502 1716
-591.324 -298.502 1716
-586.194 -297.98 1713
-581.418 -297.632 1711
-575.639 -296.762 1706
-571.56 -296.762 1706
-566.15 -296.066 1702
-561.749 -295.893 1701
-556.37 -295.197 1697
-552.312 -295.197 1697
-546.639 -294.327 1692
-541.951 -293.979 1690
-536.319 -293.109 1685
-532.289 -293.109 1685
-527.633 -292.761 1683
-521.742 -291.718 1677
-516.497 -291.022 1673
-512.19 -290.848 1672
-508.191 -290.848 1672
-503.59 -290.5 1670
