-0.97752 -812.786 3963
8.49921 -812.786 3963
17.9759 -812.786 3963
27.3211 -808.89 3944
36.6685 -807.044 3935
46.0783 -807.044 3935
55.0932 -801.301 3907
64.2876 -799.455 3898
73.6089 -799.455 3898
82.9302 -799.455 3898
92.2515 -799.455 3898
101.338 -797.609 3889
112.999 -814.632 3972
123.084 -818.529 3991
132.627 -818.529 3991
142.171 -818.529 3991
151.715 -818.529 3991
160.491 -814.632 3972
169.989 -814.632 3972
179.487 -814.632 3972
188.985 -814.632 3972
197.084 -808.89 3944
206.516 -808.89 3944
211.457 -792.072 3862
222.235 -797.609 3889
233.143 -803.147 3916
245.418 -812.786 3963
254.894 -812.786 3963
264.371 -812.786 3963
275.161 -816.683 3982
284.683 -816.683 3982
294.205 -816.683 3982
301.685 -786.534 3835
310.856 -786.534 3835
320.027 -786.534 3835
329.197 -786.534 3835
338.368 -786.534 3835
349.17 -790.226 3853
361.732 -797.609 3889
371.032 -797.609 3889
380.332 -797.609 3889
394.24 -807.044 3935
403.65 -807.044 3935
413.06 -807.044 3935
422.469 -807.044 3935
432.867 -808.89 3944
444.429 -812.786 3963
453.906 -812.786 3963
463.382 -812.786 3963
471.666 -810.736 3953
481.119 -810.736 3953
489.455 -808.89 3944
500.024 -810.736 3953
513.215 -816.683 3982
527.726 -824.477 4020
537.339 -824.477 4020
546.952 -824.477 4020
556.565 -824.477 4020
566.178 -824.477 4020
1768.82 -838.628 4089
1778.59 -838.628 4089
1788.37 -838.628 4089
1789.36 -834.526 4069
1799.09 -834.526 4069
1804.37 -832.475 4059
1814.08 -832.475 4059
3034.65 -826.528 4030
3044.28 -826.528 4030
3053.92 -826.528 4030
3055.95 -824.477 4020
3065.57 -824.477 4020
3075.18 -824.477 4020
-2544.36 -756.47 3732
-2535.43 -756.47 3732
-2526.51 -756.47 3732
-2522.98 -758.091 3740
-2514.04 -758.091 3740
-2505.1 -758.091 3740
-2485.47 -754.848 3724
-2471.25 -753.227 3716
-2462.36 -753.227 3716
-2453.48 -753.227 3716
-2444.59 -753.227 3716
-2435.7 -753.227 3716
-2426.82 -753.227 3716
-2391.25 -744.916 3675
-2377.28 -743.294 3667
-2362.7 -741.47 3658
-2328.85 -733.565 3619
-2320.2 -733.565 3619
-2281.52 -724.038 3572
-2272.98 -724.038 3572
-2240.35 -716.336 3534
-2231.9 -716.336 3534
-2191.36 -705.998 3483
-2210.61 -714.917 3527
-2211.54 -717.957 3542
-2203.07 -717.957 3542
-2194.6 -717.957 3542
-544.899 -357.762 1765
-540.679 -357.762 1765
-536.458 -357.762 1765
-531.333 -357.154 1762
-525.324 -355.938 1756
-521.125 -355.938 1756
-516.337 -355.533 1754
-511.559 -355.127 1752
-505.342 -353.708 1745
-501.169 -353.708 1745
-495.857 -352.898 1741
-491.694 -352.898 1741
-486.691 -352.29 1738
-482.535 -352.29 1738
-478.378 -352.29 1738
-473.131 -351.479 1734
-468.173 -350.871 1731
-461.889 -349.249 1723
-457.769 -349.249 1723
-451.806 -347.83 1716
-445.876 -346.411 1709
-441.014 -345.803 1706
-436.934 -345.803 1706
-431.84 -344.992 1702
-426.01 -343.573 1695
-420.463 -342.357 1689
-416.424 -342.357 1689
-410.676 -340.938 1682
-406.171 -340.533 1680
-400.238 -338.911 1672
-396.24 -338.911 1672
-391.773 -338.506 1670
-387.315 -338.101 1668
-382.637 -337.493 1665
-378.655 -337.493 1665
-373.998 -336.884 1662
-370.024 -336.884 1662
-366.05 -336.884 1662
-362.075 -336.884 1662
-358.317 -337.087 1663
-354.34 -337.087 1663
-350.363 -337.087 1663
-346.386 -337.087 1663
-342.41 -337.087 1663
-338.433 -337.087 1663
-334.456 -337.087 1663
-330.877 -337.493 1665
-327.288 -337.898 1667
-323.302 -337.898 1667
-319.507 -338.101 1668
-316.275 -338.911 1672
-312.463 -339.114 1673
-308.463 -339.114 1673
-304.826 -339.52 1675
-300.821 -339.52 1675
-297.17 -339.925 1677
-293.159 -339.925 1677
-289.149 -339.925 1677
-284.799 -339.52 1675
-280.793 -339.52 1675
-276.788 -339.52 1675
-272.457 -339.114 1673
-268.296 -338.911 1672
-264.297 -338.911 1672
-260.299 -338.911 1672
-255.994 -338.506 1670
-252.001 -338.506 1670
-248.007 -338.506 1670
-244.014 -338.506 1670
-240.02 -338.506 1670
-235.744 -338.101 1668
-231.756 -338.101 1668
-227.63 -337.898 1667
-223.644 -337.898 1667
-219.394 -337.493 1665
-215.413 -337.493 1665
-211.431 -337.493 1665
-207.076 -336.884 1662
-202.613 -336.074 1658
-198.528 -335.871 1657
-194.566 -335.871 1657
-190.603 -335.871 1657
-186.416 -335.466 1655
-182.238 -335.06 1653
-178.285 -335.06 1653
-174.332 -335.06 1653
-170.276 -334.857 1652
-166.124 -334.452 1650
-162.179 -334.452 1650
-158.041 -334.047 1648
-154.1 -334.047 1648
-150.068 -333.844 1647
-146.13 -333.844 1647
-142.191 -333.844 1647
-138.337 -334.047 1648
-134.396 -334.047 1648
-130.455 -334.047 1648
-126.514 -334.047 1648
-122.573 -334.047 1648
-118.633 -334.047 1648
-114.831 -334.452 1650
-110.885 -334.452 1650
-106.94 -334.452 1650
-103.119 -334.857 1652
-99.2283 -335.06 1653
-95.3908 -335.466 1655
-91.4332 -335.466 1655
-87.4756 -335.466 1655
-83.6694 -336.074 1658
-79.7046 -336.074 1658
-75.7398 -336.074 1658
-71.775 -336.074 1658
-67.8102 -336.074 1658
-63.8455 -336.074 1658
-59.8807 -336.074 1658
-80.6954 -751.402 3707
-72.1603 -754.848 3724
-63.6797 -759.916 3749
-54.7147 -759.916 3749
-46.1646 -766.807 3783
-37.6285 -777.348 3835
-29.1257 -795.591 3925
-19.7399 -795.591 3925
-10.4279 -801.266 3953
-0.975053 -801.266 3953
8.47777 -801.266 3953
17.9306 -801.266 3953
27.3211 -799.442 3944
36.4914 -793.766 3916
45.645 -790.118 3898
54.9663 -790.118 3898
64.1392 -788.293 3889
73.269 -786.469 3880
82.1643 -782.821 3862
92.6775 -793.766 3916
102.042 -793.766 3916
112.743 -803.293 3963
123.084 -808.969 3991
132.627 -808.969 3991
142.171 -808.969 3991
151.715 -808.969 3991
160.491 -805.117 3972
169.989 -805.117 3972
179.487 -805.117 3972
188.985 -805.117 3972
197.084 -799.442 3944
206.516 -799.442 3944
211.457 -782.821 3862
222.235 -788.293 3889
233.143 -793.766 3916
245.418 -803.293 3963
254.894 -803.293 3963
264.371 -803.293 3963
275.161 -807.144 3982
284.683 -807.144 3982
294.205 -807.144 3982
301.685 -777.348 3835
310.856 -777.348 3835
320.027 -777.348 3835
329.197 -777.348 3835
338.368 -777.348 3835
349.17 -780.996 3853
361.732 -788.293 3889
371.032 -788.293 3889
380.332 -788.293 3889
394.24 -797.617 3935
403.65 -797.617 3935
413.06 -797.617 3935
422.469 -797.617 3935
432.867 -799.442 3944
444.429 -803.293 3963
453.906 -803.293 3963
463.382 -803.293 3963
472.859 -803.293 3963
482.336 -803.293 3963
490.572 -801.266 3953
503.693 -807.144 3982
515.664 -810.996 4001
527.726 -814.847 4020
537.339 -814.847 4020
546.952 -814.847 4020
556.565 -814.847 4020
566.178 -814.847 4020
1768.82 -828.833 4089
1778.59 -828.833 4089
1788.37 -828.833 4089
1793.75 -826.806 4079
1803.51 -826.806 4079
1813.26 -826.806 4079
1823.02 -826.806 4079
3034.65 -816.874 4030
3044.28 -816.874 4030
3053.92 -816.874 4030
3063.56 -816.874 4030
3073.19 -816.874 4030
3082.83 -816.874 4030
-2544.36 -747.53 3732
-2535.43 -747.53 3732
-2526.51 -747.53 3732
-2522.98 -749.132 3740
-2514.04 -749.132 3740
-2505.1 -749.132 3740
-2490.81 -747.53 3732
-2481.89 -747.53 3732
-2472.96 -747.53 3732
-2447.53 -742.522 3707
-2433.41 -740.92 3699
-2424.56 -740.92 3699
-2415.71 -740.92 3699
-2396.46 -737.715 3683
-2377.28 -734.51 3667
-2357.53 -731.105 3650
-2334 -726.498 3627
-2325.33 -726.498 3627
-2291.74 -718.686 3588
-2272.98 -715.481 3572
-2249.86 -710.874 3549
-2241.37 -710.874 3549
-2214.64 -705.066 3520
-2201.21 -703.463 3512
-2211.54 -709.472 3542
-2203.07 -709.472 3542
-2194.6 -709.472 3542
-544.899 -353.534 1765
-540.679 -353.534 1765
-536.458 -353.534 1765
-532.237 -353.534 1765
-525.324 -351.732 1756
-521.125 -351.732 1756
-516.337 -351.331 1754
-511.559 -350.93 1752
-505.342 -349.528 1745
-501.169 -349.528 1745
-495.857 -348.727 1741
-491.694 -348.727 1741
-486.691 -348.126 1738
-482.535 -348.126 1738
-478.378 -348.126 1738
-473.131 -347.325 1734
-468.173 -346.724 1731
-461.889 -345.122 1723
-457.769 -345.122 1723
-451.806 -343.719 1716
-445.876 -342.317 1709
-441.014 -341.716 1706
-436.934 -341.716 1706
-431.84 -340.915 1702
-426.01 -339.513 1695
-420.463 -338.311 1689
-416.424 -338.311 1689
-410.676 -336.909 1682
-406.171 -336.509 1680
-400.478 -335.106 1673
-396.477 -335.106 1673
-392.242 -334.906 1672
-387.315 -334.105 1668
-382.637 -333.504 1665
-378.655 -333.504 1665
-373.998 -332.903 1662
-370.024 -332.903 1662
-366.05 -332.903 1662
-362.075 -332.903 1662
-358.317 -333.103 1663
-354.34 -333.103 1663
-350.363 -333.103 1663
-346.803 -333.504 1665
-342.821 -333.504 1665
-338.84 -333.504 1665
-334.858 -333.504 1665
-331.274 -333.905 1667
-327.484 -334.105 1668
-323.496 -334.105 1668
-320.273 -334.906 1672
-316.464 -335.106 1673
-312.463 -335.106 1673
-308.463 -335.106 1673
-304.826 -335.507 1675
-300.821 -335.507 1675
-297.347 -336.108 1678
-293.334 -336.108 1678
-289.322 -336.108 1678
-285.139 -335.908 1677
-281.129 -335.908 1677
-277.118 -335.908 1677
-272.783 -335.507 1675
-268.456 -335.106 1673
-264.456 -335.106 1673
-260.299 -334.906 1672
-256.301 -334.906 1672
-252.001 -334.506 1670
-248.007 -334.506 1670
-244.014 -334.506 1670
-240.02 -334.506 1670
-236.027 -334.506 1670
-232.034 -334.506 1670
-227.63 -333.905 1667
-223.644 -333.905 1667
-219.658 -333.905 1667
-215.413 -333.504 1665
-211.431 -333.504 1665
-207.076 -332.903 1662
-202.613 -332.102 1658
-198.528 -331.902 1657
-194.566 -331.902 1657
-190.603 -331.902 1657
-186.416 -331.501 1655
-182.238 -331.1 1653
-178.285 -331.1 1653
-174.332 -331.1 1653
-170.276 -330.9 1652
-166.124 -330.499 1650
-162.179 -330.499 1650
-158.041 -330.099 1648
-154.1 -330.099 1648
-150.068 -329.899 1647
-146.13 -329.899 1647
-142.191 -329.899 1647
-138.337 -330.099 1648
-134.396 -330.099 1648
-130.455 -330.099 1648
-126.514 -330.099 1648
-122.573 -330.099 1648
-118.633 -330.099 1648
-114.831 -330.499 1650
-110.885 -330.499 1650
-106.94 -330.499 1650
-103.119 -330.9 1652
-99.2283 -331.1 1653
-95.3908 -331.501 1655
-91.4332 -331.501 1655
-87.4756 -331.501 1655
-83.6694 -332.102 1658
-79.7046 -332.102 1658
-75.7398 -332.102 1658
-71.775 -332.102 1658
-67.8102 -332.102 1658
-63.8455 -332.102 1658
-59.8807 -332.102 1658
-80.6954 -742.522 3707
-72.1603 -745.927 3724
-63.6797 -750.935 3749
-54.7147 -750.935 3749
-46.1646 -757.745 3783
-37.6285 -768.161 3835
-29.1257 -786.188 3925
-19.7399 -786.188 3925
-10.4279 -791.797 3953
-0.975053 -791.797 3953
8.47777 -791.797 3953
17.9306 -791.797 3953
27.3211 -789.994 3944
36.4914 -784.385 3916
45.645 -780.78 3898
54.9663 -780.78 3898
64.1392 -778.977 3889
73.269 -777.174 3880
82.1643 -773.569 3862
92.6775 -784.385 3916
102.042 -784.385 3916
112.743 -793.8 3963
123.084 -799.408 3991
132.627 -799.408 3991
142.171 -799.408 3991
151.715 -799.408 3991
160.491 -795.602 3972
169.989 -795.602 3972
179.487 -795.602 3972
188.985 -795.602 3972
197.084 -789.994 3944
206.516 -789.994 3944
211.457 -773.569 3862
222.235 -778.977 3889
233.143 -784.385 3916
245.418 -793.8 3963
254.894 -793.8 3963
264.371 -793.8 3963
275.161 -797.605 3982
284.683 -797.605 3982
294.205 -797.605 3982
293.888 -771.766 3853
301.685 -768.161 3835
310.856 -768.161 3835
320.027 -768.161 3835
329.197 -768.161 3835
338.368 -768.161 3835
349.17 -771.766 3853
361.732 -778.977 3889
371.032 -778.977 3889
380.332 -778.977 3889
394.24 -788.191 3935
403.65 -788.191 3935
413.06 -788.191 3935
422.469 -788.191 3935
432.867 -789.994 3944
444.429 -793.8 3963
453.906 -793.8 3963
463.382 -793.8 3963
472.859 -793.8 3963
482.336 -793.8 3963
490.572 -791.797 3953
503.693 -797.605 3982
515.664 -801.411 4001
527.726 -805.217 4020
537.339 -805.217 4020
546.952 -805.217 4020
556.565 -805.217 4020
566.178 -805.217 4020
1768.82 -819.038 4089
1778.59 -819.038 4089
1788.37 -819.038 4089
1793.75 -817.035 4079
1803.51 -817.035 4079
1813.26 -817.035 4079
1823.02 -817.035 4079
1862.03 -817.035 4079
1871.79 -817.035 4079
1881.54 -817.035 4079
1882.02 -813.029 4059
1887.07 -811.026 4049
1896.75 -811.026 4049
1906.43 -811.026 4049
1916.11 -811.026 4049
1916.76 -807.22 4030
1912.53 -801.411 4001
3034.65 -807.22 4030
3044.28 -807.22 4030
3053.92 -807.22 4030
3063.56 -807.22 4030
3073.19 -807.22 4030
3082.83 -807.22 4030
-2590.72 -752.047 3800
-2581.63 -752.047 3800
-2572.54 -752.047 3800
-2563.46 -752.047 3800
-2554.37 -752.047 3800
-2539.93 -750.464 3792
-2524.85 -748.683 3783
-2509.82 -746.902 3774
-2500.79 -746.902 3774
-2480.55 -743.537 3757
-2471.56 -743.537 3757
-2451.43 -740.173 3740
-2442.49 -740.173 3740
-2401.66 -730.475 3691
-2387.65 -728.892 3683
-2357.53 -722.361 3650
-2339.15 -719.393 3635
-2330.46 -719.393 3635
-2296.21 -711.476 3595
-2278.07 -708.508 3580
-2260 -705.539 3565
-2251.48 -705.539 3565
-2232.89 -702.373 3549
-2206.22 -696.633 3520
-2211.54 -700.987 3542
-2203.07 -700.987 3542
-2194.6 -700.987 3542
-544.899 -349.306 1765
-540.679 -349.306 1765
-536.458 -349.306 1765
-532.237 -349.306 1765
-525.324 -347.525 1756
-521.125 -347.525 1756
-516.337 -347.129 1754
-511.559 -346.733 1752
-505.342 -345.348 1745
-501.169 -345.348 1745
-495.857 -344.556 1741
-491.412 -344.359 1740
-486.691 -343.963 1738
-482.535 -343.963 1738
-477.828 -343.567 1736
-473.131 -343.171 1734
-468.173 -342.577 1731
-461.889 -340.994 1723
-457.769 -340.994 1723
-451.806 -339.609 1716
-445.876 -338.223 1709
-441.014 -337.63 1706
-436.934 -337.63 1706
-431.84 -336.838 1702
-426.01 -335.453 1695
-420.463 -334.265 1689
-416.424 -334.265 1689
-410.676 -332.88 1682
-406.171 -332.484 1680
-400.478 -331.099 1673
-396.477 -331.099 1673
-392.242 -330.901 1672
-388.244 -330.901 1672
-383.096 -329.911 1667
-379.11 -329.911 1667
-374.223 -329.12 1663
-370.247 -329.12 1663
-366.27 -329.12 1663
-362.293 -329.12 1663
-358.747 -329.516 1665
-354.766 -329.516 1665
-350.784 -329.516 1665
-347.219 -329.911 1667
-343.233 -329.911 1667
-339.247 -329.911 1667
-335.261 -329.911 1667
-331.473 -330.109 1668
-328.27 -330.901 1672
-324.271 -330.901 1672
-320.465 -331.099 1673
-316.464 -331.099 1673
-312.837 -331.495 1675
-308.831 -331.495 1675
-304.826 -331.495 1675
-300.821 -331.495 1675
-297.347 -332.088 1678
-293.334 -332.088 1678
-289.322 -332.088 1678
-285.139 -331.89 1677
-281.129 -331.89 1677
-277.118 -331.89 1677
-272.783 -331.495 1675
-268.456 -331.099 1673
-264.456 -331.099 1673
-260.299 -330.901 1672
-256.301 -330.901 1672
-252.001 -330.505 1670
-248.007 -330.505 1670
-244.014 -330.505 1670
-240.02 -330.505 1670
-236.027 -330.505 1670
-232.034 -330.505 1670
-227.63 -329.911 1667
-223.644 -329.911 1667
-219.658 -329.911 1667
-215.154 -329.12 1663
-211.177 -329.12 1663
-207.076 -328.922 1662
-202.613 -328.13 1658
-198.289 -327.536 1655
-194.331 -327.536 1655
-190.373 -327.536 1655
-186.19 -327.141 1653
-182.127 -326.943 1652
-178.177 -326.943 1652
-174.227 -326.943 1652
-170.07 -326.547 1650
-165.923 -326.151 1648
-161.982 -326.151 1648
-158.041 -326.151 1648
-154.007 -325.953 1647
-150.068 -325.953 1647
-146.13 -325.953 1647
-142.191 -325.953 1647
-138.253 -325.953 1647
-134.314 -325.953 1647
-130.376 -325.953 1647
-126.514 -326.151 1648
-122.573 -326.151 1648
-118.633 -326.151 1648
-114.692 -326.151 1648
-110.885 -326.547 1650
-106.94 -326.547 1650
-103.119 -326.943 1652
-99.2283 -327.141 1653
-95.3908 -327.536 1655
-91.4332 -327.536 1655
-87.4756 -327.536 1655
-83.6189 -327.932 1657
-79.6565 -327.932 1657
-75.6941 -327.932 1657
-71.775 -328.13 1658
-67.8102 -328.13 1658
-63.8455 -328.13 1658
-59.8807 -328.13 1658
-80.6954 -733.642 3707
-72.1603 -737.006 3724
-63.6797 -741.954 3749
-54.7147 -741.954 3749
-46.1646 -748.683 3783
-37.6285 -758.974 3835
-29.059 -775.005 3916
-19.6946 -775.005 3916
-10.3804 -778.765 3935
-0.975053 -782.327 3953
8.47777 -782.327 3953
17.9306 -782.327 3953
27.2587 -778.765 3935
36.4914 -775.005 3916
45.5396 -769.661 3889
54.8394 -769.661 3889
63.9907 -767.88 3880
73.099 -766.099 3871
81.9728 -762.536 3853
92.6775 -775.005 3916
102.042 -775.005 3916
112.743 -784.306 3963
123.084 -789.848 3991
132.627 -789.848 3991
142.171 -789.848 3991
151.372 -788.066 3982
160.491 -786.087 3972
169.989 -786.087 3972
178.222 -780.546 3944
187.653 -780.546 3944
193.886 -767.88 3880
203.165 -767.88 3880
211.457 -764.318 3862
220.692 -764.318 3862
231.535 -769.661 3889
242.507 -775.005 3916
251.871 -775.005 3916
261.236 -775.005 3916
271.913 -778.765 3935
281.323 -778.765 3935
290.732 -778.765 3935
293.888 -762.536 3853
297.595 -748.683 3783
310.856 -758.974 3835
320.027 -758.974 3835
329.197 -758.974 3835
338.368 -758.974 3835
349.17 -762.536 3853
360.058 -766.099 3871
369.315 -766.099 3871
380.332 -769.661 3889
392.336 -775.005 3916
401.701 -775.005 3916
411.065 -775.005 3916
422.469 -778.765 3935
432.867 -780.546 3944
444.429 -784.306 3963
453.906 -784.306 3963
463.382 -784.306 3963
472.859 -784.306 3963
482.336 -784.306 3963
490.572 -782.327 3953
503.693 -788.066 3982
515.664 -791.827 4001
527.726 -795.587 4020
537.339 -795.587 4020
546.952 -795.587 4020
556.565 -795.587 4020
566.178 -795.587 4020
1784 -807.263 4079
1793.75 -807.263 4079
1803.51 -807.263 4079
1813.26 -807.263 4079
1823.02 -807.263 4079
1862.03 -807.263 4079
1871.79 -807.263 4079
1881.54 -807.263 4079
1882.02 -803.305 4059
1887.07 -801.326 4049
1896.75 -801.326 4049
1906.43 -801.326 4049
1916.11 -801.326 4049
1916.76 -797.566 4030
1912.53 -791.827 4001
3034.65 -797.566 4030
3044.28 -797.566 4030
3053.92 -797.566 4030
3063.56 -797.566 4030
3073.19 -797.566 4030
3082.83 -797.566 4030
-2590.72 -742.944 3800
-2581.63 -742.944 3800
-2572.54 -742.944 3800
-2563.46 -742.944 3800
-2554.37 -742.944 3800
-2539.93 -741.38 3792
-2524.85 -739.621 3783
-2509.82 -737.861 3774
-2500.79 -737.861 3774
-2480.55 -734.537 3757
-2471.56 -734.537 3757
-2451.43 -731.214 3740
-2442.49 -731.214 3740
-2401.66 -721.634 3691
-2387.65 -720.07 3683
-2357.53 -713.618 3650
-2339.15 -710.685 3635
-2330.46 -710.685 3635
-2296.21 -702.865 3595
-2278.07 -699.932 3580
-2260 -696.999 3565
-2251.48 -696.999 3565
-2232.89 -693.871 3549
-2206.22 -688.201 3520
-544.899 -345.078 1765
-540.679 -345.078 1765
-536.458 -345.078 1765
-532.237 -345.078 1765
-525.324 -343.319 1756
-521.125 -343.319 1756
-516.337 -342.928 1754
-511.267 -342.341 1751
-505.342 -341.168 1745
-501.169 -341.168 1745
-495.572 -340.19 1740
-490.847 -339.799 1738
-486.131 -339.408 1736
-481.979 -339.408 1736
-477.828 -339.408 1736
-472.585 -338.626 1732
-467.632 -338.04 1729
-461.085 -336.28 1720
-456.972 -336.28 1720
-451.542 -335.303 1715
-445.615 -333.934 1708
-440.497 -333.152 1704
-436.422 -333.152 1704
-431.586 -332.565 1701
-425.759 -331.197 1694
-419.965 -329.828 1687
-415.931 -329.828 1687
-410.676 -328.851 1682
-406.171 -328.46 1680
-400.478 -327.091 1673
-396.477 -327.091 1673
-392.242 -326.896 1672
-388.244 -326.896 1672
-383.096 -325.918 1667
-379.11 -325.918 1667
-374.223 -325.136 1663
-370.247 -325.136 1663
-366.27 -325.136 1663
-362.293 -325.136 1663
-358.747 -325.527 1665
-354.766 -325.527 1665
-350.784 -325.527 1665
-347.219 -325.918 1667
-343.233 -325.918 1667
-339.247 -325.918 1667
-335.261 -325.918 1667
-331.473 -326.113 1668
-328.27 -326.896 1672
-324.271 -326.896 1672
-320.465 -327.091 1673
-316.464 -327.091 1673
-312.837 -327.482 1675
-308.831 -327.482 1675
-304.826 -327.482 1675
-300.821 -327.482 1675
-297.347 -328.069 1678
-293.334 -328.069 1678
-289.322 -328.069 1678
-285.309 -328.069 1678
-281.296 -328.069 1678
-277.284 -328.069 1678
-273.108 -327.873 1677
-268.777 -327.482 1675
-264.772 -327.482 1675
-260.455 -327.091 1673
-256.301 -326.896 1672
-252.303 -326.896 1672
-248.304 -326.896 1672
-244.014 -326.505 1670
-240.02 -326.505 1670
-236.027 -326.505 1670
-232.034 -326.505 1670
-227.767 -326.113 1668
-223.644 -325.918 1667
-219.658 -325.918 1667
-215.154 -325.136 1663
-211.177 -325.136 1663
-207.201 -325.136 1663
-202.613 -324.158 1658
-198.289 -323.572 1655
-194.331 -323.572 1655
-190.373 -323.572 1655
-186.19 -323.181 1653
-182.127 -322.985 1652
-178.177 -322.985 1652
-174.016 -322.594 1650
-170.07 -322.594 1650
-165.923 -322.203 1648
-161.982 -322.203 1648
-157.945 -322.008 1647
-154.007 -322.008 1647
-149.886 -321.617 1645
-145.952 -321.617 1645
-142.019 -321.617 1645
-138.253 -322.008 1647
-134.314 -322.008 1647
-130.376 -322.008 1647
-126.437 -322.008 1647
-122.499 -322.008 1647
-118.561 -322.008 1647
-114.692 -322.203 1648
-110.751 -322.203 1648
-106.81 -322.203 1648
-103.119 -322.985 1652
-99.1683 -322.985 1652
-95.2755 -323.181 1653
-91.3227 -323.181 1653
-87.3699 -323.181 1653
-83.417 -323.181 1653
-79.4642 -323.181 1653
-75.5114 -323.181 1653
-71.7317 -323.963 1657
-67.8102 -324.158 1658
-63.8455 -324.158 1658
-59.8807 -324.158 1658
-80.8913 -726.521 3716
-72.0052 -726.521 3716
-63.5268 -731.214 3740
-54.5834 -731.214 3740
-45.7497 -732.973 3749
-37.2851 -742.944 3800
-28.5915 -753.307 3853
-19.3778 -753.307 3853
-10.3065 -763.864 3907
-0.965926 -765.624 3916
8.39842 -765.624 3916
17.7628 -765.624 3916
27.0648 -763.864 3907
36.3237 -762.105 3898
45.3288 -756.826 3871
54.5856 -756.826 3871
63.8423 -756.826 3871
72.7591 -753.307 3853
81.9728 -753.307 3853
92.6775 -765.624 3916
102.042 -765.624 3916
112.743 -774.813 3963
123.392 -782.242 4001
132.96 -782.242 4001
142.527 -782.242 4001
151.372 -778.528 3982
160.127 -774.813 3963
169.604 -774.813 3963
177.815 -769.339 3935
185.465 -762.105 3898
193.437 -756.826 3871
202.693 -756.826 3871
211.457 -755.066 3862
217.15 -742.944 3800
226.236 -742.944 3800
238.048 -751.547 3844
247.24 -751.547 3844
258.834 -758.585 3880
269.978 -763.864 3907
279.321 -763.864 3907
288.664 -763.864 3907
294.574 -755.066 3862
299.64 -744.704 3809
307.371 -741.38 3792
319.276 -748.028 3826
328.425 -748.028 3826
338.368 -749.787 3835
348.354 -751.547 3844
360.058 -756.826 3871
369.315 -756.826 3871
380.332 -760.345 3889
390.533 -762.105 3898
401.701 -765.624 3916
411.065 -765.624 3916
420.43 -765.624 3916
431.879 -769.339 3935
444.429 -774.813 3963
453.906 -774.813 3963
463.382 -774.813 3963
471.666 -772.858 3953
481.119 -772.858 3953
490.572 -772.858 3953
503.693 -778.528 3982
514.375 -780.287 3991
527.726 -785.957 4020
537.339 -785.957 4020
546.952 -785.957 4020
556.565 -785.957 4020
566.178 -785.957 4020
1793.75 -797.492 4079
1803.51 -797.492 4079
1813.26 -797.492 4079
1827.48 -799.447 4089
1837.26 -799.447 4089
1847.04 -799.447 4089
1847.74 -795.537 4069
1862.03 -797.492 4079
1871.79 -797.492 4079
1881.54 -797.492 4079
1882.02 -793.582 4059
1887.07 -791.627 4049
1896.75 -791.627 4049
1906.43 -791.627 4049
1916.11 -791.627 4049
1916.76 -787.912 4030
1912.53 -782.242 4001
3041.42 -789.672 4039
3058.64 -791.627 4049
3068.32 -791.627 4049
3078 -791.627 4049
3087.68 -791.627 4049
3097.36 -791.627 4049
-2590.72 -733.841 3800
-2581.63 -733.841 3800
-2572.54 -733.841 3800
-2569.53 -735.58 3809
-2560.42 -735.58 3809
-2551.31 -735.58 3809
-2542.2 -735.58 3809
-2521.79 -732.297 3792
-2512.72 -732.297 3792
-2491.77 -728.82 3774
-2482.74 -728.82 3774
-2468.48 -727.276 3766
-2459.47 -727.276 3766
-2433.55 -722.255 3740
-2392.84 -712.792 3691
-2373.68 -709.702 3675
-2339.15 -701.977 3635
-2330.46 -701.977 3635
-2301.32 -695.798 3603
-2278.07 -691.356 3580
-2264.44 -689.811 3572
-2255.9 -689.811 3572
-2242.95 -688.459 3565
-2206.22 -679.769 3520
-546.32 -339.112 1756
-543.973 -340.271 1762
-539.76 -340.271 1762
-535.546 -340.271 1762
-530.729 -339.884 1760
-524.128 -338.34 1752
-519.938 -338.34 1752
-515.454 -338.146 1751
-510.099 -337.374 1747
-504.184 -336.215 1741
-500.02 -336.215 1741
-495.572 -336.022 1740
-490.847 -335.636 1738
-486.131 -335.25 1736
-481.979 -335.25 1736
-477.277 -334.863 1734
-472.585 -334.477 1732
-467.632 -333.898 1729
-461.085 -332.16 1720
-456.972 -332.16 1720
-451.542 -331.194 1715
-445.615 -329.842 1708
-440.497 -329.07 1704
-436.422 -329.07 1704
-431.586 -328.491 1701
-425.759 -327.139 1694
-419.965 -325.787 1687
-415.931 -325.787 1687
-410.676 -324.821 1682
-406.171 -324.435 1680
-400.478 -323.083 1673
-396.477 -323.083 1673
-392.242 -322.89 1672
-388.244 -322.89 1672
-383.096 -321.925 1667
-379.11 -321.925 1667
-374.223 -321.152 1663
-370.247 -321.152 1663
-366.27 -321.152 1663
-362.293 -321.152 1663
-358.747 -321.538 1665
-354.766 -321.538 1665
-351.206 -321.925 1667
-347.219 -321.925 1667
-343.233 -321.925 1667
-339.247 -321.925 1667
-335.462 -322.118 1668
-331.87 -322.504 1670
-328.27 -322.89 1672
-324.271 -322.89 1672
-320.465 -323.083 1673
-316.464 -323.083 1673
-312.837 -323.47 1675
-308.831 -323.47 1675
-305.19 -323.856 1677
-301.18 -323.856 1677
-297.701 -324.435 1680
-293.684 -324.435 1680
-289.666 -324.435 1680
-285.309 -324.049 1678
-281.296 -324.049 1678
-277.284 -324.049 1678
-273.108 -323.856 1677
-268.777 -323.47 1675
-264.772 -323.47 1675
-260.455 -323.083 1673
-256.454 -323.083 1673
-252.303 -322.89 1672
-248.304 -322.89 1672
-244.306 -322.89 1672
-240.308 -322.89 1672
-236.31 -322.89 1672
-232.311 -322.89 1672
-228.04 -322.504 1670
-223.778 -322.118 1668
-219.658 -321.925 1667
-215.154 -321.152 1663
-211.177 -321.152 1663
-207.201 -321.152 1663
-202.613 -320.187 1658
-198.289 -319.607 1655
-194.331 -319.607 1655
-190.373 -319.607 1655
-186.19 -319.221 1653
-182.127 -319.028 1652
-178.177 -319.028 1652
-174.016 -318.642 1650
-170.07 -318.642 1650
-165.923 -318.255 1648
-161.982 -318.255 1648
-157.945 -318.062 1647
-153.82 -317.676 1645
-149.886 -317.676 1645
-145.952 -317.676 1645
-142.019 -317.676 1645
-138.085 -317.676 1645
-134.151 -317.676 1645
-130.376 -318.062 1647
-126.437 -318.062 1647
-122.499 -318.062 1647
-118.561 -318.062 1647
-114.692 -318.255 1648
-110.885 -318.642 1650
-106.94 -318.642 1650
-103.119 -319.028 1652
-99.2283 -319.221 1653
-95.2755 -319.221 1653
-91.3227 -319.221 1653
-87.3699 -319.221 1653
-83.417 -319.221 1653
-79.4642 -319.221 1653
-75.5114 -319.221 1653
-71.7317 -319.994 1657
-67.7693 -319.994 1657
-63.8069 -319.994 1657
-81.4138 -722.255 3740
-72.4703 -722.255 3740
-63.5268 -722.255 3740
-54.5834 -722.255 3740
-45.8473 -725.538 3757
-37.2066 -732.297 3792
-28.3317 -737.318 3818
-19.2017 -737.318 3818
-10.1641 -744.077 3853
-0.954827 -747.553 3871
8.30191 -747.553 3871
17.5586 -747.553 3871
26.753 -745.815 3862
35.8205 -742.339 3844
44.7082 -737.318 3818
53.8382 -737.318 3818
62.9682 -737.318 3818
72.4192 -740.601 3835
81.9728 -744.077 3853
92.6775 -756.243 3916
102.042 -756.243 3916
112.203 -761.65 3944
123.67 -774.396 4010
133.259 -774.396 4010
142.848 -774.396 4010
152.437 -774.396 4010
162.026 -774.396 4010
171.615 -774.396 4010
179.487 -767.057 3972
188.985 -767.057 3972
193.437 -747.553 3871
202.693 -747.553 3871
210.472 -742.339 3844
219.15 -740.601 3835
228.856 -742.339 3844
238.606 -744.077 3853
247.819 -744.077 3853
258.834 -749.291 3880
269.978 -754.505 3907
279.321 -754.505 3907
288.664 -754.505 3907
294.574 -745.815 3862
300.977 -738.863 3826
307.371 -732.297 3792
316.438 -732.297 3792
324.734 -730.559 3783
336.868 -737.318 3818
346.723 -738.863 3826
356.709 -740.601 3835
365.88 -740.601 3835
376.811 -744.077 3853
387.828 -747.553 3871
398.931 -751.029 3889
408.231 -751.029 3889
418.497 -752.767 3898
429.794 -756.243 3916
441.289 -759.912 3935
450.699 -759.912 3935
460.108 -759.912 3935
469.518 -759.912 3935
478.928 -759.912 3935
488.338 -759.912 3935
497.748 -759.912 3935
513.215 -768.989 3982
523.919 -770.727 3991
533.462 -770.727 3991
543.006 -770.727 3991
552.55 -770.727 3991
562.093 -770.727 3991
1793.75 -787.721 4079
1803.51 -787.721 4079
1813.26 -787.721 4079
1827.48 -789.652 4089
1837.26 -789.652 4089
1847.04 -789.652 4089
1847.74 -785.79 4069
1857.47 -785.79 4069
1862.61 -783.859 4059
1872.31 -783.859 4059
1868.57 -778.258 4030
1887.07 -781.927 4049
1896.75 -781.927 4049
1906.43 -781.927 4049
1916.11 -781.927 4049
1916.76 -778.258 4030
1912.53 -772.658 4001
3056.48 -783.859 4059
3081.3 -787.721 4079
3091.05 -787.721 4079
3108.41 -789.652 4089
3118.19 -789.652 4089
3127.96 -789.652 4089
-2590.72 -724.739 3800
-2581.63 -724.739 3800
-2572.54 -724.739 3800
-2593.14 -733.13 3844
-2590 -734.847 3853
-2580.78 -734.847 3853
-2571.57 -734.847 3853
-2544.4 -729.697 3826
-2535.25 -729.697 3826
-2497.71 -721.496 3783
-2482.74 -719.78 3774
-2468.48 -718.254 3766
-2459.47 -718.254 3766
-2433.55 -713.295 3740
-2392.84 -703.95 3691
-2373.68 -700.898 3675
-2339.15 -693.27 3635
-2330.46 -693.27 3635
-2301.32 -687.167 3603
-2278.07 -682.78 3580
-2264.44 -681.254 3572
-2255.9 -681.254 3572
-2242.95 -679.919 3565
-2206.22 -671.337 3520
-2183.45 -666.95 3497
-2175.08 -666.95 3497
-546.32 -334.906 1756
-542.121 -334.906 1756
-537.922 -334.906 1756
-533.722 -334.906 1756
-528.317 -334.143 1752
-523.828 -333.952 1751
-519.641 -333.952 1751
-514.276 -333.189 1747
-509.515 -332.808 1745
-503.894 -331.854 1740
-499.733 -331.854 1740
-495.003 -331.473 1738
-490.282 -331.091 1736
-485.57 -330.71 1734
-481.424 -330.71 1734
-476.727 -330.328 1732
-472.312 -330.137 1731
-467.091 -329.375 1727
-461.085 -328.04 1720
-456.972 -328.04 1720
-451.542 -327.086 1715
-445.615 -325.751 1708
-440.497 -324.988 1704
-436.422 -324.988 1704
-431.586 -324.416 1701
-425.759 -323.081 1694
-419.468 -321.364 1685
-415.438 -321.364 1685
-410.188 -320.411 1680
-405.687 -320.029 1678
-400.478 -319.076 1673
-396.477 -319.076 1673
-392.242 -318.885 1672
-388.244 -318.885 1672
-383.096 -317.931 1667
-379.11 -317.931 1667
-374.223 -317.168 1663
-370.247 -317.168 1663
-366.27 -317.168 1663
-362.293 -317.168 1663
-358.747 -317.55 1665
-354.766 -317.55 1665
-351.206 -317.931 1667
-347.219 -317.931 1667
-343.233 -317.931 1667
-339.247 -317.931 1667
-335.864 -318.504 1670
-331.87 -318.504 1670
-328.466 -319.076 1673
-324.465 -319.076 1673
-320.465 -319.076 1673
-316.464 -319.076 1673
-313.21 -319.839 1677
-309.2 -319.839 1677
-305.19 -319.839 1677
-301.18 -319.839 1677
-297.701 -320.411 1680
-293.684 -320.411 1680
-289.666 -320.411 1680
-285.309 -320.029 1678
-281.296 -320.029 1678
-277.284 -320.029 1678
-273.271 -320.029 1678
-269.098 -319.839 1677
-265.088 -319.839 1677
-260.766 -319.457 1675
-256.454 -319.076 1673
-252.454 -319.076 1673
-248.453 -319.076 1673
-244.452 -319.076 1673
-240.308 -318.885 1672
-236.31 -318.885 1672
-232.311 -318.885 1672
-228.313 -318.885 1672
-223.778 -318.122 1668
-219.658 -317.931 1667
-215.154 -317.168 1663
-211.177 -317.168 1663
-207.201 -317.168 1663
-202.613 -316.215 1658
-198.289 -315.643 1655
-194.331 -315.643 1655
-190.373 -315.643 1655
-186.19 -315.261 1653
-182.127 -315.071 1652
-178.177 -315.071 1652
-174.016 -314.689 1650
-170.07 -314.689 1650
-165.923 -314.308 1648
-161.982 -314.308 1648
-157.945 -314.117 1647
-153.82 -313.736 1645
-149.886 -313.736 1645
-145.952 -313.736 1645
-142.019 -313.736 1645
-138.085 -313.736 1645
-134.151 -313.736 1645
-130.376 -314.117 1647
-126.437 -314.117 1647
-122.573 -314.308 1648
-118.633 -314.308 1648
-114.831 -314.689 1650
-111.087 -315.261 1653
-107.134 -315.261 1653
-103.306 -315.643 1655
-99.5285 -316.215 1658
-95.5637 -316.215 1658
-91.5989 -316.215 1658
-87.6341 -316.215 1658
-83.6189 -316.024 1657
-79.6565 -316.024 1657
-75.6941 -316.024 1657
-71.775 -316.215 1658
-67.8102 -316.215 1658
-63.8455 -316.215 1658
-81.4138 -713.295 3740
-72.6447 -715.012 3749
-63.8156 -716.538 3757
-54.8315 -716.538 3757
-45.9572 -718.254 3766
-37.2066 -723.213 3792
-28.3317 -728.172 3818
-19.2017 -728.172 3818
-10.1878 -736.563 3862
-0.954827 -738.28 3871
8.30191 -738.28 3871
17.5586 -738.28 3871
26.753 -736.563 3862
35.8205 -733.13 3844
44.8019 -729.697 3826
53.951 -729.697 3826
63.1002 -729.697 3826
72.4192 -731.414 3835
81.9728 -734.847 3853
92.6775 -746.862 3916
102.042 -746.862 3916
112.203 -752.202 3944
123.67 -764.79 4010
133.259 -764.79 4010
142.848 -764.79 4010
152.437 -764.79 4010
162.026 -764.79 4010
171.615 -764.79 4010
179.487 -757.543 3972
188.985 -757.543 3972
195.685 -746.862 3916
205.05 -746.862 3916
210.472 -733.13 3844
219.15 -731.414 3835
228.856 -733.13 3844
238.606 -734.847 3853
247.819 -734.847 3853
259.435 -741.713 3889
269.978 -745.146 3907
279.321 -745.146 3907
288.664 -745.146 3907
294.574 -736.563 3862
300.977 -729.697 3826
308.019 -724.739 3800
317.106 -724.739 3800
324.734 -721.496 3783
336.868 -728.172 3818
346.723 -729.697 3826
356.709 -731.414 3835
365.88 -731.414 3835
376.811 -734.847 3853
387.828 -738.28 3871
398.931 -741.713 3889
408.231 -741.713 3889
418.497 -743.429 3898
429.794 -746.862 3916
441.289 -750.486 3935
450.699 -750.486 3935
460.108 -750.486 3935
469.518 -750.486 3935
478.928 -750.486 3935
488.338 -750.486 3935
497.748 -750.486 3935
513.215 -759.45 3982
523.919 -761.166 3991
533.462 -761.166 3991
543.006 -761.166 3991
552.55 -761.166 3991
562.093 -761.166 3991
1793.75 -777.95 4079
1803.51 -777.95 4079
1813.26 -777.95 4079
1827.48 -779.857 4089
1837.26 -779.857 4089
1847.04 -779.857 4089
1847.74 -776.042 4069
1857.47 -776.042 4069
1862.61 -774.135 4059
1872.31 -774.135 4059
1868.57 -768.604 4030
1887.07 -772.228 4049
1896.75 -772.228 4049
1906.43 -772.228 4049
1916.11 -772.228 4049
1916.76 -768.604 4030
1912.53 -763.073 4001
3069.3 -779.857 4089
3079.07 -779.857 4089
3088.85 -779.857 4089
3091.05 -777.95 4079
3108.41 -779.857 4089
3118.19 -779.857 4089
3127.96 -779.857 4089
-2590.72 -715.636 3800
-2581.63 -715.636 3800
-2572.54 -715.636 3800
-2593.14 -723.922 3844
-2602.1 -729.007 3871
-2592.84 -729.007 3871
-2583.58 -729.007 3871
-2562.36 -725.617 3853
-2553.14 -725.617 3853
-2503.65 -714.129 3792
-2494.59 -714.129 3792
-2468.48 -709.233 3766
-2459.47 -709.233 3766
-2433.55 -704.336 3740
-2392.84 -695.108 3691
-2373.68 -692.095 3675
-2339.15 -684.562 3635
-2330.46 -684.562 3635
-2301.32 -678.536 3603
-2278.07 -674.204 3580
-2264.44 -672.698 3572
-2255.9 -672.698 3572
-2242.95 -671.379 3565
-2206.22 -662.905 3520
-2183.45 -658.573 3497
-2175.08 -658.573 3497
-549.98 -327.874 1741
-545.816 -327.874 1741
-546.32 -330.699 1756
-542.121 -330.699 1756
-537.922 -330.699 1756
-533.722 -330.699 1756
-528.317 -329.946 1752
-523.828 -329.757 1751
-519.641 -329.757 1751
-514.276 -329.004 1747
-509.515 -328.627 1745
-503.894 -327.686 1740
-499.733 -327.686 1740
-495.003 -327.309 1738
-490.282 -326.932 1736
-485.57 -326.556 1734
-481.424 -326.556 1734
-476.727 -326.179 1732
-472.312 -325.991 1731
-467.091 -325.238 1727
-461.085 -323.919 1720
-456.972 -323.919 1720
-451.542 -322.978 1715
-445.615 -321.659 1708
-440.497 -320.906 1704
-436.422 -320.906 1704
-431.586 -320.341 1701
-425.759 -319.023 1694
-419.468 -317.328 1685
-415.438 -317.328 1685
-410.188 -316.386 1680
-405.687 -316.01 1678
-400.478 -315.068 1673
-396.477 -315.068 1673
-392.242 -314.88 1672
-388.244 -314.88 1672
-383.096 -313.938 1667
-379.11 -313.938 1667
-374.223 -313.185 1663
-370.247 -313.185 1663
-366.27 -313.185 1663
-362.293 -313.185 1663
-358.747 -313.561 1665
-354.766 -313.561 1665
-351.206 -313.938 1667
-347.219 -313.938 1667
-343.233 -313.938 1667
-339.247 -313.938 1667
-335.864 -314.503 1670
-331.87 -314.503 1670
-328.466 -315.068 1673
-324.465 -315.068 1673
-320.465 -315.068 1673
-316.842 -315.445 1675
-313.21 -315.821 1677
-309.2 -315.821 1677
-305.372 -316.01 1678
-301.359 -316.01 1678
-297.701 -316.386 1680
-293.684 -316.386 1680
-289.666 -316.386 1680
-285.649 -316.386 1680
-281.632 -316.386 1680
-277.614 -316.386 1680
-273.271 -316.01 1678
-269.098 -315.821 1677
-265.088 -315.821 1677
-260.766 -315.445 1675
-256.761 -315.445 1675
-252.454 -315.068 1673
-248.453 -315.068 1673
-244.452 -315.068 1673
-240.452 -315.068 1673
-236.31 -314.88 1672
-232.311 -314.88 1672
-228.313 -314.88 1672
-224.047 -314.503 1670
-219.79 -314.126 1668
-215.154 -313.185 1663
-211.177 -313.185 1663
-207.201 -313.185 1663
-202.613 -312.243 1658
-198.289 -311.678 1655
-194.331 -311.678 1655
-190.373 -311.678 1655
-186.19 -311.302 1653
-182.127 -311.113 1652
-178.177 -311.113 1652
-173.805 -310.36 1648
-169.864 -310.36 1648
-165.923 -310.36 1648
-161.982 -310.36 1648
-157.945 -310.172 1647
-153.82 -309.795 1645
-149.886 -309.795 1645
-145.952 -309.795 1645
-142.019 -309.795 1645
-138.085 -309.795 1645
-134.151 -309.795 1645
-130.376 -310.172 1647
-126.437 -310.172 1647
-122.573 -310.36 1648
-118.776 -310.737 1650
-114.97 -311.113 1652
-111.221 -311.678 1655
-107.264 -311.678 1655
-103.618 -312.62 1660
-99.7686 -312.996 1662
-95.7943 -312.996 1662
-91.8199 -312.996 1662
-87.8456 -312.996 1662
-83.8712 -312.996 1662
-79.8969 -312.996 1662
-75.9225 -312.996 1662
-72.2079 -314.126 1668
-68.2192 -314.126 1668
-64.2305 -314.126 1668
-81.6097 -706.031 3749
-72.7997 -707.538 3757
-63.9685 -709.233 3766
-54.9628 -709.233 3766
-46.2744 -714.129 3792
-37.2066 -714.129 3792
-28.265 -717.331 3809
-19.1565 -717.331 3809
-10.1878 -727.312 3862
-0.954827 -729.007 3871
8.30191 -729.007 3871
17.5586 -729.007 3871
26.753 -727.312 3862
35.9044 -725.617 3853
44.9073 -722.227 3835
54.0779 -722.227 3835
63.2486 -722.227 3835
72.9291 -727.312 3862
82.1643 -727.312 3862
93.3402 -742.754 3944
102.771 -742.754 3944
113.284 -749.911 3982
123.978 -757.067 4020
134.887 -764.412 4059
144.593 -764.412 4059
154.3 -764.412 4059
163.198 -760.645 4039
172.856 -760.645 4039
179.487 -748.028 3972
188.985 -748.028 3972
195.685 -737.481 3916
205.05 -737.481 3916
210.472 -723.922 3844
219.15 -722.227 3835
228.856 -723.922 3844
238.606 -725.617 3853
247.819 -725.617 3853
259.435 -732.397 3889
269.978 -735.786 3907
279.321 -735.786 3907
288.664 -735.786 3907
294.574 -727.312 3862
300.977 -720.532 3826
308.019 -715.636 3800
317.106 -715.636 3800
324.734 -712.434 3783
333.78 -712.434 3783
345.182 -717.331 3809
354.291 -717.331 3809
363.399 -717.331 3809
372.508 -717.331 3809
383.32 -720.532 3826
392.469 -720.532 3826
401.618 -720.532 3826
412.699 -723.922 3844
422.879 -725.617 3853
435.121 -730.702 3880
444.399 -730.702 3880
453.677 -730.702 3880
462.956 -730.702 3880
472.234 -730.702 3880
481.512 -730.702 3880
490.791 -730.702 3880
505.869 -739.176 3925
521.424 -748.028 3972
530.923 -748.028 3972
540.421 -748.028 3972
549.919 -748.028 3972
559.417 -748.028 3972
1789.36 -766.295 4069
1799.09 -766.295 4069
1808.82 -766.295 4069
1818.55 -766.295 4069
1828.28 -766.295 4069
1838.01 -766.295 4069
1847.74 -766.295 4069
1852.9 -764.412 4059
1853.43 -760.645 4039
1863.09 -760.645 4039
1859.3 -755.184 4010
1868.89 -755.184 4010
1878.48 -755.184 4010
1888.07 -755.184 4010
3069.3 -770.062 4089
3079.07 -770.062 4089
3088.85 -770.062 4089
3091.05 -768.178 4079
3108.41 -770.062 4089
3118.19 -770.062 4089
3127.96 -770.062 4089
-2593.14 -714.714 3844
-2602.1 -719.734 3871
-2592.84 -719.734 3871
-2583.58 -719.734 3871
-2562.36 -716.387 3853
-2553.14 -716.387 3853
-2503.65 -705.045 3792
-2494.59 -705.045 3792
-2468.48 -700.211 3766
-2459.47 -700.211 3766
-2433.55 -695.377 3740
-2387.65 -684.779 3683
-2373.68 -683.292 3675
-2339.15 -675.854 3635
-2330.46 -675.854 3635
-2301.32 -669.905 3603
-2278.07 -665.628 3580
-2264.44 -664.141 3572
-2255.9 -664.141 3572
-2232.89 -659.864 3549
-2201.21 -652.985 3512
-2183.45 -650.196 3497
-2175.08 -650.196 3497
-549.98 -323.704 1741
-545.816 -323.704 1741
-542.898 -324.447 1745
-540.577 -325.563 1751
-536.39 -325.563 1751
-532.203 -325.563 1751
-528.016 -325.563 1751
-522.632 -324.819 1747
-518.454 -324.819 1747
-514.276 -324.819 1747
-509.515 -324.447 1745
-503.894 -323.518 1740
-499.733 -323.518 1740
-494.433 -322.774 1736
-490.282 -322.774 1736
-485.01 -322.03 1732
-480.869 -322.03 1732
-476.452 -321.844 1731
-472.312 -321.844 1731
-466.55 -320.729 1725
-460.549 -319.427 1718
-456.44 -319.427 1718
-451.016 -318.497 1713
-445.615 -317.568 1708
-440.497 -316.824 1704
-436.422 -316.824 1704
-431.586 -316.266 1701
-425.759 -314.965 1694
-419.468 -313.291 1685
-415.438 -313.291 1685
-409.7 -311.99 1678
-405.687 -311.99 1678
-400.478 -311.06 1673
-396.477 -311.06 1673
-392.242 -310.874 1672
-388.244 -310.874 1672
-383.096 -309.945 1667
-379.11 -309.945 1667
-374.223 -309.201 1663
-370.247 -309.201 1663
-366.27 -309.201 1663
-362.293 -309.201 1663
-358.747 -309.573 1665
-354.766 -309.573 1665
-351.206 -309.945 1667
-347.219 -309.945 1667
-343.233 -309.945 1667
-339.247 -309.945 1667
-335.864 -310.503 1670
-331.87 -310.503 1670
-328.466 -311.06 1673
-324.465 -311.06 1673
-320.465 -311.06 1673
-316.842 -311.432 1675
-313.21 -311.804 1677
-309.2 -311.804 1677
-305.372 -311.99 1678
-301.359 -311.99 1678
-297.701 -312.362 1680
-293.684 -312.362 1680
-289.666 -312.362 1680
-285.649 -312.362 1680
-281.632 -312.362 1680
-277.614 -312.362 1680
-273.271 -311.99 1678
-269.098 -311.804 1677
-265.088 -311.804 1677
-260.766 -311.432 1675
-256.761 -311.432 1675
-252.454 -311.06 1673
-248.453 -311.06 1673
-244.452 -311.06 1673
-240.452 -311.06 1673
-236.31 -310.874 1672
-232.311 -310.874 1672
-228.313 -310.874 1672
-224.047 -310.503 1670
-219.79 -310.131 1668
-215.154 -309.201 1663
-211.177 -309.201 1663
-207.076 -309.015 1662
-202.491 -308.085 1657
-198.289 -307.714 1655
-194.331 -307.714 1655
-190.373 -307.714 1655
-186.078 -307.156 1652
-181.907 -306.784 1650
-177.961 -306.784 1650
-173.805 -306.412 1648
-169.864 -306.412 1648
-165.822 -306.226 1647
-161.884 -306.226 1647
-157.945 -306.226 1647
-153.82 -305.854 1645
-149.886 -305.854 1645
-145.952 -305.854 1645
-141.932 -305.668 1644
-138.001 -305.668 1644
-134.07 -305.668 1644
-130.218 -305.854 1645
-126.284 -305.854 1645
-122.573 -306.412 1648
-118.776 -306.784 1650
-114.97 -307.156 1652
-111.221 -307.714 1655
-107.264 -307.714 1655
-103.618 -308.643 1660
-99.7686 -309.015 1662
-95.7943 -309.015 1662
-91.8199 -309.015 1662
-87.8456 -309.015 1662
-83.8712 -309.015 1662
-79.8969 -309.015 1662
-75.9225 -309.015 1662
-72.2079 -310.131 1668
-68.2192 -310.131 1668
-64.2305 -310.131 1668
-81.6097 -697.05 3749
-72.7997 -698.538 3757
-63.9685 -700.211 3766
-54.9628 -700.211 3766
-46.2744 -705.045 3792
-37.2066 -705.045 3792
-28.265 -708.206 3809
-19.1565 -708.206 3809
-10.1878 -718.06 3862
-0.954827 -719.734 3871
8.30191 -719.734 3871
17.5586 -719.734 3871
26.753 -718.06 3862
35.9044 -716.387 3853
44.9073 -713.04 3835
54.0779 -713.04 3835
63.2486 -713.04 3835
72.9291 -718.06 3862
82.1643 -718.06 3862
93.3402 -733.307 3944
102.771 -733.307 3944
113.284 -740.372 3982
123.978 -747.437 4020
134.887 -754.688 4059
144.593 -754.688 4059
154.3 -754.688 4059
163.198 -750.97 4039
172.856 -750.97 4039
181.204 -745.578 4010
189.461 -740.372 3982
198.983 -740.372 3982
208.506 -740.372 3982
213.921 -726.427 3907
219.664 -714.714 3844
229.392 -716.387 3853
240.835 -723.08 3889
250.135 -723.08 3889
260.635 -726.427 3907
269.978 -726.427 3907
279.321 -726.427 3907
288.664 -726.427 3907
294.574 -718.06 3862
302.393 -714.714 3844
308.019 -706.533 3800
317.106 -706.533 3800
324.734 -703.372 3783
334.574 -705.045 3792
343.642 -705.045 3792
352.71 -705.045 3792
361.778 -705.045 3792
370.845 -705.045 3792
379.913 -705.045 3792
388.981 -705.045 3792
398.049 -705.045 3792
409.908 -709.879 3818
419.916 -711.367 3826
432.093 -716.387 3853
441.307 -716.387 3853
450.52 -716.387 3853
459.734 -716.387 3853
468.948 -716.387 3853
477.045 -714.714 3844
486.237 -714.714 3844
500.069 -721.407 3880
515.254 -729.774 3925
524.64 -729.774 3925
536.611 -733.307 3944
546.043 -733.307 3944
555.474 -733.307 3944
1779.63 -756.548 4069
1789.36 -756.548 4069
1799.09 -756.548 4069
1795.48 -750.97 4039
1814.08 -754.688 4059
1823.78 -754.688 4059
1833.49 -754.688 4059
1843.2 -754.688 4059
1848.34 -752.829 4049
1853.43 -750.97 4039
1863.09 -750.97 4039
1855.13 -743.905 4001
1855.84 -740.372 3982
3034.82 -756.548 4069
3044.55 -756.548 4069
3069.3 -760.266 4089
3079.07 -760.266 4089
3088.85 -760.266 4089
3098.63 -760.266 4089
3108.41 -760.266 4089
-2617.43 -712.112 3880
-2608.15 -712.112 3880
-2598.87 -712.112 3880
-2583.58 -710.461 3871
-2562.36 -707.157 3853
-2553.14 -707.157 3853
-2503.65 -695.961 3792
-2494.59 -695.961 3792
-2468.48 -691.19 3766
-2459.47 -691.19 3766
-2433.55 -686.418 3740
-2387.65 -675.956 3683
-2373.68 -674.488 3675
-2339.15 -667.147 3635
-2330.46 -667.147 3635
-2296.21 -659.805 3595
-2272.98 -655.584 3572
-2254.93 -652.831 3557
-2246.43 -652.831 3557
-2237.92 -652.831 3557
-2238.82 -655.584 3572
-2230.27 -655.584 3572
-2221.73 -655.584 3572
-549.98 -319.533 1741
-545.816 -319.533 1741
-541.653 -319.533 1741
-540.577 -321.368 1751
-536.39 -321.368 1751
-532.203 -321.368 1751
-528.016 -321.368 1751
-522.632 -320.634 1747
-518.454 -320.634 1747
-513.688 -320.267 1745
-508.931 -319.9 1743
-503.894 -319.349 1740
-499.733 -319.349 1740
-494.433 -318.615 1736
-489.717 -318.248 1734
-484.73 -317.698 1731
-480.591 -317.698 1731
-475.901 -317.331 1729
-471.767 -317.331 1729
-466.009 -316.229 1723
-460.549 -315.312 1718
-456.44 -315.312 1718
-450.489 -314.027 1711
-445.093 -313.109 1706
-439.98 -312.375 1702
-435.91 -312.375 1702
-431.586 -312.192 1701
-425.759 -310.907 1694
-419.468 -309.255 1685
-415.438 -309.255 1685
-410.188 -308.337 1680
-405.687 -307.97 1678
-400.478 -307.053 1673
-396.477 -307.053 1673
-392.242 -306.869 1672
-388.244 -306.869 1672
-383.096 -305.951 1667
-379.11 -305.951 1667
-374.223 -305.217 1663
-370.247 -305.217 1663
-366.27 -305.217 1663
-362.293 -305.217 1663
-358.747 -305.584 1665
-354.766 -305.584 1665
-351.206 -305.951 1667
-347.219 -305.951 1667
-343.233 -305.951 1667
-339.247 -305.951 1667
-335.462 -306.135 1668
-331.87 -306.502 1670
-328.466 -307.053 1673
-324.465 -307.053 1673
-320.848 -307.42 1675
-316.842 -307.42 1675
-313.21 -307.787 1677
-309.2 -307.787 1677
-305.372 -307.97 1678
-301.719 -308.337 1680
-298.056 -308.704 1682
-294.033 -308.704 1682
-290.011 -308.704 1682
-285.649 -308.337 1680
-281.632 -308.337 1680
-277.614 -308.337 1680
-273.271 -307.97 1678
-269.259 -307.97 1678
-265.246 -307.97 1678
-261.078 -307.787 1677
-256.761 -307.42 1675
-252.755 -307.42 1675
-248.75 -307.42 1675
-244.452 -307.053 1673
-240.452 -307.053 1673
-236.451 -307.053 1673
-232.45 -307.053 1673
-228.313 -306.869 1672
-224.315 -306.869 1672
-220.053 -306.502 1670
-215.413 -305.584 1665
-211.431 -305.584 1665
-207.201 -305.217 1663
-202.246 -303.749 1655
-198.049 -303.382 1653
-194.096 -303.382 1653
-190.143 -303.382 1653
-186.078 -303.198 1652
-181.907 -302.831 1650
-177.961 -302.831 1650
-173.805 -302.464 1648
-169.864 -302.464 1648
-165.822 -302.281 1647
-161.884 -302.281 1647
-157.753 -301.914 1645
-153.82 -301.914 1645
-149.795 -301.73 1644
-145.864 -301.73 1644
-141.932 -301.73 1644
-137.833 -301.363 1642
-134.07 -301.73 1644
-130.218 -301.914 1645
-126.284 -301.914 1645
-122.573 -302.464 1648
-118.92 -303.198 1652
-115.04 -303.382 1653
-111.557 -304.667 1660
-107.588 -304.667 1660
-103.743 -305.034 1662
-99.9487 -305.584 1665
-96.1401 -306.135 1668
-92.1514 -306.135 1668
-88.1627 -306.135 1668
-84.174 -306.135 1668
-80.1853 -306.135 1668
-76.1966 -306.135 1668
-72.5109 -307.42 1675
-68.5055 -307.42 1675
-64.5001 -307.42 1675
-81.6097 -688.07 3749
-72.7997 -689.538 3757
-63.9685 -691.19 3766
-54.9628 -691.19 3766
-46.2744 -695.961 3792
-37.2066 -695.961 3792
-28.265 -699.082 3809
-19.1565 -699.082 3809
-10.1878 -708.809 3862
-0.954827 -710.461 3871
8.30191 -710.461 3871
17.5586 -710.461 3871
26.753 -708.809 3862
35.9044 -707.157 3853
44.9073 -703.853 3835
54.2048 -705.505 3844
63.397 -705.505 3844
73.099 -710.461 3871
82.3558 -710.461 3871
93.3402 -723.859 3944
102.771 -723.859 3944
113.54 -732.485 3991
123.978 -737.807 4020
134.887 -744.965 4059
144.593 -744.965 4059
154.3 -744.965 4059
163.198 -741.294 4039
172.856 -741.294 4039
182.108 -739.643 4030
191.269 -737.807 4020
198.983 -730.833 3982
208.506 -730.833 3982
216.44 -725.51 3953
224.864 -722.207 3935
232.607 -717.068 3907
241.95 -717.068 3907
251.292 -717.068 3907
260.635 -717.068 3907
269.978 -717.068 3907
279.321 -717.068 3907
287.999 -715.416 3898
294.574 -708.809 3862
302.393 -705.505 3844
308.019 -697.43 3800
317.857 -699.082 3809
326.966 -699.082 3809
336.074 -699.082 3809
345.182 -699.082 3809
354.291 -699.082 3809
363.399 -699.082 3809
371.628 -697.43 3800
379.913 -695.961 3792
389.802 -697.43 3800
398.889 -697.43 3800
408.942 -699.082 3809
419.038 -700.733 3818
429.065 -702.202 3826
438.214 -702.202 3826
448.416 -703.853 3835
457.586 -703.853 3835
466.757 -703.853 3835
474.811 -702.202 3826
485.098 -703.853 3835
498.909 -710.461 3871
511.71 -715.416 3898
521.031 -715.416 3898
534.026 -720.372 3925
543.412 -720.372 3925
552.798 -720.372 3925
1760.16 -746.8 4069
1769.9 -746.8 4069
1779.63 -746.8 4069
1789.36 -746.8 4069
1799.09 -746.8 4069
1795.48 -741.294 4039
1814.08 -744.965 4059
1823.78 -744.965 4059
1833.49 -744.965 4059
1843.2 -744.965 4059
1852.9 -744.965 4059
1853.43 -741.294 4039
1863.09 -741.294 4039
