482.436 -436.794 3675
491.224 -436.794 3675
500.012 -436.794 3675
508.8 -436.794 3675
516.461 -435.843 3667
525.23 -435.843 3667
533.999 -435.843 3667
541.436 -434.773 3658
550.183 -434.773 3658
585.975 -455.811 3835
595.146 -455.811 3835
615.662 -464.368 3907
626.445 -465.438 3916
640.356 -468.766 3944
649.787 -468.766 3944
662.394 -471.024 3963
671.871 -471.024 3963
681.347 -471.024 3963
690.824 -471.024 3963
695.353 -467.696 3935
701.36 -465.438 3916
710.724 -465.438 3916
708.504 -457.95 3853
714.365 -455.811 3835
721.837 -454.741 3826
736.145 -457.95 3853
747.1 -459.02 3862
756.335 -459.02 3862
765.57 -459.02 3862
774.805 -459.02 3862
784.04 -459.02 3862
1059.07 -478.987 4030
1068.71 -478.987 4030
1078.34 -478.987 4030
1080.15 -475.54 4001
1089.72 -475.54 4001
1083.63 -468.766 3944
1103.59 -473.282 3982
1131.84 -481.246 4049
1141.52 -481.246 4049
1151.21 -481.246 4049
1160.89 -481.246 4049
1167.68 -480.057 4039
1177.34 -480.057 4039
1178.47 -476.61 4010
1196.65 -480.057 4039
1206.31 -480.057 4039
1215.97 -480.057 4039
1225.63 -480.057 4039
1235.29 -480.057 4039
1244.95 -480.057 4039
1254.61 -480.057 4039
1258.32 -477.799 4020
1264.78 -476.61 4010
1280.72 -478.987 4030
1293.24 -480.057 4039
1302.9 -480.057 4039
1312.56 -480.057 4039
1325.49 -481.246 4049
1335.17 -481.246 4049
1344.85 -481.246 4049
1354.54 -481.246 4049
1360.85 -480.057 4039
1370.51 -480.057 4039
1380.17 -480.057 4039
1386.73 -478.987 4030
1396.36 -478.987 4030
1402.51 -477.799 4020
1412.13 -477.799 4020
1415.02 -475.54 4001
1417.82 -473.282 3982
1406.91 -466.508 3925
1416.3 -466.508 3925
1429.32 -467.696 3935
1438.73 -467.696 3935
1448.14 -467.696 3935
1457.54 -467.696 3935
1466.95 -467.696 3935
2402.27 -477.799 4020
2435.28 -482.434 4059
2444.99 -482.434 4059
2454.69 -482.434 4059
2452.26 -480.057 4039
2637.8 -450.7 3792
2646.87 -450.7 3792
2655.94 -450.7 3792
2646.73 -447.609 3766
2655.74 -447.609 3766
2658.37 -446.54 3757
2661.68 -445.589 3749
2670.64 -445.589 3749
2685.33 -446.54 3757
2706.5 -448.56 3774
2715.53 -448.56 3774
2743.32 -451.651 3800
2810.35 -461.159 3880
2832.71 -463.298 3898
2842.03 -463.298 3898
2871.11 -466.508 3925
2908.38 -471.024 3963
2945.83 -475.54 4001
2955.4 -475.54 4001
2964.97 -475.54 4001
2960.41 -473.282 3982
2969.93 -473.282 3982
2971.97 -472.094 3972
2988.98 -473.282 3982
2998.5 -473.282 3982
3008.02 -473.282 3982
3009.97 -472.094 3972
3019.47 -472.094 3972
3022.1 -471.024 3963
3031.58 -471.024 3963
-2345.29 -383.153 3290
-2360.87 -386.996 3323
-2367.09 -389.325 3343
-2359.09 -389.325 3343
-2365.16 -391.655 3363
-2357.12 -391.655 3363
-2349.08 -391.655 3363
-2402.77 -409.007 3512
-2399.82 -409.939 3520
-2432.17 -416.926 3580
-2423.61 -416.926 3580
-2435.96 -420.537 3611
-2432.7 -421.468 3619
-2424.05 -421.468 3619
-2436.08 -425.079 3650
-2438.66 -427.058 3667
-2451.1 -430.785 3699
-2442.25 -430.785 3699
-2438.67 -431.717 3707
-2429.8 -431.717 3707
-2437.27 -434.628 3732
-2428.34 -434.628 3732
-2430.44 -436.608 3749
-2443.43 -440.568 3783
-2434.39 -440.568 3783
-2425.34 -440.568 3783
-2416.3 -440.568 3783
-2364.61 -432.765 3716
-2355.73 -432.765 3716
-2326 -428.922 3683
-2301.47 -426.01 3658
-2292.72 -426.01 3658
-1369.78 -409.007 3512
-1361.38 -409.007 3512
-1352.99 -409.007 3512
-1344.59 -409.007 3512
-1336.19 -409.007 3512
-1327.79 -409.007 3512
-1300.23 -403.068 3461
-1253.13 -390.956 3357
-1239.91 -389.325 3343
-1231.92 -389.325 3343
-1221.73 -388.627 3337
-1203.93 -385.482 3310
-1172.89 -378.029 3246
-1165.13 -378.029 3246
-1154.87 -377.214 3239
-1147.12 -377.214 3239
-1137.27 -376.515 3233
-1129.54 -376.515 3233
-1117.64 -375.117 3221
-1105.46 -373.603 3208
-1095.73 -372.905 3202
-1088.08 -372.905 3202
-1080.42 -372.905 3202
-1066.73 -370.808 3184
-1057.12 -370.11 3178
-1047.54 -369.411 3172
-1039.96 -369.411 3172
-1024.56 -366.616 3148
-544.377 -196.235 1685
-540.348 -196.235 1685
-536.319 -196.235 1685
-532.289 -196.235 1685
-528.26 -196.235 1685
-522.675 -195.653 1680
-518.04 -195.42 1678
-511.577 -194.488 1670
-507.583 -194.488 1670
-499.971 -193.091 1658
-492.716 -191.809 1647
-485.513 -190.528 1636
-481.601 -190.528 1636
-475.353 -189.597 1628
-468.564 -188.432 1618
-462.397 -187.5 1610
-458.547 -187.5 1610
-453.567 -187.035 1606
-448.327 -186.452 1601
-443.11 -185.87 1596
-439.293 -185.87 1596
-433.84 -185.171 1590
-427.333 -184.007 1580
-421.946 -183.308 1574
-416.854 -182.726 1569
-413.102 -182.726 1569
-408.306 -182.26 1565
-403.53 -181.794 1561
-399.285 -181.561 1559
-395.557 -181.561 1559
-391.578 -181.445 1558
-387.852 -181.445 1558
-384.126 -181.445 1558
-380.645 -181.561 1559
-376.917 -181.561 1559
-373.667 -181.794 1561
-369.935 -181.794 1561
-366.436 -181.91 1562
-362.701 -181.91 1562
-359.885 -182.376 1566
-356.823 -182.726 1569
-353.071 -182.726 1569
-349.319 -182.726 1569
-346.668 -183.308 1574
-342.904 -183.308 1574
-340.002 -183.774 1578
-336.229 -183.774 1578
-333.509 -184.356 1583
-330.973 -185.055 1589
-327.997 -185.521 1593
-324.187 -185.521 1593
-320.981 -185.87 1596
-317.562 -186.103 1598
-313.937 -186.219 1599
-310.114 -186.219 1599
-306.673 -186.452 1601
-303.412 -186.802 1604
-299.576 -186.802 1604
-295.741 -186.802 1604
-292.451 -187.151 1607
-288.967 -187.384 1609
-285.651 -187.733 1612
-281.971 -187.85 1613
-278.114 -187.85 1613
-275.107 -188.432 1618
-272.244 -189.131 1624
-269.021 -189.597 1628
-265.128 -189.597 1628
-261.396 -189.713 1629
-257.817 -189.946 1631
-254.072 -190.063 1632
-250.169 -190.063 1632
-246.267 -190.063 1632
-243.404 -190.878 1639
-239.484 -190.878 1639
-235.565 -190.878 1639
-232.07 -191.227 1642
-228.977 -191.926 1648
-225.719 -192.508 1653
-221.766 -192.508 1653
-218.999 -193.556 1662
-216.06 -194.488 1670
-213.59 -195.886 1682
-209.568 -195.886 1682
-205.668 -196.002 1683
-202.482 -196.817 1690
-199.028 -197.4 1695
-194.975 -197.4 1695
-191.935 -198.448 1704
-188.411 -199.03 1709
-184.54 -199.263 1711
-180.449 -199.263 1711
-176.77 -199.729 1715
-172.769 -199.845 1716
-169.256 -200.544 1722
-165.138 -200.544 1722
-161.3 -200.893 1725
-157.722 -201.592 1731
-153.583 -201.592 1731
-149.443 -201.592 1731
-145.388 -201.709 1732
-141.736 -202.407 1738
-137.579 -202.407 1738
-133.423 -202.407 1738
-129.267 -202.407 1738
-124.823 -201.941 1734
-121.094 -202.64 1740
-116.933 -202.64 1740
-113.097 -203.223 1745
-108.924 -203.223 1745
-104.751 -203.223 1745
-189.593 -437.54 3757
-180.609 -437.54 3757
-171.625 -437.54 3757
-162.641 -437.54 3757
-153.33 -436.608 3749
-144.018 -435.56 3740
-135.4 -436.608 3749
-126.435 -436.608 3749
-117.72 -437.54 3757
-108.997 -438.588 3766
-99.9911 -438.588 3766
-90.9854 -438.588 3766
-81.9798 -438.588 3766
-72.7997 -437.54 3757
-64.1043 -439.52 3774
-55.0796 -439.52 3774
-46.2744 -441.616 3792
-37.2851 -442.548 3800
-28.1982 -442.548 3800
-19.1112 -442.548 3800
-10.0032 -441.616 3792
-0.93312 -440.568 3783
8.09388 -439.52 3774
17.1187 -439.52 3774
26.1434 -439.52 3774
35.0937 -438.588 3766
43.9939 -437.54 3757
53.105 -438.588 3766
62.1106 -438.588 3766
71.1162 -438.588 3766
80.1219 -438.588 3766
89.1275 -438.588 3766
97.8987 -437.54 3757
106.399 -435.56 3740
115.096 -434.628 3732
124.02 -434.628 3732
132.66 -433.697 3724
141.261 -432.765 3716
149.46 -430.785 3699
158.305 -430.785 3699
166.789 -429.854 3691
174.854 -427.99 3675
183.642 -427.99 3675
192.43 -427.99 3675
200.78 -427.058 3667
209.549 -427.058 3667
217.782 -426.01 3658
226.53 -426.01 3658
235.277 -426.01 3658
244.025 -426.01 3658
252.772 -426.01 3658
260.947 -425.079 3650
269.676 -425.079 3650
277.26 -423.332 3635
285.952 -423.332 3635
295.212 -424.147 3642
304.589 -425.079 3650
313.317 -425.079 3650
322.751 -426.01 3658
332.314 -427.058 3667
341.083 -427.058 3667
349.852 -427.058 3667
358.621 -427.058 3667
367.39 -427.058 3667
376.159 -427.058 3667
383.983 -426.01 3658
391.871 -425.079 3650
400.599 -425.079 3650
409.328 -425.079 3650
417.14 -424.147 3642
425.849 -424.147 3642
434.558 -424.147 3642
444.241 -425.079 3650
453.962 -426.01 3658
462.709 -426.01 3658
472.617 -427.058 3667
481.385 -427.058 3667
491.224 -427.99 3675
500.012 -427.99 3675
508.8 -427.99 3675
516.461 -427.058 3667
525.23 -427.058 3667
533.999 -427.058 3667
541.436 -426.01 3658
615.662 -455.009 3907
626.445 -456.057 3916
638.894 -458.27 3935
648.304 -458.27 3935
657.714 -458.27 3935
667.124 -458.27 3935
676.533 -458.27 3935
685.943 -458.27 3935
691.995 -456.057 3916
688.465 -447.672 3844
697.657 -447.672 3844
705.194 -446.624 3835
704.678 -440.568 3783
710.517 -438.588 3766
730.986 -445.576 3826
740.135 -445.576 3826
749.285 -445.576 3826
1059.07 -469.333 4030
1068.71 -469.333 4030
1078.34 -469.333 4030
1080.15 -465.956 4001
1089.72 -465.956 4001
1083.63 -459.318 3944
1103.59 -463.743 3982
1131.84 -471.546 4049
1141.52 -471.546 4049
1151.21 -471.546 4049
1166.62 -473.875 4069
1176.35 -473.875 4069
1186.08 -473.875 4069
1192.87 -472.711 4059
1211.47 -476.205 4089
1221.25 -476.205 4089
1231.02 -476.205 4089
1240.8 -476.205 4089
1247.52 -475.04 4079
1254.19 -473.875 4069
1263.92 -473.875 4069
1267.39 -471.546 4049
1267.93 -468.169 4020
1274.36 -467.004 4010
1287.16 -468.169 4020
1296.77 -468.169 4020
1306.38 -468.169 4020
1315.99 -468.169 4020
1328.91 -469.333 4030
1338.54 -469.333 4030
1348.18 -469.333 4030
1357.82 -469.333 4030
1367.45 -469.333 4030
1377.09 -469.333 4030
1386.73 -469.333 4030
1396.36 -469.333 4030
1402.51 -468.169 4020
1412.13 -468.169 4020
1408.3 -463.743 3982
1401.09 -458.27 3935
1406.91 -457.105 3925
1416.3 -457.105 3925
1429.32 -458.27 3935
1438.73 -458.27 3935
1448.14 -458.27 3935
1457.54 -458.27 3935
1466.95 -458.27 3935
2402.27 -468.169 4020
2435.28 -472.711 4059
2457.03 -475.04 4079
2466.79 -475.04 4079
2476.54 -475.04 4079
2637.8 -441.616 3792
2646.87 -441.616 3792
2655.94 -441.616 3792
2665 -441.616 3792
2674.07 -441.616 3792
2658.37 -437.54 3757
2667.36 -437.54 3757
2670.64 -436.608 3749
2685.33 -437.54 3757
2712.96 -440.568 3783
2722 -440.568 3783
2749.82 -443.596 3809
2803.84 -450.816 3871
2832.71 -453.961 3898
2842.03 -453.961 3898
2864.52 -456.057 3916
2901.04 -460.366 3953
2917.86 -461.531 3963
2927.33 -461.531 3963
2936.81 -461.531 3963
2938.85 -460.366 3953
2948.31 -460.366 3953
2957.76 -460.366 3953
2974.72 -461.531 3963
2984.19 -461.531 3963
2993.67 -461.531 3963
2995.57 -460.366 3953
3005.02 -460.366 3953
3014.47 -460.366 3953
3023.93 -460.366 3953
-2384.71 -379.036 3323
-2376.76 -379.036 3323
-2368.82 -379.036 3323
-2375.08 -381.317 3343
-2381.25 -383.599 3363
-2373.21 -383.599 3363
-2384.86 -386.792 3391
-2376.75 -386.792 3391
-2368.64 -386.792 3391
-2360.53 -386.792 3391
-2409.23 -398.883 3497
-2400.87 -398.883 3497
-2402.77 -400.594 3512
-2399.82 -401.507 3520
-2426.73 -407.438 3572
-2418.19 -407.438 3572
-2430.56 -410.974 3603
-2432.7 -412.799 3619
-2424.05 -412.799 3619
-2420.73 -413.712 3627
-2427.36 -416.335 3650
-2445.8 -421.012 3691
-2436.97 -421.012 3691
-2438.67 -422.837 3707
-2435.7 -423.863 3716
-2437.27 -425.688 3732
-2428.34 -425.688 3732
-2441.46 -429.567 3766
-2466.04 -435.498 3818
-2456.91 -435.498 3818
-2447.78 -435.498 3818
-2438.65 -435.498 3818
-2374.8 -425.688 3732
-2365.87 -425.688 3732
-2346.84 -423.863 3716
-2317.19 -420.099 3683
-2298.36 -418.274 3667
-1369.78 -400.594 3512
-1361.38 -400.594 3512
-1352.99 -400.594 3512
-1338.84 -398.883 3497
-1316.79 -394.777 3461
-1308.51 -394.777 3461
-1289.71 -391.583 3433
-1245.67 -380.633 3337
-1230.27 -378.352 3317
-1222.34 -378.352 3317
-1209.28 -376.755 3303
-1194.47 -374.587 3284
-1172.89 -370.253 3246
-1165.13 -370.253 3246
-1154.87 -369.455 3239
-1147.12 -369.455 3239
-1135.16 -368.086 3227
-1127.44 -368.086 3227
-1115.21 -366.603 3214
-1105.46 -365.919 3208
-1093.68 -364.55 3196
-1086.04 -364.55 3196
-1078.4 -364.55 3196
-1066.73 -363.181 3184
-1057.12 -362.497 3178
-1045.56 -361.128 3166
-1037.99 -361.128 3166
-1024.56 -359.075 3148
-544.377 -192.199 1685
-540.989 -192.427 1687
-536.955 -192.427 1687
-532.921 -192.427 1687
-528.26 -192.199 1685
-523.297 -191.856 1682
-515.57 -190.488 1670
-510.964 -190.259 1668
-506.976 -190.259 1668
-497.559 -188.206 1650
-489.425 -186.609 1636
-483.435 -185.811 1629
-479.54 -185.811 1629
-473.309 -184.898 1621
-466.826 -183.872 1612
-461.248 -183.187 1606
-457.408 -183.187 1606
-452.72 -182.845 1603
-447.487 -182.275 1598
-442.277 -181.705 1593
-438.468 -181.705 1593
-433.84 -181.362 1590
-427.333 -180.222 1580
-421.946 -179.537 1574
-416.854 -178.967 1569
-413.102 -178.967 1569
-408.306 -178.511 1565
-403.53 -178.055 1561
-399.285 -177.826 1559
-395.557 -177.826 1559
-391.578 -177.712 1558
-387.354 -177.484 1556
-384.126 -177.712 1558
-380.401 -177.712 1558
-376.675 -177.712 1558
-373.189 -177.826 1559
-369.461 -177.826 1559
-366.202 -178.055 1561
-362.469 -178.055 1561
-359.655 -178.511 1565
-356.595 -178.853 1568
-353.071 -178.967 1569
-349.319 -178.967 1569
-346.668 -179.537 1574
-342.904 -179.537 1574
-340.002 -179.994 1578
-336.229 -179.994 1578
-333.509 -180.564 1583
-330.973 -181.248 1589
-328.408 -181.933 1595
-324.594 -181.933 1595
-321.384 -182.275 1598
-317.761 -182.389 1599
-314.33 -182.617 1601
-310.501 -182.617 1601
-307.056 -182.845 1603
-303.412 -182.959 1604
-300.137 -183.301 1607
-296.294 -183.301 1607
-292.451 -183.301 1607
-288.967 -183.53 1609
-285.829 -183.986 1613
-281.971 -183.986 1613
-278.459 -184.214 1615
-275.447 -184.784 1620
-272.244 -185.241 1624
-269.021 -185.697 1628
-265.128 -185.697 1628
-261.396 -185.811 1629
-257.817 -186.039 1631
-254.072 -186.153 1632
-250.169 -186.153 1632
-246.267 -186.153 1632
-243.404 -186.952 1639
-239.484 -186.952 1639
-235.565 -186.952 1639
-232.07 -187.294 1642
-228.977 -187.978 1648
-225.719 -188.548 1653
-221.766 -188.548 1653
-218.999 -189.575 1662
-216.06 -190.488 1670
-213.59 -191.856 1682
-209.568 -191.856 1682
-205.912 -192.199 1685
-202.722 -192.997 1692
-199.263 -193.567 1697
-195.205 -193.567 1697
-191.935 -194.366 1704
-188.411 -194.936 1709
-184.54 -195.164 1711
-180.449 -195.164 1711
-176.77 -195.62 1715
-172.971 -195.963 1718
-169.256 -196.419 1722
-165.138 -196.419 1722
-161.3 -196.761 1725
-157.722 -197.445 1731
-153.583 -197.445 1731
-149.443 -197.445 1731
-145.556 -197.788 1734
-141.736 -198.244 1738
-137.579 -198.244 1738
-133.423 -198.244 1738
-129.267 -198.244 1738
-124.823 -197.788 1734
-120.816 -198.016 1736
-116.665 -198.016 1736
-112.967 -198.814 1743
-108.799 -198.814 1743
-104.631 -198.814 1743
-208.059 -429.567 3766
-199.053 -429.567 3766
-190.048 -429.567 3766
-181.042 -429.567 3766
-172.036 -429.567 3766
-162.641 -428.54 3757
-153.33 -427.627 3749
-144.365 -427.627 3749
-135.4 -427.627 3749
-126.435 -427.627 3749
-117.72 -428.54 3757
-108.997 -429.567 3766
-99.9911 -429.567 3766
-90.9854 -429.567 3766
-81.9798 -429.567 3766
-72.6447 -427.627 3749
-64.1043 -430.479 3774
-55.0796 -430.479 3774
-46.1646 -431.506 3783
-37.2066 -432.532 3792
-28.1388 -432.532 3792
-19.071 -432.532 3792
-9.97942 -431.506 3783
-0.93312 -431.506 3783
8.09388 -430.479 3774
17.1187 -430.479 3774
26.088 -429.567 3766
35.0098 -428.54 3757
43.9939 -428.54 3757
53.105 -429.567 3766
62.1106 -429.567 3766
71.1162 -429.567 3766
79.9304 -428.54 3757
88.9146 -428.54 3757
97.4557 -426.601 3740
106.172 -425.688 3732
114.602 -423.863 3716
123.489 -423.863 3716
132.375 -423.863 3716
140.614 -421.924 3699
149.137 -421.012 3691
157.963 -421.012 3691
166.066 -419.187 3675
174.474 -418.274 3667
183.243 -418.274 3667
192.011 -418.274 3667
200.288 -417.248 3658
209.035 -417.248 3658
217.782 -417.248 3658
226.53 -417.248 3658
235.277 -417.248 3658
244.025 -417.248 3658
252.772 -417.248 3658
260.947 -416.335 3650
269.676 -416.335 3650
277.26 -414.624 3635
285.952 -414.624 3635
295.212 -415.423 3642
304.589 -416.335 3650
313.317 -416.335 3650
322.751 -417.248 3658
331.498 -417.248 3658
340.246 -417.248 3658
348.993 -417.248 3658
357.741 -417.248 3658
366.488 -417.248 3658
375.235 -417.248 3658
383.143 -416.335 3650
391.012 -415.423 3642
399.721 -415.423 3642
408.431 -415.423 3642
417.14 -415.423 3642
425.849 -415.423 3642
434.558 -415.423 3642
443.267 -415.423 3642
452.969 -416.335 3650
461.697 -416.335 3650
471.457 -417.248 3658
481.385 -418.274 3667
491.224 -419.187 3675
500.012 -419.187 3675
508.8 -419.187 3675
515.194 -417.248 3658
523.941 -417.248 3658
532.688 -417.248 3658
541.436 -417.248 3658
615.662 -445.65 3907
626.445 -446.676 3916
638.894 -448.843 3935
648.304 -448.843 3935
657.714 -448.843 3935
667.124 -448.843 3935
676.533 -448.843 3935
685.943 -448.843 3935
688.815 -444.623 3898
686.853 -437.437 3835
696.023 -437.437 3835
697.287 -432.532 3792
699.835 -428.54 3757
701.084 -423.863 3716
705.194 -421.012 3691
714.02 -421.012 3691
722.846 -421.012 3691
1166.62 -464.128 4069
1176.35 -464.128 4069
1186.08 -464.128 4069
1192.87 -462.987 4059
1211.47 -466.409 4089
1221.25 -466.409 4089
1231.02 -466.409 4089
1240.8 -466.409 4089
1250.58 -466.409 4089
1260.36 -466.409 4089
1270.14 -466.409 4089
1273.65 -464.128 4069
1277.08 -461.847 4049
1277.54 -458.539 4020
1287.16 -458.539 4020
1296.77 -458.539 4020
1306.38 -458.539 4020
1315.99 -458.539 4020
1325.61 -458.539 4020
1335.22 -458.539 4020
1344.83 -458.539 4020
1351.08 -457.398 4010
1360.67 -457.398 4010
1370.26 -457.398 4010
1379.84 -457.398 4010
1382.85 -455.231 3991
1389.25 -454.204 3982
1398.78 -454.204 3982
1388.14 -447.703 3925
1394.32 -446.676 3916
1390.78 -442.57 3880
1400.06 -442.57 3880
1419.15 -445.65 3907
1428.49 -445.65 3907
1437.83 -445.65 3907
1447.17 -445.65 3907
1456.52 -445.65 3907
2354.59 -453.064 3972
2364.09 -453.064 3972
2373.58 -453.064 3972
2405.88 -457.398 4010
2457.03 -465.269 4079
2466.79 -465.269 4079
2482.61 -466.409 4089
2492.39 -466.409 4089
2502.17 -466.409 4089
2531.5 -466.409 4089
2541.28 -466.409 4089
2551.06 -466.409 4089
2580.39 -466.409 4089
2590.17 -466.409 4089
2599.95 -466.409 4089
2603.35 -465.269 4079
2613.1 -465.269 4079
2622.85 -465.269 4079
2717.29 -466.409 4089
2727.06 -466.409 4089
2736.84 -466.409 4089
2726.47 -462.987 4059
2736.18 -462.987 4059
2712.73 -457.398 4010
2677.52 -449.87 3944
2686.95 -449.87 3944
2696.38 -449.87 3944
2699.64 -448.843 3935
2709.05 -448.843 3935
2646.76 -435.498 3818
2655.89 -435.498 3818
2665.02 -435.498 3818
2661.54 -433.445 3800
2665 -432.532 3792
2674.07 -432.532 3792
2664.74 -429.567 3766
2667.36 -428.54 3757
2676.34 -428.54 3757
2697.48 -430.479 3774
2719.41 -432.532 3792
2728.48 -432.532 3792
2749.82 -434.471 3809
2790.8 -439.49 3853
2813.09 -441.543 3871
2822.35 -441.543 3871
2838.19 -442.57 3880
2880.49 -447.703 3925
2897.24 -448.843 3935
2906.65 -448.843 3935
2916.06 -448.843 3935
2925.47 -448.843 3935
2934.88 -448.843 3935
2930.07 -446.676 3916
2953.7 -448.843 3935
2963.11 -448.843 3935
2972.52 -448.843 3935
2981.93 -448.843 3935
3005.02 -450.897 3953
3014.47 -450.897 3953
3023.93 -450.897 3953
-2388.34 -370.406 3317
-2389.73 -371.857 3330
-2381.77 -371.857 3330
-2373.81 -371.857 3330
-2394.26 -376.324 3370
-2401.07 -378.669 3391
-2392.96 -378.669 3391
-2389.78 -379.451 3398
-2381.65 -379.451 3398
-2373.53 -379.451 3398
-2360.53 -378.669 3391
-2381.56 -383.359 3433
-2392.7 -386.486 3461
-2409.23 -390.506 3497
-2400.87 -390.506 3497
-2392.51 -390.506 3497
-2399.82 -393.074 3520
-2416.54 -397.206 3557
-2408.04 -397.206 3557
-2425.17 -401.45 3595
-2421.95 -402.343 3603
-2413.33 -402.343 3603
-2415.39 -404.13 3619
-2427.36 -407.591 3650
-2440.49 -411.277 3683
-2431.69 -411.277 3683
-2444.59 -414.962 3716
-2446.19 -416.748 3732
-2448.37 -418.647 3749
-2439.4 -418.647 3749
-2469.34 -425.347 3809
-2466.04 -426.352 3818
-2456.91 -426.352 3818
-2447.78 -426.352 3818
-2438.65 -426.352 3818
-2418.07 -424.342 3800
-2408.98 -424.342 3800
-2389.16 -422.443 3783
-2380.11 -422.443 3783
-2298.36 -409.49 3667
-1341.7 -384.141 3440
-1333.47 -384.141 3440
-1325.25 -384.141 3440
-1317.02 -384.141 3440
-1308.8 -384.141 3440
-1300.57 -384.141 3440
-1268.68 -377.106 3377
-1232.98 -368.842 3303
-1218.03 -366.721 3284
-1210.18 -366.721 3284
-1197.57 -365.269 3271
-1182.83 -363.147 3252
-1170.36 -361.696 3239
-1162.61 -361.696 3239
-1148.45 -359.685 3221
-1140.75 -359.685 3221
-1130.58 -358.904 3214
-1122.9 -358.904 3214
-1113.13 -358.234 3208
-1101.32 -356.894 3196
-1089.57 -355.554 3184
-1081.96 -355.554 3184
-1074.35 -355.554 3184
-1064.72 -354.884 3178
-1053.13 -353.544 3166
-1043.58 -352.874 3160
-1036.02 -352.874 3160
-1024.56 -351.534 3148
-545.023 -188.385 1687
-540.989 -188.385 1687
-536.955 -188.385 1687
-532.921 -188.385 1687
-528.887 -188.385 1687
-523.608 -187.939 1683
-515.57 -186.487 1670
-510.964 -186.264 1668
-506.976 -186.264 1668
-496.956 -184.03 1648
-488.827 -182.467 1634
-481.952 -181.35 1624
-478.068 -181.35 1624
-473.309 -181.015 1621
-466.826 -180.01 1612
-461.248 -179.34 1606
-457.408 -179.34 1606
-452.155 -178.782 1601
-446.926 -178.224 1596
-441.999 -177.777 1592
-437.367 -177.442 1589
-433.567 -177.442 1589
-427.333 -176.437 1580
-421.946 -175.767 1574
-416.854 -175.208 1569
-413.102 -175.208 1569
-408.306 -174.762 1565
-403.53 -174.315 1561
-399.285 -174.092 1559
-395.557 -174.092 1559
-391.578 -173.98 1558
-387.354 -173.757 1556
-384.126 -173.98 1558
-380.401 -173.98 1558
-376.675 -173.98 1558
-373.189 -174.092 1559
-369.461 -174.092 1559
-366.202 -174.315 1561
-362.469 -174.315 1561
-359.655 -174.762 1565
-356.595 -175.097 1568
-353.071 -175.208 1569
-349.319 -175.208 1569
-346.668 -175.767 1574
-343.122 -175.878 1575
-340.002 -176.214 1578
-336.229 -176.214 1578
-333.719 -176.884 1584
-331.181 -177.554 1590
-328.408 -178.112 1595
-324.594 -178.112 1595
-321.384 -178.447 1598
-318.158 -178.782 1601
-314.723 -179.005 1603
-310.889 -179.005 1603
-307.056 -179.005 1603
-303.412 -179.117 1604
-300.137 -179.452 1607
-296.294 -179.452 1607
-292.815 -179.675 1609
-289.147 -179.787 1610
-285.829 -180.122 1613
-281.971 -180.122 1613
-278.459 -180.345 1615
-275.447 -180.904 1620
-272.244 -181.35 1624
-269.021 -181.797 1628
-265.128 -181.797 1628
-261.396 -181.909 1629
-257.817 -182.132 1631
-254.072 -182.244 1632
-250.169 -182.244 1632
-246.267 -182.244 1632
-243.404 -183.025 1639
-239.484 -183.025 1639
-235.565 -183.025 1639
-232.07 -183.36 1642
-228.977 -184.03 1648
-225.719 -184.589 1653
-221.766 -184.589 1653
-218.999 -185.594 1662
-216.318 -186.71 1672
-213.59 -187.827 1682
-209.568 -187.827 1682
-206.157 -188.385 1687
-202.961 -189.167 1694
-199.497 -189.725 1699
-195.435 -189.725 1699
-191.935 -190.284 1704
-188.632 -191.065 1711
-184.756 -191.289 1713
-180.66 -191.289 1713
-176.77 -191.512 1715
-173.373 -192.294 1722
-169.55 -192.629 1725
-165.425 -192.629 1725
-161.674 -193.076 1729
-157.722 -193.299 1731
-153.671 -193.411 1732
-149.53 -193.411 1732
-145.556 -193.634 1734
-141.736 -194.081 1738
-137.579 -194.081 1738
-133.423 -194.081 1738
-129.267 -194.081 1738
-124.823 -193.634 1734
-120.816 -193.857 1736
-116.665 -193.857 1736
-112.967 -194.639 1743
-108.799 -194.639 1743
-104.631 -194.639 1743
-208.501 -421.438 3774
-199.476 -421.438 3774
-190.451 -421.438 3774
-181.042 -420.545 3766
-172.036 -420.545 3766
-162.641 -419.54 3757
-153.33 -418.647 3749
-144.365 -418.647 3749
-135.4 -418.647 3749
-126.435 -418.647 3749
-117.72 -419.54 3757
-108.997 -420.545 3766
-99.9911 -420.545 3766
-90.9854 -420.545 3766
-81.9798 -420.545 3766
-72.6447 -418.647 3749
-64.1043 -421.438 3774
-55.0796 -421.438 3774
-46.1646 -422.443 3783
-37.2066 -423.448 3792
-28.1388 -423.448 3792
-19.071 -423.448 3792
-9.97942 -422.443 3783
-0.93312 -422.443 3783
8.09388 -421.438 3774
17.1187 -421.438 3774
26.088 -420.545 3766
35.0098 -419.54 3757
43.9939 -419.54 3757
53.105 -420.545 3766
62.1106 -420.545 3766
71.1162 -420.545 3766
79.9304 -419.54 3757
88.9146 -419.54 3757
97.4557 -417.642 3740
106.172 -416.748 3732
114.602 -414.962 3716
123.489 -414.962 3716
132.375 -414.962 3716
140.614 -413.063 3699
149.137 -412.17 3691
157.963 -412.17 3691
166.066 -410.383 3675
174.474 -409.49 3667
183.243 -409.49 3667
192.011 -409.49 3667
200.288 -408.485 3658
209.035 -408.485 3658
217.782 -408.485 3658
226.53 -408.485 3658
235.277 -408.485 3658
244.025 -408.485 3658
252.772 -408.485 3658
260.947 -407.591 3650
269.676 -407.591 3650
277.26 -405.916 3635
286.503 -406.698 3642
295.86 -407.591 3650
304.589 -407.591 3650
313.317 -407.591 3650
322.751 -408.485 3658
331.498 -408.485 3658
340.246 -408.485 3658
348.993 -408.485 3658
357.741 -408.485 3658
366.488 -408.485 3658
375.235 -408.485 3658
383.143 -407.591 3650
391.012 -406.698 3642
399.721 -406.698 3642
408.431 -406.698 3642
417.14 -406.698 3642
425.849 -406.698 3642
434.558 -406.698 3642
443.267 -406.698 3642
452.969 -407.591 3650
461.697 -407.591 3650
471.457 -408.485 3658
481.385 -409.49 3667
491.224 -410.383 3675
500.012 -410.383 3675
508.8 -410.383 3675
515.194 -408.485 3658
523.941 -408.485 3658
532.688 -408.485 3658
541.436 -408.485 3658
615.662 -436.29 3907
626.445 -437.295 3916
638.894 -439.417 3935
648.304 -439.417 3935
657.714 -439.417 3935
667.124 -439.417 3935
676.533 -439.417 3935
685.943 -439.417 3935
688.815 -435.285 3898
690.076 -430.26 3853
699.29 -430.26 3853
700.413 -425.347 3809
699.835 -419.54 3757
701.084 -414.962 3716
705.194 -412.17 3691
714.02 -412.17 3691
722.846 -412.17 3691
730.087 -411.277 3683
1166.62 -454.381 4069
1176.35 -454.381 4069
1186.08 -454.381 4069
1192.87 -453.264 4059
1211.47 -456.614 4089
1221.25 -456.614 4089
1231.02 -456.614 4089
1240.8 -456.614 4089
1250.58 -456.614 4089
1260.36 -456.614 4089
1270.14 -456.614 4089
1276.78 -455.497 4079
1280.23 -453.264 4059
1277.54 -448.909 4020
1290.36 -450.026 4030
1299.99 -450.026 4030
1309.63 -450.026 4030
1319.27 -450.026 4030
1328.91 -450.026 4030
1338.54 -450.026 4030
1348.18 -450.026 4030
1357.82 -450.026 4030
1367.45 -450.026 4030
1377.09 -450.026 4030
1383.29 -448.909 4020
1386.32 -446.787 4001
1389.25 -444.665 3982
1398.78 -444.665 3982
1391.68 -439.417 3935
1394.32 -437.295 3916
1390.78 -433.275 3880
1400.06 -433.275 3880
1419.15 -436.29 3907
1428.49 -436.29 3907
1437.83 -436.29 3907
1447.17 -436.29 3907
1456.52 -436.29 3907
2354.59 -443.549 3972
2364.09 -443.549 3972
2373.58 -443.549 3972
2405.88 -447.792 4010
2457.03 -455.497 4079
2466.79 -455.497 4079
2482.61 -456.614 4089
2492.39 -456.614 4089
2502.17 -456.614 4089
2511.95 -456.614 4089
2521.73 -456.614 4089
2531.5 -456.614 4089
2541.28 -456.614 4089
2551.06 -456.614 4089
2560.84 -456.614 4089
2564.33 -455.497 4079
2580.39 -456.614 4089
2590.17 -456.614 4089
2599.95 -456.614 4089
2609.73 -456.614 4089
2613.1 -455.497 4079
2622.85 -455.497 4079
2632.61 -455.497 4079
2642.36 -455.497 4079
2691.13 -455.497 4079
2700.89 -455.497 4079
2717.29 -456.614 4089
2727.06 -456.614 4089
2736.84 -456.614 4089
2726.47 -453.264 4059
2736.18 -453.264 4059
2712.73 -447.792 4010
2683.63 -441.427 3953
2686.95 -440.422 3944
2696.38 -440.422 3944
2699.64 -439.417 3935
2709.05 -439.417 3935
2674.24 -432.27 3871
2683.5 -432.27 3871
2692.75 -432.27 3871
2702.01 -432.27 3871
2674.15 -426.352 3818
2683.28 -426.352 3818
2692.41 -426.352 3818
2683.14 -423.448 3792
2692.21 -423.448 3792
2701.28 -423.448 3792
2710.34 -423.448 3792
2731.6 -425.347 3809
2740.71 -425.347 3809
2756.32 -426.352 3818
2790.8 -430.26 3853
2813.09 -432.27 3871
2822.35 -432.27 3871
2838.19 -433.275 3880
2880.49 -438.3 3925
2897.24 -439.417 3935
2906.65 -439.417 3935
2916.06 -439.417 3935
2925.47 -439.417 3935
2934.88 -439.417 3935
2930.07 -437.295 3916
2953.7 -439.417 3935
2963.11 -439.417 3935
2972.52 -439.417 3935
2981.93 -439.417 3935
3005.02 -441.427 3953
3014.47 -441.427 3953
3023.93 -441.427 3953
-2391.21 -361.695 3310
-2388.34 -362.46 3317
-2389.73 -363.88 3330
-2381.77 -363.88 3330
-2393.05 -366.831 3357
-2399.24 -369.016 3377
-2406.03 -371.311 3398
-2397.9 -371.311 3398
-2389.78 -371.311 3398
-2381.65 -371.311 3398
-2373.53 -371.311 3398
-2360.53 -370.546 3391
-2381.56 -375.135 3433
-2397.54 -378.96 3468
-2409.23 -382.129 3497
-2400.87 -382.129 3497
-2397.98 -383.003 3505
-2399.82 -384.642 3520
-2416.54 -388.685 3557
-2408.04 -388.685 3557
-2425.17 -392.838 3595
-2421.95 -393.712 3603
-2413.33 -393.712 3603
-2415.39 -395.46 3619
-2427.36 -398.848 3650
-2440.49 -402.454 3683
-2431.69 -402.454 3683
-2460.38 -408.682 3740
-2451.43 -408.682 3740
-2470.57 -413.381 3783
-2461.53 -413.381 3783
-2469.34 -416.222 3809
-2466.04 -417.206 3818
-2456.91 -417.206 3818
-2447.78 -417.206 3818
-2438.65 -417.206 3818
-2418.07 -415.239 3800
-2408.98 -415.239 3800
-2389.16 -413.381 3783
-2380.11 -413.381 3783
-2371.06 -413.381 3783
-2362.02 -413.381 3783
-1341.7 -375.9 3440
-1333.47 -375.9 3440
-1325.25 -375.9 3440
-1317.02 -375.9 3440
-1308.8 -375.9 3440
-1300.57 -375.9 3440
-1268.68 -369.016 3377
-1232.98 -360.93 3303
-1218.03 -358.854 3284
-1210.18 -358.854 3284
-1197.57 -357.433 3271
-1182.83 -355.357 3252
-1170.36 -353.936 3239
-1162.61 -353.936 3239
-1148.45 -351.97 3221
-1140.75 -351.97 3221
-1130.58 -351.205 3214
-1122.9 -351.205 3214
-1113.13 -350.549 3208
-1101.32 -349.238 3196
-1089.57 -347.926 3184
-1081.96 -347.926 3184
-1074.35 -347.926 3184
-1064.72 -347.271 3178
-1053.13 -345.96 3166
-1043.58 -345.304 3160
-1036.02 -345.304 3160
-1024.56 -343.993 3148
-545.993 -184.672 1690
-541.951 -184.672 1690
-537.91 -184.672 1690
-533.869 -184.672 1690
-528.887 -184.344 1687
-523.608 -183.907 1683
-516.188 -182.705 1672
-510.964 -182.268 1668
-506.976 -182.268 1668
-497.559 -180.301 1650
-488.827 -178.553 1634
-481.952 -177.46 1624
-478.068 -177.46 1624
-473.309 -177.132 1621
-466.826 -176.149 1612
-461.248 -175.493 1606
-457.408 -175.493 1606
-452.155 -174.947 1601
-446.926 -174.4 1596
-441.999 -173.963 1592
-437.367 -173.635 1589
-433.567 -173.635 1589
-427.333 -172.652 1580
-421.946 -171.996 1574
-416.854 -171.45 1569
-413.102 -171.45 1569
-408.306 -171.013 1565
-403.53 -170.576 1561
-399.285 -170.357 1559
-395.557 -170.357 1559
-391.578 -170.248 1558
-387.354 -170.029 1556
-384.126 -170.248 1558
-380.401 -170.248 1558
-376.675 -170.248 1558
-373.189 -170.357 1559
-369.461 -170.357 1559
-366.202 -170.576 1561
-362.469 -170.576 1561
-359.655 -171.013 1565
-356.595 -171.341 1568
-353.071 -171.45 1569
-349.319 -171.45 1569
-346.668 -171.996 1574
-343.122 -172.106 1575
-340.433 -172.652 1580
-336.655 -172.652 1580
-333.719 -173.089 1584
-331.181 -173.745 1590
-328.408 -174.291 1595
-324.594 -174.291 1595
-321.384 -174.619 1598
-318.158 -174.947 1601
-314.723 -175.165 1603
-310.889 -175.165 1603
-307.056 -175.165 1603
-303.79 -175.493 1606
-300.137 -175.602 1607
-296.294 -175.602 1607
-292.997 -175.93 1610
-289.506 -176.149 1612
-285.829 -176.258 1613
-281.971 -176.258 1613
-278.459 -176.477 1615
-275.447 -177.023 1620
-272.244 -177.46 1624
-269.021 -177.897 1628
-265.128 -177.897 1628
-261.396 -178.006 1629
-257.817 -178.225 1631
-254.072 -178.334 1632
-250.169 -178.334 1632
-246.267 -178.334 1632
-243.404 -179.099 1639
-239.484 -179.099 1639
-235.565 -179.099 1639
-232.07 -179.427 1642
-228.977 -180.083 1648
-225.582 -180.52 1652
-221.632 -180.52 1652
-218.999 -181.612 1662
-216.318 -182.705 1672
-213.59 -183.798 1682
-209.568 -183.798 1682
-206.157 -184.344 1687
-202.961 -185.109 1694
-199.497 -185.655 1699
-195.435 -185.655 1699
-191.935 -186.202 1704
-188.632 -186.967 1711
-184.756 -187.185 1713
-180.66 -187.185 1713
-177.079 -187.732 1718
-173.373 -188.169 1722
-169.55 -188.497 1725
-165.425 -188.497 1725
-161.674 -188.934 1729
-157.722 -189.152 1731
-153.671 -189.261 1732
-149.53 -189.261 1732
-145.556 -189.48 1734
-141.736 -189.917 1738
-137.579 -189.917 1738
-133.423 -189.917 1738
-129.267 -189.917 1738
-124.823 -189.48 1734
-120.677 -189.48 1734
-116.53 -189.48 1734
-112.384 -189.48 1734
-208.501 -412.398 3774
-199.476 -412.398 3774
-190.451 -412.398 3774
-181.042 -411.524 3766
-172.036 -411.524 3766
-162.641 -410.54 3757
-153.33 -409.666 3749
-144.365 -409.666 3749
-135.4 -409.666 3749
-126.435 -409.666 3749
-117.72 -410.54 3757
-108.997 -411.524 3766
-99.9911 -411.524 3766
-90.9854 -411.524 3766
-81.9798 -411.524 3766
-72.6447 -409.666 3749
-63.9685 -411.524 3766
-54.9628 -411.524 3766
-45.9572 -411.524 3766
-36.9515 -411.524 3766
-27.9459 -411.524 3766
-18.9402 -411.524 3766
-9.93458 -411.524 3766
-0.926707 -410.54 3757
8.04026 -409.666 3749
17.0053 -409.666 3749
25.9079 -408.682 3740
34.8514 -408.682 3740
43.7012 -407.808 3732
52.7383 -408.682 3740
61.6818 -408.682 3740
70.6253 -408.682 3740
79.5687 -408.682 3740
88.5122 -408.682 3740
97.0388 -406.934 3724
105.716 -406.06 3716
114.078 -404.202 3699
122.924 -404.202 3699
131.484 -403.328 3691
140.006 -402.454 3683
148.49 -401.58 3675
157.278 -401.58 3675
165.705 -400.705 3667
174.045 -399.722 3658
182.793 -399.722 3658
191.54 -399.722 3658
199.85 -398.848 3650
208.578 -398.848 3650
217.306 -398.848 3650
226.034 -398.848 3650
234.763 -398.848 3650
243.491 -398.848 3650
252.219 -398.848 3650
260.375 -397.974 3642
269.085 -397.974 3642
277.794 -397.974 3642
286.503 -397.974 3642
295.86 -398.848 3650
304.589 -398.848 3650
313.317 -398.848 3650
322.045 -398.848 3650
331.498 -399.722 3658
340.246 -399.722 3658
348.993 -399.722 3658
356.958 -398.848 3650
365.686 -398.848 3650
374.415 -398.848 3650
383.143 -398.848 3650
391.012 -397.974 3642
399.721 -397.974 3642
408.431 -397.974 3642
416.338 -397.209 3635
425.03 -397.209 3635
432.768 -396.335 3627
442.415 -397.209 3635
451.976 -397.974 3642
460.685 -397.974 3642
470.426 -398.848 3650
479.154 -398.848 3650
488.951 -399.722 3658
497.699 -399.722 3658
506.446 -399.722 3658
515.194 -399.722 3658
523.941 -399.722 3658
532.688 -399.722 3658
540.252 -398.848 3650
625.005 -426.931 3907
634.348 -426.931 3907
643.691 -426.931 3907
653.034 -426.931 3907
659.325 -424.964 3889
668.625 -424.964 3889
677.924 -424.964 3889
687.224 -424.964 3889
690.076 -421.03 3853
699.29 -421.03 3853
700.413 -416.222 3809
699.835 -410.54 3757
704.103 -407.808 3732
708.25 -405.076 3707
717.115 -405.076 3707
722.846 -403.328 3691
730.087 -402.454 3683
738.894 -402.454 3683
747.701 -402.454 3683
1250.58 -446.819 4089
1260.36 -446.819 4089
1270.14 -446.819 4089
1276.78 -445.726 4079
1280.23 -443.541 4059
1277.54 -439.279 4020
1290.36 -440.372 4030
1299.99 -440.372 4030
1309.63 -440.372 4030
1322.21 -441.355 4039
1335.17 -442.448 4049
1348.17 -443.541 4059
1357.88 -443.541 4059
1367.59 -443.541 4059
1377.29 -443.541 4059
1387 -443.541 4059
1396.71 -443.541 4059
1396.36 -440.372 4030
1379.14 -431.958 3953
1388.59 -431.958 3953
1391.68 -429.991 3935
1387.91 -425.948 3898
1387.56 -422.997 3871
1396.81 -422.997 3871
1419.15 -426.931 3907
1428.49 -426.931 3907
1483.1 -440.372 4030
1492.73 -440.372 4030
1502.37 -440.372 4030
2354.59 -434.034 3972
2364.09 -434.034 3972
2373.58 -434.034 3972
2405.88 -438.186 4010
2444.99 -443.541 4059
2454.69 -443.541 4059
2482.61 -446.819 4089
2492.39 -446.819 4089
2502.17 -446.819 4089
2511.95 -446.819 4089
2521.73 -446.819 4089
2531.5 -446.819 4089
2541.28 -446.819 4089
2551.06 -446.819 4089
2560.84 -446.819 4089
2564.33 -445.726 4079
2580.39 -446.819 4089
2590.17 -446.819 4089
2599.95 -446.819 4089
2609.73 -446.819 4089
2613.1 -445.726 4079
2622.85 -445.726 4079
2632.61 -445.726 4079
2642.36 -445.726 4079
2691.13 -445.726 4079
2700.89 -445.726 4079
2717.29 -446.819 4089
2727.06 -446.819 4089
2736.84 -446.819 4089
2726.47 -443.541 4059
2736.18 -443.541 4059
2712.73 -438.186 4010
2683.63 -431.958 3953
2686.95 -430.974 3944
2696.38 -430.974 3944
2699.64 -429.991 3935
2709.05 -429.991 3935
2674.24 -422.997 3871
2683.5 -422.997 3871
2692.75 -422.997 3871
2702.01 -422.997 3871
2674.15 -417.206 3818
2683.28 -417.206 3818
2692.41 -417.206 3818
2683.14 -414.365 3792
2692.21 -414.365 3792
2701.28 -414.365 3792
2710.34 -414.365 3792
2731.6 -416.222 3809
2740.71 -416.222 3809
2756.32 -417.206 3818
2765.45 -417.206 3818
2806.55 -422.014 3862
2815.79 -422.014 3862
2825.02 -422.014 3862
2860.68 -425.948 3898
2883.25 -427.915 3916
2892.62 -427.915 3916
2901.98 -427.915 3916
2904.65 -426.931 3907
2914 -426.931 3907
2916.61 -425.948 3898
2919.17 -424.964 3889
2928.47 -424.964 3889
2958.17 -427.915 3916
2967.53 -427.915 3916
2983.74 -428.898 3925
2993.12 -428.898 3925
3002.51 -428.898 3925
-2391.21 -353.766 3310
-2388.34 -354.514 3317
-2389.73 -355.903 3330
-2381.77 -355.903 3330
-2393.05 -358.789 3357
-2399.24 -360.927 3377
-2406.03 -363.171 3398
-2397.9 -363.171 3398
-2389.78 -363.171 3398
-2381.65 -363.171 3398
-2373.53 -363.171 3398
-2360.53 -362.423 3391
-2381.56 -366.912 3433
-2397.54 -370.652 3468
-2409.23 -373.752 3497
-2400.87 -373.752 3497
-2397.98 -374.607 3505
-2389.6 -374.607 3505
-2416.54 -380.165 3557
-2408.04 -380.165 3557
-2409.65 -381.768 3572
-2421.95 -385.081 3603
-2413.33 -385.081 3603
-2415.39 -386.791 3619
-2427.36 -390.104 3650
-2440.49 -393.631 3683
-2431.69 -393.631 3683
-2460.38 -399.723 3740
-2451.43 -399.723 3740
-2470.57 -404.319 3783
-2461.53 -404.319 3783
-2469.34 -407.098 3809
-2460.23 -407.098 3809
-2451.12 -407.098 3809
-2427.15 -406.136 3800
-2418.07 -406.136 3800
-2408.98 -406.136 3800
-2389.16 -404.319 3783
-2380.11 -404.319 3783
-2371.06 -404.319 3783
-2362.02 -404.319 3783
-1330.76 -366.912 3433
-1322.55 -366.912 3433
-1314.34 -366.912 3433
-1292.82 -363.171 3398
-1284.69 -363.171 3398
-1258.53 -358.041 3350
-1223.64 -350.346 3278
-1213.21 -349.598 3271
-1205.39 -349.598 3271
-1190.61 -347.567 3252
-1180.65 -346.926 3246
-1163.85 -344.254 3221
-1156.15 -344.254 3221
-1145.95 -343.505 3214
-1138.27 -343.505 3214
-1128.47 -342.864 3208
-1120.8 -342.864 3208
-1108.97 -341.582 3196
-1099.26 -340.94 3190
-1087.52 -339.658 3178
-1079.92 -339.658 3178
-1072.32 -339.658 3178
-1060.7 -338.375 3166
-1053.13 -338.375 3166
-1043.58 -337.734 3160
-1036.02 -337.734 3160
-1022.61 -335.81 3142
-545.993 -180.624 1690
-541.951 -180.624 1690
-537.91 -180.624 1690
-533.869 -180.624 1690
-528.887 -180.303 1687
-523.608 -179.875 1683
-516.188 -178.7 1672
-510.964 -178.272 1668
-506.976 -178.272 1668
-497.559 -176.348 1650
-488.827 -174.638 1634
-481.952 -173.57 1624
-478.068 -173.57 1624
-473.309 -173.249 1621
-466.826 -172.287 1612
-461.248 -171.646 1606
-457.408 -171.646 1606
-452.155 -171.111 1601
-446.646 -170.47 1595
-441.999 -170.15 1592
-436.816 -169.615 1587
-433.021 -169.615 1587
-426.792 -168.653 1578
-421.41 -168.012 1572
-416.588 -167.585 1568
-412.839 -167.585 1568
-408.046 -167.157 1564
-403.013 -166.623 1559
-399.029 -166.516 1558
-395.303 -166.516 1558
-391.578 -166.516 1558
-387.354 -166.302 1556
-384.126 -166.516 1558
-380.401 -166.516 1558
-376.675 -166.516 1558
-373.189 -166.623 1559
-369.461 -166.623 1559
-366.202 -166.836 1561
-362.469 -166.836 1561
-359.655 -167.264 1565
-356.595 -167.585 1568
-353.071 -167.691 1569
-349.319 -167.691 1569
-346.668 -168.226 1574
-343.122 -168.333 1575
-340.433 -168.867 1580
-336.655 -168.867 1580
-333.719 -169.295 1584
-331.181 -169.936 1590
-328.408 -170.47 1595
-324.594 -170.47 1595
-321.384 -170.791 1598
-318.158 -171.111 1601
-314.723 -171.325 1603
-310.889 -171.325 1603
-307.056 -171.325 1603
-303.79 -171.646 1606
-300.137 -171.753 1607
-296.294 -171.753 1607
-292.997 -172.073 1610
-289.506 -172.287 1612
-285.829 -172.394 1613
-281.971 -172.394 1613
-278.459 -172.608 1615
-275.447 -173.142 1620
-272.244 -173.57 1624
-269.021 -173.997 1628
-265.128 -173.997 1628
-261.396 -174.104 1629
-257.817 -174.318 1631
-253.916 -174.318 1631
-250.016 -174.318 1631
-246.267 -174.425 1632
-243.107 -174.959 1637
-239.484 -175.173 1639
-235.565 -175.173 1639
-231.787 -175.28 1640
-228.838 -176.028 1647
-225.582 -176.562 1652
-221.632 -176.562 1652
-218.999 -177.631 1662
-216.318 -178.7 1672
-213.59 -179.769 1682
-209.568 -179.769 1682
-206.157 -180.303 1687
-202.961 -181.051 1694
-199.497 -181.585 1699
-195.435 -181.585 1699
-191.935 -182.12 1704
-188.632 -182.868 1711
-184.756 -183.082 1713
-180.66 -183.082 1713
-177.079 -183.616 1718
-173.373 -184.044 1722
-169.55 -184.364 1725
-165.425 -184.364 1725
-161.674 -184.792 1729
-157.722 -185.006 1731
-153.671 -185.112 1732
-149.53 -185.112 1732
-145.556 -185.326 1734
-141.736 -185.754 1738
-137.579 -185.754 1738
-133.423 -185.754 1738
-129.267 -185.754 1738
-124.823 -185.326 1734
-120.677 -185.326 1734
-116.53 -185.326 1734
-112.384 -185.326 1734
-208.501 -403.357 3774
-199.476 -403.357 3774
-190.451 -403.357 3774
-181.042 -402.502 3766
-172.036 -402.502 3766
-162.641 -401.54 3757
-153.33 -400.685 3749
-144.365 -400.685 3749
-135.4 -400.685 3749
-126.435 -400.685 3749
-117.72 -401.54 3757
-108.736 -401.54 3757
-99.7521 -401.54 3757
-90.768 -401.54 3757
-81.6097 -400.685 3749
-72.4703 -399.723 3740
-63.6797 -400.685 3749
-54.7147 -400.685 3749
-45.8473 -401.54 3757
-36.8632 -401.54 3757
-27.8791 -401.54 3757
-18.895 -401.54 3757
-9.88973 -400.685 3749
-0.922514 -399.723 3740
8.0038 -398.868 3732
16.9281 -398.868 3732
25.7971 -398.013 3724
34.6277 -397.158 3716
43.5138 -397.158 3716
52.5127 -398.013 3724
61.4179 -398.013 3724
70.3231 -398.013 3724
79.2283 -398.013 3724
88.1336 -398.013 3724
96.5958 -396.196 3707
105.005 -394.486 3691
113.831 -394.486 3691
122.658 -394.486 3691
131.199 -393.631 3683
139.702 -392.776 3675
148.167 -391.921 3667
156.936 -391.921 3667
165.298 -390.959 3658
174.045 -390.959 3658
182.393 -390.104 3650
191.121 -390.104 3650
199.85 -390.104 3650
208.578 -390.104 3650
217.306 -390.104 3650
226.034 -390.104 3650
234.763 -390.104 3650
243.491 -390.104 3650
252.219 -390.104 3650
260.375 -389.249 3642
269.085 -389.249 3642
277.794 -389.249 3642
286.503 -389.249 3642
295.86 -390.104 3650
304.589 -390.104 3650
313.317 -390.104 3650
322.045 -390.104 3650
330.773 -390.104 3650
339.502 -390.104 3650
348.23 -390.104 3650
356.958 -390.104 3650
365.686 -390.104 3650
374.415 -390.104 3650
382.303 -389.249 3642
391.012 -389.249 3642
398.953 -388.501 3635
407.646 -388.501 3635
415.422 -387.646 3627
424.095 -387.646 3627
431.814 -386.791 3619
441.441 -387.646 3627
450.115 -387.646 3627
458.788 -387.646 3627
469.394 -389.249 3642
478.104 -389.249 3642
486.813 -389.249 3642
495.522 -389.249 3642
504.231 -389.249 3642
514.067 -390.104 3650
522.795 -390.104 3650
531.523 -390.104 3650
540.252 -390.104 3650
628.503 -413.724 3871
637.76 -413.724 3871
650.025 -415.648 3889
659.325 -415.648 3889
668.625 -415.648 3889
677.924 -415.648 3889
687.224 -415.648 3889
690.076 -411.8 3853
699.29 -411.8 3853
700.413 -407.098 3809
699.835 -401.54 3757
704.103 -398.868 3732
708.25 -396.196 3707
717.115 -396.196 3707
722.846 -394.486 3691
730.087 -393.631 3683
738.894 -393.631 3683
747.701 -393.631 3683
1257.28 -435.955 4079
1267.03 -435.955 4079
1276.78 -435.955 4079
1280.23 -433.817 4059
1277.54 -429.649 4020
1290.36 -430.718 4030
1299.99 -430.718 4030
1309.63 -430.718 4030
1322.21 -431.68 4039
1335.17 -432.749 4049
1348.17 -433.817 4059
1357.88 -433.817 4059
1367.59 -433.817 4059
1377.29 -433.817 4059
1387 -433.817 4059
1396.71 -433.817 4059
1396.36 -430.718 4030
1379.14 -422.488 3953
1388.59 -422.488 3953
1391.68 -420.564 3935
1387.91 -416.61 3898
1387.56 -413.724 3871
1396.81 -413.724 3871
1419.15 -417.572 3907
1428.49 -417.572 3907
1483.1 -430.718 4030
1492.73 -430.718 4030
1502.37 -430.718 4030
2323.24 -420.564 3935
2337.99 -421.526 3944
2347.42 -421.526 3944
2368.21 -423.557 3963
2389.08 -425.588 3982
2415.47 -428.58 4010
2454.69 -433.817 4059
2464.4 -433.817 4059
2492.39 -437.024 4089
2502.17 -437.024 4089
2511.95 -437.024 4089
2521.73 -437.024 4089
2531.5 -437.024 4089
2541.28 -437.024 4089
2551.06 -437.024 4089
2560.84 -437.024 4089
2564.33 -435.955 4079
2580.39 -437.024 4089
2590.17 -437.024 4089
2599.95 -437.024 4089
2609.73 -437.024 4089
2613.1 -435.955 4079
2622.85 -435.955 4079
2632.61 -435.955 4079
2642.36 -435.955 4079
2652.12 -435.955 4079
2661.87 -435.955 4079
2671.62 -435.955 4079
2681.38 -435.955 4079
2691.13 -435.955 4079
2700.89 -435.955 4079
2710.64 -435.955 4079
2700.39 -432.749 4049
2703.38 -431.68 4039
2693.56 -428.58 4010
2703.14 -428.58 4010
2699.88 -426.55 3991
2683.63 -422.488 3953
2686.95 -421.526 3944
2696.38 -421.526 3944
2692.77 -419.496 3925
2702.16 -419.496 3925
2686.68 -415.648 3889
2695.98 -415.648 3889
2705.28 -415.648 3889
2702.01 -413.724 3871
2717.57 -414.686 3880
2726.85 -414.686 3880
2736.13 -414.686 3880
2739.04 -413.724 3871
2735.52 -411.8 3853
2713.39 -407.098 3809
2722.49 -407.098 3809
2738.06 -408.06 3818
2747.19 -408.06 3818
2768.59 -409.877 3835
2777.76 -409.877 3835
2793.47 -410.839 3844
2802.66 -410.839 3844
2811.86 -410.839 3844
2847.47 -414.686 3880
2870 -416.61 3898
2879.32 -416.61 3898
2888.64 -416.61 3898
2897.96 -416.61 3898
2907.28 -416.61 3898
2909.87 -415.648 3889
2919.17 -415.648 3889
2921.69 -414.686 3880
2937.77 -415.648 3889
2947.07 -415.648 3889
2976.9 -418.534 3916
2986.26 -418.534 3916
2995.62 -418.534 3916
-2391.21 -345.837 3310
-2388.34 -346.568 3317
-2389.73 -347.926 3330
-2381.77 -347.926 3330
-2397.33 -351.374 3363
-2399.24 -352.837 3377
-2406.03 -355.031 3398
-2397.9 -355.031 3398
-2389.78 -355.031 3398
-2381.65 -355.031 3398
-2373.53 -355.031 3398
-2360.53 -354.3 3391
-2381.56 -358.688 3433
-2397.54 -362.345 3468
-2409.23 -365.375 3497
-2400.87 -365.375 3497
-2397.98 -366.211 3505
-2394.37 -366.942 3512
-2411.11 -370.808 3549
-2402.62 -370.808 3549
-2409.65 -373.211 3572
-2416.57 -375.614 3595
-2407.97 -375.614 3595
-2410.05 -377.286 3611
-2427.36 -381.361 3650
-2440.49 -384.809 3683
-2431.69 -384.809 3683
-2460.38 -390.764 3740
-2451.43 -390.764 3740
-2470.57 -395.257 3783
-2461.53 -395.257 3783
-2452.48 -395.257 3783
-2418.07 -397.033 3800
-2408.98 -397.033 3800
-2399.89 -397.033 3800
-2380.11 -395.257 3783
-2371.06 -395.257 3783
-2362.02 -395.257 3783
-1317.19 -355.031 3398
-1309.07 -355.031 3398
-1300.94 -355.031 3398
-1287.49 -353.568 3384
-1279.4 -353.568 3384
-1251.02 -347.926 3330
-1223.64 -342.493 3278
-1208.39 -340.404 3258
-1200.6 -340.404 3258
-1190.61 -339.777 3252
-1178.1 -338.418 3239
-1161.33 -335.806 3214
-1153.64 -335.806 3214
-1143.82 -335.179 3208
-1136.14 -335.179 3208
-1128.47 -335.179 3208
-1120.8 -335.179 3208
-1108.97 -333.926 3196
-1099.26 -333.299 3190
-1085.47 -331.418 3172
-1077.88 -331.418 3172
-1070.3 -331.418 3172
-1060.7 -330.791 3166
-1053.13 -330.791 3166
-1043.58 -330.164 3160
-1036.02 -330.164 3160
-1018.7 -327.03 3130
-545.993 -176.575 1690
-542.593 -176.784 1692
-538.547 -176.784 1692
-534.501 -176.784 1692
-530.454 -176.784 1692
-524.231 -176.053 1685
-516.188 -174.695 1672
-511.577 -174.486 1670
-507.583 -174.486 1670
-498.162 -172.605 1652
-488.827 -170.724 1634
-481.952 -169.679 1624
-478.068 -169.679 1624
-473.309 -169.366 1621
-466.247 -168.217 1610
-460.386 -167.485 1603
-456.553 -167.485 1603
-451.308 -166.963 1598
-445.806 -166.336 1592
-441.167 -166.022 1589
-435.715 -165.396 1583
-431.93 -165.396 1583
-425.981 -164.56 1575
-420.606 -163.933 1569
-415.791 -163.515 1565
-412.049 -163.515 1565
-407.524 -163.201 1562
-402.755 -162.784 1558
-399.029 -162.784 1558
-395.303 -162.784 1558
-391.578 -162.784 1558
-387.354 -162.575 1556
-384.126 -162.784 1558
-380.645 -162.888 1559
-376.917 -162.888 1559
-373.189 -162.888 1559
-369.935 -163.097 1561
-366.202 -163.097 1561
-362.469 -163.097 1561
-359.885 -163.619 1566
-356.823 -163.933 1569
-353.521 -164.142 1571
-349.764 -164.142 1571
-346.668 -164.455 1574
-343.558 -164.769 1577
-340.433 -165.082 1580
-336.655 -165.082 1580
-334.141 -165.709 1586
-331.598 -166.336 1592
-328.408 -166.649 1595
-324.594 -166.649 1595
-321.384 -166.963 1598
-318.158 -167.276 1601
-314.723 -167.485 1603
-310.889 -167.485 1603
-307.248 -167.59 1604
-303.79 -167.799 1606
-300.137 -167.903 1607
-296.294 -167.903 1607
-292.997 -168.217 1610
-289.506 -168.426 1612
-285.829 -168.53 1613
-281.971 -168.53 1613
-278.459 -168.739 1615
-275.447 -169.261 1620
-272.244 -169.679 1624
-269.021 -170.097 1628
-265.128 -170.097 1628
-261.396 -170.202 1629
-257.5 -170.202 1629
-253.916 -170.411 1631
-250.016 -170.411 1631
-246.267 -170.515 1632
-242.958 -170.933 1636
-239.484 -171.247 1639
-235.565 -171.247 1639
-231.787 -171.351 1640
-228.56 -171.873 1645
-225.582 -172.605 1652
-221.632 -172.605 1652
-218.999 -173.65 1662
-216.318 -174.695 1672
-213.59 -175.739 1682
-209.568 -175.739 1682
-206.157 -176.262 1687
-202.961 -176.993 1694
-199.497 -177.516 1699
-195.435 -177.516 1699
-191.935 -178.038 1704
