1485.5 64.298 3635
1484.33 63.8735 3611
1492.96 63.8735 3611
1498.27 63.732 3603
1503.54 63.5905 3595
1499.52 63.0598 3565
1508.04 63.0598 3565
1509.76 62.7768 3549
1511.83 62.5115 3534
1498.34 61.6094 3483
1506.67 61.6094 3483
1511.96 61.4855 3476
1520.27 61.4855 3476
1534.74 61.7332 3490
1543.08 61.7332 3490
1551.43 61.7332 3490
1559.78 61.7332 3490
1568.12 61.7332 3490
1570.14 61.4855 3476
1578.45 61.4855 3476
1583.12 61.344 3468
1575.35 60.7249 3433
1583.56 60.7249 3433
1591.77 60.7249 3433
1586.93 60.2296 3405
1585.23 59.8582 3384
1599.91 60.1058 3398
1648.26 61.6094 3483
1656.59 61.6094 3483
1664.92 61.6094 3483
1955.94 61.857 3497
1964.3 61.857 3497
1972.66 61.857 3497
1981.02 61.857 3497
1989.39 61.857 3497
2014.89 62.3877 3527
2023.32 62.3877 3527
2031.75 62.3877 3527
2040.19 62.3877 3527
2048.62 62.3877 3527
2061.14 62.5115 3534
2069.59 62.5115 3534
2078.04 62.5115 3534
2086.49 62.5115 3534
2090.79 62.3877 3527
2099.23 62.3877 3527
2098.7 62.1223 3512
2102.9 61.9985 3505
2093.81 61.4855 3476
2119.66 61.9985 3505
2128.04 61.9985 3505
2136.42 61.9985 3505
2144.8 61.9985 3505
2153.19 61.9985 3505
2165.88 62.1223 3512
2174.28 62.1223 3512
2182.68 62.1223 3512
2191.08 62.1223 3512
2199.48 62.1223 3512
2198.45 61.857 3497
2211.86 61.9985 3505
2234.17 62.3877 3527
2247.06 62.5115 3534
2255.51 62.5115 3534
2293.43 63.3252 3580
2301.99 63.3252 3580
2315.71 63.4667 3588
2324.29 63.4667 3588
2332.87 63.4667 3588
2351.24 63.732 3603
2365.1 63.8735 3611
2373.73 63.8735 3611
2387.65 64.015 3619
2396.3 64.015 3619
2404.95 64.015 3619
2413.61 64.015 3619
2422.26 64.015 3619
2425.54 63.8735 3611
2434.18 63.8735 3611
2442.81 63.8735 3611
2451.45 63.8735 3611
1900.76 49.3512 2790
1907.43 49.3512 2790
1942.91 50.0941 2832
1949.69 50.0941 2832
1956.46 50.0941 2832
1963.23 50.0941 2832
1970 50.0941 2832
1973.98 50.0233 2828
1980.75 50.0233 2828
1976.97 49.758 2813
1983.69 49.758 2813
1993.96 49.8464 2818
2000.7 49.8464 2818
2007.44 49.8464 2818
2014.17 49.8464 2818
2017.33 49.758 2813
2024.05 49.758 2813
2027.89 49.6872 2809
2037.51 49.758 2813
2044.23 49.758 2813
2054.61 49.8464 2818
2065 49.9349 2823
2071.75 49.9349 2823
2082.18 50.0233 2828
2091.9 50.0941 2832
2098.67 50.0941 2832
2105.45 50.0941 2832
2112.22 50.0941 2832
2130.21 50.3594 2847
2137.02 50.3594 2847
2143.83 50.3594 2847
2168.77 50.7839 2871
2179.42 50.8724 2876
2205.3 51.3146 2901
2212.24 51.3146 2901
2219.18 51.3146 2901
-2430.36 65.193 3246
-2427.08 65.3135 3252
-2419.3 65.3135 3252
-2415.97 65.434 3258
-2417.79 65.6951 3271
-2415.13 65.8357 3278
-2407.29 65.8357 3278
-2399.45 65.8357 3278
-2391.61 65.8357 3278
-2383.77 65.8357 3278
-2366.51 65.5746 3265
-2353.65 65.434 3258
-2345.85 65.434 3258
-2338.06 65.434 3258
-2330.27 65.434 3258
-2331.75 65.6951 3271
-2333.16 65.9562 3284
-2338.76 66.3378 3303
-2330.86 66.3378 3303
-2322.97 66.3378 3303
-2315.07 66.3378 3303
-2307.17 66.3378 3303
-2299.27 66.3378 3303
-2305.25 66.7395 3323
-2302.14 66.8801 3330
-2312.78 67.4223 3357
-2304.75 67.4223 3357
-2296.72 67.4223 3357
-2288.7 67.4223 3357
-2299.01 67.9646 3384
-2290.92 67.9646 3384
-2320.6 69.0893 3440
-2321.79 69.3705 3454
-2313.53 69.3705 3454
-2305.27 69.3705 3454
-2297.01 69.3705 3454
-2288.75 69.3705 3454
-2285.11 69.5111 3461
-2276.84 69.5111 3461
-2268.56 69.5111 3461
-2270.08 69.8123 3476
-2275.43 70.2341 3497
-2267.07 70.2341 3497
-2258.71 70.2341 3497
-2250.34 70.2341 3497
-2241.98 70.2341 3497
-2220.21 69.8123 3476
-2197.9 69.3705 3454
-2198.51 69.6517 3468
-2195.27 69.8123 3476
-2186.96 69.8123 3476
-2178.65 69.8123 3476
-2165.34 69.6517 3468
-2157.05 69.6517 3468
-2144.42 69.5111 3461
-2114.54 68.8081 3426
-2084.83 68.1052 3391
-2089.58 68.5269 3412
-2081.42 68.5269 3412
-2094.53 69.2299 3447
-2086.28 69.2299 3447
-2078.04 69.2299 3447
-2061.39 68.9487 3433
-2049 68.8081 3426
-2040.8 68.8081 3426
-2032.61 68.8081 3426
-2024.42 68.8081 3426
-2045.65 69.8123 3476
-2063.13 70.696 3520
-2054.71 70.696 3520
-2046.29 70.696 3520
-2033.24 70.5354 3512
-1995.44 69.5111 3461
-1987.17 69.5111 3461
-1950.87 68.5269 3412
-1938.73 68.3864 3405
-1914.71 67.824 3377
-1906.63 67.824 3377
-1890.69 67.5428 3363
-1882.65 67.5428 3363
-1871.26 67.4223 3357
-1863.23 67.4223 3357
-1822.05 66.2173 3297
-1799.86 65.6951 3271
-1788.75 65.5746 3265
-1780.94 65.5746 3265
-1773.13 65.5746 3265
-1761.54 65.434 3258
-1747.29 65.193 3246
-1735.78 65.0524 3239
-1728.03 65.0524 3239
-1713.91 64.8114 3227
-1703.02 64.6909 3221
-1695.32 64.6909 3221
-1687.62 64.6909 3221
-1679.91 64.6909 3221
-1672.21 64.6909 3221
-1664.51 64.6909 3221
-1656.81 64.6909 3221
-1645.52 64.5503 3214
-1637.84 64.5503 3214
-1630.15 64.5503 3214
-1622.46 64.5503 3214
-1614.78 64.5503 3214
-1607.09 64.5503 3214
-1599.41 64.5503 3214
-1591.72 64.5503 3214
-1581.08 64.4298 3208
-1570.47 64.3093 3202
-1562.81 64.3093 3202
-1555.15 64.3093 3202
-1547.49 64.3093 3202
-1542.72 64.4298 3208
-1535.05 64.4298 3208
-1527.38 64.4298 3208
-1516.87 64.3093 3202
-1503.55 64.0683 3190
-1490.3 63.8273 3178
-1482.7 63.8273 3178
-1475.1 63.8273 3178
-1461.96 63.5863 3166
-1454.39 63.5863 3166
-1452.3 63.8273 3178
-1452.88 64.1888 3196
-1445.24 64.1888 3196
-1440.3 64.3093 3202
-1446.51 64.9319 3233
-1438.78 64.9319 3233
-1431.05 64.9319 3233
-1434.32 65.434 3258
-1426.53 65.434 3258
-1418.74 65.434 3258
-1410.95 65.434 3258
-1403.16 65.434 3258
-1390.23 65.193 3246
-1382.47 65.193 3246
-1374.7 65.193 3246
-1369.47 65.3135 3252
-1367.14 65.5746 3265
-1359.33 65.5746 3265
-1351.52 65.5746 3265
-1343.71 65.5746 3265
-1335.91 65.5746 3265
-1328.1 65.5746 3265
-1320.29 65.5746 3265
-1312.48 65.5746 3265
-1301.88 65.434 3258
-1294.09 65.434 3258
-1281.56 65.193 3246
-1271.05 65.0524 3239
-1258.62 64.8114 3227
-1250.91 64.8114 3227
-1238.18 64.5503 3214
-1228.2 64.4298 3208
-1215.96 64.1888 3196
-1208.32 64.1888 3196
-1198.42 64.0683 3190
-1193.03 64.1888 3196
-1185.39 64.1888 3196
-1179.96 64.3093 3202
-1172.3 64.3093 3202
-1169.01 64.5503 3214
-1163.85 64.6909 3221
-1156.15 64.6909 3221
-1148.45 64.6909 3221
-1138.27 64.5503 3214
-1130.58 64.5503 3214
-1122.9 64.5503 3214
-554.483 32.0944 1598
-550.662 32.0944 1598
-546.84 32.0944 1598
-543.019 32.0944 1598
-539.198 32.0944 1598
-535.376 32.0944 1598
-531.555 32.0944 1598
-527.734 32.0944 1598
-523.913 32.0944 1598
-519.115 32.0341 1595
-515.301 32.0341 1595
-510.845 31.994 1593
-505.763 31.9136 1589
-501.331 31.8735 1587
-497.536 31.8735 1587
-493.741 31.8735 1587
-489.637 31.8534 1586
-485.232 31.8132 1584
-481.444 31.8132 1584
-477.355 31.7931 1583
-472.971 31.753 1581
-469.191 31.753 1581
-465.41 31.753 1581
-461.629 31.753 1581
-457.559 31.7329 1580
-453.206 31.6927 1578
-449.433 31.6927 1578
-445.659 31.6927 1578
-441.886 31.6927 1578
-438.945 31.753 1581
-435.715 31.7931 1583
-432.748 31.8534 1586
-428.956 31.8534 1586
-425.967 31.9136 1589
-423.23 31.994 1593
-419.948 32.0341 1595
-416.133 32.0341 1595
-413.095 32.0944 1598
-410.042 32.1546 1601
-407.482 32.2551 1606
-403.642 32.2551 1606
-400.05 32.2751 1607
-396.7 32.3153 1609
-393.829 32.3957 1613
-389.972 32.3957 1613
-386.594 32.4358 1615
-383.917 32.5362 1620
-380.747 32.5965 1623
-376.866 32.5965 1623
-373.214 32.6166 1624
-370.468 32.717 1629
-366.572 32.717 1629
-362.677 32.717 1629
-359.442 32.7772 1632
-355.975 32.8174 1634
-352.499 32.8576 1636
-348.587 32.8576 1636
-344.675 32.8576 1636
-341.596 32.9379 1640
-337.674 32.9379 1640
-333.752 32.9379 1640
-330.233 32.9781 1642
-326.902 33.0383 1645
-323.361 33.0785 1647
-319.423 33.0785 1647
-316.059 33.1388 1650
-312.113 33.1388 1650
-308.728 33.199 1653
-304.775 33.199 1653
-301.732 33.2994 1658
-298.127 33.3396 1660
-295.398 33.4802 1667
-291.411 33.4802 1667
-287.425 33.4802 1667
-284.289 33.5806 1672
-280.793 33.6409 1675
-276.788 33.6409 1675
-273.923 33.7815 1682
-269.9 33.7815 1682
-266.669 33.8819 1687
-262.634 33.8819 1687
-259.06 33.9421 1690
-255.622 34.0225 1694
-252.314 34.1229 1699
-248.251 34.1229 1699
-244.907 34.2233 1704
-241.115 34.2635 1706
-238.008 34.4041 1713
-233.912 34.4041 1713
-230.486 34.5045 1718
-227.564 34.6852 1727
-224.081 34.7857 1732
-219.939 34.7857 1732
-216.296 34.866 1736
-213 35.0066 1743
-209.551 35.1271 1749
-205.368 35.1271 1749
-202.221 35.3078 1758
-199.256 35.5288 1769
-196.239 35.7497 1780
-191.982 35.7497 1780
-188.57 35.9104 1788
-184.294 35.9104 1788
-180.22 35.9505 1790
-175.939 35.9505 1790
-172.042 36.0309 1794
-167.939 36.071 1796
-164.009 36.1514 1800
-159.705 36.1514 1800
-155.832 36.2518 1805
-151.852 36.3321 1809
-148.015 36.4526 1815
-143.675 36.4526 1815
-139.488 36.4928 1817
-135.292 36.533 1819
-130.942 36.533 1819
-126.592 36.533 1819
-122.243 36.533 1819
-174.581 66.3378 3303
-166.683 66.3378 3303
-158.784 66.3378 3303
-151.525 66.619 3317
-144.719 67.1411 3343
-136.725 67.1411 3343
-135.546 70.696 3520
-127.129 70.696 3520
-118.712 70.696 3520
-110.294 70.696 3520
-100.806 69.9529 3483
-92.4771 69.9529 3483
-84.1482 69.9529 3483
-75.8193 69.9529 3483
-67.4904 69.9529 3483
-59.1615 69.9529 3483
-50.9347 70.0935 3490
-42.5891 70.0935 3490
-34.3121 70.2341 3497
-25.9497 70.2341 3497
-17.6276 70.3948 3505
-9.24607 70.3948 3505
-0.866275 70.5354 3512
7.56415 70.8366 3527
16.1344 71.4391 3557
24.6402 71.4391 3557
33.5747 72.363 3603
42.5653 73.0057 3635
51.2577 73.0057 3635
59.9501 73.0057 3635
66.7352 70.9772 3534
74.8882 70.696 3520
83.3056 70.696 3520
91.723 70.696 3520
100.14 70.696 3520
107.633 70.0935 3490
115.978 70.0935 3490
123.041 69.3705 3454
131.301 69.3705 3454
139.843 69.5111 3461
148.12 69.5111 3461
156.396 69.5111 3461
164.672 69.5111 3461
173.698 69.8123 3476
182.377 69.9529 3483
191.472 70.2341 3497
199.835 70.2341 3497
211.293 71.2785 3549
221.699 71.9011 3580
230.26 71.9011 3580
238.821 71.9011 3580
246.829 71.7404 3572
257.015 72.2023 3595
266.794 72.5237 3611
275.429 72.5237 3611
284.064 72.5237 3611
292.699 72.5237 3611
301.334 72.5237 3611
309.969 72.5237 3611
320.722 73.0057 3635
329.414 73.0057 3635
338.106 73.0057 3635
346.799 73.0057 3635
355.491 73.0057 3635
361.779 72.5237 3611
370.414 72.5237 3611
377.37 72.2023 3595
385.966 72.2023 3595
392.917 71.9011 3580
401.478 71.9011 3580
407.404 71.4391 3557
414.975 71.2785 3549
420.001 70.696 3520
428.418 70.696 3520
436.836 70.696 3520
445.253 70.696 3520
452.64 70.5354 3512
459.069 70.2341 3497
467.431 70.2341 3497
473.889 69.9529 3483
480.141 69.6517 3468
488.434 69.6517 3468
496.727 69.6517 3468
504.001 69.5111 3461
508.133 68.9487 3433
512.13 68.3864 3405
520.273 68.3864 3405
526.243 68.1052 3391
531.042 67.6834 3370
537.981 67.5428 3363
546.023 67.5428 3363
558.678 68.1052 3391
566.787 68.1052 3391
577.27 68.3864 3405
585.412 68.3864 3405
593.554 68.3864 3405
601.697 68.3864 3405
612.347 68.6675 3419
626.875 69.3705 3454
635.134 69.3705 3454
643.394 69.3705 3454
655.804 69.8123 3476
665.454 69.9529 3483
676.491 70.2341 3497
684.853 70.2341 3497
694.801 70.3948 3505
703.183 70.3948 3505
716.031 70.8366 3527
724.465 70.8366 3527
732.899 70.8366 3527
741.333 70.8366 3527
749.767 70.8366 3527
758.201 70.8366 3527
766.635 70.8366 3527
779.904 71.2785 3549
788.391 71.2785 3549
796.878 71.2785 3549
808.995 71.5998 3565
817.52 71.5998 3565
826.045 71.5998 3565
834.57 71.5998 3565
843.095 71.5998 3565
853.292 71.7404 3572
861.834 71.7404 3572
870.376 71.7404 3572
878.918 71.7404 3572
883.733 71.4391 3557
896.001 71.7404 3572
910.367 72.2023 3595
918.964 72.2023 3595
927.561 72.2023 3595
944.49 72.845 3627
961.31 73.4676 3658
970.058 73.4676 3658
978.805 73.4676 3658
987.552 73.4676 3658
996.3 73.4676 3658
1005.05 73.4676 3658
1009.36 73.1463 3642
1018.07 73.1463 3642
1026.78 73.1463 3642
1033.5 73.0057 3635
1042.19 73.0057 3635
1043.94 72.5237 3611
1052.58 72.5237 3611
1056.51 72.2023 3595
1065.11 72.2023 3595
1059.97 71.2785 3549
1068.45 71.2785 3549
1076.94 71.2785 3549
1085.43 71.2785 3549
1093.91 71.2785 3549
1102.4 71.2785 3549
1110.89 71.2785 3549
1114.64 70.9772 3534
1123.09 70.9772 3534
1129.3 70.8366 3527
1137.74 70.8366 3527
1143.9 70.696 3520
1152.31 70.696 3520
1160.73 70.696 3520
1169.15 70.696 3520
1177.57 70.696 3520
1183.29 70.5354 3512
1191.69 70.5354 3512
1200.08 70.5354 3512
1216.05 70.9772 3534
1224.5 70.9772 3534
1235.75 71.1379 3542
1244.22 71.1379 3542
1252.69 71.1379 3542
1261.16 71.1379 3542
1280.38 71.7404 3572
1305.88 72.6844 3619
1314.53 72.6844 3619
1323.19 72.6844 3619
1331.84 72.6844 3619
1346.42 73.0057 3635
1357.73 73.1463 3642
1366.43 73.1463 3642
1381.18 73.4676 3658
1389.93 73.4676 3658
1398.68 73.4676 3658
1398.58 73.0057 3635
1407.27 73.0057 3635
1421.81 73.307 3650
1433.67 73.4676 3658
1442.42 73.4676 3658
1451.16 73.4676 3658
1469.89 73.9697 3683
1478.7 73.9697 3683
1487.5 73.9697 3683
1493.06 73.8091 3675
1485.5 73.0057 3635
1484.33 72.5237 3611
1492.96 72.5237 3611
1498.27 72.363 3603
1503.54 72.2023 3595
1499.52 71.5998 3565
1508.04 71.5998 3565
1509.76 71.2785 3549
1511.83 70.9772 3534
1498.34 69.9529 3483
1506.67 69.9529 3483
1511.96 69.8123 3476
1520.27 69.8123 3476
1534.74 70.0935 3490
1543.08 70.0935 3490
1551.43 70.0935 3490
1559.78 70.0935 3490
1568.12 70.0935 3490
1573.3 69.9529 3483
1581.63 69.9529 3483
1583.12 69.6517 3468
1584.98 69.3705 3454
1583.56 68.9487 3433
1591.77 68.9487 3433
1599.98 68.9487 3433
1598.35 68.5269 3412
1599.91 68.2458 3398
1648.26 69.9529 3483
1656.59 69.9529 3483
1664.92 69.9529 3483
1655.81 67.5428 3363
1677.71 68.1052 3391
1685.82 68.1052 3391
1693.93 68.1052 3391
1681.46 67.2817 3350
1713.67 68.2458 3398
1721.8 68.2458 3398
1729.92 68.2458 3398
1738.05 68.2458 3398
1746.18 68.2458 3398
1947.41 70.8366 3527
1955.85 70.8366 3527
1964.28 70.8366 3527
1972.72 70.8366 3527
1981.15 70.8366 3527
1993.53 70.9772 3534
2001.98 70.9772 3534
2010.43 70.9772 3534
2018.89 70.9772 3534
2027.34 70.9772 3534
2031.75 70.8366 3527
2040.19 70.8366 3527
2048.62 70.8366 3527
2061.14 70.9772 3534
2069.59 70.9772 3534
2078.04 70.9772 3534
2086.49 70.9772 3534
2090.79 70.8366 3527
2099.23 70.8366 3527
2098.7 70.5354 3512
2102.9 70.3948 3505
2093.81 69.8123 3476
2119.66 70.3948 3505
2128.04 70.3948 3505
2136.42 70.3948 3505
2144.8 70.3948 3505
2153.19 70.3948 3505
2165.88 70.5354 3512
2174.28 70.5354 3512
2182.68 70.5354 3512
2191.08 70.5354 3512
2199.48 70.5354 3512
2198.45 70.2341 3497
2211.86 70.3948 3505
2234.17 70.8366 3527
2247.06 70.9772 3534
2255.51 70.9772 3534
2293.43 71.9011 3580
2301.99 71.9011 3580
2315.71 72.0617 3588
2324.29 72.0617 3588
2332.87 72.0617 3588
2351.24 72.363 3603
2365.1 72.5237 3611
2373.73 72.5237 3611
2387.65 72.6844 3619
2396.3 72.6844 3619
2404.95 72.6844 3619
2413.61 72.6844 3619
2422.26 72.6844 3619
2425.54 72.5237 3611
2434.18 72.5237 3611
2442.81 72.5237 3611
2451.45 72.5237 3611
1900.76 56.0346 2790
1969.64 57.8623 2881
1976.53 57.8623 2881
1983.42 57.8623 2881
1990.31 57.8623 2881
1990.27 57.6614 2871
1983.92 57.2799 2852
1980.27 56.9786 2837
1987.05 56.9786 2837
1990.32 56.8782 2832
1990.74 56.6974 2823
1997.5 56.6974 2823
2004.25 56.6974 2823
2007.44 56.597 2818
2014.17 56.597 2818
2017.33 56.4966 2813
2024.05 56.4966 2813
2027.89 56.4162 2809
2037.51 56.4966 2813
2044.23 56.4966 2813
2054.61 56.597 2818
2065 56.6974 2823
2071.75 56.6974 2823
2082.18 56.7978 2828
2091.9 56.8782 2832
2098.67 56.8782 2832
2105.45 56.8782 2832
2112.22 56.8782 2832
2130.21 57.1794 2847
2137.02 57.1794 2847
2143.83 57.1794 2847
2168.77 57.6614 2871
2179.42 57.7619 2876
2205.3 58.264 2901
2212.24 58.264 2901
2219.18 58.264 2901
-2420.63 72.6766 3233
-2412.9 72.6766 3233
-2405.16 72.6766 3233
-2407.07 72.9688 3246
-2403.75 73.1037 3252
-2405.55 73.3959 3265
-2397.74 73.3959 3265
-2389.93 73.3959 3265
-2377.02 73.2386 3258
-2369.23 73.2386 3258
-2352.74 72.9688 3246
-2344.98 72.9688 3246
-2332.17 72.8114 3239
-2324.43 72.8114 3239
-2308.1 72.5417 3227
-2313.93 72.9688 3246
-2306.17 72.9688 3246
-2316.1 73.5308 3271
-2308.28 73.5308 3271
-2300.46 73.5308 3271
-2292.64 73.5308 3271
-2293.9 73.823 3284
-2286.04 73.823 3284
-2282.35 73.9579 3290
-2274.49 73.9579 3290
-2285.22 74.5649 3317
-2277.29 74.5649 3317
-2269.36 74.5649 3317
-2261.42 74.5649 3317
-2262.32 74.8571 3330
-2254.36 74.8571 3330
-2278.1 75.9136 3377
-2312.38 77.3298 3440
-2304.15 77.3298 3440
-2295.93 77.3298 3440
-2287.7 77.3298 3440
-2279.47 77.3298 3440
-2271.25 77.3298 3440
-2240 76.5431 3405
-2222.68 76.2283 3391
-2214.57 76.2283 3391
-2211.01 76.3857 3398
-2202.89 76.3857 3398
-2194.76 76.3857 3398
-2186.64 76.3857 3398
-2178.51 76.3857 3398
-2144.2 75.464 3357
-2123.44 75.0145 3337
-2119.27 75.1493 3343
-2123.91 75.5989 3363
-2115.86 75.5989 3363
-2107.82 75.5989 3363
-2087.29 75.1493 3343
-2079.3 75.1493 3343
-2067.59 75.0145 3337
-2038.62 74.2501 3303
-2003.06 73.2386 3258
-2014.86 73.9579 3290
-2007 73.9579 3290
-2007.03 74.2501 3303
-2003.37 74.4075 3310
-1995.45 74.4075 3310
-1987.54 74.4075 3310
-1983.81 74.5649 3317
-1975.87 74.5649 3317
-1979.81 75.0145 3337
-1971.83 75.0145 3337
-1991.51 76.071 3384
-2016.24 77.3298 3440
-2008.01 77.3298 3440
-1999.79 77.3298 3440
-1975.35 76.7004 3412
-1963.16 76.5431 3405
-1955.01 76.5431 3405
-1930.86 75.9136 3377
-1907.41 75.3067 3350
-1888.06 74.8571 3330
-1880.1 74.8571 3330
-1872.14 74.8571 3330
-1864.17 74.8571 3330
-1856.21 74.8571 3330
-1848.25 74.8571 3330
-1804.36 73.3959 3265
-1792.7 73.2386 3258
-1781.62 73.1037 3252
-1773.85 73.1037 3252
-1766.07 73.1037 3252
-1755.05 72.9688 3246
-1743.52 72.8114 3239
-1732.56 72.6766 3233
-1724.83 72.6766 3233
-1710.72 72.4068 3221
-1703.02 72.4068 3221
-1695.32 72.4068 3221
-1687.62 72.4068 3221
-1679.91 72.4068 3221
-1672.21 72.4068 3221
-1664.51 72.4068 3221
-1656.81 72.4068 3221
-1645.52 72.2495 3214
-1637.84 72.2495 3214
-1630.15 72.2495 3214
-1622.46 72.2495 3214
-1614.78 72.2495 3214
-1607.09 72.2495 3214
-1599.41 72.2495 3214
-1591.72 72.2495 3214
-1581.08 72.1146 3208
-1573.41 72.1146 3208
-1562.81 71.9797 3202
-1555.15 71.9797 3202
-1547.49 71.9797 3202
-1539.84 71.9797 3202
-1532.18 71.9797 3202
-1524.52 71.9797 3202
-1514.02 71.8448 3196
-1497.9 71.4402 3178
-1484.67 71.1704 3166
-1477.1 71.1704 3166
-1469.53 71.1704 3166
-1461.96 71.1704 3166
-1454.39 71.1704 3166
-1446.82 71.1704 3166
-1444.7 71.4402 3178
-1437.1 71.4402 3178
-1434.9 71.7099 3190
-1438.01 72.2495 3214
-1433.44 72.4068 3221
-1425.74 72.4068 3221
-1423.32 72.6766 3233
-1415.59 72.6766 3233
-1410.47 72.8114 3239
-1402.72 72.8114 3239
-1394.98 72.8114 3239
-1384.66 72.6766 3233
-1376.93 72.6766 3233
-1369.2 72.6766 3233
-1363.99 72.8114 3239
-1359.18 72.9688 3246
-1353.92 73.1037 3252
-1346.14 73.1037 3252
-1338.36 73.1037 3252
-1333.04 73.2386 3258
-1325.25 73.2386 3258
-1317.46 73.2386 3258
-1307.26 73.1037 3252
-1297.08 72.9688 3246
-1289.32 72.9688 3246
-1274.06 72.5417 3227
-1266.34 72.5417 3227
-1253.55 72.2495 3214
-1245.87 72.2495 3214
-1233.56 71.9797 3202
-1223.61 71.8448 3196
-1213.68 71.7099 3190
-1206.05 71.7099 3190
-1193.92 71.4402 3178
-1188.56 71.5751 3184
-1185.39 71.8448 3196
-1182.17 72.1146 3208
-1174.5 72.1146 3208
-1169.01 72.2495 3214
-1161.33 72.2495 3214
-1153.64 72.2495 3214
-1145.95 72.2495 3214
-1142.87 72.5417 3227
-1137.27 72.6766 3233
-1129.54 72.6766 3233
-1121.8 72.6766 3233
-551.006 35.9449 1599
-547.183 35.9449 1599
-543.359 35.9449 1599
-539.535 35.9449 1599
-535.712 35.9449 1599
-531.888 35.9449 1599
-528.064 35.9449 1599
-523.913 35.9224 1598
-520.091 35.9224 1598
-516.27 35.9224 1598
-511.487 35.855 1595
-506.081 35.7426 1590
-501.963 35.7201 1589
-498.163 35.7201 1589
-493.741 35.6751 1587
-489.637 35.6527 1586
-485.845 35.6527 1586
-482.052 35.6527 1586
-477.657 35.6077 1584
-473.57 35.5852 1583
-469.784 35.5852 1583
-465.999 35.5852 1583
-461.629 35.5403 1581
-457.559 35.5178 1580
-453.781 35.5178 1580
-450.003 35.5178 1580
-445.659 35.4728 1578
-441.886 35.4728 1578
-438.945 35.5403 1581
-435.715 35.5852 1583
-432.203 35.6077 1584
-428.415 35.6077 1584
-425.967 35.7201 1589
-423.23 35.81 1593
-419.948 35.855 1595
-416.133 35.855 1595
-413.095 35.9224 1598
-409.53 35.9449 1599
-407.482 36.1022 1606
-403.642 36.1022 1606
-400.05 36.1247 1607
-396.7 36.1697 1609
-393.829 36.2596 1613
-389.972 36.2596 1613
-386.594 36.3046 1615
-383.443 36.372 1618
-380.277 36.4394 1621
-376.401 36.4394 1621
-373.214 36.5069 1624
-370.241 36.5968 1628
-366.572 36.6193 1629
-362.677 36.6193 1629
-359.442 36.6867 1632
-355.54 36.6867 1632
-352.068 36.7317 1634
-348.161 36.7317 1634
-344.675 36.7766 1636
-341.596 36.8666 1640
-338.086 36.9115 1642
-334.159 36.9115 1642
-330.635 36.9565 1644
-326.902 36.979 1645
-323.361 37.0239 1647
-319.423 37.0239 1647
-316.059 37.0914 1650
-312.113 37.0914 1650
-309.102 37.2038 1655
-305.144 37.2038 1655
-301.732 37.2712 1658
-298.127 37.3161 1660
-295.398 37.4735 1667
-291.411 37.4735 1667
-287.597 37.496 1668
-284.289 37.5859 1672
-280.793 37.6533 1675
-276.788 37.6533 1675
-273.923 37.8107 1682
-270.061 37.8332 1683
-266.669 37.9231 1687
-262.634 37.9231 1687
-259.06 37.9905 1690
-255.622 38.0805 1694
-252.314 38.1929 1699
-248.251 38.1929 1699
-244.907 38.3053 1704
-241.398 38.3952 1708
-238.286 38.5525 1715
-234.185 38.5525 1715
-231.023 38.7099 1722
-227.564 38.8223 1727
-224.34 38.9796 1734
-220.193 38.9796 1734
-216.794 39.1145 1740
-213.244 39.2269 1745
-209.79 39.3618 1751
-205.603 39.3618 1751
-202.221 39.5191 1758
-199.031 39.7215 1767
-196.239 40.0137 1780
-191.982 40.0137 1780
-188.359 40.1486 1786
-184.294 40.1935 1788
-180.22 40.2385 1790
-175.939 40.2385 1790
-172.042 40.3284 1794
-167.939 40.3734 1796
-163.827 40.4183 1798
-159.527 40.4183 1798
-155.746 40.5532 1804
-151.684 40.6207 1807
-147.689 40.7106 1811
-143.358 40.7106 1811
-139.335 40.8005 1815
-135.143 40.8454 1817
-130.798 40.8454 1817
-126.453 40.8454 1817
-122.108 40.8454 1817
-181.761 73.9579 3290
-174.581 74.2501 3303
-166.683 74.2501 3303
-158.784 74.2501 3303
-151.525 74.5649 3317
-144.719 75.1493 3343
-136.725 75.1493 3343
-130.579 76.2283 3391
-123.229 76.7004 3412
-115.069 76.7004 3412
-106.91 76.7004 3412
-98.1433 76.2283 3391
-89.4769 75.7563 3370
-81.9255 76.2283 3391
-73.8166 76.2283 3391
-65.7077 76.2283 3391
-58.3122 77.1725 3433
-50.1029 77.1725 3433
-41.8935 77.1725 3433
-33.8215 77.4872 3447
-25.6307 77.6446 3454
-17.4817 78.1391 3476
-9.16957 78.1391 3476
-0.860849 78.4538 3490
7.53198 78.9484 3512
15.9983 79.2856 3527
24.4324 79.2856 3527
33.0063 79.6228 3542
41.4763 79.6228 3542
49.9463 79.6228 3542
58.2844 79.4429 3534
66.0365 78.6112 3497
74.3989 78.6112 3497
82.7613 78.6112 3497
91.1237 78.6112 3497
99.4861 78.6112 3497
106.954 77.9593 3468
115.247 77.9593 3468
122.792 77.4872 3447
130.503 77.1725 3433
139.278 77.4872 3447
147.521 77.4872 3447
155.763 77.4872 3447
164.006 77.4872 3447
172.599 77.6446 3454
182.01 78.1391 3476
190.706 78.2965 3483
199.035 78.2965 3483
209.09 78.9484 3512
219.346 79.6228 3542
227.816 79.6228 3542
236.286 79.6228 3542
244.203 79.4429 3534
254.299 79.96 3557
263.913 80.2972 3572
272.454 80.2972 3572
280.996 80.2972 3572
289.538 80.2972 3572
298.747 80.477 3580
307.308 80.477 3580
317.898 80.994 3603
326.514 80.994 3603
335.13 80.994 3603
343.746 80.994 3603
351.579 80.8142 3595
360.176 80.8142 3595
368.773 80.8142 3595
376.635 80.6568 3588
383.497 80.2972 3572
390.392 79.96 3557
398.898 79.96 3557
405.686 79.6228 3542
409.83 78.791 3505
418.211 78.791 3505
426.593 78.791 3505
434.974 78.791 3505
443.356 78.791 3505
449.804 78.4538 3490
456.312 78.1391 3476
464.624 78.1391 3476
470.895 77.8019 3461
479.172 77.8019 3461
487.448 77.8019 3461
495.724 77.8019 3461
501.962 77.4872 3447
508.133 77.1725 3433
511.078 76.3857 3398
519.203 76.3857 3398
521.897 75.5989 3363
528.994 75.464 3357
537.021 75.464 3357
546.023 75.5989 3363
557.525 76.071 3384
565.617 76.071 3384
574.896 76.2283 3391
583.005 76.2283 3391
591.114 76.2283 3391
599.223 76.2283 3391
609.839 76.5431 3405
620.522 76.8578 3419
632.56 77.3298 3440
640.786 77.3298 3440
650.333 77.4872 3447
659.913 77.6446 3454
669.527 77.8019 3461
677.803 77.8019 3461
687.467 77.9593 3468
697.365 78.1391 3476
711.564 78.791 3505
719.946 78.791 3505
728.327 78.791 3505
736.709 78.791 3505
745.091 78.791 3505
753.472 78.791 3505
760.115 78.6112 3497
773.531 79.1282 3520
781.949 79.1282 3520
793.51 79.4429 3534
801.961 79.4429 3534
810.411 79.4429 3534
818.862 79.4429 3534
829.186 79.6228 3542
837.656 79.6228 3542
847.798 79.7801 3549
856.285 79.7801 3549
864.772 79.7801 3549
871.536 79.6228 3542
878.018 79.4429 3534
890.232 79.7801 3549
904.543 80.2972 3572
913.085 80.2972 3572
921.626 80.2972 3572
934.334 80.6568 3588
948.959 81.1739 3611
957.594 81.1739 3611
968.369 81.3537 3619
977.024 81.3537 3619
985.678 81.3537 3619
994.332 81.3537 3619
996.334 80.8142 3595
1009.4 81.1739 3611
1024.81 81.7134 3635
1033.5 81.7134 3635
1042.19 81.7134 3635
1043.94 81.1739 3611
1052.58 81.1739 3611
1056.51 80.8142 3595
1065.11 80.8142 3595
1059.97 79.7801 3549
1068.45 79.7801 3549
1076.94 79.7801 3549
1085.43 79.7801 3549
1093.91 79.7801 3549
1102.4 79.7801 3549
1110.89 79.7801 3549
1114.64 79.4429 3534
1123.09 79.4429 3534
1129.3 79.2856 3527
1137.74 79.2856 3527
1143.9 79.1282 3520
1152.31 79.1282 3520
1160.73 79.1282 3520
1169.15 79.1282 3520
1177.57 79.1282 3520
1183.29 78.9484 3512
1191.69 78.9484 3512
1200.08 78.9484 3512
1211.24 79.1282 3520
1219.65 79.1282 3520
1232.95 79.4429 3534
1241.41 79.4429 3534
1249.86 79.4429 3534
1255.81 79.2856 3527
1269.63 79.6228 3542
1288.92 80.2972 3572
1297.46 80.2972 3572
1306 80.2972 3572
1314.55 80.2972 3572
1329.01 80.6568 3588
1346.17 81.1739 3611
1354.8 81.1739 3611
1363.44 81.1739 3611
1372.07 81.1739 3611
1380.71 81.1739 3611
1383.19 80.8142 3595
1397.98 81.1739 3611
1406.61 81.1739 3611
1421.52 81.5335 3627
1433.35 81.7134 3635
1442.04 81.7134 3635
1450.73 81.7134 3635
1459.42 81.7134 3635
1468.12 81.7134 3635
1473.56 81.5335 3627
1475.69 81.1739 3611
1471.59 80.477 3580
1480.15 80.477 3580
1482.47 80.1398 3565
1487.65 79.96 3557
1492.79 79.7801 3549
1501.28 79.7801 3549
1503.38 79.4429 3534
1499.43 78.791 3505
1495.33 78.1391 3476
1503.65 78.1391 3476
1511.96 78.1391 3476
1520.27 78.1391 3476
1528.58 78.1391 3476
1543.08 78.4538 3490
1551.43 78.4538 3490
1559.78 78.4538 3490
1568.12 78.4538 3490
1573.3 78.2965 3483
1581.63 78.2965 3483
1583.12 77.9593 3468
1584.98 77.6446 3454
1583.56 77.1725 3433
1591.77 77.1725 3433
1599.98 77.1725 3433
1598.35 76.7004 3412
1599.91 76.3857 3398
1621.29 77.0151 3426
1629.48 77.0151 3426
1637.68 77.0151 3426
1655.81 75.5989 3363
1677.71 76.2283 3391
1685.82 76.2283 3391
1693.93 76.2283 3391
1681.46 75.3067 3350
1713.67 76.3857 3398
1721.8 76.3857 3398
1729.92 76.3857 3398
1738.05 76.3857 3398
1746.18 76.3857 3398
1947.41 79.2856 3527
1955.85 79.2856 3527
1964.28 79.2856 3527
1972.72 79.2856 3527
1981.15 79.2856 3527
1993.53 79.4429 3534
2001.98 79.4429 3534
2010.43 79.4429 3534
2018.89 79.4429 3534
2027.34 79.4429 3534
2031.75 79.2856 3527
2040.19 79.2856 3527
2048.62 79.2856 3527
2057.06 79.2856 3527
2065.49 79.2856 3527
2073.93 79.2856 3527
2078.23 79.1282 3520
2086.64 79.1282 3520
2095.06 79.1282 3520
2094.51 78.791 3505
2093.9 78.4538 3490
2093.81 78.1391 3476
2119.66 78.791 3505
2128.04 78.791 3505
2136.42 78.791 3505
2144.8 78.791 3505
2153.19 78.791 3505
2161.57 78.791 3505
2169.95 78.791 3505
2178.33 78.791 3505
2181.72 78.6112 3497
2190.08 78.6112 3497
2198.45 78.6112 3497
2206.81 78.6112 3497
2234.17 79.2856 3527
2247.06 79.4429 3534
2255.51 79.4429 3534
2293.43 80.477 3580
2301.99 80.477 3580
2310.55 80.477 3580
2319.11 80.477 3580
2332.87 80.6568 3588
2351.24 80.994 3603
2365.1 81.1739 3611
2373.73 81.1739 3611
2382.37 81.1739 3611
2391 81.1739 3611
2399.64 81.1739 3611
2408.27 81.1739 3611
2416.91 81.1739 3611
2425.54 81.1739 3611
2434.18 81.1739 3611
2442.81 81.1739 3611
2451.45 81.1739 3611
1900.76 62.7181 2790
1969.64 64.7637 2881
1976.53 64.7637 2881
1983.42 64.7637 2881
1990.31 64.7637 2881
1990.27 64.539 2871
1983.92 64.1118 2852
1980.27 63.7746 2837
1987.05 63.7746 2837
1990.32 63.6622 2832
1990.74 63.4599 2823
1997.5 63.4599 2823
2004.25 63.4599 2823
2007.44 63.3475 2818
2014.17 63.3475 2818
2017.33 63.2351 2813
2024.05 63.2351 2813
2027.89 63.1452 2809
2034.61 63.1452 2809
2044.23 63.2351 2813
2054.61 63.3475 2818
2065 63.4599 2823
2071.75 63.4599 2823
2078.5 63.4599 2823
2088.95 63.5723 2828
2098.67 63.6622 2832
2105.45 63.6622 2832
2112.22 63.6622 2832
2122.73 63.7746 2837
2129.52 63.7746 2837
2136.3 63.7746 2837
2158.19 64.2242 2857
2175.63 64.539 2871
2186.3 64.6514 2876
2193.18 64.6514 2876
2200.05 64.6514 2876
-2411.64 80.1227 3221
-2403.94 80.1227 3221
-2396.24 80.1227 3221
-2392.98 80.272 3227
-2385.27 80.272 3227
-2381.97 80.4212 3233
-2374.24 80.4212 3233
-2366.51 80.4212 3233
-2358.78 80.4212 3233
-2351.05 80.4212 3233
-2334.62 80.1227 3221
-2326.92 80.1227 3221
-2314.17 79.9486 3214
-2306.49 79.9486 3214
-2294.51 79.7994 3208
-2291.12 79.9486 3214
-2283.43 79.9486 3214
-2280.7 80.1227 3221
-2273 80.1227 3221
-2265.3 80.1227 3221
-2257.59 80.1227 3221
-2249.89 80.1227 3221
-2242.19 80.1227 3221
-2238.65 80.272 3227
-2230.93 80.272 3227
-2240.44 80.8939 3252
-2232.66 80.8939 3252
-2228.99 81.0431 3258
-2221.2 81.0431 3258
-2213.41 81.0431 3258
-2205.62 81.0431 3258
-2206.6 81.3665 3271
-2224.99 82.3366 3310
-2217.08 82.3366 3310
-2209.16 82.3366 3310
-2214.55 82.8341 3330
-2206.58 82.8341 3330
-2198.62 82.8341 3330
-2168.95 82.0133 3297
-2156.48 81.8391 3290
-2148.61 81.8391 3290
-2140.74 81.8391 3290
-2125.09 81.5406 3278
-2117.26 81.5406 3278
-2109.42 81.5406 3278
-2101.58 81.5406 3278
-2085.44 81.2173 3265
-2065.54 80.7446 3246
-2057.78 80.7446 3246
-2050.01 80.7446 3246
-2042.25 80.7446 3246
-2034.49 80.7446 3246
-2026.73 80.7446 3246
-2018.96 80.7446 3246
-2006.87 80.5705 3239
-1991.71 80.272 3227
-1972.32 79.7994 3208
-1964.64 79.7994 3208
-1953.31 79.6501 3202
-1949.3 79.7994 3208
-1945.26 79.9486 3214
-1937.58 79.9486 3214
-1929.89 79.9486 3214
-1922.2 79.9486 3214
-1918.69 80.1227 3221
-1929.38 80.8939 3252
-1921.6 80.8939 3252
-1940.31 82.0133 3297
-1967.59 83.5058 3357
-1959.56 83.5058 3357
-1951.54 83.5058 3357
-1920.35 82.5108 3317
-1912.42 82.5108 3317
-1904.49 82.5108 3317
-1896.55 82.5108 3317
-1880.65 82.1625 3303
-1869.35 82.0133 3297
-1868.81 82.3366 3310
-1860.89 82.3366 3310
-1852.98 82.3366 3310
-1845.06 82.3366 3310
-1808.28 81.0431 3258
-1800.49 81.0431 3258
-1786.1 80.7446 3246
-1778.34 80.7446 3246
-1770.58 80.7446 3246
-1762.81 80.7446 3246
-1751.27 80.5705 3239
-1740.29 80.4212 3233
-1729.34 80.272 3227
-1721.63 80.272 3227
-1710.72 80.1227 3221
-1699.32 79.9486 3214
-1695.32 80.1227 3221
-1687.62 80.1227 3221
-1679.91 80.1227 3221
-1672.21 80.1227 3221
-1664.51 80.1227 3221
-1656.81 80.1227 3221
-1649.11 80.1227 3221
-1641.4 80.1227 3221
-1630.15 79.9486 3214
-1626 80.1227 3221
-1618.3 80.1227 3221
-1610.59 80.1227 3221
-1602.89 80.1227 3221
-1595.19 80.1227 3221
-1584.04 79.9486 3214
-1573.41 79.7994 3208
-1565.74 79.7994 3208
-1558.07 79.7994 3208
-1547.49 79.6501 3202
-1539.84 79.6501 3202
-1532.18 79.6501 3202
-1524.52 79.6501 3202
-1514.02 79.5009 3196
-1497.9 79.0531 3178
-1487.48 78.9039 3172
-1479.9 78.9039 3172
-1469.53 78.7546 3166
-1461.96 78.7546 3166
-1451.63 78.6054 3160
-1444.07 78.6054 3160
-1439.25 78.7546 3166
-1431.67 78.7546 3166
-1429.5 79.0531 3178
-1429.96 79.5009 3196
-1424.98 79.6501 3202
-1417.33 79.6501 3202
-1414.95 79.9486 3214
-1407.27 79.9486 3214
-1405.24 80.272 3227
-1397.53 80.272 3227
-1389.81 80.272 3227
-1379.52 80.1227 3221
-1371.82 80.1227 3221
-1364.12 80.1227 3221
-1353.47 79.9486 3214
-1351.22 80.272 3227
-1346.01 80.4212 3233
-1338.27 80.4212 3233
-1330.54 80.4212 3233
-1322.81 80.4212 3233
-1315.08 80.4212 3233
-1307.35 80.4212 3233
-1297.21 80.272 3227
-1289.49 80.272 3227
-1281.77 80.272 3227
-1274.06 80.272 3227
-1261.24 79.9486 3214
-1248.87 79.6501 3202
-1241.22 79.6501 3202
-1233.56 79.6501 3202
-1223.61 79.5009 3196
-1211.4 79.2024 3184
-1203.78 79.2024 3184
-1193.92 79.0531 3178
-1188.56 79.2024 3184
-1187.62 79.6501 3202
-1184.38 79.9486 3214
-1176.7 79.9486 3214
-1171.56 80.1227 3221
-1163.85 80.1227 3221
-1158.31 80.272 3227
-1150.59 80.272 3227
-1142.87 80.272 3227
-1139.38 80.5705 3239
-1131.63 80.5705 3239
-1123.89 80.5705 3239
-554.797 40.0489 1610
-550.947 40.0489 1610
-546.077 39.9743 1607
-542.235 39.9743 1607
-538.392 39.9743 1607
-534.549 39.9743 1607
-529.715 39.8997 1604
-525.552 39.8748 1603
-520.091 39.7504 1598
-516.27 39.7504 1598
-512.449 39.7504 1598
-506.718 39.6012 1592
-502.279 39.5514 1590
-498.477 39.5514 1590
-494.363 39.5266 1589
-489.946 39.4768 1587
-485.845 39.4519 1586
-482.052 39.4519 1586
-477.657 39.4022 1584
-473.57 39.3773 1583
-469.784 39.3773 1583
-465.999 39.3773 1583
-462.213 39.3773 1583
-457.849 39.3276 1581
-453.781 39.3027 1580
-450.003 39.3027 1580
-446.224 39.3027 1580
-441.886 39.2529 1578
-438.668 39.3027 1580
-435.165 39.3276 1581
-432.203 39.4022 1584
-428.415 39.4022 1584
-425.967 39.5266 1589
-423.23 39.6261 1593
-419.948 39.6758 1595
-416.133 39.6758 1595
-413.095 39.7504 1598
-409.53 39.7753 1599
-406.975 39.8997 1604
-403.139 39.8997 1604
-399.801 39.9494 1606
-396.207 39.9743 1607
-393.585 40.0987 1612
-389.73 40.0987 1612
-386.115 40.1236 1613
-383.206 40.2231 1617
-380.043 40.2977 1620
-376.169 40.2977 1620
-372.984 40.3723 1623
-369.331 40.3972 1624
-366.347 40.4967 1628
-362.454 40.4967 1628
-359.222 40.5713 1631
-355.54 40.5962 1632
-352.068 40.6459 1634
-348.161 40.6459 1634
-344.675 40.6957 1636
-341.596 40.7952 1640
-338.086 40.8449 1642
-334.159 40.8449 1642
-330.635 40.8947 1644
-326.902 40.9196 1645
-323.361 40.9693 1647
-319.423 40.9693 1647
-316.059 41.0439 1650
-312.113 41.0439 1650
-309.475 41.2181 1657
-305.513 41.2181 1657
-302.096 41.2927 1660
-298.127 41.2927 1660
-295.398 41.4668 1667
-291.411 41.4668 1667
-287.597 41.4917 1668
-284.289 41.5912 1672
-281.129 41.7156 1677
-277.118 41.7156 1677
-273.923 41.8399 1682
-270.382 41.9146 1685
-266.985 42.0141 1689
-262.946 42.0141 1689
-259.367 42.0887 1692
-255.773 42.1633 1695
-252.76 42.3374 1702
-248.69 42.3374 1702
-245.195 42.4369 1706
-241.539 42.5116 1709
-238.425 42.6857 1716
-234.321 42.6857 1716
-231.157 42.8598 1723
-228.091 43.0588 1731
-224.599 43.1832 1736
-220.447 43.1832 1736
-216.794 43.2827 1740
-213.244 43.4071 1745
-209.79 43.5563 1751
-205.603 43.5563 1751
-202.221 43.7305 1758
-199.031 43.9543 1767
-196.239 44.2777 1780
-191.982 44.2777 1780
-188.148 44.3772 1784
-184.088 44.427 1786
-180.22 44.5265 1790
-175.939 44.5265 1790
-172.042 44.626 1794
-167.939 44.6757 1796
-163.827 44.7255 1798
-159.527 44.7255 1798
-155.4 44.7752 1800
-151.516 44.8996 1805
-147.526 44.9991 1809
-143.2 44.9991 1809
-139.027 45.0488 1811
-134.846 45.0986 1813
-130.51 45.0986 1813
-126.175 45.0986 1813
-189.629 81.8391 3290
-182.48 82.1625 3303
-174.581 82.1625 3303
-166.683 82.1625 3303
-158.784 82.1625 3303
-151.525 82.5108 3317
-144.459 83.0083 3337
-136.479 83.0083 3337
-129.501 83.655 3363
-122.47 84.3515 3391
-114.361 84.3515 3391
-106.252 84.3515 3391
-97.1593 83.5058 3357
-89.1317 83.5058 3357
-81.5873 84.0033 3377
-73.5118 84.0033 3377
-65.5721 84.1774 3384
-57.7177 84.5256 3398
-49.7964 84.8739 3412
-41.6372 84.8739 3412
-33.6842 85.3963 3433
-25.5268 85.5704 3440
-17.3711 85.9187 3454
-9.11153 85.9187 3454
-0.855422 86.2669 3468
7.4848 86.8142 3490
15.8622 86.9883 3497
24.2246 86.9883 3497
32.7267 87.3614 3512
41.125 87.3614 3512
49.5233 87.3614 3512
57.8061 87.1873 3505
65.9043 86.8142 3490
74.1011 86.64 3483
82.43 86.64 3483
90.7589 86.64 3483
99.0878 86.64 3483
106.738 86.0928 3461
115.015 86.0928 3461
122.792 85.7445 3447
129.971 85.048 3419
138.146 85.048 3419
146.322 85.048 3419
154.814 85.2221 3426
163.007 85.2221 3426
171.549 85.3963 3433
180.492 85.7445 3447
190.706 86.64 3483
199.035 86.64 3483
207.78 86.8142 3490
216.559 86.9883 3497
224.922 86.9883 3497
233.284 86.9883 3497
242.199 87.1873 3505
252.154 87.7345 3527
260.588 87.7345 3527
269.022 87.7345 3527
278.636 88.1077 3542
287.106 88.1077 3542
296.828 88.4808 3557
305.334 88.4808 3557
315.163 88.8539 3572
324.43 89.0529 3580
332.991 89.0529 3580
341.552 89.0529 3580
350.112 89.0529 3580
357.17 88.6798 3565
365.695 88.6798 3565
374.22 88.6798 3565
381.028 88.2818 3549
388.746 88.1077 3542
397.216 88.1077 3542
404.77 87.9087 3534
408.894 86.9883 3497
415.586 86.64 3483
423.915 86.64 3483
432.244 86.64 3483
440.573 86.64 3483
448.902 86.64 3483
453.424 85.9187 3454
461.683 85.9187 3454
468.991 85.7445 3447
477.233 85.7445 3447
485.476 85.7445 3447
493.719 85.7445 3447
500.943 85.5704 3440
506.06 85.048 3419
508.972 84.1774 3384
517.064 84.1774 3384
520.966 83.5058 3357
528.994 83.5058 3357
534.782 83.1575 3343
545.049 83.5058 3357
557.525 84.1774 3384
565.617 84.1774 3384
573.709 84.1774 3384
581.802 84.1774 3384
589.894 84.1774 3384
596.749 84.0033 3377
607.332 84.3515 3391
617.982 84.6998 3405
628.698 85.048 3419
636.874 85.048 3419
645.05 85.048 3419
657.238 85.5704 3440
665.464 85.5704 3440
673.69 85.5704 3440
684.692 85.9187 3454
694.356 86.0928 3461
705.677 86.4659 3476
713.989 86.4659 3476
725.211 86.8142 3490
733.556 86.8142 3490
741.902 86.8142 3490
750.247 86.8142 3490
758.593 86.8142 3490
766.939 86.8142 3490
776.839 86.9883 3497
788.57 87.3614 3512
796.968 87.3614 3512
805.366 87.3614 3512
812.143 87.1873 3505
825.674 87.7345 3527
834.109 87.7345 3527
844.215 87.9087 3534
852.666 87.9087 3534
861.117 87.9087 3534
869.567 87.9087 3534
872.552 87.3614 3512
884.713 87.7345 3527
894.92 87.9087 3534
903.371 87.9087 3534
911.822 87.9087 3534
920.273 87.9087 3534
928.723 87.9087 3534
937.174 87.9087 3534
945.625 87.9087 3534
954.076 87.9087 3534
962.527 87.9087 3534
967.131 87.5604 3520
975.549 87.5604 3520
985.923 87.7345 3527
998.586 88.1077 3542
1007.06 88.1077 3542
1015.53 88.1077 3542
1019.66 87.7345 3527
1028.09 87.7345 3527
1036.53 87.7345 3527
1040.52 87.3614 3512
1059.97 88.2818 3549
1068.45 88.2818 3549
1076.94 88.2818 3549
1085.43 88.2818 3549
1093.91 88.2818 3549
1102.4 88.2818 3549
1110.89 88.2818 3549
1114.64 87.9087 3534
1123.09 87.9087 3534
1131.54 87.9087 3534
1140 87.9087 3534
1146.17 87.7345 3527
1154.61 87.7345 3527
1163.04 87.7345 3527
1171.47 87.7345 3527
1179.91 87.7345 3527
1183.29 87.3614 3512
1191.69 87.3614 3512
1200.08 87.3614 3512
1208.48 87.3614 3512
1216.88 87.3614 3512
1225.28 87.3614 3512
1233.68 87.3614 3512
1244.91 87.5604 3520
1253.32 87.5604 3520
1261.74 87.5604 3520
1278.1 88.1077 3542
1286.57 88.1077 3542
1295.04 88.1077 3542
1303.51 88.1077 3542
1314.57 88.2818 3549
1334.61 89.0529 3580
1343.17 89.0529 3580
1351.73 89.0529 3580
1360.29 89.0529 3580
1368.86 89.0529 3580
1371.64 88.6798 3565
1382.88 88.8539 3572
1391.42 88.8539 3572
1406.23 89.2519 3588
1414.81 89.2519 3588
1423.39 89.2519 3588
1431.97 89.2519 3588
1440.55 89.2519 3588
1449.13 89.2519 3588
1451.21 88.8539 3572
1459.76 88.8539 3572
1458.84 88.2818 3549
1467.33 88.2818 3549
1472.91 88.1077 3542
1481.38 88.1077 3542
1483.54 87.7345 3527
1491.97 87.7345 3527
1494.02 87.3614 3512
1493.01 86.8142 3490
1491.89 86.2669 3468
1500.18 86.2669 3468
1508.48 86.2669 3468
1516.77 86.2669 3468
1528.58 86.4659 3476
1539.99 86.64 3483
1554.54 86.9883 3497
1562.9 86.9883 3497
1571.27 86.9883 3497
1579.63 86.9883 3497
1587.99 86.9883 3497
1589.96 86.64 3483
1595.08 86.4659 3476
1593.24 85.9187 3454
1601.5 85.9187 3454
1603.24 85.5704 3440
1608.18 85.3963 3433
1613.1 85.2221 3426
1627.92 85.5704 3440
1636.14 85.5704 3440
1644.37 85.5704 3440
1642.51 85.048 3419
1650.68 85.048 3419
1658.86 85.048 3419
1667.03 85.048 3419
1675.21 85.048 3419
1679.94 84.8739 3412
1688.1 84.8739 3412
1696.26 84.8739 3412
1697.42 84.5256 3398
1705.55 84.5256 3398
1713.67 84.5256 3398
1721.8 84.5256 3398
1769.63 86.4659 3476
1781.53 86.64 3483
1801.16 87.1873 3505
1809.54 87.1873 3505
1825.7 87.5604 3520
1837.77 87.7345 3527
1849.87 87.9087 3534
1858.32 87.9087 3534
1874.69 88.2818 3549
1887.42 88.4808 3557
1895.93 88.4808 3557
1904.44 88.4808 3557
1912.94 88.4808 3557
1921.45 88.4808 3557
1929.95 88.4808 3557
1938.46 88.4808 3557
1946.97 88.4808 3557
1955.47 88.4808 3557
1955.7 88.1077 3542
1964.17 88.1077 3542
1972.64 88.1077 3542
1976.63 87.9087 3534
1985.08 87.9087 3534
1998.05 88.1077 3542
2006.52 88.1077 3542
2014.99 88.1077 3542
2023.46 88.1077 3542
2031.93 88.1077 3542
2040.4 88.1077 3542
2040.19 87.7345 3527
2048.62 87.7345 3527
2057.06 87.7345 3527
2065.49 87.7345 3527
2069.81 87.5604 3520
2078.23 87.5604 3520
2086.64 87.5604 3520
2095.06 87.5604 3520
2085.55 86.8142 3490
2093.9 86.8142 3490
2102.24 86.8142 3490
2119.66 87.1873 3505
2128.04 87.1873 3505
2140.69 87.3614 3512
2149.09 87.3614 3512
2157.49 87.3614 3512
2165.88 87.3614 3512
2160.66 86.8142 3490
2169.01 86.8142 3490
2177.35 86.8142 3490
2190.08 86.9883 3497
2198.45 86.9883 3497
2206.81 86.9883 3497
2234.17 87.7345 3527
2247.06 87.9087 3534
2255.51 87.9087 3534
2283.82 88.6798 3565
2296.85 88.8539 3572
2310.55 89.0529 3580
2319.11 89.0529 3580
2327.67 89.0529 3580
2346.02 89.426 3595
2359.86 89.625 3603
2368.47 89.625 3603
2377.09 89.625 3603
2385.71 89.625 3603
2394.32 89.625 3603
2402.94 89.625 3603
2411.55 89.625 3603
2425.54 89.824 3611
2434.18 89.824 3611
2442.81 89.824 3611
2451.45 89.824 3611
2449.18 89.426 3595
1969.64 71.6652 2881
2001.23 72.5607 2917
2008.2 72.5607 2917
2015.18 72.5607 2917
1997.2 71.6652 2881
1997.13 71.4165 2871
1990.74 70.9438 2852
1997.56 70.9438 2852
2000.86 70.8195 2847
1997.09 70.4463 2832
2001.03 70.3468 2828
2007.8 70.3468 2828
2011 70.2225 2823
2014.17 70.0981 2818
2017.33 69.9737 2813
2024.05 69.9737 2813
2027.89 69.8742 2809
2034.61 69.8742 2809
2041.33 69.8742 2809
2050.96 69.9737 2813
2061.34 70.0981 2818
2068.08 70.0981 2818
2078.5 70.2225 2823
2088.95 70.3468 2828
2095.71 70.3468 2828
2102.47 70.3468 2828
2112.22 70.4463 2832
2122.73 70.5707 2837
2129.52 70.5707 2837
2136.3 70.5707 2837
2150.64 70.8195 2847
2171.84 71.2921 2866
2186.3 71.5408 2876
2193.18 71.5408 2876
2200.05 71.5408 2876
-2411.64 87.8387 3221
-2403.94 87.8387 3221
-2396.24 87.8387 3221
-2392.98 88.0023 3227
-2385.27 88.0023 3227
-2381.97 88.1659 3233
-2374.24 88.1659 3233
-2366.51 88.1659 3233
-2358.78 88.1659 3233
-2351.05 88.1659 3233
-2334.62 87.8387 3221
-2326.92 87.8387 3221
-2314.17 87.6478 3214
-2306.49 87.6478 3214
-2294.51 87.4842 3208
-2291.12 87.6478 3214
-2283.43 87.6478 3214
-2280.7 87.8387 3221
-2273 87.8387 3221
-2265.3 87.8387 3221
-2257.59 87.8387 3221
-2249.89 87.8387 3221
-2242.19 87.8387 3221
-2238.65 88.0023 3227
-2230.93 88.0023 3227
-2240.44 88.6841 3252
-2232.66 88.6841 3252
-2228.99 88.8477 3258
-2221.2 88.8477 3258
-2213.41 88.8477 3258
-2205.62 88.8477 3258
-2206.6 89.2022 3271
-2224.99 90.2658 3310
-2217.08 90.2658 3310
-2209.16 90.2658 3310
-2214.55 90.8112 3330
-2206.58 90.8112 3330
-2198.62 90.8112 3330
-2168.95 89.9113 3297
-2156.48 89.7204 3290
-2148.61 89.7204 3290
-2140.74 89.7204 3290
-2125.09 89.3931 3278
-2117.26 89.3931 3278
-2109.42 89.3931 3278
-2101.58 89.3931 3278
-2085.44 89.0386 3265
-2065.54 88.5204 3246
-2057.78 88.5204 3246
-2050.01 88.5204 3246
-2042.25 88.5204 3246
-2034.49 88.5204 3246
-2026.73 88.5204 3246
-2018.96 88.5204 3246
-2006.87 88.3296 3239
-1991.71 88.0023 3227
-1972.32 87.4842 3208
-1964.64 87.4842 3208
-1953.31 87.3205 3202
-1949.3 87.4842 3208
-1945.26 87.6478 3214
-1937.58 87.6478 3214
-1929.89 87.6478 3214
-1922.2 87.6478 3214
-1918.69 87.8387 3221
-1929.38 88.6841 3252
-1921.6 88.6841 3252
-1940.31 89.9113 3297
-1967.59 91.5475 3357
-1959.56 91.5475 3357
-1951.54 91.5475 3357
-1920.35 90.4567 3317
-1912.42 90.4567 3317
-1904.49 90.4567 3317
-1896.55 90.4567 3317
-1880.65 90.0749 3303
-1869.35 89.9113 3297
-1868.81 90.2658 3310
-1860.89 90.2658 3310
-1852.98 90.2658 3310
-1845.06 90.2658 3310
-1808.28 88.8477 3258
-1800.49 88.8477 3258
-1786.1 88.5204 3246
-1778.34 88.5204 3246
-1770.58 88.5204 3246
-1762.81 88.5204 3246
-1751.27 88.3296 3239
-1740.29 88.1659 3233
-1729.34 88.0023 3227
-1721.63 88.0023 3227
-1710.72 87.8387 3221
-1699.32 87.6478 3214
-1695.32 87.8387 3221
-1687.62 87.8387 3221
-1679.91 87.8387 3221
-1672.21 87.8387 3221
-1664.51 87.8387 3221
-1656.81 87.8387 3221
-1649.11 87.8387 3221
-1641.4 87.8387 3221
-1633.7 87.8387 3221
-1629.03 88.0023 3227
-1621.31 88.0023 3227
-1613.59 88.0023 3227
-1602.89 87.8387 3221
-1595.19 87.8387 3221
-1587.49 87.8387 3221
-1579.78 87.8387 3221
-1568.67 87.6478 3214
-1560.98 87.6478 3214
-1553.29 87.6478 3214
-1545.61 87.6478 3214
-1535.05 87.4842 3208
-1527.38 87.4842 3208
-1519.71 87.4842 3208
-1503.55 86.9933 3190
-1490.3 86.666 3178
-1482.7 86.666 3178
-1475.1 86.666 3178
-1461.96 86.3388 3166
-1451.63 86.1752 3160
-1444.07 86.1752 3160
-1441.97 86.5024 3172
-1434.39 86.5024 3172
-1429.5 86.666 3178
-1429.96 87.1569 3196
-1424.98 87.3205 3202
-1417.33 87.3205 3202
-1414.95 87.6478 3214
-1407.27 87.6478 3214
-1405.24 88.0023 3227
-1397.53 88.0023 3227
-1389.81 88.0023 3227
-1379.52 87.8387 3221
-1371.82 87.8387 3221
-1364.12 87.8387 3221
-1353.47 87.6478 3214
-1351.22 88.0023 3227
-1346.01 88.1659 3233
-1338.27 88.1659 3233
-1330.54 88.1659 3233
-1322.81 88.1659 3233
-1315.08 88.1659 3233
-1307.35 88.1659 3233
-1297.21 88.0023 3227
-1289.49 88.0023 3227
-1281.77 88.0023 3227
-1274.06 88.0023 3227
-1261.24 87.6478 3214
-1248.87 87.3205 3202
-1241.22 87.3205 3202
-1233.56 87.3205 3202
-1223.61 87.1569 3196
-1213.68 86.9933 3190
-1206.05 86.9933 3190
-1196.17 86.8297 3184
-1195.27 87.3205 3202
-1189.84 87.4842 3208
-1184.38 87.6478 3214
-1176.7 87.6478 3214
-1175.92 88.1659 3233
-1168.19 88.1659 3233
-1160.46 88.1659 3233
-1152.73 88.1659 3233
-1142.87 88.0023 3227
-1139.38 88.3296 3239
-1131.63 88.3296 3239
-1123.89 88.3296 3239
-554.797 43.9057 1610
-550.947 43.9057 1610
-547.097 43.9057 1610
-542.235 43.8239 1607
-538.392 43.8239 1607
-534.549 43.8239 1607
-530.706 43.8239 1607
-525.88 43.7421 1604
-521.719 43.7148 1603
-517.885 43.7148 1603
-512.449 43.5785 1598
-507.036 43.4421 1593
-502.911 43.4148 1592
-499.104 43.4148 1592
-494.675 43.3603 1590
-489.946 43.2785 1587
-485.845 43.2512 1586
-482.052 43.2512 1586
-477.657 43.1967 1584
-473.869 43.1967 1584
-469.784 43.1694 1583
-465.999 43.1694 1583
-462.213 43.1694 1583
-457.849 43.1149 1581
-453.781 43.0876 1580
-450.003 43.0876 1580
-446.224 43.0876 1580
-441.886 43.033 1578
-438.668 43.0876 1580
-435.165 43.1149 1581
-432.203 43.1967 1584
-428.415 43.1967 1584
-425.967 43.333 1589
-423.23 43.4421 1593
-419.948 43.4966 1595
-416.133 43.4966 1595
-413.095 43.5785 1598
-409.53 43.6057 1599
-406.975 43.7421 1604
-403.139 43.7421 1604
-399.801 43.7966 1606
-396.207 43.8239 1607
-393.585 43.9602 1612
-389.73 43.9602 1612
-386.115 43.9875 1613
-383.206 44.0966 1617
-380.043 44.1784 1620
-376.169 44.1784 1620
-372.984 44.2602 1623
-369.331 44.2875 1624
-366.347 44.3966 1628
-362.454 44.3966 1628
-359.222 44.4784 1631
-355.54 44.5057 1632
-352.068 44.5602 1634
-348.161 44.5602 1634
-344.675 44.6147 1636
-341.596 44.7238 1640
-338.086 44.7784 1642
-334.159 44.7784 1642
-330.635 44.8329 1644
-326.902 44.8602 1645
-323.361 44.9147 1647
-319.423 44.9147 1647
-316.059 44.9965 1650
-312.113 44.9965 1650
-309.475 45.1874 1657
-305.513 45.1874 1657
-302.096 45.2692 1660
-298.127 45.2692 1660
-295.575 45.4874 1668
-291.586 45.4874 1668
-287.597 45.4874 1668
-284.459 45.6238 1673
-281.129 45.7328 1677
-277.118 45.7328 1677
-274.085 45.8965 1683
-270.382 45.951 1685
-266.985 46.0601 1689
-262.946 46.0601 1689
-259.367 46.1419 1692
-255.773 46.2237 1695
-252.76 46.4146 1702
-248.69 46.4146 1702
-245.195 46.5237 1706
-241.822 46.66 1711
-238.425 46.7964 1716
-234.321 46.7964 1716
-231.157 46.9873 1723
-228.091 47.2055 1731
-224.599 47.3418 1736
-220.447 47.3418 1736
-216.794 47.4509 1740
-213.244 47.5872 1745
-209.79 47.7509 1751
-205.603 47.7509 1751
-202.221 47.9418 1758
-199.031 48.1872 1767
-196.239 48.5417 1780
-191.982 48.5417 1780
-188.148 48.6508 1784
-184.088 48.7053 1786
-180.22 48.8144 1790
-175.939 48.8144 1790
-172.042 48.9235 1794
-167.939 48.978 1796
-163.827 49.0326 1798
-159.527 49.0326 1798
-155.4 49.0871 1800
-151.516 49.2235 1805
-147.526 49.3326 1809
-143.2 49.3326 1809
-139.027 49.3871 1811
-134.846 49.4416 1813
-130.51 49.4416 1813
-126.175 49.4416 1813
