-1217.43 1136.67 2721
-1221.16 1146.27 2744
-1214.6 1146.27 2744
-1213.76 1151.71 2757
-1227.75 1171.34 2804
-1235.41 1185.12 2837
-1228.63 1185.12 2837
-1221.84 1185.12 2837
-1217.2 1187.21 2842
-1210.4 1187.21 2842
-1203.61 1187.21 2842
-1206.92 1197.24 2866
-1208.44 1205.59 2886
-1203.62 1207.68 2891
-1196.71 1207.68 2891
-1191.85 1209.77 2896
-1189.02 1213.95 2906
-1182.07 1213.95 2906
-1175.12 1213.95 2906
-1168.17 1213.95 2906
-1159.22 1211.86 2901
-1152.29 1211.86 2901
-1145.35 1211.86 2901
-1138.41 1211.86 2901
-1129.52 1209.77 2896
-1122.6 1209.77 2896
-1111.82 1205.59 2886
-1101.09 1201.42 2876
-1090.41 1197.24 2866
-1078.26 1191.39 2852
-1075.2 1195.57 2862
-1068.36 1195.57 2862
-1061.51 1195.57 2862
-1054.67 1195.57 2862
-1047.82 1195.57 2862
-1040.98 1195.57 2862
-1034.14 1195.57 2862
-1027.29 1195.57 2862
-1020.45 1195.57 2862
-1013.6 1195.57 2862
-1006.76 1195.57 2862
-1003.06 1199.33 2871
-996.196 1199.33 2871
-989.33 1199.33 2871
-982.465 1199.33 2871
-972.541 1195.57 2862
-965.697 1195.57 2862
-955.503 1191.39 2852
-583.792 754.854 1807
-579.471 754.854 1807
-575.15 754.854 1807
-570.197 754.018 1805
-564.94 752.765 1802
-559.387 751.094 1798
-555.087 751.094 1798
-549.562 749.423 1794
-544.056 747.752 1790
-539.173 746.917 1788
-534.897 746.917 1788
-530.622 746.917 1788
-525.168 745.246 1784
-519.442 743.157 1779
-514.03 741.486 1775
-509.785 741.486 1775
-503.832 738.979 1769
-496.495 734.384 1758
-491.171 732.713 1754
-486.977 732.713 1754
-481.957 731.46 1751
-476.132 728.954 1745
-470.607 726.865 1740
-466.446 726.865 1740
-461.223 725.194 1736
-458.125 726.865 1740
-454.225 727.283 1741
-451.095 728.954 1745
-446.923 728.954 1745
-444.272 731.46 1751
-440.839 732.713 1754
-438.885 736.473 1763
-434.669 736.473 1763
-432.407 739.815 1771
-428.655 740.65 1773
-424.415 740.65 1773
-420.176 740.65 1773
-416.874 742.321 1777
-414.25 745.246 1784
-411.363 747.752 1790
-407.083 747.752 1790
-405.503 752.765 1802
-401.861 754.018 1805
-400.188 759.031 1817
-395.843 759.031 1817
-392.36 760.702 1821
-388.005 760.702 1821
-384.072 761.537 1823
-379.713 761.537 1823
-375.353 761.537 1823
-370.994 761.537 1823
-366.635 761.537 1823
-361.48 759.866 1819
-356.738 759.031 1817
-351.229 756.525 1811
-346.516 755.689 1809
-342.19 755.689 1809
-337.864 755.689 1809
-333.169 754.854 1807
-328.848 754.854 1807
-324.527 754.854 1807
-320.206 754.854 1807
-315.535 754.018 1805
-310.012 751.094 1798
-305.712 751.094 1798
-300.407 748.588 1792
-295.791 747.752 1790
-291.185 746.917 1788
-286.91 746.917 1788
-282.002 745.246 1784
-277.113 743.575 1780
-272.396 742.321 1777
-268.147 742.321 1777
-263.007 739.815 1771
-258.772 739.815 1771
-255.687 743.157 1779
-251.432 743.157 1779
-248.429 746.917 1788
-244.153 746.917 1788
-239.877 746.917 1788
-235.602 746.917 1788
-231.585 747.752 1790
-227.304 747.752 1790
-223.273 748.588 1792
-219.721 751.094 1798
-215.901 752.765 1802
-211.592 752.765 1802
-207.513 753.6 1804
-203.537 754.854 1807
-199.436 755.689 1809
-195.11 755.689 1809
-191.628 759.031 1817
-189.138 766.55 1835
-185.959 771.563 1847
-181.542 771.563 1847
-177.125 771.563 1847
-230.952 1183.04 2832
-224.18 1183.04 2832
-217.408 1183.04 2832
-210.636 1183.04 2832
-203.864 1183.04 2832
-197.091 1183.04 2832
-189.714 1179.28 2823
-182.964 1179.28 2823
-176.213 1179.28 2823
-169.463 1179.28 2823
-162.424 1177.19 2818
-155.685 1177.19 2818
-148.946 1177.19 2818
-141.753 1173.43 2809
-135.036 1173.43 2809
-128.502 1175.1 2813
-121.992 1177.19 2818
-115.253 1177.19 2818
-108.514 1177.19 2818
-101.775 1177.19 2818
-94.8682 1175.1 2813
-88.1414 1175.1 2813
-81.2989 1173.43 2809
-74.5817 1173.43 2809
-68.082 1177.19 2818
-61.4522 1179.28 2823
-54.7015 1179.28 2823
-47.9509 1179.28 2823
-41.4045 1185.12 2837
-34.6204 1185.12 2837
-27.8363 1185.12 2837
-21.0522 1185.12 2837
-14.2429 1183.04 2832
-7.47072 1183.04 2832
-0.697559 1181.36 2828
6.03288 1175.1 2813
12.7415 1173.43 2809
19.4586 1173.43 2809
26.1292 1171.34 2804
32.8344 1171.34 2804
39.2717 1163.4 2785
45.9315 1163.4 2785
52.5913 1163.4 2785
59.2511 1163.4 2785
66.2422 1169.25 2799
73.196 1173.43 2809
80.3115 1179.28 2823
87.0621 1179.28 2823
93.8128 1179.28 2823
100.884 1183.04 2832
107.656 1183.04 2832
114.428 1183.04 2832
121.201 1183.04 2832
127.973 1183.04 2832
134.745 1183.04 2832
141.517 1183.04 2832
148.551 1185.12 2837
155.609 1187.21 2842
162.691 1189.3 2847
169.499 1189.3 2847
176.307 1189.3 2847
183.758 1193.48 2857
190.59 1193.48 2857
197.422 1193.48 2857
204.254 1193.48 2857
211.086 1193.48 2857
217.918 1193.48 2857
224.356 1191.39 2852
230.771 1189.3 2847
236.745 1185.12 2837
243.529 1185.12 2837
249.872 1183.04 2832
256.644 1183.04 2832
263.416 1183.04 2832
270.188 1183.04 2832
278.427 1189.3 2847
285.235 1189.3 2847
292.556 1191.39 2852
301.371 1199.33 2871
310.383 1207.68 2891
317.297 1207.68 2891
325.331 1211.86 2901
335.819 1224.81 2932
345.871 1235.67 2958
352.944 1235.67 2958
360.018 1235.67 2958
370.318 1246.53 2984
378.212 1249.04 2990
385.362 1249.04 2990
393.169 1251.13 2995
403.271 1260.32 3017
410.486 1260.32 3017
417.7 1260.32 3017
423.366 1255.72 3006
430.554 1255.72 3006
437.742 1255.72 3006
439.306 1239.85 2968
446.403 1239.85 2968
449.528 1228.99 2942
456.563 1228.99 2942
463.598 1228.99 2942
470.634 1228.99 2942
473.61 1218.54 2917
480.585 1218.54 2917
482.379 1205.59 2886
484.364 1193.48 2857
491.196 1193.48 2857
512.845 1228.99 2942
519.88 1228.99 2942
526.915 1228.99 2942
533.951 1228.99 2942
535.285 1216.04 2911
542.246 1216.04 2911
549.208 1216.04 2911
614.171 1193.48 2857
622.09 1195.57 2862
628.934 1195.57 2862
635.778 1195.57 2862
642.622 1195.57 2862
649.465 1195.57 2862
674.445 1203.5 2881
684.882 1209.77 2896
691.807 1209.77 2896
701.145 1213.95 2906
710.774 1218.54 2917
726.608 1233.58 2953
733.669 1233.58 2953
750.012 1249.04 2990
768.051 1267 3033
778.116 1271.6 3044
785.395 1271.6 3044
792.674 1271.6 3044
797.062 1267 3033
804.315 1267 3033
800.062 1249.04 2990
804.242 1244.44 2979
808.37 1239.85 2968
815.467 1239.85 2968
822.565 1239.85 2968
823.792 1231.08 2947
829.43 1228.99 2942
836.465 1228.99 2942
843.5 1228.99 2942
850.535 1228.99 2942
845.619 1211.86 2901
846.679 1203.5 2881
853.568 1203.5 2881
860.457 1203.5 2881
864.336 1199.33 2871
869.684 1197.24 2866
876.538 1197.24 2866
880.617 1193.48 2857
882.79 1187.21 2842
888.021 1185.12 2837
894.805 1185.12 2837
898.729 1181.36 2828
905.492 1181.36 2828
912.254 1181.36 2828
919.017 1181.36 2828
927.089 1183.04 2832
933.861 1183.04 2832
942.294 1185.12 2837
954.096 1191.39 2852
962.601 1193.48 2857
969.433 1193.48 2857
976.265 1193.48 2857
981.376 1191.39 2852
988.196 1191.39 2852
981.777 1159.64 2776
989.84 1161.31 2780
996.488 1161.31 2780
1003.14 1161.31 2780
1009.78 1161.31 2780
1016.43 1161.31 2780
1037.06 1177.19 2818
1043.8 1177.19 2818
1075.89 1205.59 2886
1082.79 1205.59 2886
1089.69 1205.59 2886
1096.59 1205.59 2886
1094.32 1195.57 2862
1102.7 1197.24 2866
1109.56 1197.24 2866
1116.41 1197.24 2866
1123.26 1197.24 2866
1130.12 1197.24 2866
1136.97 1197.24 2866
1140.23 1193.48 2857
1147.06 1193.48 2857
1157.53 1197.24 2866
1170.48 1203.5 2881
1177.37 1203.5 2881
1186.31 1205.59 2886
1197.35 1209.77 2896
1213.01 1218.54 2917
1219.98 1218.54 2917
1229.06 1220.63 2922
1236.05 1220.63 2922
1243.03 1220.63 2922
1247.88 1218.54 2917
1257.01 1220.63 2922
1264 1220.63 2922
1277.51 1226.9 2937
1284.53 1226.9 2937
1291.55 1226.9 2937
1291.95 1220.63 2922
1296.71 1218.54 2917
1303.69 1218.54 2917
1307.97 1216.04 2911
1314.93 1216.04 2911
1321.89 1216.04 2911
1328.85 1216.04 2911
1331.22 1211.86 2901
1331.24 1205.59 2886
1335.82 1203.5 2881
1342.71 1203.5 2881
1344.92 1199.33 2871
1349.43 1197.24 2866
1356.28 1197.24 2866
1363.13 1197.24 2866
1369.99 1197.24 2866
1374.92 1195.57 2862
1374.52 1189.3 2847
1381.33 1189.3 2847
1388.14 1189.3 2847
1537.68 1216.04 2911
1544.64 1216.04 2911
1551.6 1216.04 2911
1558.56 1216.04 2911
1565.53 1216.04 2911
1572.49 1216.04 2911
1587.9 1211.86 2901
1594.83 1211.86 2901
1601.77 1211.86 2901
1600.39 1205.59 2886
1607.29 1205.59 2886
1614.19 1205.59 2886
1621.09 1205.59 2886
1628 1205.59 2886
1637.73 1207.68 2891
1650.33 1211.86 2901
1657.27 1211.86 2901
1684.86 1226.9 2937
1703.98 1235.67 2958
1711.05 1235.67 2958
1718.12 1235.67 2958
1707.12 1222.72 2927
1656.14 1181.36 2828
1671.14 1187.21 2842
1677.93 1187.21 2842
1684.73 1187.21 2842
1691.52 1187.21 2842
1698.32 1187.21 2842
1702.12 1185.12 2837
1700.47 1179.28 2823
1704.19 1177.19 2818
1710.93 1177.19 2818
1717.67 1177.19 2818
1721.35 1175.1 2813
1728.08 1175.1 2813
1732.34 1173.43 2809
1739.05 1173.43 2809
1742.66 1171.34 2804
1754.98 1175.1 2813
1761.71 1175.1 2813
1768.44 1175.1 2813
1775.16 1175.1 2813
1773.02 1169.25 2799
1818.94 1151.71 2757
1825.53 1151.71 2757
1832.12 1151.71 2757
1838.72 1151.71 2757
1845.31 1151.71 2757
1833.77 1140.43 2730
1834.23 1136.67 2721
1805.56 1114.94 2669
1800.4 1107.84 2652
1806.74 1107.84 2652
1813.08 1107.84 2652
-1249.86 1149.07 2735
-1243.32 1149.07 2735
-1236.78 1149.07 2735
-1230.23 1149.07 2735
-1223.69 1149.07 2735
-1221.16 1152.85 2744
-1214.6 1152.85 2744
-1213.76 1158.31 2757
-1227.75 1178.06 2804
-1235.41 1191.92 2837
-1228.63 1191.92 2837
-1221.84 1191.92 2837
-1217.2 1194.02 2842
-1210.4 1194.02 2842
-1203.61 1194.02 2842
-1206.92 1204.1 2866
-1214.72 1218.81 2901
-1218.61 1229.73 2927
-1211.61 1229.73 2927
-1208.72 1233.93 2937
-1201.7 1233.93 2937
-1194.68 1233.93 2937
-1187.65 1233.93 2937
-1172.59 1225.53 2917
-1165.62 1225.53 2917
-1158.64 1225.53 2917
-1151.67 1225.53 2917
-1138.41 1218.81 2901
-1129.52 1216.71 2896
-1122.6 1216.71 2896
-1113.75 1214.61 2891
-1103.01 1210.41 2881
-1090.41 1204.1 2866
-1078.26 1198.22 2852
-1075.2 1202.42 2862
-1068.36 1202.42 2862
-1061.51 1202.42 2862
-1054.67 1202.42 2862
-1047.82 1202.42 2862
-1040.98 1202.42 2862
-1034.14 1202.42 2862
-1027.29 1202.42 2862
-1020.45 1202.42 2862
-1011.83 1200.32 2857
-1005 1200.32 2857
-998.17 1200.32 2857
-991.338 1200.32 2857
-984.506 1200.32 2857
-977.674 1200.32 2857
-970.842 1200.32 2857
-964.01 1200.32 2857
-585.084 760.863 1811
-580.754 760.863 1811
-576.423 760.863 1811
-570.829 759.182 1807
-565.567 757.922 1804
-560.009 756.241 1800
-555.705 756.241 1800
-550.788 755.401 1798
-545.272 753.721 1794
-539.776 752.04 1790
-535.496 752.04 1790
-531.215 752.04 1790
-526.346 751.2 1788
-520.902 749.519 1784
-515.188 747.419 1779
-510.934 747.419 1779
-504.402 744.057 1771
-497.907 740.696 1763
-492.291 738.596 1758
-488.087 738.596 1758
-483.333 737.755 1756
-477.769 735.655 1751
-471.419 732.294 1743
-467.251 732.294 1743
-462.551 731.453 1741
-458.388 731.453 1741
-455.268 733.134 1745
-451.612 733.974 1747
-447.435 733.974 1747
-444.526 736.075 1752
-441.844 738.596 1758
-439.383 741.537 1765
-435.162 741.537 1765
-432.895 744.898 1773
-428.655 744.898 1773
-425.373 746.578 1777
-421.124 746.578 1777
-416.874 746.578 1777
-414.715 750.359 1786
-411.363 752.04 1790
-407.083 752.04 1790
-405.503 757.082 1802
-401.861 758.342 1805
-400.628 764.224 1819
-396.279 764.224 1819
-392.36 765.064 1821
-388.431 765.904 1823
-384.072 765.904 1823
-379.713 765.904 1823
-375.353 765.904 1823
-370.994 765.904 1823
-366.635 765.904 1823
-361.48 764.224 1819
-357.131 764.224 1819
-351.229 760.863 1811
-346.516 760.023 1809
-342.19 760.023 1809
-337.864 760.023 1809
-333.907 760.863 1811
-329.576 760.863 1811
-325.245 760.863 1811
-320.56 760.023 1809
-315.885 759.182 1807
-310.702 757.082 1802
-306.393 757.082 1802
-300.742 753.721 1794
-296.122 752.88 1792
-291.185 751.2 1788
-286.91 751.2 1788
-282.002 749.519 1784
-277.424 748.679 1782
-272.703 747.419 1779
-268.449 747.419 1779
-263.601 745.738 1775
-259.356 745.738 1775
-255.687 747.419 1779
-251.574 747.839 1780
-248.429 751.2 1788
-244.153 751.2 1788
-239.877 751.2 1788
-235.602 751.2 1788
-231.326 751.2 1788
-227.05 751.2 1788
-223.273 752.88 1792
-219.721 755.401 1798
-215.901 757.082 1802
-211.592 757.082 1802
-207.513 757.922 1804
-203.537 759.182 1807
-199.657 760.863 1811
-195.326 760.863 1811
-191.628 763.384 1817
-187.695 765.064 1821
-183.341 765.064 1821
-178.986 765.064 1821
-229.811 1183.94 2818
-223.072 1183.94 2818
-216.333 1183.94 2818
-209.595 1183.94 2818
-202.856 1183.94 2818
-196.117 1183.94 2818
-189.042 1181.84 2813
-182.316 1181.84 2813
-175.589 1181.84 2813
-168.862 1181.84 2813
-161.905 1180.16 2809
-154.912 1178.06 2804
-148.206 1178.06 2804
-141.249 1175.96 2799
-134.556 1175.96 2799
-128.091 1178.06 2804
-121.602 1180.16 2809
-114.885 1180.16 2809
-108.168 1180.16 2809
-101.27 1178.06 2804
-94.396 1175.96 2799
-87.7028 1175.96 2799
-80.8648 1173.85 2794
-74.449 1178.06 2804
-67.8646 1180.16 2809
-61.1474 1180.16 2809
-54.4302 1180.16 2809
-47.8659 1183.94 2818
-41.2002 1186.04 2823
-34.4496 1186.04 2823
-27.6989 1186.04 2823
-20.9483 1186.04 2823
-14.1725 1183.94 2818
-7.43378 1183.94 2818
-0.693859 1181.84 2813
6.00285 1175.96 2799
12.6961 1175.96 2799
19.3894 1175.96 2799
25.9988 1172.17 2790
32.6119 1170.07 2785
39.1448 1166.29 2776
45.7831 1166.29 2776
52.0625 1158.31 2757
58.6554 1158.31 2757
65.2482 1158.31 2757
72.1016 1162.51 2767
78.9744 1166.29 2776
85.6126 1166.29 2776
92.7161 1172.17 2790
99.7085 1175.96 2799
106.402 1175.96 2799
113.095 1175.96 2799
119.788 1175.96 2799
126.707 1178.06 2804
133.651 1180.16 2809
140.368 1180.16 2809
148.08 1188.14 2828
155.061 1189.82 2832
161.834 1189.82 2832
168.606 1189.82 2832
175.378 1189.82 2832
182.472 1191.92 2837
189.589 1194.02 2842
196.385 1194.02 2842
203.539 1196.12 2847
210.347 1196.12 2847
217.155 1196.12 2847
223.963 1196.12 2847
229.961 1191.92 2837
236.327 1189.82 2832
243.1 1189.82 2832
249.519 1188.14 2828
256.281 1188.14 2828
263.044 1188.14 2828
269.33 1186.04 2823
276.08 1186.04 2823
282.33 1183.94 2818
290.094 1188.14 2828
297.277 1189.82 2832
304.586 1191.92 2837
311.37 1191.92 2837
318.715 1194.02 2842
328.26 1204.1 2866
336.867 1210.41 2881
343.757 1210.41 2881
350.646 1210.41 2881
358.776 1214.61 2891
370.876 1231.83 2932
377.887 1231.83 2932
391.068 1251.58 2979
398.192 1251.58 2979
405.316 1251.58 2979
412.439 1251.58 2979
419.563 1251.58 2979
425.111 1246.96 2968
432.209 1246.96 2968
437.826 1242.76 2958
444.147 1240.66 2953
449.528 1236.03 2942
456.563 1236.03 2942
463.598 1236.03 2942
470.634 1236.03 2942
475.233 1229.73 2927
482.233 1229.73 2927
477.532 1200.32 2857
479.447 1188.14 2828
486.21 1188.14 2828
512.845 1236.03 2942
519.88 1236.03 2942
526.915 1236.03 2942
533.951 1236.03 2942
535.285 1223.01 2911
542.246 1223.01 2911
549.208 1223.01 2911
613.096 1198.22 2852
621.003 1200.32 2857
627.835 1200.32 2857
634.667 1200.32 2857
640.376 1198.22 2852
647.196 1198.22 2852
670.934 1204.1 2866
681.334 1210.41 2881
688.224 1210.41 2881
701.145 1220.91 2906
710.774 1225.53 2917
726.608 1240.66 2953
733.669 1240.66 2953
750.012 1256.2 2990
768.051 1274.27 3033
778.116 1278.89 3044
785.395 1278.89 3044
792.674 1278.89 3044
797.062 1274.27 3033
804.315 1274.27 3033
800.062 1256.2 2990
804.242 1251.58 2979
807.008 1244.86 2963
814.094 1244.86 2963
816.745 1238.14 2947
819.599 1231.83 2932
826.61 1231.83 2932
833.622 1231.83 2932
840.633 1231.83 2932
847.644 1231.83 2932
845.619 1218.81 2901
846.679 1210.41 2881
853.568 1210.41 2881
858.964 1208.31 2876
861.627 1202.42 2862
866.953 1200.32 2857
873.785 1200.32 2857
875.994 1194.02 2842
876.888 1186.04 2823
883.639 1186.04 2823
890.389 1186.04 2823
897.14 1186.04 2823
897.807 1178.06 2804
902.899 1175.96 2799
912.842 1180.16 2809
919.559 1180.16 2809
926.277 1180.16 2809
934.322 1181.84 2813
952.423 1196.12 2847
960.916 1198.22 2852
967.736 1198.22 2852
974.556 1198.22 2852
981.376 1198.22 2852
988.196 1198.22 2852
981.777 1166.29 2776
989.84 1167.97 2780
996.488 1167.97 2780
1003.14 1167.97 2780
1009.78 1167.97 2780
1016.43 1167.97 2780
1037.06 1183.94 2818
1043.8 1183.94 2818
1066.94 1202.42 2862
1073.79 1202.42 2862
1080.63 1202.42 2862
1085.58 1200.32 2857
1079.41 1186.04 2823
1089.62 1189.82 2832
1100.26 1194.02 2842
1107.06 1194.02 2842
1115.82 1196.12 2847
1122.62 1196.12 2847
1129.43 1196.12 2847
1136.24 1196.12 2847
1143.05 1196.12 2847
1155.91 1202.42 2862
1170.48 1210.41 2881
1177.37 1210.41 2881
1186.31 1212.51 2886
1193.21 1212.51 2886
1206.35 1218.81 2901
1213.29 1218.81 2901
1220.23 1218.81 2901
1229.28 1220.91 2906
1238.35 1223.01 2911
1245.32 1223.01 2911
1254.86 1225.53 2917
1261.83 1225.53 2917
1268.81 1225.53 2917
1275.78 1225.53 2917
1282.76 1225.53 2917
1284.87 1220.91 2906
1291.82 1220.91 2906
1298.77 1220.91 2906
1301.23 1216.71 2896
1308.15 1216.71 2896
1315.08 1216.71 2896
1322 1216.71 2896
1324.34 1212.51 2886
1326.63 1208.31 2876
1322.38 1198.22 2852
1329.2 1198.22 2852
1333.67 1196.12 2847
1345.19 1200.32 2857
1352.02 1200.32 2857
1358.85 1200.32 2857
1365.69 1200.32 2857
1367.71 1196.12 2847
1374.52 1196.12 2847
1381.33 1196.12 2847
1388.14 1196.12 2847
1379.3 1154.53 2748
1385.87 1154.53 2748
1392.44 1154.53 2748
1537.68 1223.01 2911
1544.64 1223.01 2911
1551.6 1223.01 2911
1558.56 1223.01 2911
1565.53 1223.01 2911
1572.49 1223.01 2911
1587.9 1218.81 2901
1594.83 1218.81 2901
1601.77 1218.81 2901
1600.39 1212.51 2886
1607.29 1212.51 2886
1614.19 1212.51 2886
1621.09 1212.51 2886
1628 1212.51 2886
1637.73 1214.61 2891
1656.02 1223.01 2911
1662.98 1223.01 2911
1684.86 1233.93 2937
1703.98 1242.76 2958
1711.05 1242.76 2958
1718.12 1242.76 2958
1707.12 1229.73 2927
1656.14 1188.14 2828
1671.14 1194.02 2842
1677.93 1194.02 2842
1684.73 1194.02 2842
1691.52 1194.02 2842
1698.32 1194.02 2842
1702.12 1191.92 2837
1700.47 1186.04 2823
1704.19 1183.94 2818
1710.93 1183.94 2818
1717.67 1183.94 2818
1721.35 1181.84 2813
1728.08 1181.84 2813
1734.8 1181.84 2813
1741.53 1181.84 2813
1742.66 1178.06 2804
1754.98 1181.84 2813
1761.71 1181.84 2813
1768.44 1181.84 2813
1775.16 1181.84 2813
1773.02 1175.96 2799
1822.24 1160.41 2762
1828.84 1160.41 2762
1835.45 1160.41 2762
1838.72 1158.31 2757
1845.31 1158.31 2757
1833.77 1146.97 2730
1834.23 1143.18 2721
1820.44 1130.58 2691
1800.4 1114.2 2652
1806.74 1114.2 2652
1813.08 1114.2 2652
-1249.86 1155.62 2735
-1243.32 1155.62 2735
-1236.78 1155.62 2735
-1230.23 1155.62 2735
-1223.69 1155.62 2735
-1221.16 1159.42 2744
-1214.6 1159.42 2744
-1213.76 1164.91 2757
-1221.62 1178.86 2790
-1223.22 1186.89 2809
-1216.5 1186.89 2809
-1209.78 1186.89 2809
-1203.07 1186.89 2809
-1196.35 1186.89 2809
-1231.89 1243.08 2942
-1229.43 1247.73 2953
-1222.37 1247.73 2953
-1226.01 1258.72 2979
-1218.89 1258.72 2979
-1211.76 1258.72 2979
-1204.64 1258.72 2979
-1195.51 1256.6 2974
-1177.6 1245.19 2947
-1170.56 1245.19 2947
-1151.67 1232.52 2917
-1138.41 1225.76 2901
-1129.52 1223.65 2896
-1122.6 1223.65 2896
-1113.75 1221.53 2891
-1103.01 1217.31 2881
-1090.41 1210.97 2866
-1080.15 1207.17 2857
-1075.2 1209.28 2862
-1068.36 1209.28 2862
-1061.51 1209.28 2862
-1054.67 1209.28 2862
-1047.82 1209.28 2862
-1040.98 1209.28 2862
-1034.14 1209.28 2862
-1027.29 1209.28 2862
-1020.45 1209.28 2862
-1011.83 1207.17 2857
-1005 1207.17 2857
-998.17 1207.17 2857
-991.338 1207.17 2857
-984.506 1207.17 2857
-977.674 1207.17 2857
-970.842 1207.17 2857
-964.01 1207.17 2857
-586.377 766.891 1815
-582.036 766.891 1815
-577.696 766.891 1815
-572.092 765.201 1811
-565.567 762.243 1804
-560.631 761.398 1802
-556.322 761.398 1802
-551.4 760.553 1800
-546.488 759.708 1798
-540.982 758.018 1794
-536.692 758.018 1794
-532.402 758.018 1794
-526.935 756.328 1790
-521.486 754.638 1786
-516.057 752.948 1782
-511.796 752.948 1782
-506.68 751.68 1779
-499.037 746.61 1767
-493.411 744.497 1762
-489.198 744.497 1762
-483.883 742.807 1758
-479.134 741.962 1756
-471.96 737.314 1745
-467.787 737.314 1745
-462.551 735.624 1741
-459.441 737.314 1745
-455.79 738.159 1747
-452.905 740.272 1752
-448.715 740.272 1752
-445.541 741.962 1756
-442.85 744.497 1762
-441.374 749.145 1773
-437.135 749.145 1773
-433.872 750.835 1777
-429.622 750.835 1777
-425.852 751.68 1779
-421.598 751.68 1779
-417.578 752.103 1780
-414.715 754.638 1786
-411.823 757.173 1792
-407.537 757.173 1792
-405.503 761.398 1802
-402.307 763.511 1807
-400.628 768.581 1819
-396.279 768.581 1819
-392.36 769.426 1821
-388.431 770.271 1823
-384.493 771.117 1825
-380.129 771.117 1825
-375.765 771.117 1825
-371.401 771.117 1825
-367.037 771.117 1825
-361.48 768.581 1819
-357.131 768.581 1819
-351.617 766.046 1813
-346.899 765.201 1811
-342.568 765.201 1811
-338.237 765.201 1811
-334.276 766.046 1813
-329.94 766.046 1813
-325.605 766.046 1813
-321.269 766.046 1813
-316.235 764.356 1809
-311.047 762.243 1804
-306.733 762.243 1804
-301.413 759.708 1798
-296.452 758.018 1794
-291.837 757.173 1792
-287.551 757.173 1792
-282.318 754.638 1786
-277.736 753.793 1784
-272.703 751.68 1779
-268.449 751.68 1779
-263.601 749.99 1775
-259.356 749.99 1775
-255.687 751.68 1779
-252.139 753.793 1784
-248.429 755.483 1788
-244.153 755.483 1788
-239.877 755.483 1788
-235.602 755.483 1788
-231.326 755.483 1788
-227.05 755.483 1788
-223.273 757.173 1792
-219.721 759.708 1798
-215.901 761.398 1802
-211.592 761.398 1802
-207.513 762.243 1804
-203.537 763.511 1807
-199.657 765.201 1811
-195.326 765.201 1811
-191.628 767.736 1817
-187.695 769.426 1821
-183.341 769.426 1821
-178.986 769.426 1821
-233.779 1176.74 2785
-229.077 1186.89 2809
-222.359 1186.89 2809
-215.642 1186.89 2809
-208.925 1186.89 2809
-202.208 1186.89 2809
-195.143 1184.77 2804
-188.102 1182.66 2799
-181.084 1180.55 2794
-174.403 1180.55 2794
-167.722 1180.55 2794
-160.522 1176.74 2785
-153.862 1176.74 2785
-147.202 1176.74 2785
-140.088 1172.94 2776
-133.45 1172.94 2776
-126.994 1174.63 2780
-120.347 1174.63 2780
-113.699 1174.63 2780
-107.051 1174.63 2780
-100.403 1174.63 2780
-93.4517 1170.83 2771
-86.8254 1170.83 2771
-80.0833 1169.14 2767
-73.8118 1174.63 2780
-67.2847 1176.74 2785
-60.625 1176.74 2785
-53.9652 1176.74 2785
-47.5432 1182.66 2799
-40.9229 1184.77 2804
-34.2177 1184.77 2804
-27.5125 1184.77 2804
-20.8073 1184.77 2804
-14.0769 1182.66 2799
-7.38366 1182.66 2799
-0.690406 1182.66 2799
5.9621 1174.63 2780
12.6099 1174.63 2780
19.2577 1174.63 2780
25.9056 1174.63 2780
32.5066 1172.94 2776
38.8769 1164.91 2757
45.4037 1163.22 2753
51.987 1163.22 2753
58.4639 1161.11 2748
65.0352 1161.11 2748
71.841 1164.91 2757
78.7183 1169.14 2767
85.3351 1169.14 2767
92.2509 1172.94 2776
99.0316 1174.63 2780
106.06 1178.86 2790
112.731 1178.86 2790
119.403 1178.86 2790
126.256 1180.55 2794
133.175 1182.66 2799
139.868 1182.66 2799
147.085 1186.89 2809
154.842 1194.91 2828
161.605 1194.91 2828
168.368 1194.91 2828
175.378 1196.6 2832
182.15 1196.6 2832
189.256 1198.72 2837
196.04 1198.72 2837
203.181 1200.83 2842
209.978 1200.83 2842
216.774 1200.83 2842
223.57 1200.83 2842
229.961 1198.72 2837
236.327 1196.6 2832
243.1 1196.6 2832
249.519 1194.91 2828
256.281 1194.91 2828
262.579 1192.8 2823
268.376 1188.58 2813
275.102 1188.58 2813
281.428 1186.89 2809
289.069 1190.69 2818
295.807 1190.69 2818
303.083 1192.8 2823
309.834 1192.8 2823
316.584 1192.8 2823
325.511 1200.83 2842
334.646 1209.28 2862
341.49 1209.28 2862
348.82 1210.97 2866
356.915 1215.2 2876
365.69 1221.53 2891
372.603 1221.53 2891
387.655 1247.73 2953
398.192 1258.72 2979
405.316 1258.72 2979
412.439 1258.72 2979
419.563 1258.72 2979
423.679 1249.84 2958
430.752 1249.84 2958
437.086 1247.73 2953
444.147 1247.73 2953
446.472 1234.63 2922
456.563 1243.08 2942
463.598 1243.08 2942
470.634 1243.08 2942
475.233 1236.74 2927
482.233 1236.74 2927
475.861 1202.94 2847
476.904 1188.58 2813
482.943 1186.89 2809
492.101 1192.8 2823
514.402 1229.98 2911
521.363 1229.98 2911
528.324 1229.98 2911
535.285 1229.98 2911
542.246 1229.98 2911
541.661 1213.08 2871
590.12 1172.94 2776
613.096 1205.05 2852
619.916 1205.05 2852
626.736 1205.05 2852
633.556 1205.05 2852
637.008 1198.72 2837
643.792 1198.72 2837
657.59 1186.89 2809
674.476 1205.05 2852
681.296 1205.05 2852
692.7 1213.08 2871
708.094 1227.87 2906
722.671 1240.97 2937
729.694 1240.97 2937
744.494 1254.07 2968
765.266 1276.88 3022
778.116 1286.18 3044
785.395 1286.18 3044
792.674 1286.18 3044
794.172 1276.88 3022
801.398 1276.88 3022
800.062 1263.36 2990
804.242 1258.72 2979
802.651 1245.19 2947
809.698 1245.19 2947
811.202 1236.74 2927
818.201 1236.74 2927
826.61 1238.86 2932
833.622 1238.86 2932
840.633 1238.86 2932
847.644 1238.86 2932
838.332 1215.2 2876
839.625 1207.17 2857
846.457 1207.17 2857
851.796 1205.05 2852
855.605 1200.83 2842
862.402 1200.83 2842
869.198 1200.83 2842
872.911 1196.6 2832
870.986 1184.77 2804
877.691 1184.77 2804
884.397 1184.77 2804
891.102 1184.77 2804
893.324 1178.86 2790
899.996 1178.86 2790
907.968 1180.55 2794
914.649 1180.55 2794
921.33 1180.55 2794
928.012 1180.55 2794
952.423 1202.94 2847
960.916 1205.05 2852
967.736 1205.05 2852
974.556 1205.05 2852
981.376 1205.05 2852
988.196 1205.05 2852
980.009 1170.83 2771
988.416 1172.94 2776
995.054 1172.94 2776
1001.69 1172.94 2776
1009.78 1174.63 2780
1016.43 1174.63 2780
1037.06 1190.69 2818
1043.8 1190.69 2818
1050.54 1190.69 2818
1057.28 1190.69 2818
1064.02 1190.69 2818
1070.76 1190.69 2818
1074.05 1186.89 2809
1082.31 1188.58 2813
1092.91 1192.8 2823
1099.66 1192.8 2823
1108.37 1194.91 2828
1115.13 1194.91 2828
1123.48 1196.6 2832
1130.25 1196.6 2832
1139.03 1198.72 2837
1151.88 1205.05 2852
1166.42 1213.08 2871
1173.28 1213.08 2871
1184.26 1217.31 2881
1193.21 1219.42 2886
1202.19 1221.53 2891
1209.11 1221.53 2891
1220.23 1225.76 2901
1227.16 1225.76 2901
1238.35 1229.98 2911
1245.32 1229.98 2911
1252.28 1229.98 2911
1259.24 1229.98 2911
1266.2 1229.98 2911
1273.16 1229.98 2911
1275.72 1225.76 2901
1278.24 1221.53 2891
1278.48 1215.2 2876
1285.36 1215.2 2876
1292.24 1215.2 2876
1299.12 1215.2 2876
1305.99 1215.2 2876
1312.87 1215.2 2876
1317.45 1213.08 2871
1315.56 1205.05 2852
1315.42 1198.72 2837
1322.2 1198.72 2837
1322.43 1192.8 2823
1329.18 1192.8 2823
1335.93 1192.8 2823
1342.68 1192.8 2823
1349.43 1192.8 2823
1356.18 1192.8 2823
1353.76 1184.77 2804
1379.3 1161.11 2748
1385.87 1161.11 2748
1392.44 1161.11 2748
1521.83 1217.31 2881
1528.72 1217.31 2881
1535.61 1217.31 2881
1558.56 1229.98 2911
1565.53 1229.98 2911
1572.49 1229.98 2911
1656.02 1229.98 2911
1662.98 1229.98 2911
1679.12 1236.74 2927
1691.88 1240.97 2937
1698.9 1240.97 2937
1705.93 1240.97 2937
1707.12 1236.74 2927
1656.14 1194.91 2828
1668.2 1198.72 2837
1674.98 1198.72 2837
1681.76 1198.72 2837
1685.57 1196.6 2832
1692.34 1196.6 2832
1699.12 1196.6 2832
1697.46 1190.69 2818
1701.17 1188.58 2813
1707.9 1188.58 2813
1714.62 1188.58 2813
1721.35 1188.58 2813
1728.08 1188.58 2813
1734.8 1188.58 2813
1741.53 1188.58 2813
1742.66 1184.77 2804
1754.98 1188.58 2813
1761.71 1188.58 2813
1768.44 1188.58 2813
1775.16 1188.58 2813
1822.24 1167.03 2762
1828.84 1167.03 2762
1835.45 1167.03 2762
1838.72 1164.91 2757
1845.31 1164.91 2757
1833.77 1153.51 2730
1834.23 1149.7 2721
1820.44 1137.03 2691
1800.4 1120.55 2652
1806.74 1120.55 2652
1813.08 1120.55 2652
-1243.99 1150.7 2708
-1249.86 1162.17 2735
-1243.32 1162.17 2735
-1236.78 1162.17 2735
-1230.23 1162.17 2735
-1223.69 1162.17 2735
-1225.16 1169.82 2753
-1218.58 1169.82 2753
-1215.96 1173.64 2762
-1217.24 1181.29 2780
-1221.04 1191.49 2804
-1214.34 1191.49 2804
-1207.63 1191.49 2804
-1200.92 1191.49 2804
-1194.22 1191.49 2804
-1231.89 1250.13 2942
-1229.43 1254.8 2953
-1222.37 1254.8 2953
-1226.01 1265.85 2979
-1218.89 1265.85 2979
-1211.76 1265.85 2979
-1204.64 1265.85 2979
-1195.51 1263.73 2974
-1177.6 1252.25 2947
-1170.56 1252.25 2947
-1151.67 1239.51 2917
-1138.41 1232.71 2901
-1129.52 1230.58 2896
-1122.6 1230.58 2896
-1113.75 1228.46 2891
-1103.01 1224.21 2881
-1090.41 1217.84 2866
-1080.15 1214.01 2857
-1073.32 1214.01 2857
-1066.49 1214.01 2857
-1059.66 1214.01 2857
-1054.67 1216.14 2862
-1047.82 1216.14 2862
-1040.98 1216.14 2862
-1030.52 1211.89 2852
-1021.91 1209.76 2847
-1015.1 1209.76 2847
-1008.29 1209.76 2847
-1001.48 1209.76 2847
-998.17 1214.01 2857
-991.338 1214.01 2857
-984.506 1214.01 2857
-977.674 1214.01 2857
-970.842 1214.01 2857
-964.01 1214.01 2857
-586.377 771.239 1815
-582.036 771.239 1815
-577.696 771.239 1815
-572.092 769.539 1811
-565.567 766.565 1804
-560.631 765.715 1802
-556.322 765.715 1802
-551.4 764.865 1800
-546.488 764.015 1798
-540.982 762.316 1794
-536.692 762.316 1794
-532.402 762.316 1794
-526.935 760.616 1790
-521.486 758.916 1786
-516.057 757.216 1782
-511.796 757.216 1782
-506.68 755.942 1779
-499.037 750.843 1767
-493.411 748.718 1762
-489.198 748.718 1762
-483.883 747.018 1758
-479.134 746.168 1756
-471.96 741.494 1745
-467.787 741.494 1745
-462.551 739.795 1741
-459.441 741.494 1745
-455.79 742.344 1747
-452.905 744.469 1752
-448.715 744.469 1752
-445.541 746.168 1756
-442.85 748.718 1762
-441.374 753.392 1773
-437.135 753.392 1773
-433.872 755.092 1777
-429.622 755.092 1777
-425.852 755.942 1779
-421.598 755.942 1779
-417.578 756.367 1780
-414.715 758.916 1786
-411.823 761.466 1792
-407.537 761.466 1792
-405.503 765.715 1802
-402.307 767.84 1807
-400.628 772.939 1819
-396.279 772.939 1819
-392.36 773.789 1821
-388.431 774.638 1823
-384.493 775.488 1825
-380.129 775.488 1825
-375.765 775.488 1825
-371.401 775.488 1825
-367.037 775.488 1825
-361.48 772.939 1819
-357.131 772.939 1819
-351.617 770.389 1813
-346.899 769.539 1811
-342.568 769.539 1811
-338.237 769.539 1811
-334.276 770.389 1813
-329.94 770.389 1813
-325.605 770.389 1813
-321.269 770.389 1813
-316.235 768.69 1809
-311.047 766.565 1804
-306.733 766.565 1804
-301.413 764.015 1798
-296.452 762.316 1794
-291.837 761.466 1792
-287.551 761.466 1792
-282.318 758.916 1786
-277.736 758.066 1784
-272.703 755.942 1779
-268.449 755.942 1779
-263.601 754.242 1775
-259.356 754.242 1775
-255.687 755.942 1779
-252.139 758.066 1784
-248.429 759.766 1788
-244.153 759.766 1788
-239.877 759.766 1788
-235.865 760.616 1790
-231.585 760.616 1790
-227.304 760.616 1790
-223.273 761.466 1792
-219.721 764.015 1798
-215.901 765.715 1802
-211.592 765.715 1802
-207.283 765.715 1802
-203.199 766.565 1804
-199.877 770.389 1813
-195.542 770.389 1813
-191.839 772.939 1819
-189.138 779.738 1835
-186.462 786.961 1852
-182.033 786.961 1852
-177.796 787.811 1854
-173.363 787.811 1854
-168.929 787.811 1854
-233.779 1183.42 2785
-229.077 1193.61 2809
-222.359 1193.61 2809
-215.642 1193.61 2809
-208.925 1193.61 2809
-202.208 1193.61 2809
-195.143 1191.49 2804
-188.102 1189.37 2799
-181.084 1187.24 2794
-174.403 1187.24 2794
-167.722 1187.24 2794
-160.522 1183.42 2785
-153.862 1183.42 2785
-147.202 1183.42 2785
-140.088 1179.59 2776
-133.45 1179.59 2776
-126.994 1181.29 2780
-120.347 1181.29 2780
-113.699 1181.29 2780
-107.051 1181.29 2780
-100.403 1181.29 2780
-93.4517 1177.47 2771
-86.8254 1177.47 2771
-80.0833 1175.77 2767
-73.8118 1181.29 2780
-67.2847 1183.42 2785
-60.625 1183.42 2785
-53.9652 1183.42 2785
-47.5432 1189.37 2799
-40.9229 1191.49 2804
-34.2177 1191.49 2804
-27.5125 1191.49 2804
-20.8073 1191.49 2804
-14.0769 1189.37 2799
-7.38366 1189.37 2799
-0.690406 1189.37 2799
5.9621 1181.29 2780
12.6099 1181.29 2780
19.2577 1181.29 2780
25.9056 1181.29 2780
32.5066 1179.59 2776
38.8769 1171.52 2757
45.4037 1169.82 2753
51.987 1169.82 2753
58.4639 1167.69 2748
65.0352 1167.69 2748
71.841 1171.52 2757
78.7183 1175.77 2767
85.3351 1175.77 2767
92.2509 1179.59 2776
99.0316 1181.29 2780
106.06 1185.54 2790
112.731 1185.54 2790
119.403 1185.54 2790
126.256 1187.24 2794
133.175 1189.37 2799
139.868 1189.37 2799
147.085 1193.61 2809
154.842 1201.69 2828
161.605 1201.69 2828
168.368 1201.69 2828
175.378 1203.39 2832
182.15 1203.39 2832
189.256 1205.51 2837
196.04 1205.51 2837
203.181 1207.64 2842
209.978 1207.64 2842
216.774 1207.64 2842
223.57 1207.64 2842
229.961 1205.51 2837
236.327 1203.39 2832
243.1 1203.39 2832
249.519 1201.69 2828
256.281 1201.69 2828
262.579 1199.56 2823
268.376 1195.31 2813
275.102 1195.31 2813
281.428 1193.61 2809
289.069 1197.44 2818
295.807 1197.44 2818
303.083 1199.56 2823
309.834 1199.56 2823
316.584 1199.56 2823
325.511 1207.64 2842
334.646 1216.14 2862
341.49 1216.14 2862
348.82 1217.84 2866
356.915 1222.08 2876
365.69 1228.46 2891
372.603 1228.46 2891
387.655 1254.8 2953
398.192 1265.85 2979
405.316 1265.85 2979
412.439 1265.85 2979
419.563 1265.85 2979
423.679 1256.93 2958
430.752 1256.93 2958
437.086 1254.8 2953
444.147 1254.8 2953
446.472 1241.63 2922
456.563 1250.13 2942
463.598 1250.13 2942
470.634 1250.13 2942
475.233 1243.76 2927
482.233 1243.76 2927
470.178 1195.31 2813
475.379 1191.49 2804
480.365 1187.24 2794
486.349 1185.54 2790
493.02 1185.54 2790
498.796 1183.42 2785
505.456 1183.42 2785
512.116 1183.42 2785
518.776 1183.42 2785
522.794 1177.47 2771
590.12 1179.59 2776
596.758 1179.59 2776
603.397 1179.59 2776
610.035 1179.59 2776
614.674 1175.77 2767
620.168 1173.64 2762
626.773 1173.64 2762
633.378 1173.64 2762
642.068 1177.47 2771
655.249 1189.37 2799
664.307 1193.61 2809
671.024 1193.61 2809
684.497 1205.51 2837
697.373 1216.14 2862
707.662 1222.08 2876
714.539 1222.08 2876
736.718 1248.01 2937
747.793 1254.8 2953
764.312 1270.53 2990
771.462 1270.53 2990
778.612 1270.53 2990
782.871 1265.85 2979
789.995 1265.85 2979
777.585 1234.83 2906
784.535 1234.83 2906
791.484 1234.83 2906
798.433 1234.83 2906
805.382 1234.83 2906
812.331 1234.83 2906
822.381 1239.51 2917
829.357 1239.51 2917
836.332 1239.51 2917
840.128 1234.83 2906
829.879 1209.76 2847
835.217 1207.64 2842
842.013 1207.64 2842
845.823 1203.39 2832
852.595 1203.39 2832
859.367 1203.39 2832
866.139 1203.39 2832
867.055 1195.31 2813
869.433 1189.37 2799
876.126 1189.37 2799
882.82 1189.37 2799
887.924 1187.24 2794
885.96 1175.77 2767
893.867 1177.47 2771
905.043 1183.42 2785
914.649 1187.24 2794
921.33 1187.24 2794
928.012 1187.24 2794
934.693 1187.24 2794
959.231 1209.76 2847
966.039 1209.76 2847
972.847 1209.76 2847
962.142 1163.87 2739
976.826 1173.64 2762
986.635 1177.47 2771
993.262 1177.47 2771
999.888 1177.47 2771
1009.78 1181.29 2780
1016.43 1181.29 2780
1031.91 1191.49 2804
1038.62 1191.49 2804
1047.19 1193.61 2809
1053.9 1193.61 2809
1060.62 1193.61 2809
1065.44 1191.49 2804
1072.14 1191.49 2804
1080.77 1193.61 2809
1090.97 1197.44 2818
1097.71 1197.44 2818
1106.41 1199.56 2823
1113.16 1199.56 2823
1119.91 1199.56 2823
1126.66 1199.56 2823
1135.42 1201.69 2828
1149.86 1209.76 2847
1162.76 1216.14 2862
1169.6 1216.14 2862
1178.09 1217.84 2866
1189.08 1222.08 2876
1195.96 1222.08 2876
1202.83 1222.08 2876
1216.02 1228.46 2891
1227.16 1232.71 2901
1236.23 1234.83 2906
1243.18 1234.83 2906
1250.13 1234.83 2906
1257.08 1234.83 2906
1259.67 1230.58 2896
1266.6 1230.58 2896
1271.33 1228.46 2891
1273.82 1224.21 2881
1278.48 1222.08 2876
1285.36 1222.08 2876
1287.75 1217.84 2866
1294.6 1217.84 2866
1301.45 1217.84 2866
1308.31 1217.84 2866
1308.74 1211.89 2852
1308.64 1205.51 2837
1306.61 1197.44 2818
1313.35 1197.44 2818
1317.75 1195.31 2813
1324.47 1195.31 2813
1331.2 1195.31 2813
1336.02 1193.61 2809
1342.74 1193.61 2809
1340.33 1185.54 2790
1347 1185.54 2790
1379.3 1167.69 2748
1385.87 1167.69 2748
1392.44 1167.69 2748
1394.43 1163.87 2739
1400.98 1163.87 2739
1656.02 1236.96 2911
1662.98 1236.96 2911
1669.94 1236.96 2911
1686.12 1243.76 2927
1693.12 1243.76 2927
1700.12 1243.76 2927
1697.79 1236.96 2911
1656.14 1201.69 2828
1662.9 1201.69 2828
1669.67 1201.69 2828
1676.43 1201.69 2828
1683.19 1201.69 2828
1689.95 1201.69 2828
1693.72 1199.56 2823
1692.03 1193.61 2809
1698.75 1193.61 2809
1707.9 1195.31 2813
1714.62 1195.31 2813
1721.35 1195.31 2813
1728.08 1195.31 2813
1734.8 1195.31 2813
1741.53 1195.31 2813
1745.77 1193.61 2809
1754.98 1195.31 2813
1761.71 1195.31 2813
1768.44 1195.31 2813
1775.16 1195.31 2813
1776.19 1191.49 2804
1801.67 1177.47 2771
1808.3 1177.47 2771
1814.92 1177.47 2771
1818.92 1175.77 2767
1825.54 1175.77 2767
1832.15 1175.77 2767
1835.45 1173.64 2762
1838.72 1171.52 2757
1845.31 1171.52 2757
1833.77 1160.05 2730
1834.23 1156.22 2721
1820.44 1143.47 2691
1800.4 1126.9 2652
1806.74 1126.9 2652
1807.61 1123.5 2644
-1249.05 1149.92 2691
-1242.62 1149.92 2691
-1243.99 1157.18 2708
-1247.57 1166.59 2730
-1241.04 1166.59 2730
-1234.51 1166.59 2730
-1223.94 1162.74 2721
-1223.69 1168.72 2735
-1225.16 1176.41 2753
-1218.58 1176.41 2753
-1215.96 1180.26 2762
-1215.49 1186.24 2776
-1221.04 1198.21 2804
-1214.34 1198.21 2804
-1207.63 1198.21 2804
-1231.89 1257.18 2942
-1242.34 1275.12 2984
-1235.2 1275.12 2984
-1230.54 1277.69 2990
-1225.43 1279.83 2995
-1218.27 1279.83 2995
-1211.11 1279.83 2995
-1197.52 1272.99 2979
-1177.6 1259.31 2947
-1170.56 1259.31 2947
-1151.67 1246.49 2917
-1140.37 1241.79 2906
-1131.47 1239.66 2901
-1124.54 1239.66 2901
-1113.75 1235.38 2891
-1103.01 1231.11 2881
-1090.41 1224.7 2866
-1083.56 1224.7 2866
-1076.7 1224.7 2866
-1068.36 1222.99 2862
-1061.51 1222.99 2862
-1054.67 1222.99 2862
-1047.82 1222.99 2862
-1040.98 1222.99 2862
-1030.52 1218.72 2852
-1018.32 1212.31 2837
-1011.53 1212.31 2837
-1004.75 1212.31 2837
-997.966 1212.31 2837
-992.929 1214.45 2842
-987.868 1216.58 2847
-981.06 1216.58 2847
-974.252 1216.58 2847
-965.745 1214.45 2842
-958.949 1214.45 2842
-587.023 776.442 1817
-582.678 776.442 1817
-578.333 776.442 1817
-573.356 775.587 1815
-565.567 770.886 1804
-560.631 770.032 1802
-556.322 770.032 1802
-551.4 769.177 1800
-546.488 768.322 1798
-540.982 766.613 1794
-536.692 766.613 1794
-532.402 766.613 1794
-527.523 765.759 1792
-522.07 764.049 1788
-516.057 761.485 1782
-511.796 761.485 1782
-506.68 760.203 1779
-499.037 755.076 1767
-493.691 753.366 1763
-489.475 753.366 1763
-484.984 752.939 1762
-479.679 751.23 1758
-472.5 746.529 1747
-468.323 746.529 1747
-463.614 745.674 1745
-459.441 745.674 1745
-456.312 747.384 1749
-453.422 749.52 1754
-449.228 749.52 1754
-446.048 751.23 1758
-442.85 752.939 1762
-441.374 757.639 1773
-437.135 757.639 1773
-434.36 760.203 1779
-430.348 760.631 1780
-426.091 760.631 1780
-421.835 760.631 1780
-418.047 761.485 1782
-415.643 764.904 1790
-412.282 766.613 1794
-407.992 766.613 1794
-405.953 770.886 1804
-402.752 773.023 1809
-401.069 778.151 1821
-396.714 778.151 1821
-392.791 779.005 1823
-388.858 779.86 1825
-384.493 779.86 1825
-380.129 779.86 1825
-375.765 779.86 1825
-371.401 779.86 1825
-367.037 779.86 1825
-361.48 777.296 1819
-357.131 777.296 1819
-351.617 774.732 1813
-346.899 773.878 1811
-342.568 773.878 1811
-338.237 773.878 1811
-334.276 774.732 1813
-329.94 774.732 1813
-325.605 774.732 1813
-321.269 774.732 1813
-316.235 773.023 1809
-311.047 770.886 1804
-306.733 770.886 1804
-301.413 768.322 1798
-296.783 767.468 1796
-292.162 766.613 1794
-287.872 766.613 1794
-282.318 763.195 1786
-277.736 762.34 1784
-272.703 760.203 1779
-268.449 760.203 1779
-263.601 758.494 1775
-259.356 758.494 1775
-256.118 761.485 1782
-252.139 762.34 1784
-248.429 764.049 1788
-244.153 764.049 1788
-240.146 764.904 1790
-235.865 764.904 1790
-231.585 764.904 1790
-227.304 764.904 1790
-223.273 765.759 1792
-219.721 768.322 1798
-215.901 770.032 1802
-211.592 770.032 1802
-207.283 770.032 1802
-203.199 770.886 1804
-199.877 774.732 1813
-195.542 774.732 1813
-191.839 777.296 1819
-189.138 784.133 1835
-186.462 791.398 1852
-182.033 791.398 1852
-177.796 792.252 1854
-173.363 792.252 1854
-168.929 792.252 1854
-233.779 1190.09 2785
-228.669 1198.21 2804
-221.964 1198.21 2804
-215.258 1198.21 2804
-208.181 1196.07 2799
-201.488 1196.07 2799
-193.821 1190.09 2785
-187.161 1190.09 2785
-180.501 1190.09 2785
-173.841 1190.09 2785
-167.181 1190.09 2785
-160.003 1186.24 2776
-153.365 1186.24 2776
-146.251 1182.4 2767
-139.634 1182.4 2767
-132.777 1180.26 2762
-126.172 1180.26 2762
-119.351 1178.12 2757
-112.758 1178.12 2757
-106.165 1178.12 2757
-99.5724 1178.12 2757
-92.676 1174.28 2748
-86.1047 1174.28 2748
-79.5334 1174.28 2748
-72.9621 1174.28 2748
-66.5116 1176.41 2753
-60.1243 1180.26 2762
-53.5195 1180.26 2762
-47.2205 1187.95 2780
-40.6456 1190.09 2785
-33.9858 1190.09 2785
-27.3261 1190.09 2785
-20.6292 1187.95 2780
-13.9612 1186.24 2776
-7.32299 1186.24 2776
-0.684732 1186.24 2776
5.9428 1184.11 2771
12.5691 1184.11 2771
19.1954 1184.11 2771
25.7844 1182.4 2767
32.3426 1180.26 2762
38.75 1174.28 2748
45.2553 1172.57 2744
51.817 1172.57 2744
58.3788 1172.57 2744
65.0352 1174.28 2748
71.6065 1174.28 2748
78.5761 1180.26 2762
85.1808 1180.26 2762
92.2509 1186.24 2776
98.8891 1186.24 2776
105.679 1187.95 2780
112.327 1187.95 2780
118.975 1187.95 2780
126.075 1192.22 2790
133.175 1196.07 2799
139.868 1196.07 2799
146.823 1198.21 2804
154.842 1208.46 2828
161.605 1208.46 2828
168.368 1208.46 2828
175.378 1210.17 2832
182.15 1210.17 2832
188.922 1210.17 2832
195.694 1210.17 2832
203.181 1214.45 2842
209.978 1214.45 2842
216.774 1214.45 2842
223.57 1214.45 2842
229.555 1210.17 2832
235.994 1208.46 2828
242.756 1208.46 2828
249.519 1208.46 2828
256.281 1208.46 2828
262.114 1204.19 2818
267.994 1200.34 2809
274.711 1200.34 2809
280.927 1198.21 2804
288.145 1200.34 2809
294.863 1200.34 2809
302.009 1202.05 2813
308.736 1202.05 2813
315.463 1202.05 2813
323.335 1206.33 2823
332.307 1214.45 2842
339.103 1214.45 2842
347.725 1220.85 2857
355.177 1222.99 2862
363.792 1228.97 2876
370.67 1228.97 2876
380.172 1237.52 2896
397.524 1270.85 2974
404.635 1270.85 2974
411.747 1270.85 2974
416.605 1264.01 2958
422.963 1261.88 2953
430.024 1261.88 2953
430.869 1243.93 2911
437.83 1243.93 2911
444.791 1243.93 2911
453.459 1248.63 2922
460.447 1248.63 2922
467.434 1248.63 2922
474.422 1248.63 2922
481.409 1248.63 2922
470.178 1202.05 2813
475.379 1198.21 2804
480.365 1193.93 2794
486.349 1192.22 2790
493.02 1192.22 2790
498.796 1190.09 2785
505.456 1190.09 2785
512.116 1190.09 2785
518.776 1190.09 2785
522.794 1184.11 2771
590.12 1186.24 2776
596.758 1186.24 2776
603.397 1186.24 2776
610.035 1186.24 2776
614.674 1182.4 2767
620.168 1180.26 2762
626.773 1180.26 2762
633.378 1180.26 2762
642.068 1184.11 2771
655.249 1196.07 2799
664.307 1200.34 2809
671.024 1200.34 2809
684.497 1212.31 2837
697.373 1222.99 2862
707.662 1228.97 2876
714.539 1228.97 2876
736.718 1255.04 2937
747.793 1261.88 2953
764.312 1277.69 2990
771.462 1277.69 2990
778.612 1277.69 2990
782.871 1272.99 2979
789.995 1272.99 2979
777.585 1241.79 2906
784.535 1241.79 2906
791.484 1241.79 2906
798.433 1241.79 2906
805.382 1241.79 2906
812.331 1241.79 2906
822.381 1246.49 2917
829.357 1246.49 2917
836.332 1246.49 2917
840.128 1241.79 2906
829.879 1216.58 2847
835.217 1214.45 2842
842.013 1214.45 2842
845.823 1210.17 2832
852.595 1210.17 2832
859.367 1210.17 2832
866.139 1210.17 2832
867.055 1202.05 2813
869.433 1196.07 2799
876.126 1196.07 2799
882.82 1196.07 2799
887.924 1193.93 2794
885.96 1182.4 2767
893.867 1184.11 2771
905.043 1190.09 2785
914.649 1193.93 2794
921.33 1193.93 2794
928.012 1193.93 2794
934.693 1193.93 2794
959.231 1216.58 2847
966.039 1216.58 2847
972.847 1216.58 2847
955.224 1186.24 2776
961.863 1186.24 2776
966.756 1184.11 2771
971.978 1182.4 2767
976.826 1180.26 2762
986.635 1184.11 2771
993.262 1184.11 2771
999.888 1184.11 2771
1009.78 1187.95 2780
1016.43 1187.95 2780
1031.91 1198.21 2804
1038.62 1198.21 2804
1047.19 1200.34 2809
1053.9 1200.34 2809
1060.62 1200.34 2809
1065.44 1198.21 2804
1072.14 1198.21 2804
1080.77 1200.34 2809
1090.97 1204.19 2818
1097.71 1204.19 2818
1106.41 1206.33 2823
1113.16 1206.33 2823
1119.91 1206.33 2823
1126.66 1206.33 2823
1135.42 1208.46 2828
1149.86 1216.58 2847
1162.76 1222.99 2862
1169.6 1222.99 2862
1178.09 1224.7 2866
1189.08 1228.97 2876
1195.96 1228.97 2876
1202.83 1228.97 2876
1216.02 1235.38 2891
1227.16 1239.66 2901
1236.23 1241.79 2906
1243.18 1241.79 2906
1250.13 1241.79 2906
1257.08 1241.79 2906
1253.15 1231.11 2881
1260.04 1231.11 2881
1264.73 1228.97 2876
1265.42 1222.99 2862
1272.26 1222.99 2862
1279.11 1222.99 2862
1283.7 1220.85 2857
1290.53 1220.85 2857
1295.1 1218.72 2852
1301.92 1218.72 2852
1306.44 1216.58 2847
1299.87 1204.19 2818
1300.12 1198.21 2804
1306.83 1198.21 2804
1308.85 1193.93 2794
1315.53 1193.93 2794
1322.21 1193.93 2794
1328.89 1193.93 2794
1335.57 1193.93 2794
1340.33 1192.22 2790
1333.48 1180.26 2762
1366.15 1174.28 2748
1372.72 1174.28 2748
1379.3 1174.28 2748
1385.87 1174.28 2748
1392.44 1174.28 2748
1394.43 1170.43 2739
1400.98 1170.43 2739
1656.02 1243.93 2911
1662.98 1243.93 2911
1669.94 1243.93 2911
1676.9 1243.93 2911
1683.86 1243.93 2911
1690.83 1243.93 2911
1697.79 1243.93 2911
1650.28 1204.19 2818
1657.02 1204.19 2818
1663.76 1204.19 2818
1670.5 1204.19 2818
1677.24 1204.19 2818
1683.98 1204.19 2818
1685.32 1200.34 2809
1686.01 1196.07 2799
1695.73 1198.21 2804
1705.47 1200.34 2809
1712.19 1200.34 2809
1718.9 1200.34 2809
1725.62 1200.34 2809
1732.34 1200.34 2809
1739.05 1200.34 2809
1745.77 1200.34 2809
1752.49 1200.34 2809
1756.07 1198.21 2804
1762.78 1198.21 2804
1769.48 1198.21 2804
1776.19 1198.21 2804
1767.64 1187.95 2780
1774.28 1187.95 2780
1785.84 1182.4 2767
1795.04 1184.11 2771
1801.67 1184.11 2771
1808.3 1184.11 2771
1814.92 1184.11 2771
1821.55 1184.11 2771
1828.18 1184.11 2771
1832.15 1182.4 2767
1835.45 1180.26 2762
1832.72 1174.28 2748
1839.29 1174.28 2748
1825.03 1161.03 2717
1814.01 1149.92 2691
1802.85 1138.81 2665
1794.97 1129.84 2644
1801.29 1129.84 2644
1807.61 1129.84 2644
-1286.03 1143.47 2661
-1279.67 1143.47 2661
-1277.14 1146.91 2669
-1270.75 1146.91 2669
-1264.37 1146.91 2669
-1257.99 1146.91 2669
-1251.61 1146.91 2669
-1241.49 1143.47 2661
-1249.05 1156.37 2691
-1242.62 1156.37 2691
-1243.99 1163.67 2708
-1247.57 1173.12 2730
-1241.04 1173.12 2730
-1234.51 1173.12 2730
-1223.94 1169.26 2721
-1223.69 1175.27 2735
-1225.16 1183.01 2753
-1218.58 1183.01 2753
-1215.96 1186.88 2762
-1215.49 1192.89 2776
-1221.04 1204.92 2804
-1214.34 1204.92 2804
-1207.63 1204.92 2804
-1244.84 1284.85 2990
-1237.69 1284.85 2990
-1230.54 1284.85 2990
-1225.43 1287 2995
-1218.27 1287 2995
-1211.11 1287 2995
-1197.52 1280.12 2979
-1154.27 1248.76 2906
-1147.32 1248.76 2906
-1140.37 1248.76 2906
-1131.47 1246.61 2901
-1124.54 1246.61 2901
-1113.75 1242.31 2891
-1103.01 1238.01 2881
-1092.31 1233.71 2871
-1083.56 1231.57 2866
-1076.7 1231.57 2866
-1069.85 1231.57 2866
-1063 1231.57 2866
-1056.14 1231.57 2866
-1049.29 1231.57 2866
-1042.44 1231.57 2866
-1032.33 1227.7 2857
-1018.32 1219.1 2837
-1011.53 1219.1 2837
-1002.98 1216.96 2832
-996.208 1216.96 2832
-989.435 1216.96 2832
-984.398 1219.1 2837
-977.614 1219.1 2837
-970.83 1219.1 2837
-587.023 780.794 1817
-582.678 780.794 1817
-578.333 780.794 1817
-573.356 779.935 1815
-565.567 775.208 1804
-560.631 774.348 1802
-556.322 774.348 1802
-551.4 773.489 1800
-546.488 772.63 1798
-542.188 772.63 1798
-537.889 772.63 1798
-533.589 772.63 1798
-528.112 770.911 1794
-522.07 768.332 1788
-516.057 765.754 1782
-511.796 765.754 1782
-506.68 764.465 1779
-499.602 760.168 1769
-494.251 758.449 1765
-490.031 758.449 1765
-484.984 757.16 1762
-479.679 755.441 1758
-472.5 750.714 1747
-468.323 750.714 1747
-463.614 749.855 1745
-459.441 749.855 1745
-456.312 751.573 1749
-453.939 754.581 1756
-449.74 754.581 1756
-446.556 756.3 1760
-443.101 757.589 1763
-441.374 761.887 1773
-437.135 761.887 1773
-434.36 764.465 1779
-430.348 764.895 1780
-426.57 765.754 1782
-422.308 765.754 1782
-418.047 765.754 1782
-416.108 770.051 1792
-413.202 772.63 1798
-408.902 772.63 1798
-406.628 776.497 1807
-403.642 779.075 1813
-401.509 783.372 1823
-397.15 783.372 1823
-393.222 784.232 1825
-389.284 785.091 1827
-384.915 785.091 1827
-380.546 785.091 1827
-376.177 785.091 1827
-371.401 784.232 1825
-367.037 784.232 1825
-362.673 784.232 1825
-357.131 781.654 1819
-352.393 780.794 1817
-347.282 779.075 1813
-343.325 779.935 1815
-338.984 779.935 1815
-334.644 779.935 1815
-330.304 779.935 1815
-325.964 779.935 1815
-321.269 779.075 1813
-316.235 777.356 1809
-311.047 775.208 1804
-306.733 775.208 1804
-301.413 772.63 1798
-296.783 771.77 1796
-292.162 770.911 1794
-287.872 770.911 1794
-282.318 767.473 1786
-277.736 766.614 1784
-272.856 764.895 1780
-268.6 764.895 1780
-263.898 763.606 1777
-259.648 763.606 1777
-256.405 766.614 1784
-252.139 766.614 1784
-248.429 768.332 1788
-244.426 769.192 1790
-240.146 769.192 1790
-235.865 769.192 1790
-231.844 770.051 1792
