-1271.9 887.578 3691
-1263.07 887.578 3691
-1254.24 887.578 3691
-1245.42 887.578 3691
-1225.54 879.643 3658
-1206.48 872.188 3627
-1197.8 872.188 3627
-556.37 408.079 1697
-552.312 408.079 1697
-548.254 408.079 1697
-544.196 408.079 1697
-540.138 408.079 1697
-536.08 408.079 1697
-529.827 406.396 1690
-524.853 405.674 1687
-519.584 404.713 1683
-515.559 404.713 1683
-511.535 404.713 1683
-507.209 404.472 1682
-500.494 402.308 1673
-497.087 402.789 1675
-493.965 403.51 1678
-489.952 403.51 1678
-485.939 403.51 1678
-481.927 403.51 1678
-477.914 403.51 1678
-473.901 403.51 1678
-469.049 402.789 1675
-464.488 402.308 1673
-460.487 402.308 1673
-456.487 402.308 1673
-452.216 402.067 1672
-447.145 401.105 1668
-443.156 401.105 1668
-439.168 401.105 1668
-433.875 399.903 1663
-429.122 399.182 1660
-425.153 399.182 1660
-420.676 398.701 1658
-415.454 397.498 1653
-411.252 397.258 1652
-407.302 397.258 1652
-403.352 397.258 1652
-399.643 397.498 1653
-396.169 397.979 1655
-392.211 397.979 1655
-388.254 397.979 1655
-384.296 397.979 1655
-381.028 398.701 1658
-377.063 398.701 1658
-373.098 398.701 1658
-369.134 398.701 1658
-366.05 399.663 1662
-362.293 399.903 1663
-358.317 399.903 1663
-355.192 400.865 1667
-351.416 401.105 1668
-348.886 402.789 1675
-344.88 402.789 1675
-340.875 402.789 1675
-338.881 405.193 1685
-335.646 406.155 1689
-332.589 407.358 1694
-328.538 407.358 1694
-325.062 408.079 1697
-322.328 409.762 1704
-319.187 410.965 1709
-315.1 410.965 1709
-312.651 413.129 1718
-309.8 414.812 1725
-306.384 415.774 1729
-302.599 416.255 1731
-298.977 416.977 1734
-296.361 419.141 1743
-292.528 419.622 1745
-289.016 420.584 1749
-285.974 422.267 1756
-283.54 424.912 1767
-279.314 424.912 1767
-276.334 426.836 1775
-273.163 428.519 1782
-270.109 430.443 1790
-265.828 430.443 1790
-262.425 431.886 1796
-259.28 433.81 1804
-255.39 434.531 1807
-251.069 434.531 1807
-247.021 435.012 1809
-243.231 435.974 1813
-239.16 436.455 1815
-235.078 436.936 1817
-230.733 436.936 1817
-226.637 437.417 1819
-223.021 438.859 1825
-218.896 439.34 1827
-214.527 439.34 1827
-210.618 440.302 1831
-206.24 440.302 1831
-202.082 440.783 1833
-197.699 440.783 1833
-193.526 441.264 1835
-189.757 442.707 1841
-185.959 444.15 1847
-181.542 444.15 1847
-177.125 444.15 1847
-172.989 444.871 1850
-169.294 446.795 1858
-164.851 446.795 1858
-160.58 447.276 1860
-156.133 447.276 1860
-151.685 447.276 1860
-285.927 955.15 3972
-277.125 957.555 3982
-267.603 957.555 3982
-258.081 957.555 3982
-247.934 955.15 3972
-237.896 952.986 3963
-228.419 952.986 3963
-216.843 943.848 3925
-206.981 941.684 3916
-196.709 937.356 3898
-187.387 937.356 3898
-178.066 937.356 3898
-167.966 933.027 3880
-158.687 933.027 3880
-148.716 928.699 3862
-139.481 928.699 3862
-128.458 915.954 3809
-119.068 913.789 3800
-109.228 907.537 3774
-100.203 907.537 3774
-90.768 903.449 3757
-81.2396 897.437 3732
-72.0052 893.59 3716
-63.1192 893.59 3716
-53.985 889.502 3699
-44.5416 877.719 3650
-35.5877 872.188 3627
-26.9144 872.188 3627
-18.0802 864.493 3595
-9.44391 860.886 3580
-0.877375 855.355 3557
7.62849 855.355 3557
16.1344 855.355 3557
24.5363 851.748 3542
33.0063 851.748 3542
41.3007 848.141 3527
49.7348 848.141 3527
58.1689 848.141 3527
66.4708 846.458 3520
74.8882 846.458 3520
83.3056 846.458 3520
91.5145 844.534 3512
99.7137 842.851 3505
108.095 842.851 3505
116.477 842.851 3505
124.858 842.851 3505
133.24 842.851 3505
141.621 842.851 3505
150.003 842.851 3505
158.384 842.851 3505
166.766 842.851 3505
175.147 842.851 3505
183.529 842.851 3505
191.91 842.851 3505
200.292 842.851 3505
209.09 844.534 3512
217.984 846.458 3520
226.401 846.458 3520
234.819 846.458 3520
243.236 846.458 3520
251.653 846.458 3520
260.071 846.458 3520
267.878 844.534 3512
277.456 848.141 3527
285.89 848.141 3527
295.576 851.748 3542
304.046 851.748 3542
313.134 853.431 3549
321.621 853.431 3549
331.595 857.279 3565
340.12 857.279 3565
349.33 858.962 3572
357.872 858.962 3572
366.414 858.962 3572
374.955 858.962 3572
383.497 858.962 3572
387.868 849.824 3534
396.319 849.824 3534
399.73 839.243 3490
408.076 839.243 3490
414.751 835.877 3476
422.09 833.953 3468
430.383 833.953 3468
434.248 825.537 3433
439.751 820.487 3412
446.991 818.803 3405
455.134 818.803 3405
457.562 808.704 3363
462.835 803.894 3343
468.998 800.768 3330
476.961 800.768 3330
483.031 797.642 3317
490.963 797.642 3317
497.842 795.959 3310
505.757 795.959 3310
513.672 795.959 3310
521.588 795.959 3310
529.503 795.959 3310
538.555 797.642 3317
547.475 799.085 3323
555.421 799.085 3323
563.368 799.085 3323
571.314 799.085 3323
581.701 802.451 3337
589.68 802.451 3337
598.735 803.894 3343
606.729 803.894 3343
614.723 803.894 3343
622.717 803.894 3343
632.032 805.578 3350
640.043 805.578 3350
648.054 805.578 3350
656.065 805.578 3350
665.463 807.261 3357
673.491 807.261 3357
681.518 807.261 3357
689.546 807.261 3357
696.119 805.578 3350
702.659 803.894 3343
710.653 803.894 3343
718.647 803.894 3343
726.641 803.894 3343
734.635 803.894 3343
741.296 802.451 3337
749.276 802.451 3337
757.256 802.451 3337
765.236 802.451 3337
771.593 800.768 3330
779.556 800.768 3330
787.52 800.768 3330
795.483 800.768 3330
803.446 800.768 3330
814.576 803.894 3343
822.57 803.894 3343
830.565 803.894 3343
840.315 805.578 3350
850.098 807.261 3357
858.126 807.261 3357
873.12 813.754 3384
886.68 818.803 3405
898.502 822.17 3419
906.678 822.17 3419
920.473 827.22 3440
938.418 835.877 3476
952.45 840.927 3497
960.812 840.927 3497
975.549 846.458 3520
985.923 848.141 3527
1000.56 853.431 3549
1009.05 853.431 3549
1022.12 857.279 3565
1039.32 864.493 3595
1052.58 868.34 3611
1065.92 872.188 3627
1074.59 872.188 3627
1092.52 879.643 3658
1103.98 881.807 3667
1115.17 883.731 3675
1123.96 883.731 3675
1132.75 883.731 3675
1146.51 887.578 3691
1155.33 887.578 3691
1164.16 887.578 3691
1175.53 889.502 3699
1184.38 889.502 3699
1193.22 889.502 3699
1202.07 889.502 3699
1210.91 889.502 3699
1217.12 887.578 3691
1225.95 887.578 3691
1234.77 887.578 3691
1243.6 887.578 3691
1252.42 887.578 3691
1261.25 887.578 3691
1270.08 887.578 3691
1278.9 887.578 3691
1287.73 887.578 3691
1296.56 887.578 3691
1302.55 885.654 3683
1308.51 883.731 3675
1314.43 881.807 3667
1323.2 881.807 3667
1331.97 881.807 3667
1340.74 881.807 3667
1343.25 877.719 3650
1351.98 877.719 3650
1360.71 877.719 3650
1363.81 874.112 3635
1369.48 872.188 3627
1375.11 870.264 3619
1383.77 870.264 3619
1389.34 868.34 3611
1394.88 866.417 3603
1400.38 864.493 3595
1408.98 864.493 3595
1408.51 858.962 3572
1414.27 857.279 3565
1419.6 855.355 3557
1418.87 849.824 3534
1427.32 849.824 3534
1426.84 844.534 3512
1432.37 842.851 3505
1434.59 839.243 3490
1442.94 839.243 3490
1442.13 833.953 3468
1444.57 830.587 3454
1449.89 828.903 3447
1458.13 828.903 3447
1466.37 828.903 3447
1483.6 833.953 3468
1501.36 839.243 3490
1532.2 851.748 3542
1540.67 851.748 3542
1565.76 860.886 3580
1577.83 862.81 3588
1603.66 872.188 3627
1612.33 872.188 3627
1634.86 879.643 3658
1658.43 887.578 3691
1736.37 924.37 3844
1745.56 924.37 3844
1775.3 935.191 3889
1792.86 939.52 3907
1810.5 943.848 3925
1819.89 943.848 3925
1842.33 950.581 3953
1851.78 950.581 3953
1861.23 950.581 3953
1870.68 950.581 3953
1880.14 950.581 3953
1876.2 943.848 3925
1881.27 941.684 3916
1890.63 941.684 3916
1873.8 928.699 3862
1865.48 920.042 3826
1861.89 913.789 3800
1870.97 913.789 3800
1867.2 907.537 3774
1859.32 899.361 3740
1847.78 889.502 3699
1856.63 889.502 3699
1857.4 885.654 3683
1858.1 881.807 3667
1850.58 874.112 3635
1862.85 875.795 3642
1884.41 881.807 3667
1893.18 881.807 3667
1901.95 881.807 3667
1910.72 881.807 3667
1919.49 881.807 3667
1928.26 881.807 3667
1937.02 881.807 3667
1967.02 891.426 3707
2002.53 903.449 3757
2011.52 903.449 3757
2029.64 907.537 3774
2057.58 915.954 3809
2075.91 920.042 3826
2085.06 920.042 3826
2143.47 941.684 3916
2173.17 950.581 3953
2198.64 957.555 3982
2208.16 957.555 3982
2217.68 957.555 3982
2237.83 962.124 4001
2252.46 964.288 4010
2262.04 964.288 4010
2271.63 964.288 4010
2281.22 964.288 4010
2279.96 959.719 3991
2289.5 959.719 3991
2293.86 957.555 3982
2308.59 959.719 3991
2323.94 962.124 4001
2333.51 962.124 4001
2343.08 962.124 4001
2357.94 964.288 4010
2367.52 964.288 4010
2377.11 964.288 4010
2386.7 964.288 4010
2402.27 966.693 4020
2423.28 971.262 4039
2432.94 971.262 4039
2442.6 971.262 4039
2464.4 976.071 4059
2474.11 976.071 4059
2489.93 978.476 4069
2499.66 978.476 4069
2509.39 978.476 4069
2512.93 976.071 4059
2522.64 976.071 4059
2532.34 976.071 4059
2535.79 973.667 4049
2539.18 971.262 4039
2548.84 971.262 4039
2558.5 971.262 4039
2568.16 971.262 4039
2577.82 971.262 4039
2587.47 971.262 4039
2597.13 971.262 4039
2594.53 966.693 4020
2591.83 962.124 4001
2594.9 959.719 3991
2604.44 959.719 3991
2613.99 959.719 3991
2617.61 957.555 3982
2614.6 952.986 3963
2598.92 943.848 3925
2608.3 943.848 3925
2605.68 939.52 3907
2584.91 928.699 3862
2582.05 924.37 3844
2591.24 924.37 3844
2600.44 924.37 3844
2609.63 924.37 3844
2594.98 915.954 3809
2604.08 915.954 3809
2595.35 909.701 3783
2552.08 891.426 3707
2538.84 883.731 3675
2519.9 874.112 3635
2528.59 874.112 3635
2514.94 866.417 3603
2507.45 860.886 3580
2505.47 857.279 3565
2513.99 857.279 3565
2506.25 851.748 3542
2422.42 820.487 3412
2400.66 810.387 3370
533.053 172.418 717
534.767 172.418 717
537.23 172.658 718
538.947 172.658 718
540.664 172.658 718
542.381 172.658 718
544.098 172.658 718
545.815 172.658 718
547.532 172.658 718
549.249 172.658 718
-2365.97 767.458 3160
-2358.41 767.458 3160
-2346.39 766.001 3154
-2329.95 763.086 3142
-2318 761.629 3136
-2310.5 761.629 3136
-2303.01 761.629 3136
-2286.72 758.715 3124
-2274.87 757.258 3118
-2276.14 760.172 3130
-2268.66 760.172 3130
-2265.51 761.629 3136
-2266.65 764.544 3148
-2267.73 767.458 3160
-2260.18 767.458 3160
-2265.45 771.829 3178
-2274.9 777.658 3202
-2280.7 782.273 3221
-2273 782.273 3221
-2291.32 791.259 3258
-2333.99 808.745 3330
-2363.75 821.86 3384
-2355.66 821.86 3384
-2381.56 833.76 3433
-2373.35 833.76 3433
-2365.14 833.76 3433
-2356.93 833.76 3433
-2343.93 832.06 3426
-2354.83 838.861 3454
-2351.32 840.561 3461
-2343.05 840.561 3461
-2334.77 840.561 3461
-2341.28 845.904 3483
-2332.95 845.904 3483
-2324.62 845.904 3483
-2316.3 845.904 3483
-2312.61 847.604 3490
-2308.88 849.304 3497
-2300.52 849.304 3497
-2301.99 852.947 3512
-2298.81 854.89 3520
-2294.95 856.59 3527
-2286.52 856.59 3527
-2282.61 858.29 3534
-2283.81 861.933 3549
-2275.32 861.933 3549
-2266.83 861.933 3549
-2268.53 865.819 3565
-2264.44 867.519 3572
-2260.95 869.462 3580
-2252.39 869.462 3580
-2248.84 871.405 3588
-2244.63 873.105 3595
-2236.04 873.105 3595
-2227.44 873.105 3595
-2223.78 875.048 3603
-2220.08 876.991 3611
-2211.45 876.991 3611
-2202.81 876.991 3611
-2199.04 878.934 3619
-2190.39 878.934 3619
-2186.56 880.877 3627
-2177.88 880.877 3627
-2173.99 882.819 3635
-2165.3 882.819 3635
-2156.61 882.819 3635
-2147.92 882.819 3635
-2139.22 882.819 3635
-2130.53 882.819 3635
-2121.84 882.819 3635
-2113.15 882.819 3635
-2104.45 882.819 3635
-2095.76 882.819 3635
-2087.07 882.819 3635
-2078.38 882.819 3635
-2069.68 882.819 3635
-2060.99 882.819 3635
-2052.3 882.819 3635
-2043.61 882.819 3635
-2034.92 882.819 3635
-2026.22 882.819 3635
-2021.42 884.52 3642
-2012.71 884.52 3642
-2008.4 886.462 3650
-1999.67 886.462 3650
-1990.94 886.462 3650
-1982.21 886.462 3650
-1977.81 888.405 3658
-1973.91 890.591 3667
-1969.43 892.534 3675
-1960.64 892.534 3675
-1960.35 896.42 3691
-1951.52 896.42 3691
-1942.7 896.42 3691
-1933.87 896.42 3691
-1916.7 892.534 3675
-1903.76 890.591 3667
-1894.99 890.591 3667
-1886.22 890.591 3667
-1872.84 888.405 3658
-1864.1 888.405 3658
-1855.35 888.405 3658
-1846.6 888.405 3658
-1833.83 886.462 3650
-1817.61 882.819 3635
-1808.91 882.819 3635
-1796.26 880.877 3627
-1779.7 876.991 3611
-1767.14 875.048 3603
-1758.53 875.048 3603
-1746.02 873.105 3595
-1734.04 871.405 3588
-1717.77 867.519 3572
-1709.23 867.519 3572
-1697.35 865.819 3565
-1688.83 865.819 3565
-1676.53 863.876 3557
-1668.03 863.876 3557
-1659.52 863.876 3557
-1651.02 863.876 3557
-1642.51 863.876 3557
-1634 863.876 3557
-1625.5 863.876 3557
-1616.99 863.876 3557
-1604.87 861.933 3549
-1596.38 861.933 3549
-1587.89 861.933 3549
-1579.41 861.933 3549
-1567.82 860.233 3542
-1559.35 860.233 3542
-1550.88 860.233 3542
-1542.41 860.233 3542
-1533.94 860.233 3542
-1525.47 860.233 3542
-1517 860.233 3542
-1508.53 860.233 3542
-1503.03 861.933 3549
-1497.91 863.876 3557
-1489.4 863.876 3557
-1480.9 863.876 3557
-1472.39 863.876 3557
-1460.59 861.933 3549
-1452.11 861.933 3549
-1440.77 860.233 3542
-1438.37 863.876 3557
-1433.08 865.819 3565
-1424.55 865.819 3565
-1416.03 865.819 3565
-1410.27 867.519 3572
-1401.73 867.519 3572
-1411.52 878.934 3619
-1402.86 878.934 3619
-1397.29 880.877 3627
-1397.42 886.462 3650
-1398.2 892.534 3675
-1389.42 892.534 3675
-1392.65 900.306 3707
-1393.12 906.378 3732
-1387.16 908.32 3740
-1378.22 908.32 3740
-1375.5 912.449 3757
-1366.51 912.449 3757
-1357.53 912.449 3757
-1342.44 908.32 3740
-1327.8 904.435 3724
-1310.04 898.363 3699
-1301.19 898.363 3699
-1286.76 894.477 3683
-1272.4 890.591 3667
-1263.63 890.591 3667
-1254.86 890.591 3667
-1243.03 888.405 3658
-1234.28 888.405 3658
-1215.15 880.877 3627
-1206.48 880.877 3627
-1197.8 880.877 3627
-1181.26 875.048 3603
-556.218 415.059 1709
-552.131 415.059 1709
-548.044 415.059 1709
-541.411 413.116 1701
-537.344 413.116 1701
-532.022 412.144 1697
-525.786 410.444 1690
-521.745 410.444 1690
-517.704 410.444 1690
-512.143 409.23 1685
-507.209 408.501 1682
-502.588 408.016 1680
-498.571 408.016 1680
-496.025 409.23 1685
-491.996 409.23 1685
-489.125 410.201 1689
-485.086 410.201 1689
-481.047 410.201 1689
-475.314 408.744 1683
-471.009 408.501 1682
-466.432 408.016 1680
-462.414 408.016 1680
-457.851 407.53 1678
-453.568 407.287 1677
-448.485 406.316 1673
-444.485 406.316 1673
-440.484 406.316 1673
-435.701 405.587 1670
-431.707 405.587 1670
-427.714 405.587 1670
-422.959 404.858 1667
-417.968 403.887 1663
-413.244 403.158 1660
-409.274 403.158 1660
-405.305 403.158 1660
-401.335 403.158 1660
-397.366 403.158 1660
-393.396 403.158 1660
-389.427 403.158 1660
-385.457 403.158 1660
-381.488 403.158 1660
-377.518 403.158 1660
-373.548 403.158 1660
-370.247 403.887 1663
-366.27 403.887 1663
-362.729 404.373 1665
-358.747 404.373 1665
-355.405 405.101 1668
-351.838 405.587 1670
-348.469 406.316 1673
-344.88 406.801 1675
-340.875 406.801 1675
-338.881 409.23 1685
-335.249 409.716 1687
-331.804 410.444 1690
-327.762 410.444 1690
-324.487 411.416 1694
-321.76 413.116 1701
-318.253 413.844 1704
-314.178 413.844 1704
-312.105 416.516 1715
-309.262 418.216 1722
-306.384 419.916 1729
-302.25 419.916 1729
-298.632 420.645 1732
-296.021 422.83 1741
-292.528 423.802 1745
-288.355 423.802 1745
-285.648 425.988 1754
-282.898 428.173 1763
-278.682 428.173 1763
-276.023 430.602 1773
-273.163 432.788 1782
-270.109 434.731 1790
-265.828 434.731 1790
-262.425 436.188 1796
-259.28 438.131 1804
-255.39 438.86 1807
-251.069 438.86 1807
-247.294 439.831 1811
-243.231 440.317 1813
-239.16 440.803 1815
-235.078 441.288 1817
-230.733 441.288 1817
-226.637 441.774 1819
-223.021 443.231 1825
-219.136 444.203 1829
-214.762 444.203 1829
-210.618 444.688 1831
-206.465 445.174 1833
-202.082 445.174 1833
-197.699 445.174 1833
-193.526 445.66 1835
-189.757 447.117 1841
-185.959 448.574 1847
-181.542 448.574 1847
-177.125 448.574 1847
-172.989 449.303 1850
-169.112 450.76 1856
-164.673 450.76 1856
-160.58 451.732 1860
-156.133 451.732 1860
-151.685 451.732 1860
-276.429 964.665 3972
-266.931 964.665 3972
-257.433 964.665 3972
-247.934 964.665 3972
-237.896 962.48 3963
-228.419 962.48 3963
-216.843 953.251 3925
-206.981 951.065 3916
-196.709 946.693 3898
-187.387 946.693 3898
-178.066 946.693 3898
-167.966 942.322 3880
-158.687 942.322 3880
-148.716 937.95 3862
-139.481 937.95 3862
-129.335 931.393 3835
-119.068 922.892 3800
-109.749 920.949 3792
-100.681 920.949 3792
-91.1787 916.578 3774
-81.7838 912.449 3757
-72.1603 904.435 3724
-63.2551 904.435 3724
-54.1017 900.306 3707
-44.6392 888.405 3658
-35.5877 880.877 3627
-26.9144 880.877 3627
-18.1205 875.048 3603
-9.44391 869.462 3580
-0.879348 865.819 3565
7.62849 863.876 3557
16.1344 863.876 3557
24.6402 863.876 3557
33.0063 860.233 3542
41.3826 858.29 3534
49.8335 858.29 3534
58.1689 856.59 3527
66.4708 854.89 3520
74.8882 854.89 3520
83.3056 854.89 3520
91.5145 852.947 3512
99.7137 851.247 3505
108.095 851.247 3505
116.477 851.247 3505
124.858 851.247 3505
133.24 851.247 3505
141.621 851.247 3505
150.003 851.247 3505
158.384 851.247 3505
166.766 851.247 3505
175.147 851.247 3505
183.529 851.247 3505
191.91 851.247 3505
200.292 851.247 3505
209.09 852.947 3512
217.984 854.89 3520
226.401 854.89 3520
234.819 854.89 3520
243.236 854.89 3520
251.653 854.89 3520
260.071 854.89 3520
268.488 854.89 3520
277.456 856.59 3527
286.458 858.29 3534
295.576 860.233 3542
304.046 860.233 3542
313.84 863.876 3557
322.345 863.876 3557
331.595 865.819 3565
340.12 865.819 3565
349.33 867.519 3572
357.872 867.519 3572
366.414 867.519 3572
374.955 867.519 3572
383.497 867.519 3572
387.868 858.29 3534
396.319 858.29 3534
399.73 847.604 3490
408.076 847.604 3490
414.751 844.204 3476
421.238 840.561 3461
429.514 840.561 3461
434.248 833.76 3433
439.751 828.66 3412
445.154 823.56 3391
453.262 823.56 3391
457.562 816.76 3363
462.835 811.902 3343
468.012 807.045 3323
475.958 807.045 3323
483.031 805.588 3317
490.963 805.588 3317
498.895 805.588 3317
506.827 805.588 3317
514.759 805.588 3317
522.691 805.588 3317
530.623 805.588 3317
539.529 807.045 3323
547.475 807.045 3323
555.421 807.045 3323
563.368 807.045 3323
572.517 808.745 3330
582.747 811.902 3343
590.741 811.902 3343
598.735 811.902 3343
606.729 811.902 3343
616.01 813.602 3350
624.021 813.602 3350
633.353 815.303 3357
641.38 815.303 3357
649.408 815.303 3357
657.436 815.303 3357
665.463 815.303 3357
673.491 815.303 3357
681.518 815.303 3357
688.108 813.602 3350
696.119 813.602 3350
702.659 811.902 3343
710.653 811.902 3343
718.647 811.902 3343
726.641 811.902 3343
733.317 810.445 3337
741.296 810.445 3337
749.276 810.445 3337
757.256 810.445 3337
765.236 810.445 3337
773.215 810.445 3337
781.195 810.445 3337
787.52 808.745 3330
795.483 808.745 3330
803.446 808.745 3330
814.576 811.902 3343
822.57 811.902 3343
830.565 811.902 3343
842.07 815.303 3357
851.617 816.76 3363
859.659 816.76 3363
873.12 821.86 3384
886.68 826.96 3405
900.341 832.06 3426
908.534 832.06 3426
920.473 835.461 3440
938.418 844.204 3476
952.45 849.304 3497
960.812 849.304 3497
977.489 856.59 3527
992.073 861.933 3549
1002.81 863.876 3557
1011.32 863.876 3557
1024.13 867.519 3572
1041.63 875.048 3603
1054.91 878.934 3619
1065.92 880.877 3627
1074.59 880.877 3627
1092.52 888.405 3658
1103.98 890.591 3667
1115.17 892.534 3675
1123.96 892.534 3675
1135.22 894.477 3683
1146.51 896.42 3691
1155.33 896.42 3691
1164.16 896.42 3691
1175.53 898.363 3699
1184.38 898.363 3699
1193.22 898.363 3699
1202.07 898.363 3699
1210.91 898.363 3699
1217.12 896.42 3691
1225.95 896.42 3691
1234.77 896.42 3691
1243.6 896.42 3691
1252.42 896.42 3691
1261.25 896.42 3691
1270.08 896.42 3691
1276.13 894.477 3683
1284.94 894.477 3683
1293.75 894.477 3683
1302.55 894.477 3683
1308.51 892.534 3675
1314.43 890.591 3667
1323.2 890.591 3667
1331.97 890.591 3667
1337.45 888.405 3658
1343.25 886.462 3650
1349.02 884.52 3642
1357.73 884.52 3642
1363.81 882.819 3635
1366.46 878.934 3619
1372.07 876.991 3611
1380.71 876.991 3611
1389.34 876.991 3611
1391.78 873.105 3595
1397.65 871.405 3588
1406.23 871.405 3588
1405.74 865.819 3565
1411.1 863.876 3557
1416.41 861.933 3549
1418.87 858.29 3534
1427.32 858.29 3534
1423.99 851.247 3505
1429.11 849.304 3497
1431.71 845.904 3483
1440.04 845.904 3483
1439.22 840.561 3461
1444.57 838.861 3454
1449.89 837.161 3447
1458.13 837.161 3447
1466.37 837.161 3447
1480.6 840.561 3461
1507.81 851.247 3505
1542.14 865.819 3565
1550.67 865.819 3565
1565.76 869.462 3580
1584.43 875.048 3603
1613.83 886.462 3650
1622.56 886.462 3650
1646.03 894.477 3683
1673.26 904.435 3724
1740.44 935.764 3853
1749.65 935.764 3853
1775.3 944.508 3889
1792.86 948.879 3907
1810.5 953.251 3925
1819.89 953.251 3925
1842.33 960.051 3953
1851.78 960.051 3953
1861.23 960.051 3953
1870.68 960.051 3953
1880.14 960.051 3953
1876.2 953.251 3925
1881.27 951.065 3916
1890.63 951.065 3916
1873.8 937.95 3862
1861.58 927.264 3818
1857.97 920.949 3792
1867.04 920.949 3792
1867.2 916.578 3774
1859.32 908.32 3740
1847.78 898.363 3699
1856.63 898.363 3699
1857.4 894.477 3683
1858.1 890.591 3667
1850.58 882.819 3635
1862.85 884.52 3642
1875.67 886.462 3650
1884.4 886.462 3650
1897.28 888.405 3658
1906.03 888.405 3658
1914.78 888.405 3658
1923.52 888.405 3658
1937.02 890.591 3667
1962.77 898.363 3699
2002.53 912.449 3757
2011.52 912.449 3757
2029.64 916.578 3774
2052.71 922.892 3800
2071.57 927.264 3818
2080.7 927.264 3818
2133.62 946.693 3898
2168.23 957.865 3944
2198.64 967.094 3982
2208.16 967.094 3982
2217.68 967.094 3982
2237.83 971.709 4001
2252.46 973.894 4010
2262.04 973.894 4010
2271.63 973.894 4010
2281.22 973.894 4010
2279.96 969.28 3991
2289.5 969.28 3991
2293.86 967.094 3982
2303.38 967.094 3982
2323.94 971.709 4001
2333.51 971.709 4001
2343.08 971.709 4001
2352.64 971.709 4001
2362.21 971.709 4001
2377.11 973.894 4010
2386.7 973.894 4010
2396.29 973.894 4010
2423.28 980.938 4039
2432.94 980.938 4039
2442.6 980.938 4039
2464.4 985.795 4059
2474.11 985.795 4059
2483.81 985.795 4059
2493.52 985.795 4059
2503.22 985.795 4059
2512.93 985.795 4059
2522.64 985.795 4059
2532.34 985.795 4059
2529.52 980.938 4039
2539.18 980.938 4039
2548.84 980.938 4039
2558.5 980.938 4039
2568.16 980.938 4039
2577.82 980.938 4039
2575.3 976.323 4020
2584.92 976.323 4020
2594.53 976.323 4020
2591.83 971.709 4001
2594.9 969.28 3991
2604.44 969.28 3991
2613.99 969.28 3991
2617.61 967.094 3982
2614.6 962.48 3963
2592.96 951.065 3916
2602.32 951.065 3916
2605.68 948.879 3907
2584.91 937.95 3862
2582.05 933.578 3844
2591.24 933.578 3844
2600.44 933.578 3844
2609.63 933.578 3844
2594.98 925.078 3809
2604.08 925.078 3809
2595.35 918.764 3783
2552.08 900.306 3707
2538.84 892.534 3675
2519.9 882.819 3635
2528.59 882.819 3635
2514.94 875.048 3603
2507.45 869.462 3580
2505.47 865.819 3565
2513.99 865.819 3565
2506.25 860.233 3542
2422.42 828.66 3412
2400.66 818.46 3370
533.053 174.135 717
534.767 174.135 717
537.23 174.378 718
538.947 174.378 718
540.664 174.378 718
542.381 174.378 718
544.098 174.378 718
545.815 174.378 718
547.532 174.378 718
549.249 174.378 718
-2365.97 775.028 3160
-2358.41 775.028 3160
-2346.39 773.556 3154
-2329.95 770.613 3142
-2318 769.141 3136
-2310.5 769.141 3136
-2303.01 769.141 3136
-2286.72 766.198 3124
-2274.87 764.727 3118
-2276.14 767.67 3130
-2268.66 767.67 3130
-2265.51 769.141 3136
-2266.65 772.085 3148
-2267.73 775.028 3160
-2260.18 775.028 3160
-2265.45 779.442 3178
-2270.64 783.857 3196
-2271.5 786.8 3208
-2263.82 786.8 3208
-2273.74 792.932 3233
-2305.96 806.912 3290
-2326.03 816.722 3330
-2318.07 816.722 3330
-2347.56 829.966 3384
-2339.47 829.966 3384
-2331.38 829.966 3384
-2323.29 829.966 3384
-2329.56 835.117 3405
-2321.42 835.117 3405
-2327.54 840.267 3426
-2319.35 840.267 3426
-2311.16 840.267 3426
-2307.67 841.984 3433
-2313.53 847.135 3454
-2305.27 847.135 3454
-2297.01 847.135 3454
-2293.39 848.852 3461
-2304.26 855.964 3490
-2295.91 855.964 3490
-2292.16 857.681 3497
-2289.02 859.643 3505
-2285.19 861.36 3512
-2276.79 861.36 3512
-2273.56 863.322 3520
-2269.65 865.039 3527
-2265.7 866.756 3534
-2257.25 866.756 3534
-2258.35 870.435 3549
-2260 874.359 3565
-2255.9 876.076 3572
-2247.36 876.076 3572
-2238.82 876.076 3572
-2235.27 878.038 3580
-2231.68 880 3588
-2223.1 880 3588
-2218.84 881.717 3595
-2220.08 885.641 3611
-2211.45 885.641 3611
-2202.81 885.641 3611
-2199.04 887.603 3619
-2190.39 887.603 3619
-2181.73 887.603 3619
-2173.08 887.603 3619
-2173.99 891.527 3635
-2165.3 891.527 3635
-2156.61 891.527 3635
-2147.92 891.527 3635
-2139.22 891.527 3635
-2130.53 891.527 3635
-2121.84 891.527 3635
-2113.15 891.527 3635
-2104.45 891.527 3635
-2095.76 891.527 3635
-2087.07 891.527 3635
-2078.38 891.527 3635
-2069.68 891.527 3635
-2060.99 891.527 3635
-2052.3 891.527 3635
-2043.61 891.527 3635
-2034.92 891.527 3635
-2026.22 891.527 3635
-2021.42 893.244 3642
-2012.71 893.244 3642
-2004 893.244 3642
-1995.29 893.244 3642
-1986.58 893.244 3642
-1977.87 893.244 3642
-1973.49 895.206 3650
-1969.06 897.168 3658
-1965.14 899.375 3667
-1956.37 899.375 3667
-1951.85 901.338 3675
-1943.06 901.338 3675
-1934.28 901.338 3675
-1925.49 901.338 3675
-1916.7 901.338 3675
-1899.09 897.168 3658
-1890.34 897.168 3658
-1881.59 897.168 3658
-1872.84 897.168 3658
-1852.38 891.527 3635
-1843.68 891.527 3635
-1834.99 891.527 3635
-1826.3 891.527 3635
-1817.61 891.527 3635
-1808.91 891.527 3635
-1792.3 887.603 3619
-1779.7 885.641 3611
-1767.14 883.679 3603
-1758.53 883.679 3603
-1746.02 881.717 3595
-1730.18 878.038 3580
-1717.77 876.076 3572
-1709.23 876.076 3572
-1697.35 874.359 3565
-1688.83 874.359 3565
-1676.53 872.397 3557
-1668.03 872.397 3557
-1659.52 872.397 3557
-1647.3 870.435 3549
-1638.82 870.435 3549
-1630.33 870.435 3549
-1621.84 870.435 3549
-1613.35 870.435 3549
-1604.87 870.435 3549
-1596.38 870.435 3549
-1587.89 870.435 3549
-1576.29 868.718 3542
-1567.82 868.718 3542
-1559.35 868.718 3542
-1550.88 868.718 3542
-1538.93 866.756 3534
-1530.48 866.756 3534
-1522.03 866.756 3534
-1513.58 866.756 3534
-1505.13 866.756 3534
-1500.06 868.718 3542
-1494.54 870.435 3549
-1486.05 870.435 3549
-1477.57 870.435 3549
-1469.08 870.435 3549
-1457.71 868.718 3542
-1449.24 868.718 3542
-1440.77 868.718 3542
-1435.13 870.435 3549
-1429.86 872.397 3557
-1424.55 874.359 3565
-1416.03 874.359 3565
-1410.27 876.076 3572
-1401.73 876.076 3572
-1411.52 887.603 3619
-1402.86 887.603 3619
-1397.29 889.565 3627
-1397.42 895.206 3650
-1398.2 901.338 3675
-1389.42 901.338 3675
-1392.65 909.186 3707
-1393.12 915.318 3732
-1387.16 917.28 3740
-1378.22 917.28 3740
-1375.5 921.449 3757
-1366.51 921.449 3757
-1357.53 921.449 3757
-1342.44 917.28 3740
-1327.8 913.355 3724
-1310.04 907.224 3699
-1301.19 907.224 3699
-1286.76 903.3 3683
-1272.4 899.375 3667
-1263.63 899.375 3667
-1254.86 899.375 3667
-1243.03 897.168 3658
-1234.28 897.168 3658
-1215.15 889.565 3627
-1206.48 889.565 3627
-1197.8 889.565 3627
-1181.26 883.679 3603
-556.869 419.643 1711
-552.777 419.643 1711
-548.044 419.153 1709
-543.958 419.153 1709
-539.871 419.153 1709
-533.276 417.191 1701
-526.408 414.983 1692
-521.745 414.493 1690
-517.704 414.493 1690
-513.662 414.493 1690
-507.51 412.776 1683
-503.186 412.531 1682
-500.055 413.266 1685
-496.025 413.266 1685
-493.164 414.247 1689
-489.125 414.247 1689
-485.086 414.247 1689
-481.047 414.247 1689
-477.008 414.247 1689
-471.289 412.776 1683
-466.987 412.531 1682
-462.965 412.531 1682
-458.397 412.04 1680
-453.838 411.55 1678
-449.826 411.55 1678
-445.813 411.55 1678
-441.537 411.304 1677
-437.005 410.814 1675
-432.483 410.323 1673
-428.482 410.323 1673
-423.72 409.587 1670
-418.973 408.852 1667
-414.987 408.852 1667
-411 408.852 1667
-406.526 408.361 1665
-402.544 408.361 1665
-398.084 407.871 1663
-394.107 407.871 1663
-390.13 407.871 1663
-385.921 407.625 1662
-381.947 407.625 1662
-378.2 407.871 1663
-374.223 407.871 1663
-370.247 407.871 1663
-366.711 408.361 1665
-363.165 408.852 1667
-359.178 408.852 1667
-355.405 409.097 1668
-351.838 409.587 1670
-348.469 410.323 1673
-344.88 410.814 1675
-340.875 410.814 1675
-338.881 413.266 1685
-335.249 413.757 1687
-331.804 414.493 1690
-327.762 414.493 1690
-324.487 415.474 1694
-321.76 417.191 1701
-318.253 417.926 1704
-314.178 417.926 1704
-312.105 420.624 1715
-309.262 422.341 1722
-306.384 424.058 1729
-302.25 424.058 1729
-298.632 424.794 1732
-296.021 427.001 1741
-292.528 427.982 1745
-288.355 427.982 1745
-285.648 430.189 1754
-282.898 432.397 1763
-278.682 432.397 1763
-276.023 434.849 1773
-273.163 437.057 1782
-270.109 439.019 1790
-265.828 439.019 1790
-262.425 440.49 1796
-259.28 442.453 1804
-255.39 443.188 1807
-251.069 443.188 1807
-247.567 444.66 1813
-243.231 444.66 1813
-239.423 445.641 1817
-235.078 445.641 1817
-230.733 445.641 1817
-226.886 446.622 1821
-223.265 448.094 1827
-219.136 448.584 1829
-214.762 448.584 1829
-210.618 449.075 1831
-206.465 449.565 1833
-202.303 450.056 1835
-197.914 450.056 1835
-193.526 450.056 1835
-189.757 451.527 1841
-185.959 452.999 1847
-181.542 452.999 1847
-177.125 452.999 1847
-172.989 453.735 1850
-169.112 455.206 1856
-164.673 455.206 1856
-160.58 456.187 1860
-156.133 456.187 1860
-151.685 456.187 1860
-276.429 974.18 3972
-266.931 974.18 3972
-257.433 974.18 3972
-247.934 974.18 3972
-237.896 971.973 3963
-228.419 971.973 3963
-216.843 962.653 3925
-206.981 960.446 3916
-196.709 956.031 3898
-187.387 956.031 3898
-178.066 956.031 3898
-167.966 951.616 3880
-158.687 951.616 3880
-148.716 947.202 3862
-139.481 947.202 3862
-129.335 940.579 3835
-119.068 931.995 3800
-109.749 930.033 3792
-100.681 930.033 3792
-91.1787 925.619 3774
-81.7838 921.449 3757
-72.1603 913.355 3724
-63.2551 913.355 3724
-54.1017 909.186 3707
-44.6392 897.168 3658
-35.6662 891.527 3635
-26.9738 891.527 3635
-18.1607 885.641 3611
-9.44391 878.038 3580
-0.879348 874.359 3565
7.64565 874.359 3565
16.1706 874.359 3565
24.6402 872.397 3557
33.0715 870.435 3549
41.4763 868.718 3542
49.9463 868.718 3542
58.1689 865.039 3527
66.4708 863.322 3520
74.8882 863.322 3520
83.3056 863.322 3520
91.5145 861.36 3512
99.9128 861.36 3512
108.311 861.36 3512
116.709 861.36 3512
125.108 861.36 3512
133.506 861.36 3512
141.904 861.36 3512
150.302 861.36 3512
158.701 861.36 3512
167.099 861.36 3512
175.147 859.643 3505
183.529 859.643 3505
192.294 861.36 3512
200.692 861.36 3512
209.566 863.322 3520
218.417 865.039 3527
226.851 865.039 3527
235.286 865.039 3527
243.72 865.039 3527
252.154 865.039 3527
260.588 865.039 3527
269.022 865.039 3527
277.456 865.039 3527
287.106 868.718 3542
296.16 870.435 3549
304.647 870.435 3549
313.84 872.397 3557
322.345 872.397 3557
331.595 874.359 3565
340.12 874.359 3565
349.33 876.076 3572
357.872 876.076 3572
366.414 876.076 3572
374.955 876.076 3572
382.745 874.359 3565
387.1 865.039 3527
395.534 865.039 3527
399.73 855.964 3490
407.257 854.247 3483
413.797 850.568 3468
421.238 848.852 3461
429.514 848.852 3461
434.248 841.984 3433
439.751 836.834 3412
445.154 831.683 3391
453.262 831.683 3391
457.562 824.816 3363
463.804 821.627 3350
468.998 816.722 3330
476.961 816.722 3330
483.031 813.534 3317
490.963 813.534 3317
498.895 813.534 3317
506.827 813.534 3317
514.759 813.534 3317
522.691 813.534 3317
531.582 815.005 3323
539.529 815.005 3323
548.628 816.722 3330
556.591 816.722 3330
564.554 816.722 3330
572.517 816.722 3330
582.747 819.911 3343
590.741 819.911 3343
598.735 819.911 3343
606.729 819.911 3343
616.01 821.627 3350
624.021 821.627 3350
633.353 823.344 3357
641.38 823.344 3357
649.408 823.344 3357
657.436 823.344 3357
665.463 823.344 3357
672.086 821.627 3350
680.097 821.627 3350
688.108 821.627 3350
696.119 821.627 3350
702.659 819.911 3343
710.653 819.911 3343
718.647 819.911 3343
726.641 819.911 3343
733.317 818.439 3337
741.296 818.439 3337
749.276 818.439 3337
757.256 818.439 3337
765.236 818.439 3337
773.215 818.439 3337
781.195 818.439 3337
789.175 818.439 3337
797.155 818.439 3337
805.135 818.439 3337
814.576 819.911 3343
822.57 819.911 3343
830.565 819.911 3343
842.07 823.344 3357
853.39 826.533 3370
861.449 826.533 3370
876.732 833.4 3398
890.326 838.551 3419
904.021 843.701 3440
912.247 843.701 3440
922.346 845.418 3447
938.418 852.53 3476
952.45 857.681 3497
960.812 857.681 3497
977.489 865.039 3527
992.073 870.435 3549
1002.81 872.397 3557
1011.32 872.397 3557
1024.13 876.076 3572
1041.63 883.679 3603
1054.91 887.603 3619
1068.27 891.527 3635
1076.96 891.527 3635
1095.21 899.375 3667
1106.39 901.338 3675
1117.6 903.3 3683
1126.41 903.3 3683
1137.68 905.262 3691
1146.51 905.262 3691
1157.84 907.224 3699
1166.68 907.224 3699
1175.53 907.224 3699
1184.38 907.224 3699
1193.22 907.224 3699
1202.07 907.224 3699
1210.91 907.224 3699
1217.12 905.262 3691
1225.95 905.262 3691
1234.77 905.262 3691
1243.6 905.262 3691
1252.42 905.262 3691
1261.25 905.262 3691
1267.32 903.3 3683
1276.13 903.3 3683
1284.94 903.3 3683
1293.75 903.3 3683
1302.55 903.3 3683
1305.66 899.375 3667
1314.43 899.375 3667
1323.2 899.375 3667
1331.97 899.375 3667
1337.45 897.168 3658
1343.25 895.206 3650
1346.42 891.527 3635
1355.12 891.527 3635
1357.81 887.603 3619
1366.46 887.603 3619
1372.07 885.641 3611
1380.71 885.641 3611
1386.27 883.679 3603
1389.07 880 3588
1394.54 878.038 3580
1403.1 878.038 3580
1405.74 874.359 3565
1407.92 870.435 3549
1413.62 868.718 3542
1416.06 865.039 3527
1424.5 865.039 3527
1423.99 859.643 3505
1429.11 857.681 3497
1431.71 854.247 3483
1440.04 854.247 3483
1439.22 848.852 3461
1447.5 848.852 3461
1449.89 845.418 3447
1464.05 848.852 3461
1472.33 848.852 3461
1483.6 850.568 3468
1517.27 865.039 3527
1545.17 876.076 3572
1553.71 876.076 3572
1572.32 881.717 3595
1584.43 883.679 3603
1617.36 897.168 3658
1626.11 897.168 3658
1649.61 905.262 3691
1673.26 913.355 3724
1748.57 949.409 3871
1757.82 949.409 3871
1775.3 953.824 3889
1792.86 958.238 3907
1810.5 962.653 3925
1819.89 962.653 3925
1842.33 969.52 3953
1856.46 971.973 3963
1865.94 971.973 3963
1875.42 971.973 3963
1880.14 969.52 3953
1876.2 962.653 3925
1881.27 960.446 3916
1890.63 960.446 3916
1873.8 947.202 3862
1865.48 938.372 3826
1861.89 931.995 3800
1870.97 931.995 3800
1871.65 927.826 3783
1859.32 917.28 3740
1847.78 907.224 3699
1856.63 907.224 3699
1857.4 903.3 3683
1858.1 899.375 3667
1850.58 891.527 3635
1859.27 891.527 3635
1871.56 893.244 3642
1880.27 893.244 3642
1888.98 893.244 3642
1897.69 893.244 3642
1906.4 893.244 3642
1911.43 891.527 3635
1932.27 897.168 3658
1958.53 905.262 3691
1993.47 917.28 3740
2002.42 917.28 3740
2025.34 923.656 3766
2038.67 925.619 3774
2071.57 936.41 3818
2080.7 936.41 3818
2133.62 956.031 3898
2168.23 967.313 3944
2198.64 976.633 3982
2208.16 976.633 3982
2217.68 976.633 3982
2242.87 983.5 4010
2258.07 985.953 4020
2267.69 985.953 4020
2277.3 985.953 4020
2281.22 983.5 4010
2279.96 978.84 3991
2289.5 978.84 3991
2293.86 976.633 3982
2303.38 976.633 3982
2318.13 978.84 3991
2327.68 978.84 3991
2337.22 978.84 3991
2346.76 978.84 3991
2356.31 978.84 3991
2371.78 981.293 4001
2381.35 981.293 4001
2396.29 983.5 4010
2423.28 990.613 4039
2432.94 990.613 4039
2442.6 990.613 4039
2464.4 995.518 4059
2474.11 995.518 4059
2483.81 995.518 4059
2493.52 995.518 4059
2503.22 995.518 4059
2512.93 995.518 4059
2516.42 993.066 4049
2526.1 993.066 4049
2529.52 990.613 4039
2539.18 990.613 4039
2548.84 990.613 4039
2558.5 990.613 4039
2568.16 990.613 4039
2577.82 990.613 4039
2575.3 985.953 4020
2584.92 985.953 4020
2594.53 985.953 4020
2591.83 981.293 4001
2594.9 978.84 3991
2604.44 978.84 3991
2613.99 978.84 3991
2617.61 976.633 3982
2614.6 971.973 3963
2592.96 960.446 3916
2602.32 960.446 3916
2605.68 958.238 3907
2590.93 949.409 3871
2582.05 942.787 3844
2591.24 942.787 3844
2600.44 942.787 3844
2609.63 942.787 3844
2612.69 940.579 3835
2621.86 940.579 3835
2595.35 927.826 3783
2552.08 909.186 3707
2538.84 901.338 3675
2519.9 891.527 3635
2528.59 891.527 3635
2514.94 883.679 3603
2517.96 881.717 3595
2516.01 878.038 3580
2524.57 878.038 3580
2522.52 874.359 3565
2427.39 838.551 3419
2400.66 826.533 3370
533.053 175.853 717
534.767 175.853 717
537.23 176.098 718
538.947 176.098 718
540.664 176.098 718
542.381 176.098 718
544.098 176.098 718
545.815 176.098 718
547.532 176.098 718
549.249 176.098 718
-2365.97 782.597 3160
-2358.41 782.597 3160
-2346.39 781.112 3154
-2329.95 778.14 3142
-2318 776.654 3136
-2310.5 776.654 3136
-2303.01 776.654 3136
-2286.72 773.682 3124
-2274.87 772.196 3118
-2276.14 775.168 3130
-2268.66 775.168 3130
-2265.51 776.654 3136
-2266.65 779.626 3148
-2267.73 782.597 3160
-2260.18 782.597 3160
-2265.45 787.055 3178
-2270.64 791.513 3196
-2267.25 792.999 3202
-2259.59 792.999 3202
-2273.74 800.677 3233
-2301.75 813.307 3284
-2321.14 822.966 3323
-2313.19 822.966 3323
-2319.12 827.919 3343
-2329.79 834.606 3370
-2321.73 834.606 3370
-2313.68 834.606 3370
-2296.72 831.386 3357
-2297.56 834.606 3370
-2313.28 843.274 3405
-2305.14 843.274 3405
-2296.99 843.274 3405
-2293.56 845.007 3412
-2294.77 848.474 3426
-2286.58 848.474 3426
-2283.04 850.208 3433
-2274.83 850.208 3433
-2280.49 855.409 3454
-2272.23 855.409 3454
-2278.39 860.857 3476
-2270.08 860.857 3476
-2266.32 862.591 3483
-2257.99 862.591 3483
-2258.71 866.058 3497
-2255.49 868.039 3505
-2261.22 873.488 3527
-2252.78 873.488 3527
-2248.8 875.221 3534
-2249.86 878.936 3549
-2251.48 882.899 3565
-2242.95 882.899 3565
-2238.82 884.632 3572
-2230.27 884.632 3572
-2231.68 888.595 3588
-2223.1 888.595 3588
-2214.52 888.595 3588
-2220.08 894.291 3611
-2211.45 894.291 3611
-2202.81 894.291 3611
-2199.04 896.272 3619
-2190.39 896.272 3619
-2181.73 896.272 3619
-2173.08 896.272 3619
-2173.99 900.235 3635
-2165.3 900.235 3635
-2156.61 900.235 3635
-2147.92 900.235 3635
-2139.22 900.235 3635
-2130.53 900.235 3635
-2121.84 900.235 3635
-2113.15 900.235 3635
-2104.45 900.235 3635
-2095.76 900.235 3635
-2087.07 900.235 3635
-2078.38 900.235 3635
-2073.67 901.968 3642
-2064.96 901.968 3642
-2056.25 901.968 3642
-2047.54 901.968 3642
-2038.83 901.968 3642
-2030.12 901.968 3642
-2025.86 903.95 3650
-2017.13 903.95 3650
-2008.4 903.95 3650
-1999.67 903.95 3650
-1990.94 903.95 3650
-1982.21 903.95 3650
-1977.81 905.931 3658
-1973.91 908.16 3667
-1965.14 908.16 3667
-1956.37 908.16 3667
-1951.85 910.141 3675
-1947.29 912.122 3683
-1938.49 912.122 3683
-1929.68 912.122 3683
-1920.87 912.122 3683
-1907.91 910.141 3675
-1899.12 910.141 3675
-1890.33 910.141 3675
-1872.84 905.931 3658
-1864.1 905.931 3658
-1855.35 905.931 3658
-1842.56 903.95 3650
-1833.83 903.95 3650
-1821.11 901.968 3642
-1812.4 901.968 3642
-1800.22 900.235 3635
-1783.64 896.272 3619
-1774.99 896.272 3619
-1766.33 896.272 3619
-1749.91 892.31 3603
-1737.43 890.328 3595
-1721.62 886.614 3580
-1713.06 886.614 3580
-1704.5 886.614 3580
-1692.14 884.632 3572
-1680.3 882.899 3565
-1668.03 880.917 3557
-1659.52 880.917 3557
-1647.3 878.936 3549
-1638.82 878.936 3549
-1630.33 878.936 3549
-1621.84 878.936 3549
-1613.35 878.936 3549
-1604.87 878.936 3549
-1596.38 878.936 3549
-1587.89 878.936 3549
-1576.29 877.203 3542
-1567.82 877.203 3542
-1555.83 875.221 3534
-1547.38 875.221 3534
-1538.93 875.221 3534
-1527.45 873.488 3527
-1519.01 873.488 3527
-1513.58 875.221 3534
-1505.13 875.221 3534
-1496.67 875.221 3534
-1491.59 877.203 3542
-1483.12 877.203 3542
-1474.65 877.203 3542
-1466.18 877.203 3542
-1457.71 877.203 3542
-1449.24 877.203 3542
-1440.77 877.203 3542
-1432.3 877.203 3542
-1426.65 878.936 3549
-1421.36 880.917 3557
-1412.85 880.917 3557
-1404.35 880.917 3557
-1401.73 884.632 3572
-1405.27 892.31 3603
-1396.66 892.31 3603
-1394.21 896.272 3619
-1388.62 898.254 3627
-1388.69 903.95 3650
-1379.96 903.95 3650
-1380.63 910.141 3675
-1383.79 918.066 3707
-1381.23 922.276 3724
-1372.32 922.276 3724
-1363.42 922.276 3724
-1351.6 920.295 3716
-1342.71 920.295 3716
-1327.73 916.085 3699
-1313.18 912.122 3683
-1301.54 910.141 3675
-1292.75 910.141 3675
-1281.17 908.16 3667
-1263.72 901.968 3642
-1255.01 901.968 3642
-1246.3 901.968 3642
-1237.59 901.968 3642
-1228.89 901.968 3642
-1215.15 898.254 3627
-1203.82 896.272 3619
-1195.16 896.272 3619
-1181.26 892.31 3603
-556.869 423.742 1711
-552.777 423.742 1711
-548.044 423.247 1709
-543.958 423.247 1709
-539.871 423.247 1709
-533.276 421.265 1701
-526.408 419.036 1692
-521.745 418.541 1690
-517.704 418.541 1690
-513.662 418.541 1690
-507.51 416.807 1683
-503.186 416.56 1682
-500.055 417.303 1685
-496.025 417.303 1685
-493.164 418.293 1689
-489.125 418.293 1689
-485.086 418.293 1689
-481.047 418.293 1689
-477.008 418.293 1689
-471.289 416.807 1683
-466.987 416.56 1682
-462.965 416.56 1682
-458.397 416.064 1680
-453.838 415.569 1678
-449.826 415.569 1678
-445.813 415.569 1678
-441.537 415.322 1677
-437.005 414.826 1675
-432.483 414.331 1673
-428.482 414.331 1673
-423.72 413.588 1670
-418.973 412.845 1667
-414.987 412.845 1667
-411 412.845 1667
-406.526 412.35 1665
-402.544 412.35 1665
-398.084 411.854 1663
-394.107 411.854 1663
-390.13 411.854 1663
-385.921 411.607 1662
-381.947 411.607 1662
-378.2 411.854 1663
-374.223 411.854 1663
-370.247 411.854 1663
-366.711 412.35 1665
-363.165 412.845 1667
-359.178 412.845 1667
-355.405 413.093 1668
-351.838 413.588 1670
-348.469 414.331 1673
-344.88 414.826 1675
-340.875 414.826 1675
-338.478 416.807 1683
-334.851 417.303 1685
-331.804 418.541 1690
-327.762 418.541 1690
-324.487 419.532 1694
-321.76 421.265 1701
-318.253 422.008 1704
-314.178 422.008 1704
-312.105 424.733 1715
-308.902 425.971 1720
-305.675 427.209 1725
-301.55 427.209 1725
-298.115 428.2 1729
-295.511 430.429 1738
-292.193 431.667 1743
-288.025 431.667 1743
-285.322 433.896 1752
-282.898 436.62 1763
-278.682 436.62 1763
-276.023 439.097 1773
-273.163 441.326 1782
-270.109 443.307 1790
-265.828 443.307 1790
-262.425 444.793 1796
-259.28 446.774 1804
-255.39 447.517 1807
-251.069 447.517 1807
-247.567 449.003 1813
-243.231 449.003 1813
-239.423 449.994 1817
-235.078 449.994 1817
-230.733 449.994 1817
-226.886 450.984 1821
-223.265 452.47 1827
-219.136 452.965 1829
-214.762 452.965 1829
-210.618 453.461 1831
-206.465 453.956 1833
-202.303 454.451 1835
-197.914 454.451 1835
-193.526 454.451 1835
-189.757 455.937 1841
-185.757 456.928 1845
-181.345 456.928 1845
-177.125 457.423 1847
-172.989 458.166 1850
-169.112 459.652 1856
-164.673 459.652 1856
-160.58 460.643 1860
-156.133 460.643 1860
-151.685 460.643 1860
-276.429 983.695 3972
-266.931 983.695 3972
-257.433 983.695 3972
-247.934 983.695 3972
-237.296 978.99 3953
-227.843 978.99 3953
-216.346 969.827 3916
-206.506 967.598 3907
-196.255 963.14 3889
-186.522 960.911 3880
-177.244 960.911 3880
-167.966 960.911 3880
-158.687 960.911 3880
-148.369 954.224 3853
-139.156 954.224 3853
-129.335 949.766 3835
-119.068 941.098 3800
-109.749 939.117 3792
-100.681 939.117 3792
-91.1787 934.659 3774
-81.7838 930.449 3757
-72.1603 922.276 3724
-63.2551 922.276 3724
-54.1017 918.066 3707
-44.7491 908.16 3667
-35.6662 900.235 3635
-26.9738 900.235 3635
-18.1607 894.291 3611
-9.46502 888.595 3588
-0.881075 884.632 3572
7.64565 882.899 3565
16.1706 882.899 3565
24.6956 882.899 3565
33.0715 878.936 3549
41.4763 877.203 3542
49.9463 877.203 3542
58.1689 873.488 3527
66.603 873.488 3527
74.8882 871.754 3520
83.3056 871.754 3520
91.5145 869.773 3512
99.9128 869.773 3512
108.311 869.773 3512
116.709 869.773 3512
125.108 869.773 3512
133.506 869.773 3512
141.904 869.773 3512
150.645 871.754 3520
159.062 871.754 3520
167.479 871.754 3520
175.897 871.754 3520
184.314 871.754 3520
192.732 871.754 3520
201.149 871.754 3520
209.983 873.488 3527
218.417 873.488 3527
226.851 873.488 3527
235.286 873.488 3527
243.72 873.488 3527
252.154 873.488 3527
260.588 873.488 3527
269.022 873.488 3527
278.007 875.221 3534
287.106 877.203 3542
296.828 880.917 3557
305.334 880.917 3557
313.84 880.917 3557
322.345 880.917 3557
331.595 882.899 3565
340.12 882.899 3565
349.33 884.632 3572
357.872 884.632 3572
366.414 884.632 3572
374.955 884.632 3572
382.745 882.899 3565
387.1 873.488 3527
395.534 873.488 3527
399.73 864.324 3490
407.257 862.591 3483
413.797 858.876 3468
421.238 857.142 3461
429.514 857.142 3461
434.248 850.208 3433
439.751 845.007 3412
447.91 845.007 3412
456.069 845.007 3412
457.562 832.872 3363
465.604 832.872 3363
469.984 826.433 3337
477.964 826.433 3337
483.905 822.966 3323
491.851 822.966 3323
498.895 821.48 3317
506.827 821.48 3317
515.69 822.966 3323
523.636 822.966 3323
531.582 822.966 3323
540.665 824.699 3330
548.628 824.699 3330
556.591 824.699 3330
564.554 824.699 3330
573.721 826.433 3337
582.747 827.919 3343
590.741 827.919 3343
598.735 827.919 3343
607.999 829.652 3350
616.01 829.652 3350
624.021 829.652 3350
633.353 831.386 3357
641.38 831.386 3357
649.408 831.386 3357
657.436 831.386 3357
665.463 831.386 3357
672.086 829.652 3350
680.097 829.652 3350
688.108 829.652 3350
696.119 829.652 3350
702.659 827.919 3343
710.653 827.919 3343
718.647 827.919 3343
726.641 827.919 3343
733.317 826.433 3337
741.296 826.433 3337
749.276 826.433 3337
757.256 826.433 3337
765.236 826.433 3337
773.215 826.433 3337
781.195 826.433 3337
789.175 826.433 3337
797.155 826.433 3337
805.135 826.433 3337
814.576 827.919 3343
822.57 827.919 3343
830.565 827.919 3343
843.575 832.872 3363
853.39 834.606 3370
861.449 834.606 3370
876.732 841.54 3398
890.326 846.741 3419
904.021 851.942 3440
912.247 851.942 3440
922.346 853.675 3447
940.308 862.591 3483
952.45 866.058 3497
960.812 866.058 3497
977.489 873.488 3527
992.073 878.936 3549
1002.81 880.917 3557
1011.32 880.917 3557
1024.13 884.632 3572
1041.63 892.31 3603
1054.91 896.272 3619
1068.27 900.235 3635
1076.96 900.235 3635
1095.21 908.16 3667
1106.39 910.141 3675
1117.6 912.122 3683
1126.41 912.122 3683
1137.68 914.104 3691
1146.51 914.104 3691
1157.84 916.085 3699
1166.68 916.085 3699
1175.53 916.085 3699
1184.38 916.085 3699
1193.22 916.085 3699
1202.07 916.085 3699
1210.91 916.085 3699
1217.12 914.104 3691
1225.95 914.104 3691
1234.77 914.104 3691
1243.6 914.104 3691
1252.42 914.104 3691
1261.25 914.104 3691
1267.32 912.122 3683
1276.13 912.122 3683
1284.94 912.122 3683
1293.75 912.122 3683
1302.55 912.122 3683
1305.66 908.16 3667
1314.43 908.16 3667
1323.2 908.16 3667
1331.97 908.16 3667
1337.45 905.931 3658
1343.25 903.95 3650
1346.42 900.235 3635
1355.12 900.235 3635
1360.81 898.254 3627
1366.46 896.272 3619
1372.07 894.291 3611
1380.71 894.291 3611
1386.27 892.31 3603
1389.07 888.595 3588
1394.54 886.614 3580
1403.1 886.614 3580
1405.74 882.899 3565
1407.92 878.936 3549
1413.62 877.203 3542
1416.06 873.488 3527
1424.5 873.488 3527
1423.99 868.039 3505
1429.11 866.058 3497
1431.71 862.591 3483
1440.04 862.591 3483
1442.13 858.876 3468
1447.5 857.142 3461
1449.89 853.675 3447
1464.05 857.142 3461
1472.33 857.142 3461
1487.02 860.857 3476
1517.27 873.488 3527
1545.17 884.632 3572
1553.71 884.632 3572
1572.32 890.328 3595
1584.43 892.31 3603
1617.36 905.931 3658
1626.11 905.931 3658
1649.61 914.104 3691
1673.26 922.276 3724
1748.57 958.682 3871
1757.82 958.682 3871
1775.3 963.14 3889
1792.86 967.598 3907
1810.5 972.055 3925
1819.89 972.055 3925
1842.33 978.99 3953
1856.46 981.466 3963
1865.94 981.466 3963
1875.42 981.466 3963
1884.89 981.466 3963
1889.59 978.99 3953
1885.59 972.055 3925
1894.98 972.055 3925
1882.53 960.911 3880
1878.64 954.224 3853
1874.63 947.537 3826
1883.78 947.537 3826
1876.1 939.117 3792
1863.79 928.468 3749
1847.78 916.085 3699
1856.63 916.085 3699
1853.37 910.141 3675
1853.54 905.931 3658
1846.51 898.254 3627
1851.09 896.272 3619
1867.97 900.235 3635
1876.66 900.235 3635
1885.35 900.235 3635
1894.04 900.235 3635
1902.74 900.235 3635
1907.22 898.254 3627
1923.82 901.968 3642
1950.04 910.141 3675
1989.21 924.258 3732
1998.13 924.258 3732
2020.5 930.449 3757
2034.35 932.678 3766
2061.8 941.098 3800
2070.89 941.098 3800
2099.13 949.766 3835
2152.83 969.827 3916
2198.64 986.172 3982
2208.16 986.172 3982
2217.68 986.172 3982
2242.87 993.106 4010
2258.07 995.583 4020
2267.69 995.583 4020
2277.3 995.583 4020
2281.22 993.106 4010
2279.96 988.401 3991
2289.5 988.401 3991
2293.86 986.172 3982
2303.38 986.172 3982
2318.13 988.401 3991
2327.68 988.401 3991
2337.22 988.401 3991
2346.76 988.401 3991
2356.31 988.401 3991
2371.78 990.877 4001
2381.35 990.877 4001
2396.29 993.106 4010
2423.28 1000.29 4039
2432.94 1000.29 4039
2442.6 1000.29 4039
2464.4 1005.24 4059
2474.11 1005.24 4059
2483.81 1005.24 4059
2493.52 1005.24 4059
2503.22 1005.24 4059
2506.74 1002.76 4049
2516.42 1002.76 4049
2526.1 1002.76 4049
2529.52 1000.29 4039
2539.18 1000.29 4039
2548.84 1000.29 4039
2558.5 1000.29 4039
