383.143 -136.54 3650
391.871 -136.54 3650
400.599 -136.54 3650
409.328 -136.54 3650
417.14 -136.24 3642
425.03 -135.978 3635
433.723 -135.978 3635
440.468 -135.38 3619
449.122 -135.38 3619
457.776 -135.38 3619
467.461 -135.679 3627
476.134 -135.679 3627
484.808 -135.679 3627
493.481 -135.679 3627
502.154 -135.679 3627
507.447 -134.781 3603
516.063 -134.781 3603
522.495 -134.22 3588
527.67 -133.36 3565
534.992 -133.061 3557
543.498 -133.061 3557
549.676 -132.5 3542
556.885 -132.2 3534
564.216 -131.938 3527
573.787 -132.2 3534
582.238 -132.2 3534
592.026 -132.5 3542
600.496 -132.5 3542
611.545 -133.061 3557
621.445 -133.36 3565
629.97 -133.36 3565
641.182 -133.921 3580
649.743 -133.921 3580
658.304 -133.921 3580
666.864 -133.921 3580
1029.38 -147.874 3953
1041.46 -148.248 3963
1050.94 -148.248 3963
1060.42 -148.248 3963
1077.45 -149.296 3991
1097.62 -150.755 4030
1107.26 -150.755 4030
1124.93 -151.84 4059
1134.64 -151.84 4059
1144.34 -151.84 4059
1154.05 -151.84 4059
1163.75 -151.84 4059
1165.08 -150.755 4030
1174.71 -150.755 4030
1184.35 -150.755 4030
1208.51 -152.588 4079
1218.26 -152.588 4079
1231.02 -152.962 4089
1240.8 -152.962 4089
1250.58 -152.962 4089
1260.36 -152.962 4089
1270.14 -152.962 4089
1279.91 -152.962 4089
1286.54 -152.588 4079
1289.94 -151.84 4059
1302.84 -152.214 4069
1312.57 -152.214 4069
1322.31 -152.214 4069
1338.58 -152.962 4089
1348.36 -152.962 4089
1358.14 -152.962 4089
1367.92 -152.962 4089
1490.45 -145.817 3898
1499.77 -145.817 3898
1509.09 -145.817 3898
1518.41 -145.817 3898
1527.73 -145.817 3898
1501.96 -142.488 3809
1476.84 -133.622 3572
1485.38 -133.622 3572
1493.92 -133.622 3572
1505.83 -133.921 3580
1514.39 -133.921 3580
1522.95 -133.921 3580
1531.51 -133.921 3580
1514.26 -131.677 3520
1522.68 -131.677 3520
1511.96 -130.031 3476
1504.52 -128.684 3440
1521.99 -129.469 3461
1536.89 -130.031 3476
1570.99 -132.2 3534
1579.44 -132.2 3534
1587.89 -132.2 3534
1603.12 -132.761 3549
1611.6 -132.761 3549
1620.09 -132.761 3549
1628.58 -132.761 3549
1637.06 -132.761 3549
1645.55 -132.761 3549
1647.05 -132.2 3534
1648.94 -131.677 3520
1650.29 -131.115 3505
1658.68 -131.115 3505
1667.06 -131.115 3505
1675.44 -131.115 3505
2357.94 -150.007 4010
2367.52 -150.007 4010
2377.11 -150.007 4010
2386.7 -150.007 4010
2390.91 -149.67 4001
2394.48 -149.296 3991
2404.03 -149.296 3991
2413.57 -149.296 3991
2423.11 -149.296 3991
2432.66 -149.296 3991
2430.57 -148.585 3972
2440.07 -148.585 3972
2449.57 -148.585 3972
2459.07 -148.585 3972
2462.97 -148.248 3963
2472.45 -148.248 3963
2470.03 -147.538 3944
2467.51 -146.827 3925
2483.21 -147.201 3935
2492.62 -147.201 3935
2502.03 -147.201 3935
2517.18 -147.538 3944
2526.62 -147.538 3944
2536.05 -147.538 3944
2533.22 -146.827 3925
2536.77 -146.49 3916
2540.28 -146.154 3907
2573.77 -147.538 3944
2583.2 -147.538 3944
2592.63 -147.538 3944
1873.4 -105.079 2809
1898.86 -106.127 2837
1905.64 -106.127 2837
1912.42 -106.127 2837
1942.21 -107.399 2871
1949.07 -107.399 2871
1955.94 -107.399 2871
1973.06 -107.96 2886
1983.39 -108.147 2891
1990.3 -108.147 2891
1997.22 -108.147 2891
2004.13 -108.147 2891
2007.57 -107.96 2886
2046.58 -109.681 2932
2086.51 -111.439 2979
2093.63 -111.439 2979
2146.59 -113.87 3044
2153.87 -113.87 3044
2189.55 -115.367 3084
2196.92 -115.367 3084
2220.74 -116.227 3107
2257.57 -117.761 3148
2273.73 -118.21 3160
2281.29 -118.21 3160
2288.85 -118.21 3160
2296.4 -118.21 3160
2312.71 -118.659 3172
2320.29 -118.659 3172
2358.7 -120.23 3214
2366.39 -120.23 3214
2374.07 -120.23 3214
2332.85 -117.761 3148
2667.44 -133.36 3565
2675.97 -133.36 3565
2719.13 -135.081 3611
2733.81 -135.38 3619
2748.53 -135.679 3627
2757.2 -135.679 3627
2771.97 -135.978 3635
2780.67 -135.978 3635
-2651.98 -124.015 3542
-2643.51 -124.015 3542
-2618.68 -123.244 3520
-2615.45 -123.489 3527
-2612.19 -123.735 3534
-2603.74 -123.735 3534
-2595.29 -123.735 3534
-2586.84 -123.735 3534
-2578.39 -123.735 3534
-2564.84 -123.489 3527
-2556.41 -123.489 3527
-2558.81 -124.015 3542
-2550.34 -124.015 3542
-2541.87 -124.015 3542
-2522.67 -123.489 3527
-2503.55 -122.964 3512
-2495.15 -122.964 3512
-2486.75 -122.964 3512
-2478.35 -122.964 3512
-2485.43 -123.735 3534
-2493.1 -124.54 3557
-2484.59 -124.54 3557
-2486.53 -125.065 3572
-2493.94 -125.87 3595
-2501.94 -126.711 3619
-2493.28 -126.711 3619
-2484.63 -126.711 3619
-2475.97 -126.711 3619
-2472.77 -126.991 3627
-2464.1 -126.991 3627
-2471 -127.796 3650
-2467.67 -128.076 3658
-2458.92 -128.076 3658
-2450.17 -128.076 3658
-2441.42 -128.076 3658
-2432.68 -128.076 3658
-2429.89 -128.391 3667
-2421.12 -128.391 3667
-2412.35 -128.391 3667
-2397.69 -128.076 3658
-2388.94 -128.076 3658
-2374.99 -127.796 3650
-2371.44 -128.076 3658
-2368.51 -128.391 3667
-2359.74 -128.391 3667
-2350.97 -128.391 3667
-2336.45 -128.076 3658
-2313.07 -127.271 3635
-2304.38 -127.271 3635
-2295.69 -127.271 3635
-2286.99 -127.271 3635
-2278.3 -127.271 3635
-2254.62 -126.431 3611
-2245.99 -126.431 3611
-2113.14 -127.796 3650
-2114.21 -128.391 3667
-2105.44 -128.391 3667
-2096.67 -128.391 3667
-2087.9 -128.391 3667
-2047.38 -126.431 3611
-2038.75 -126.431 3611
-2017.18 -125.625 3588
-1962.14 -122.719 3505
-1929.23 -121.179 3461
-1920.96 -121.179 3461
-1893.34 -119.953 3426
-1843.33 -117.292 3350
-1795.87 -114.771 3278
-1780.94 -114.316 3265
-1773.13 -114.316 3265
-1765.32 -114.316 3265
-1760.75 -114.526 3271
-1752.92 -114.526 3271
-1745.1 -114.526 3271
-1737.28 -114.526 3271
-1722.58 -114.071 3258
-1701.64 -113.196 3233
-1693.9 -113.196 3233
-1686.17 -113.196 3233
-1675.33 -112.986 3227
-1670.71 -113.196 3233
-1666.07 -113.406 3239
-1658.32 -113.406 3239
-1663.83 -114.316 3265
-1656.02 -114.316 3265
-1648.21 -114.316 3265
-1640.4 -114.316 3265
-1635.59 -114.526 3271
-1631.26 -114.771 3278
-1632.83 -115.437 3297
-1624.94 -115.437 3297
-1623.44 -115.892 3310
-1615.52 -115.892 3310
-1607.6 -115.892 3310
-1593.41 -115.437 3297
-1588.41 -115.647 3303
-1587.21 -116.137 3317
-1579.28 -116.137 3317
-1571.34 -116.137 3317
-1566.24 -116.347 3323
-1564.86 -116.837 3337
-1559.68 -117.047 3343
-1551.69 -117.047 3343
-1543.69 -117.047 3343
-1538.91 -117.292 3350
-1530.9 -117.292 3350
-1522.89 -117.292 3350
-1509 -116.837 3337
-1501.02 -116.837 3337
-1493.04 -116.837 3337
-1476.16 -116.137 3317
-1465.13 -115.892 3310
-1451.49 -115.437 3297
-1443.61 -115.437 3297
-1424.4 -114.526 3271
-1413.98 -114.316 3265
-1406.17 -114.316 3265
-1403.93 -114.771 3278
-1396.1 -114.771 3278
-1388.26 -114.771 3278
-694.286 -59.0663 1687
-690.252 -59.0663 1687
-686.218 -59.0663 1687
-682.184 -59.0663 1687
-678.15 -59.0663 1687
-674.116 -59.0663 1687
-670.081 -59.0663 1687
-666.047 -59.0663 1687
-662.013 -59.0663 1687
-657.979 -59.0663 1687
-652.394 -58.9262 1683
-647.985 -58.8912 1682
-643.962 -58.8912 1682
-639.179 -58.8212 1680
-634.406 -58.7512 1678
-629.266 -58.6461 1675
-625.261 -58.6461 1675
-619.401 -58.4711 1670
-614.67 -58.401 1668
-608.485 -58.1909 1662
-604.51 -58.1909 1662
-599.091 -58.0509 1658
-594.049 -57.9459 1655
-589.022 -57.8408 1652
-585.072 -57.8408 1652
-580.418 -57.7708 1650
-576.472 -57.7708 1650
-572.526 -57.7708 1650
-568.581 -57.7708 1650
-564.635 -57.7708 1650
-561.369 -57.8408 1652
-557.756 -57.8758 1653
-553.803 -57.8758 1653
-549.85 -57.8758 1653
-546.558 -57.9459 1655
-543.584 -58.0509 1658
-540.27 -58.1209 1660
-536.3 -58.1209 1660
-532.331 -58.1209 1660
-528.361 -58.1209 1660
-525.339 -58.226 1663
-521.363 -58.226 1663
-517.386 -58.226 1663
-514.644 -58.366 1667
-510.658 -58.366 1667
-506.976 -58.401 1668
-502.987 -58.401 1668
-498.998 -58.401 1668
-495.009 -58.401 1668
-491.021 -58.401 1668
-487.032 -58.401 1668
-483.043 -58.401 1668
-479.055 -58.401 1668
-475.066 -58.401 1668
-471.077 -58.401 1668
-466.809 -58.366 1667
-462.822 -58.366 1667
-458.836 -58.366 1667
-454.85 -58.366 1667
-450.863 -58.366 1667
-446.877 -58.366 1667
-442.891 -58.366 1667
-438.904 -58.366 1667
-434.918 -58.366 1667
-430.932 -58.366 1667
-426.946 -58.366 1667
-422.959 -58.366 1667
-418.973 -58.366 1667
-414.987 -58.366 1667
-411.247 -58.401 1668
-407.258 -58.401 1668
-403.269 -58.401 1668
-399.76 -58.4711 1670
-395.766 -58.4711 1670
-391.773 -58.4711 1670
-387.779 -58.4711 1670
-383.786 -58.4711 1670
-380.474 -58.5761 1673
-376.474 -58.5761 1673
-372.473 -58.5761 1673
-368.472 -58.5761 1673
-364.472 -58.5761 1673
-360.471 -58.5761 1673
-356.471 -58.5761 1673
-352.891 -58.6461 1675
-349.511 -58.7512 1678
-345.91 -58.8212 1680
-341.892 -58.8212 1680
-338.277 -58.8912 1682
-334.851 -58.9962 1685
-331.215 -59.0663 1687
-327.181 -59.0663 1687
-323.146 -59.0663 1687
-319.491 -59.1363 1689
-315.638 -59.1713 1690
-311.597 -59.1713 1690
-307.92 -59.2413 1692
-304.233 -59.3114 1694
-300.714 -59.4164 1697
-296.656 -59.4164 1697
-292.598 -59.4164 1697
-289.22 -59.5564 1701
-285.32 -59.5915 1702
-281.25 -59.5915 1702
-278.157 -59.8015 1708
-274.233 -59.8365 1709
-270.778 -59.9766 1713
-266.682 -59.9766 1713
-262.892 -60.0466 1715
-259.244 -60.1517 1718
-255.433 -60.2217 1720
-251.32 -60.2217 1720
-247.494 -60.2917 1722
-243.518 -60.3267 1723
-239.953 -60.4668 1727
-235.823 -60.4668 1727
-231.962 -60.5368 1729
-228.091 -60.6068 1731
-224.857 -60.8519 1738
-220.701 -60.8519 1738
-216.794 -60.9219 1740
-212.756 -60.9569 1741
-209.311 -61.167 1747
-205.134 -61.167 1747
-201.531 -61.3421 1752
-198.468 -61.6922 1762
-195.026 -61.9373 1769
-190.796 -61.9373 1769
-187.726 -62.3224 1780
-184.5 -62.6726 1790
-180.622 -62.8126 1794
-176.332 -62.8126 1794
-173.001 -63.1627 1804
-168.968 -63.2678 1807
-165.194 -63.4779 1813
-160.858 -63.4779 1813
-156.868 -63.6179 1817
-152.691 -63.6879 1819
-149.32 -64.1081 1831
-144.941 -64.1081 1831
-140.87 -64.2481 1835
-136.928 -64.4582 1841
-132.67 -64.5282 1843
-128.263 -64.5282 1843
-124.124 -64.6683 1847
-120.032 -64.8433 1852
-115.603 -64.8433 1852
-111.174 -64.8433 1852
-106.745 -64.8433 1852
-102.317 -64.8433 1852
-97.8881 -64.8433 1852
-171.26 -131.262 3749
-162.295 -131.262 3749
-153.33 -131.262 3749
-143.402 -130.387 3724
-134.497 -130.387 3724
-125.592 -130.387 3724
-116.436 -130.107 3716
-107.55 -130.107 3716
-98.6635 -130.107 3716
-89.56 -129.792 3707
-80.6954 -129.792 3707
-72.0052 -130.107 3716
-63.2551 -130.387 3724
-54.3498 -130.387 3724
-45.6399 -130.947 3740
-36.7847 -131.262 3749
-27.9459 -131.857 3766
-18.9402 -131.857 3766
-9.93458 -131.857 3766
-0.928927 -131.857 3766
8.05742 -131.542 3757
17.0415 -131.542 3757
25.8525 -130.667 3732
34.7023 -130.387 3724
43.4084 -129.792 3707
52.273 -129.792 3707
61.0056 -129.512 3699
69.7 -129.232 3691
78.5263 -129.232 3691
87.3526 -129.232 3691
95.9704 -128.951 3683
105.005 -129.232 3691
114.078 -129.512 3699
122.924 -129.512 3699
131.769 -129.512 3699
140.614 -129.512 3699
149.46 -129.512 3699
158.305 -129.512 3699
166.789 -129.232 3691
174.854 -128.671 3675
183.642 -128.671 3675
192.43 -128.671 3675
200.78 -128.391 3667
209.549 -128.391 3667
218.318 -128.391 3667
227.087 -128.391 3667
235.856 -128.391 3667
244.625 -128.391 3667
253.394 -128.391 3667
262.735 -128.671 3675
271.523 -128.671 3675
280.311 -128.671 3675
289.099 -128.671 3675
297.238 -128.391 3667
306.007 -128.391 3667
314.776 -128.391 3667
323.545 -128.391 3667
331.498 -128.076 3658
340.246 -128.076 3658
348.23 -127.796 3650
356.958 -127.796 3650
365.686 -127.796 3650
374.415 -127.796 3650
383.143 -127.796 3650
391.871 -127.796 3650
400.599 -127.796 3650
409.328 -127.796 3650
417.14 -127.516 3642
425.03 -127.271 3635
433.723 -127.271 3635
440.468 -126.711 3619
449.122 -126.711 3619
457.776 -126.711 3619
467.461 -126.991 3627
476.134 -126.991 3627
484.808 -126.991 3627
493.481 -126.991 3627
498.831 -126.15 3603
505.335 -125.625 3588
513.915 -125.625 3588
519.145 -124.82 3565
526.486 -124.54 3557
532.736 -124.015 3542
541.206 -124.015 3542
547.348 -123.489 3527
554.679 -123.244 3520
560.697 -122.719 3505
569.079 -122.719 3505
579.931 -123.244 3520
588.349 -123.244 3520
596.766 -123.244 3520
610.169 -124.26 3549
618.656 -124.26 3549
627.143 -124.26 3549
635.63 -124.26 3549
644.116 -124.26 3549
652.603 -124.26 3549
661.09 -124.26 3549
1029.38 -138.405 3953
1038.84 -138.405 3953
1048.29 -138.405 3953
1060.42 -138.755 3963
1087.98 -141.101 4030
1102.79 -141.766 4049
1112.48 -141.766 4049
1127.7 -142.466 4069
1140.23 -142.816 4079
1149.98 -142.816 4079
1159.73 -142.816 4079
1166.62 -142.466 4069
1170.57 -141.766 4049
1183.17 -142.116 4059
1192.87 -142.116 4059
1208.51 -142.816 4079
1218.26 -142.816 4079
1231.02 -143.167 4089
1240.8 -143.167 4089
1250.58 -143.167 4089
1260.36 -143.167 4089
1270.14 -143.167 4089
1279.91 -143.167 4089
1286.54 -142.816 4079
1293.11 -142.466 4069
1306.05 -142.816 4079
1315.8 -142.816 4079
1325.55 -142.816 4079
1338.58 -143.167 4089
1348.36 -143.167 4089
1358.14 -143.167 4089
1490.45 -136.479 3898
1499.77 -136.479 3898
1509.09 -136.479 3898
1518.41 -136.479 3898
1527.73 -136.479 3898
1476.84 -125.065 3572
1485.38 -125.065 3572
1493.92 -125.065 3572
1486.48 -123.735 3534
1494.93 -123.735 3534
1497.43 -123.244 3520
1496 -122.439 3497
1495.33 -121.704 3476
1503.65 -121.704 3476
1499.34 -120.688 3447
1504.52 -120.443 3440
1515.83 -120.688 3447
1530.26 -121.179 3461
1548.32 -121.949 3483
1556.65 -121.949 3483
1574.86 -122.719 3505
1596.34 -123.735 3534
1604.79 -123.735 3534
1613.24 -123.735 3534
1621.69 -123.735 3534
1630.15 -123.735 3534
1638.6 -123.735 3534
1643.78 -123.489 3527
1645.19 -122.964 3512
1650.29 -122.719 3505
1658.68 -122.719 3505
1663.25 -122.439 3497
1657.75 -121.424 3468
2357.94 -140.401 4010
2367.52 -140.401 4010
2377.11 -140.401 4010
2386.7 -140.401 4010
2396.29 -140.401 4010
2400.48 -140.085 4001
2410.05 -140.085 4001
2419.62 -140.085 4001
2429.18 -140.085 4001
2438.75 -140.085 4001
2448.32 -140.085 4001
2457.89 -140.085 4001
2455.74 -139.42 3982
2459.07 -139.07 3972
2468.57 -139.07 3972
2478.06 -139.07 3972
2475.66 -138.405 3953
2467.51 -137.424 3925
2483.21 -137.775 3935
2492.62 -137.775 3935
2502.03 -137.775 3935
2517.18 -138.09 3944
2526.62 -138.09 3944
2536.05 -138.09 3944
2533.22 -137.424 3925
2536.77 -137.109 3916
2540.28 -136.794 3907
2573.77 -138.09 3944
2583.2 -138.09 3944
2592.63 -138.09 3944
1856.71 -97.8252 2794
1870.06 -98.1753 2804
1880.11 -98.3504 2809
1886.83 -98.3504 2809
1896.25 -98.4905 2813
1913.12 -99.0156 2828
1919.88 -99.0156 2828
1926.64 -99.0156 2828
1946.4 -99.6809 2847
1953.21 -99.6809 2847
1963.46 -99.8559 2852
1977.18 -100.206 2862
1984.03 -100.206 2862
1990.87 -100.206 2862
2010.98 -100.871 2881
2053.59 -102.657 2932
2060.6 -102.657 2932
2097.23 -104.127 2974
2107.88 -104.303 2979
2141.98 -105.633 3017
2149.2 -105.633 3017
2164.27 -106.018 3028
2211.67 -107.979 3084
2235.6 -108.784 3107
2243.03 -108.784 3107
2258.42 -109.169 3118
2265.88 -109.169 3118
2273.34 -109.169 3118
2268.36 -108.574 3101
2275.77 -108.574 3101
2317.79 -110.22 3148
2325.32 -110.22 3148
2332.85 -110.22 3148
2331.45 -109.8 3136
2633.77 -123.244 3520
2642.19 -123.244 3520
2731.18 -126.991 3627
2739.85 -126.991 3627
2778.84 -128.391 3667
2787.61 -128.391 3667
2796.38 -128.391 3667
2805.15 -128.391 3667
-2651.98 -115.53 3542
-2643.51 -115.53 3542
-2623.88 -115.04 3527
-2615.45 -115.04 3527
-2612.19 -115.269 3534
-2603.74 -115.269 3534
-2595.29 -115.269 3534
-2586.84 -115.269 3534
-2578.39 -115.269 3534
-2564.84 -115.04 3527
-2561.48 -115.269 3534
-2558.81 -115.53 3542
-2550.34 -115.53 3542
-2541.87 -115.53 3542
-2527.68 -115.269 3534
-2509.25 -114.812 3520
-2500.83 -114.812 3520
-2492.41 -114.812 3520
-2488.94 -115.04 3527
-2485.43 -115.269 3534
-2493.1 -116.019 3557
-2484.59 -116.019 3557
-2486.53 -116.508 3572
-2493.94 -117.258 3595
-2501.94 -118.041 3619
-2493.28 -118.041 3619
-2484.63 -118.041 3619
-2475.97 -118.041 3619
-2472.77 -118.302 3627
-2464.1 -118.302 3627
-2471 -119.052 3650
-2467.67 -119.313 3658
-2458.92 -119.313 3658
-2450.17 -119.313 3658
-2441.42 -119.313 3658
-2432.68 -119.313 3658
-2429.89 -119.607 3667
-2421.12 -119.607 3667
-2412.35 -119.607 3667
-2397.69 -119.313 3658
-2388.94 -119.313 3658
-2374.99 -119.052 3650
-2371.44 -119.313 3658
-2368.51 -119.607 3667
-2359.74 -119.607 3667
-2350.97 -119.607 3667
-2336.45 -119.313 3658
-2313.07 -118.563 3635
-2304.38 -118.563 3635
-2295.69 -118.563 3635
-2286.99 -118.563 3635
-2278.3 -118.563 3635
-2264.61 -118.302 3627
-2255.94 -118.302 3627
-2247.27 -118.302 3627
-2233.66 -118.041 3619
-2215.17 -117.519 3603
-2206.55 -117.519 3603
-2188.78 -117.03 3588
-2152.25 -115.53 3542
-2143.78 -115.53 3542
-2135.31 -115.53 3542
-2126.84 -115.53 3542
-2118.37 -115.53 3542
-2103.16 -117.519 3603
-2094.54 -117.519 3603
-2113.14 -119.052 3650
-2114.21 -119.607 3667
-2105.44 -119.607 3667
-2096.67 -119.607 3667
-2087.9 -119.607 3667
-2047.38 -117.78 3611
-2038.75 -117.78 3611
-2017.18 -117.03 3588
-1962.14 -114.323 3505
-1929.23 -112.888 3461
-1920.96 -112.888 3461
-1893.34 -111.746 3426
-1843.33 -109.267 3350
-1795.87 -106.919 3278
-1784.21 -106.691 3271
-1776.39 -106.691 3271
-1765.32 -106.495 3265
-1760.75 -106.691 3271
-1752.92 -106.691 3271
-1745.1 -106.691 3271
-1737.28 -106.691 3271
-1722.58 -106.266 3258
-1708.48 -105.875 3246
-1700.72 -105.875 3246
-1686.17 -105.451 3233
-1675.33 -105.255 3227
-1670.71 -105.451 3233
-1669.67 -105.875 3246
-1661.91 -105.875 3246
-1663.83 -106.495 3265
-1656.02 -106.495 3265
-1648.21 -106.495 3265
-1640.4 -106.495 3265
-1635.59 -106.691 3271
-1631.26 -106.919 3278
-1632.83 -107.539 3297
-1624.94 -107.539 3297
-1623.44 -107.963 3310
-1615.52 -107.963 3310
-1607.6 -107.963 3310
-1593.41 -107.539 3297
-1588.41 -107.734 3303
-1587.21 -108.191 3317
-1579.28 -108.191 3317
-1571.34 -108.191 3317
-1566.24 -108.387 3323
-1564.86 -108.843 3337
-1559.68 -109.039 3343
-1551.69 -109.039 3343
-1543.69 -109.039 3343
-1538.91 -109.267 3350
-1530.9 -109.267 3350
-1522.89 -109.267 3350
-1509 -108.843 3337
-1501.02 -108.843 3337
-1493.04 -108.843 3337
-1476.16 -108.191 3317
-1465.13 -107.963 3310
-1451.49 -107.539 3297
-1443.61 -107.539 3297
-1424.4 -106.691 3271
-1413.98 -106.495 3265
-1406.17 -106.495 3265
-1403.93 -106.919 3278
-1396.1 -106.919 3278
-1388.26 -106.919 3278
-1363.99 -105.647 3239
-694.286 -55.025 1687
-690.252 -55.025 1687
-686.218 -55.025 1687
-682.184 -55.025 1687
-678.15 -55.025 1687
-674.116 -55.025 1687
-670.081 -55.025 1687
-666.047 -55.025 1687
-662.013 -55.025 1687
-657.979 -55.025 1687
-652.394 -54.8946 1683
-647.985 -54.862 1682
-643.962 -54.862 1682
-639.179 -54.7967 1680
-634.406 -54.7315 1678
-629.266 -54.6336 1675
-625.261 -54.6336 1675
-619.401 -54.4706 1670
-614.67 -54.4053 1668
-608.485 -54.2096 1662
-604.51 -54.2096 1662
-599.091 -54.0791 1658
-594.049 -53.9813 1655
-589.022 -53.8834 1652
-585.072 -53.8834 1652
-581.121 -53.8834 1652
-576.472 -53.8182 1650
-572.526 -53.8182 1650
-568.581 -53.8182 1650
-564.635 -53.8182 1650
-561.369 -53.8834 1652
-557.756 -53.9161 1653
-553.803 -53.9161 1653
-549.85 -53.9161 1653
-546.558 -53.9813 1655
-543.584 -54.0791 1658
-540.27 -54.1444 1660
-536.3 -54.1444 1660
-532.331 -54.1444 1660
-528.361 -54.1444 1660
-525.339 -54.2422 1663
-521.363 -54.2422 1663
-517.386 -54.2422 1663
-514.644 -54.3727 1667
-510.658 -54.3727 1667
-506.976 -54.4053 1668
-502.987 -54.4053 1668
-498.998 -54.4053 1668
-495.009 -54.4053 1668
-491.021 -54.4053 1668
-487.032 -54.4053 1668
-483.043 -54.4053 1668
-479.055 -54.4053 1668
-475.066 -54.4053 1668
-471.077 -54.4053 1668
-466.809 -54.3727 1667
-462.822 -54.3727 1667
-458.836 -54.3727 1667
-454.85 -54.3727 1667
-450.863 -54.3727 1667
-446.877 -54.3727 1667
-442.891 -54.3727 1667
-438.904 -54.3727 1667
-434.918 -54.3727 1667
-430.932 -54.3727 1667
-426.946 -54.3727 1667
-422.959 -54.3727 1667
-418.973 -54.3727 1667
-414.987 -54.3727 1667
-411.247 -54.4053 1668
-407.258 -54.4053 1668
-403.269 -54.4053 1668
-399.76 -54.4706 1670
-395.766 -54.4706 1670
-391.773 -54.4706 1670
-387.779 -54.4706 1670
-383.786 -54.4706 1670
-380.474 -54.5684 1673
-376.474 -54.5684 1673
-372.473 -54.5684 1673
-368.472 -54.5684 1673
-364.472 -54.5684 1673
-360.471 -54.5684 1673
-356.471 -54.5684 1673
-352.891 -54.6336 1675
-349.511 -54.7315 1678
-345.91 -54.7967 1680
-341.892 -54.7967 1680
-338.277 -54.862 1682
-334.851 -54.9598 1685
-331.215 -55.025 1687
-327.181 -55.025 1687
-323.146 -55.025 1687
-319.491 -55.0903 1689
-315.638 -55.1229 1690
-311.597 -55.1229 1690
-307.92 -55.1881 1692
-304.233 -55.2534 1694
-300.714 -55.3512 1697
-296.656 -55.3512 1697
-292.598 -55.3512 1697
-289.22 -55.4817 1701
-285.32 -55.5143 1702
-281.25 -55.5143 1702
-278.157 -55.71 1708
-274.233 -55.7426 1709
-270.778 -55.8731 1713
-266.682 -55.8731 1713
-262.892 -55.9383 1715
-259.244 -56.0362 1718
-255.433 -56.1014 1720
-251.32 -56.1014 1720
-247.494 -56.1666 1722
-243.518 -56.1993 1723
-239.953 -56.3297 1727
-235.823 -56.3297 1727
-231.962 -56.395 1729
-228.091 -56.4602 1731
-224.857 -56.6885 1738
-220.701 -56.6885 1738
-216.794 -56.7537 1740
-212.756 -56.7864 1741
-209.311 -56.9821 1747
-205.134 -56.9821 1747
-201.531 -57.1452 1752
-198.468 -57.4713 1762
-195.026 -57.6996 1769
-190.796 -57.6996 1769
-187.726 -58.0584 1780
-184.5 -58.3846 1790
-180.22 -58.3846 1790
-175.939 -58.3846 1790
-172.618 -58.7108 1800
-168.781 -58.8739 1805
-165.194 -59.1348 1813
-160.858 -59.1348 1813
-156.695 -59.2 1815
-152.691 -59.3305 1819
-149.32 -59.7219 1831
-144.941 -59.7219 1831
-140.87 -59.8524 1835
-136.928 -60.0481 1841
-132.67 -60.1133 1843
-128.263 -60.1133 1843
-124.124 -60.2438 1847
-120.032 -60.4069 1852
-115.728 -60.4721 1854
-111.294 -60.4721 1854
-106.861 -60.4721 1854
-102.427 -60.4721 1854
-97.9938 -60.4721 1854
-171.625 -122.542 3757
-162.641 -122.542 3757
-153.657 -122.542 3757
-143.71 -121.727 3732
-134.786 -121.727 3732
-125.861 -121.727 3732
-116.436 -121.205 3716
-107.55 -121.205 3716
-98.6635 -121.205 3716
-89.56 -120.912 3707
-80.5213 -120.651 3699
-71.6758 -120.651 3699
-63.1192 -121.205 3716
-54.2331 -121.205 3716
-45.5423 -121.727 3732
-36.6964 -121.988 3740
-27.8791 -122.542 3757
-18.9402 -122.836 3766
-9.93458 -122.836 3766
-0.928927 -122.836 3766
8.05742 -122.542 3757
17.0415 -122.542 3757
25.8525 -121.727 3732
34.7023 -121.466 3724
43.4084 -120.912 3707
52.273 -120.912 3707
61.0056 -120.651 3699
69.7 -120.39 3691
78.5263 -120.39 3691
87.3526 -120.39 3691
95.9704 -120.129 3683
105.005 -120.39 3691
114.078 -120.651 3699
122.924 -120.651 3699
131.769 -120.651 3699
140.614 -120.651 3699
149.46 -120.651 3699
158.305 -120.651 3699
166.789 -120.39 3691
174.854 -119.868 3675
183.642 -119.868 3675
192.43 -119.868 3675
200.78 -119.607 3667
209.549 -119.607 3667
218.794 -119.868 3675
227.583 -119.868 3675
236.371 -119.868 3675
244.625 -119.607 3667
253.947 -119.868 3675
262.735 -119.868 3675
271.523 -119.868 3675
280.311 -119.868 3675
289.099 -119.868 3675
297.887 -119.868 3675
306.675 -119.868 3675
315.463 -119.868 3675
324.251 -119.868 3675
332.314 -119.607 3667
341.083 -119.607 3667
348.993 -119.313 3658
356.958 -119.052 3650
366.488 -119.313 3658
375.235 -119.313 3658
383.983 -119.313 3658
392.73 -119.313 3658
400.599 -119.052 3650
409.328 -119.052 3650
417.14 -118.791 3642
425.03 -118.563 3635
433.723 -118.563 3635
440.468 -118.041 3619
449.122 -118.041 3619
457.776 -118.041 3619
466.43 -118.041 3619
474.034 -117.78 3611
482.669 -117.78 3611
491.304 -117.78 3611
497.724 -117.258 3595
504.208 -116.769 3580
512.769 -116.769 3580
517.98 -116.019 3557
524.266 -115.53 3542
531.533 -115.269 3534
539.984 -115.269 3534
548.435 -115.269 3534
554.679 -114.812 3520
561.817 -114.551 3512
570.215 -114.551 3512
579.931 -114.812 3520
588.349 -114.812 3520
596.766 -114.812 3520
608.966 -115.53 3542
618.656 -115.758 3549
627.143 -115.758 3549
637.062 -116.019 3557
645.568 -116.019 3557
654.074 -116.019 3557
661.09 -115.758 3549
1034.33 -129.555 3972
1048.82 -130.175 3991
1058.37 -130.175 3991
1067.91 -130.175 3991
1087.98 -131.447 4030
1108.24 -132.719 4069
1117.97 -132.719 4069
1133.24 -133.371 4089
1143.02 -133.371 4089
1152.8 -133.371 4089
1159.73 -133.045 4079
1166.62 -132.719 4069
1173.46 -132.393 4059
1189 -133.045 4079
1198.75 -133.045 4079
1208.51 -133.045 4079
1218.26 -133.045 4079
1231.02 -133.371 4089
1240.8 -133.371 4089
1250.58 -133.371 4089
1260.36 -133.371 4089
1270.14 -133.371 4089
1279.91 -133.371 4089
1286.54 -133.045 4079
1293.11 -132.719 4069
1309.25 -133.371 4089
1319.03 -133.371 4089
1328.8 -133.371 4089
1338.58 -133.371 4089
1348.36 -133.371 4089
1358.14 -133.371 4089
1490.45 -127.141 3898
1499.77 -127.141 3898
1509.09 -127.141 3898
1518.41 -127.141 3898
1527.73 -127.141 3898
1443.63 -114.551 3512
1452.03 -114.551 3512
1460.43 -114.551 3512
1468.83 -114.551 3512
1477.23 -114.551 3512
1485.63 -114.551 3512
1494.02 -114.551 3512
1496 -114.062 3497
1498.34 -113.605 3483
1506.67 -113.605 3483
1505.43 -112.888 3461
1510.65 -112.659 3454
1521.99 -112.888 3461
1533.36 -113.116 3468
1551.43 -113.834 3490
1559.78 -113.834 3490
1574.86 -114.323 3505
1593.18 -115.04 3527
1601.61 -115.04 3527
1610.05 -115.04 3527
1618.48 -115.04 3527
1626.92 -115.04 3527
1635.35 -115.04 3527
1640.52 -114.812 3520
1645.19 -114.551 3512
1650.29 -114.323 3505
1658.68 -114.323 3505
1663.25 -114.062 3497
1657.75 -113.116 3468
2374.99 -131.74 4039
2384.65 -131.74 4039
2394.31 -131.74 4039
2403.96 -131.74 4039
2413.62 -131.74 4039
2429.28 -132.067 4049
2438.96 -132.067 4049
2448.65 -132.067 4049
2464.4 -132.393 4059
2474.11 -132.393 4059
2483.81 -132.393 4059
2487.37 -132.067 4049
2473.01 -130.795 4010
2477.02 -130.501 4001
2480.38 -130.175 3991
2489.92 -130.175 3991
2481.93 -129.262 3963
2479.46 -128.642 3944
2476.9 -128.022 3925
2486.29 -128.022 3925
2495.67 -128.022 3925
2511.44 -128.348 3935
2520.85 -128.348 3935
2530.26 -128.348 3935
2533.22 -128.022 3925
2525.11 -127.141 3898
2431.7 -121.988 3740
2424.98 -121.205 3716
2433.87 -121.205 3716
1856.71 -91.1322 2794
1870.06 -91.4583 2804
1876.77 -91.4583 2804
1883.47 -91.4583 2804
1890.18 -91.4583 2804
1900.27 -91.6214 2809
1906.98 -91.6214 2809
1913.7 -91.6214 2809
1923.15 -91.7519 2813
1936.74 -92.0781 2823
1946.93 -92.2411 2828
1956.46 -92.3716 2832
1963.23 -92.3716 2832
1970 -92.3716 2832
1987.25 -92.8609 2847
2017.87 -93.9698 2881
2024.76 -93.9698 2881
2045.75 -94.6222 2901
2056.22 -94.7853 2906
2081.63 -95.6333 2932
2088.64 -95.6333 2932
2099.23 -95.7964 2937
2163.62 -98.4058 3017
2182.35 -98.9277 3033
2189.6 -98.9277 3033
2212.79 -99.6452 3055
2220.1 -99.6452 3055
2227.4 -99.6452 3055
2234.71 -99.6452 3055
2238.34 -99.4821 3050
2291.29 -101.504 3112
2316.46 -102.287 3136
2323.96 -102.287 3136
2331.45 -102.287 3136
2731.18 -118.302 3627
2745.9 -118.563 3635
2778.84 -119.607 3667
2787.61 -119.607 3667
2808.58 -120.129 3683
2817.39 -120.129 3683
-2645.99 -106.803 3534
-2637.54 -106.803 3534
-2623.88 -106.592 3527
-2610.26 -106.38 3520
-2607.01 -106.592 3527
-2598.58 -106.592 3527
-2590.15 -106.592 3527
-2581.71 -106.592 3527
-2573.28 -106.592 3527
-2564.84 -106.592 3527
-2561.48 -106.803 3534
-2558.81 -107.045 3542
-2550.34 -107.045 3542
-2541.87 -107.045 3542
-2527.68 -106.803 3534
-2509.25 -106.38 3520
-2500.83 -106.38 3520
-2492.41 -106.38 3520
-2488.94 -106.592 3527
-2480.5 -106.592 3527
-2482.58 -107.045 3542
-2474.11 -107.045 3542
-2476.08 -107.498 3557
-2489.08 -108.435 3588
-2490.87 -108.888 3603
-2482.26 -108.888 3603
-2473.64 -108.888 3603
-2465.03 -108.888 3603
-2467.32 -109.372 3619
-2458.66 -109.372 3619
-2455.43 -109.614 3627
-2452.15 -109.855 3635
-2453.54 -110.309 3650
-2444.81 -110.309 3650
-2436.08 -110.309 3650
-2427.36 -110.309 3650
-2423.93 -110.551 3658
-2415.18 -110.551 3658
-2406.43 -110.551 3658
-2397.69 -110.551 3658
-2388.94 -110.551 3658
-2369.78 -110.067 3642
-2371.44 -110.551 3658
-2362.7 -110.551 3658
-2353.95 -110.551 3658
-2345.2 -110.551 3658
-2331.34 -110.309 3650
-2313.07 -109.855 3635
-2304.38 -109.855 3635
-2295.69 -109.855 3635
-2281.96 -109.614 3627
-2273.29 -109.614 3627
-2264.61 -109.614 3627
-2255.94 -109.614 3627
-2247.27 -109.614 3627
-2233.66 -109.372 3619
-2215.17 -108.888 3603
-2206.55 -108.888 3603
-2197.93 -108.888 3603
-2166.23 -107.74 3565
-2143.78 -107.045 3542
-2158.22 -108.193 3580
-2149.66 -108.193 3580
-2154.85 -108.888 3603
-2146.24 -108.888 3603
-2137.62 -108.888 3603
-2129.01 -108.888 3603
-2134.52 -109.614 3627
-2125.84 -109.614 3627
-2117.17 -109.614 3627
-2108.5 -109.614 3627
-2113.14 -110.309 3650
-2104.41 -110.309 3650
-2095.68 -110.309 3650
-2082.38 -110.067 3642
-2069.68 -109.855 3635
-2042.85 -108.888 3603
-2034.23 -108.888 3603
-1995.26 -107.256 3549
-1962.14 -105.927 3505
-1929.23 -104.597 3461
-1920.96 -104.597 3461
-1893.34 -103.539 3426
-1843.33 -101.242 3350
-1795.87 -99.0664 3278
-1784.21 -98.8548 3271
-1776.39 -98.8548 3271
-1765.32 -98.6735 3265
-1757.52 -98.6735 3265
-1749.71 -98.6735 3265
-1741.9 -98.6735 3265
-1734.09 -98.6735 3265
-1722.58 -98.4619 3258
-1711.64 -98.2806 3252
-1703.86 -98.2806 3252
-1692.95 -98.0993 3246
-1675.33 -97.5251 3227
-1670.71 -97.7064 3233
-1669.67 -98.0993 3246
-1661.91 -98.0993 3246
-1663.83 -98.6735 3265
-1656.02 -98.6735 3265
-1648.21 -98.6735 3265
-1640.4 -98.6735 3265
-1635.59 -98.8548 3271
-1631.26 -99.0664 3278
-1632.83 -99.6406 3297
-1624.94 -99.6406 3297
-1620 -99.8219 3303
-1612.1 -99.8219 3303
-1604.2 -99.8219 3303
-1593.41 -99.6406 3297
-1585.52 -99.6406 3297
-1580.51 -99.8219 3303
-1572.61 -99.8219 3303
-1564.71 -99.8219 3303
-1560.11 -100.033 3310
-1558.29 -100.426 3323
-1553.61 -100.638 3330
-1545.65 -100.638 3330
-1537.69 -100.638 3330
-1529.72 -100.638 3330
-1521.76 -100.638 3330
-1513.8 -100.638 3330
-1505.84 -100.638 3330
-1497.87 -100.638 3330
-1489.91 -100.638 3330
-1476.16 -100.245 3317
-1459.38 -99.6406 3297
-1448.41 -99.429 3290
-1440.54 -99.429 3290
-1421.79 -98.6735 3265
-1413.98 -98.6735 3265
-1406.17 -98.6735 3265
-1403.93 -99.0664 3278
-1396.1 -99.0664 3278
-1388.26 -99.0664 3278
-1363.99 -97.8877 3239
-694.286 -50.9838 1687
-690.252 -50.9838 1687
-686.218 -50.9838 1687
-682.184 -50.9838 1687
-678.15 -50.9838 1687
-674.116 -50.9838 1687
-670.081 -50.9838 1687
-666.047 -50.9838 1687
-662.013 -50.9838 1687
-657.199 -50.9234 1685
-652.394 -50.8629 1683
-647.985 -50.8327 1682
-643.962 -50.8327 1682
-638.418 -50.7118 1678
-634.406 -50.7118 1678
-629.266 -50.6212 1675
-625.261 -50.6212 1675
-619.401 -50.4701 1670
-614.67 -50.4096 1668
-608.485 -50.2283 1662
-604.51 -50.2283 1662
-599.091 -50.1074 1658
-594.049 -50.0167 1655
-589.022 -49.9261 1652
-585.072 -49.9261 1652
-581.121 -49.9261 1652
-576.472 -49.8656 1650
-572.526 -49.8656 1650
-568.581 -49.8656 1650
-564.635 -49.8656 1650
-561.369 -49.9261 1652
-557.756 -49.9563 1653
-553.803 -49.9563 1653
-549.85 -49.9563 1653
-546.558 -50.0167 1655
-543.584 -50.1074 1658
-540.27 -50.1678 1660
-536.3 -50.1678 1660
-532.331 -50.1678 1660
-528.361 -50.1678 1660
-525.339 -50.2585 1663
-521.363 -50.2585 1663
-517.386 -50.2585 1663
-514.027 -50.3189 1665
-510.045 -50.3189 1665
-506.672 -50.3794 1667
-502.685 -50.3794 1667
-498.699 -50.3794 1667
-494.713 -50.3794 1667
-490.726 -50.3794 1667
-486.74 -50.3794 1667
-482.754 -50.3794 1667
-478.767 -50.3794 1667
-474.781 -50.3794 1667
-470.795 -50.3794 1667
-466.249 -50.3189 1665
-462.267 -50.3189 1665
-458.285 -50.3189 1665
-454.304 -50.3189 1665
-450.322 -50.3189 1665
-446.341 -50.3189 1665
-442.891 -50.3794 1667
-438.904 -50.3794 1667
-434.918 -50.3794 1667
-430.932 -50.3794 1667
-426.946 -50.3794 1667
-422.959 -50.3794 1667
-418.973 -50.3794 1667
-414.987 -50.3794 1667
-411.247 -50.4096 1668
-407.258 -50.4096 1668
-403.269 -50.4096 1668
-399.281 -50.4096 1668
-395.766 -50.4701 1670
-391.773 -50.4701 1670
-387.779 -50.4701 1670
-383.786 -50.4701 1670
-380.474 -50.5607 1673
-376.474 -50.5607 1673
-372.473 -50.5607 1673
-368.472 -50.5607 1673
-364.472 -50.5607 1673
-360.471 -50.5607 1673
-356.471 -50.5607 1673
-352.47 -50.5607 1673
-349.302 -50.6816 1677
-345.498 -50.7118 1678
-341.485 -50.7118 1678
-337.875 -50.7723 1680
-334.454 -50.8629 1683
-330.822 -50.9234 1685
-326.793 -50.9234 1685
-323.146 -50.9838 1687
-319.112 -50.9838 1687
-315.638 -51.0745 1690
-311.597 -51.0745 1690
-307.92 -51.1349 1692
-304.233 -51.1954 1694
-300.714 -51.286 1697
-296.656 -51.286 1697
-292.598 -51.286 1697
-289.22 -51.4069 1701
-285.32 -51.4371 1702
-281.25 -51.4371 1702
-278.157 -51.6185 1708
-274.233 -51.6487 1709
-270.778 -51.7696 1713
-266.682 -51.7696 1713
-262.892 -51.83 1715
-258.942 -51.8602 1716
-255.433 -51.9811 1720
-251.32 -51.9811 1720
-247.494 -52.0416 1722
-243.376 -52.0416 1722
-239.953 -52.1927 1727
-235.823 -52.1927 1727
-231.694 -52.1927 1727
-228.091 -52.3136 1731
-224.599 -52.4647 1736
-220.447 -52.4647 1736
-216.545 -52.5251 1738
-212.756 -52.6158 1741
-208.832 -52.6762 1743
-204.664 -52.6762 1743
-200.956 -52.7971 1747
-198.017 -53.1296 1758
-194.365 -53.2807 1763
-190.149 -53.2807 1763
-187.62 -53.7642 1779
-184.088 -53.9758 1786
-180.22 -54.0966 1790
-175.939 -54.0966 1790
-172.618 -54.3989 1800
-168.781 -54.55 1805
-165.194 -54.7917 1813
-160.858 -54.7917 1813
-156.695 -54.8522 1815
-152.691 -54.9731 1819
-149.32 -55.3357 1831
-144.941 -55.3357 1831
-140.87 -55.4566 1835
-136.928 -55.6379 1841
-132.67 -55.6984 1843
-128.263 -55.6984 1843
-124.124 -55.8193 1847
-120.161 -56.0308 1854
-115.728 -56.0308 1854
-111.294 -56.0308 1854
-106.976 -56.0913 1856
-102.538 -56.0913 1856
-98.0995 -56.0913 1856
-171.625 -113.543 3757
-162.641 -113.543 3757
-153.657 -113.543 3757
-143.71 -112.787 3732
-134.786 -112.787 3732
-125.861 -112.787 3732
-116.686 -112.545 3724
-107.55 -112.303 3716
-98.6635 -112.303 3716
-89.56 -112.031 3707
-80.5213 -111.79 3699
-71.6758 -111.79 3699
-63.1192 -112.303 3716
-54.2331 -112.303 3716
-45.5423 -112.787 3732
-36.6964 -113.029 3740
-27.8791 -113.543 3757
-18.9402 -113.814 3766
-9.93458 -113.814 3766
-0.928927 -113.814 3766
8.05742 -113.543 3757
17.0415 -113.543 3757
25.8525 -112.787 3732
34.7023 -112.545 3724
43.4084 -112.031 3707
52.273 -112.031 3707
61.0056 -111.79 3699
69.7 -111.548 3691
78.5263 -111.548 3691
87.3526 -111.548 3691
95.9704 -111.306 3683
105.005 -111.548 3691
114.078 -111.79 3699
122.924 -111.79 3699
131.769 -111.79 3699
140.614 -111.79 3699
149.46 -111.79 3699
158.305 -111.79 3699
166.789 -111.548 3691
174.854 -111.064 3675
183.642 -111.064 3675
192.43 -111.064 3675
201.218 -111.064 3675
210.006 -111.064 3675
218.794 -111.064 3675
227.583 -111.064 3675
236.371 -111.064 3675
245.159 -111.064 3675
253.947 -111.064 3675
262.735 -111.064 3675
271.523 -111.064 3675
280.311 -111.064 3675
289.099 -111.064 3675
298.535 -111.306 3683
307.342 -111.306 3683
316.15 -111.306 3683
324.957 -111.306 3683
333.764 -111.306 3683
342.571 -111.306 3683
350.615 -111.064 3675
357.741 -110.551 3658
366.488 -110.551 3658
375.235 -110.551 3658
383.983 -110.551 3658
392.73 -110.551 3658
401.478 -110.551 3658
410.225 -110.551 3658
417.14 -110.067 3642
425.849 -110.067 3642
434.558 -110.067 3642
441.441 -109.614 3627
450.115 -109.614 3627
458.788 -109.614 3627
467.461 -109.614 3627
475.084 -109.372 3619
483.738 -109.372 3619
491.304 -109.13 3611
497.724 -108.647 3595
504.208 -108.193 3580
512.769 -108.193 3580
517.98 -107.498 3557
524.266 -107.045 3542
531.533 -106.803 3534
539.984 -106.803 3534
548.435 -106.803 3534
555.782 -106.592 3527
561.817 -106.138 3512
570.215 -106.138 3512
581.085 -106.592 3527
589.519 -106.592 3527
603.039 -107.498 3557
612.92 -107.74 3565
621.445 -107.74 3565
629.97 -107.74 3565
642.615 -108.435 3588
651.195 -108.435 3588
659.775 -108.435 3588
668.355 -108.435 3588
1039.28 -120.614 3991
1048.82 -120.614 3991
1058.37 -120.614 3991
1067.91 -120.614 3991
1087.98 -121.793 4030
1110.96 -123.274 4079
1120.72 -123.274 4079
1133.24 -123.576 4089
1143.02 -123.576 4089
1152.8 -123.576 4089
1159.73 -123.274 4079
1172.36 -123.576 4089
1182.13 -123.576 4089
1191.91 -123.576 4089
1198.75 -123.274 4079
1208.51 -123.274 4079
1218.26 -123.274 4079
1231.02 -123.576 4089
1240.8 -123.576 4089
1250.58 -123.576 4089
1260.36 -123.576 4089
1270.14 -123.576 4089
1279.91 -123.576 4089
1286.54 -123.274 4079
1293.11 -122.972 4069
1309.25 -123.576 4089
1319.03 -123.576 4089
1328.8 -123.576 4089
1338.58 -123.576 4089
1348.36 -123.576 4089
1358.14 -123.576 4089
1490.45 -117.804 3898
1499.77 -117.804 3898
1509.09 -117.804 3898
1518.41 -117.804 3898
1527.73 -117.804 3898
1456.89 -107.74 3565
1465.42 -107.74 3565
1473.94 -107.74 3565
1482.47 -107.74 3565
1468.83 -106.138 3512
1486.48 -106.803 3534
1494.93 -106.803 3534
1503.38 -106.803 3534
1511.83 -106.803 3534
1498.34 -105.262 3483
1506.67 -105.262 3483
1511.96 -105.05 3476
1513.71 -104.597 3461
1521.99 -104.597 3461
1533.36 -104.808 3468
1551.43 -105.473 3490
1559.78 -105.473 3490
1574.86 -105.927 3505
1593.18 -106.592 3527
1601.61 -106.592 3527
1610.05 -106.592 3527
1618.48 -106.592 3527
1626.92 -106.592 3527
1635.35 -106.592 3527
1640.52 -106.38 3520
1645.19 -106.138 3512
1650.29 -105.927 3505
1658.68 -105.927 3505
1663.25 -105.685 3497
1657.75 -104.808 3468
2386.75 -122.669 4059
2396.45 -122.669 4059
2406.16 -122.669 4059
2415.87 -122.669 4059
2425.57 -122.669 4059
2435.28 -122.669 4059
2457.03 -123.274 4079
2466.79 -123.274 4079
2476.54 -123.274 4079
2486.3 -123.274 4079
2496.05 -123.274 4079
2505.8 -123.274 4079
2497.06 -122.367 4049
2494.98 -121.793 4030
2492.18 -121.189 4010
2501.77 -121.189 4010
2505.73 -120.917 4001
2479.46 -119.194 3944
2488.89 -119.194 3944
2498.32 -119.194 3944
2507.75 -119.194 3944
2511.44 -118.922 3935
2520.85 -118.922 3935
2530.26 -118.922 3935
2533.22 -118.62 3925
2525.11 -117.804 3898
2431.7 -113.029 3740
2424.98 -112.303 3716
2433.87 -112.303 3716
1853.25 -84.8924 2809
1859.96 -84.8924 2809
1866.68 -84.8924 2809
1873.4 -84.8924 2809
1880.11 -84.8924 2809
1886.83 -84.8924 2809
1890.18 -84.7413 2804
1900.27 -84.8924 2809
1906.98 -84.8924 2809
1913.7 -84.8924 2809
1923.15 -85.0133 2813
1936.74 -85.3155 2823
1946.93 -85.4666 2828
1956.46 -85.5875 2832
1963.23 -85.5875 2832
1970 -85.5875 2832
1987.25 -86.0409 2847
2017.87 -87.0684 2881
2024.76 -87.0684 2881
2045.75 -87.6728 2901
2056.22 -87.8239 2906
2081.63 -88.6097 2932
2088.64 -88.6097 2932
2099.23 -88.7608 2937
2163.62 -91.1785 3017
2182.35 -91.6621 3033
2189.6 -91.6621 3033
2212.79 -92.327 3055
2220.1 -92.327 3055
2227.4 -92.327 3055
2234.71 -92.327 3055
2238.34 -92.1758 3050
2291.29 -94.0496 3112
2316.46 -94.7749 3136
2323.96 -94.7749 3136
2331.45 -94.7749 3136
2287.49 -92.6896 3067
2294.83 -92.6896 3067
2731.18 -109.614 3627
2751.19 -110.067 3642
2778.84 -110.823 3667
2787.61 -110.823 3667
2814.68 -111.548 3691
2823.51 -111.548 3691
-2645.99 -98.3374 3534
-2637.54 -98.3374 3534
-2623.88 -98.1426 3527
-2610.26 -97.9478 3520
-2607.01 -98.1426 3527
-2598.58 -98.1426 3527
-2590.15 -98.1426 3527
-2581.71 -98.1426 3527
-2573.28 -98.1426 3527
-2564.84 -98.1426 3527
-2561.48 -98.3374 3534
-2558.81 -98.56 3542
-2550.34 -98.56 3542
-2541.87 -98.56 3542
-2527.68 -98.3374 3534
-2509.25 -97.9478 3520
-2500.83 -97.9478 3520
-2492.41 -97.9478 3520
-2488.94 -98.1426 3527
-2480.5 -98.1426 3527
-2482.58 -98.56 3542
-2474.11 -98.56 3542
-2476.08 -98.9774 3557
-2483.53 -99.6174 3580
-2485.34 -100.035 3595
-2476.75 -100.035 3595
-2468.15 -100.035 3595
-2459.55 -100.035 3595
-2456.41 -100.257 3603
-2447.79 -100.257 3603
-2450.01 -100.703 3619
-2446.75 -100.925 3627
-2443.46 -101.148 3635
-2434.76 -101.148 3635
-2430.74 -101.343 3642
-2427.36 -101.565 3650
-2423.93 -101.788 3658
-2415.18 -101.788 3658
-2406.43 -101.788 3658
-2397.69 -101.788 3658
-2388.94 -101.788 3658
-2369.78 -101.343 3642
-2366.26 -101.565 3650
-2357.53 -101.565 3650
-2348.8 -101.565 3650
-2340.07 -101.565 3650
-2326.23 -101.343 3642
-2307.98 -100.925 3627
-2299.31 -100.925 3627
-2290.63 -100.925 3627
-2281.96 -100.925 3627
-2273.29 -100.925 3627
-2264.61 -100.925 3627
-2255.94 -100.925 3627
-2247.27 -100.925 3627
-2238.59 -100.925 3627
-2220.08 -100.48 3611
-2211.45 -100.48 3611
-2197.93 -100.257 3603
-2166.23 -99.2 3565
-2143.78 -98.56 3542
-2158.22 -99.6174 3580
-2149.66 -99.6174 3580
-2154.85 -100.257 3603
-2146.24 -100.257 3603
-2137.62 -100.257 3603
-2129.01 -100.257 3603
-2134.52 -100.925 3627
-2125.84 -100.925 3627
-2117.17 -100.925 3627
-2108.5 -100.925 3627
-2095.19 -100.703 3619
-2086.54 -100.703 3619
-2077.88 -100.703 3619
-2069.23 -100.703 3619
-2060.57 -100.703 3619
-2034.34 -99.84 3588
-2025.76 -99.84 3588
-1995.26 -98.7548 3549
-1962.14 -97.5304 3505
-1925.33 -96.1113 3454
-1917.07 -96.1113 3454
-1889.47 -95.1374 3419
-1839.47 -93.0226 3343
-1792.03 -91.0191 3271
-1784.21 -91.0191 3271
-1776.39 -91.0191 3271
-1765.32 -90.8521 3265
-1757.52 -90.8521 3265
-1745.96 -90.6574 3258
-1738.17 -90.6574 3258
-1730.38 -90.6574 3258
-1722.58 -90.6574 3258
-1711.64 -90.4904 3252
-1703.86 -90.4904 3252
-1692.95 -90.3234 3246
-1675.33 -89.7948 3227
-1670.71 -89.9617 3233
-1669.67 -90.3234 3246
-1661.91 -90.3234 3246
-1660.26 -90.6574 3258
-1652.47 -90.6574 3258
-1644.68 -90.6574 3258
-1636.89 -90.6574 3258
-1632.59 -90.8521 3265
-1631.26 -91.2139 3278
-1623.42 -91.2139 3278
-1615.58 -91.2139 3278
-1613.63 -91.5478 3290
-1605.76 -91.5478 3290
-1597.89 -91.5478 3290
-1587.12 -91.3808 3284
-1579.27 -91.3808 3284
-1577.64 -91.7426 3297
-1569.75 -91.7426 3297
-1561.87 -91.7426 3297
-1553.99 -91.7426 3297
-1548.92 -91.9095 3303
-1547.55 -92.2991 3317
-1539.62 -92.2991 3317
-1531.68 -92.2991 3317
-1523.75 -92.2991 3317
-1515.82 -92.2991 3317
-1507.89 -92.2991 3317
-1499.96 -92.2991 3317
-1492.03 -92.2991 3317
-1484.09 -92.2991 3317
-1467.26 -91.7426 3297
-1456.28 -91.5478 3290
-1440.05 -91.0191 3271
-1432.22 -91.0191 3271
-1418.74 -90.6574 3258
-1410.95 -90.6574 3258
-1403.16 -90.6574 3258
-1392.8 -90.4904 3252
-1385.02 -90.4904 3252
-1374.7 -90.3234 3246
-1363.99 -90.1287 3239
-693.463 -46.8869 1685
-689.434 -46.8869 1685
-686.218 -46.9426 1687
-682.184 -46.9426 1687
-678.15 -46.9426 1687
-674.116 -46.9426 1687
-669.287 -46.8869 1685
-664.468 -46.8313 1683
-660.443 -46.8313 1683
-656.419 -46.8313 1683
-652.007 -46.8035 1682
-647.214 -46.7478 1680
-643.197 -46.7478 1680
-638.418 -46.6922 1678
-634.028 -46.6643 1677
-629.266 -46.6087 1675
-625.261 -46.6087 1675
-619.401 -46.4696 1670
-614.67 -46.4139 1668
-608.485 -46.2469 1662
-604.51 -46.2469 1662
-599.091 -46.1356 1658
-594.049 -46.0522 1655
-589.022 -45.9687 1652
-585.072 -45.9687 1652
-581.121 -45.9687 1652
-576.472 -45.913 1650
-572.526 -45.913 1650
-568.581 -45.913 1650
-564.635 -45.913 1650
-560.689 -45.913 1650
-557.419 -45.9687 1652
-553.468 -45.9687 1652
-549.85 -45.9965 1653
-546.558 -46.0522 1655
-543.584 -46.1356 1658
-540.27 -46.1913 1660
-536.3 -46.1913 1660
-532.331 -46.1913 1660
-528.361 -46.1913 1660
-525.024 -46.2469 1662
-521.049 -46.2469 1662
-517.075 -46.2469 1662
-513.409 -46.2748 1663
-509.433 -46.2748 1663
-506.064 -46.3304 1665
-502.082 -46.3304 1665
-498.101 -46.3304 1665
-494.119 -46.3304 1665
-490.138 -46.3304 1665
-486.156 -46.3304 1665
-482.175 -46.3304 1665
-478.193 -46.3304 1665
-474.212 -46.3304 1665
-470.23 -46.3304 1665
-466.249 -46.3304 1665
-462.267 -46.3304 1665
-458.285 -46.3304 1665
-453.758 -46.2748 1663
-450.322 -46.3304 1665
-446.341 -46.3304 1665
-442.359 -46.3304 1665
-438.378 -46.3304 1665
-434.396 -46.3304 1665
-430.932 -46.3861 1667
-426.946 -46.3861 1667
-422.959 -46.3861 1667
-418.973 -46.3861 1667
-414.987 -46.3861 1667
-411.247 -46.4139 1668
-407.258 -46.4139 1668
-403.269 -46.4139 1668
-399.281 -46.4139 1668
-395.766 -46.4696 1670
-391.773 -46.4696 1670
-387.779 -46.4696 1670
-383.786 -46.4696 1670
-380.247 -46.5252 1672
-376.249 -46.5252 1672
-372.25 -46.5252 1672
-368.252 -46.5252 1672
-364.472 -46.553 1673
-360.471 -46.553 1673
-356.471 -46.553 1673
-352.47 -46.553 1673
-349.302 -46.6643 1677
-345.498 -46.6922 1678
-341.485 -46.6922 1678
-337.875 -46.7478 1680
-334.454 -46.8313 1683
-330.429 -46.8313 1683
-326.405 -46.8313 1683
-322.763 -46.8869 1685
-319.112 -46.9426 1687
-315.452 -46.9982 1689
-311.413 -46.9982 1689
-307.556 -47.0261 1690
-303.874 -47.0817 1692
-300.359 -47.1652 1695
-296.306 -47.1652 1695
-292.598 -47.2209 1697
-288.88 -47.2765 1699
-285.32 -47.36 1702
-281.25 -47.36 1702
-278.157 -47.5269 1708
-274.233 -47.5548 1709
-270.462 -47.6104 1711
-266.371 -47.6104 1711
-262.586 -47.6661 1713
-258.942 -47.7495 1716
-255.433 -47.8609 1720
-251.32 -47.8609 1720
-247.207 -47.8609 1720
-243.376 -47.9165 1722
-239.675 -48 1725
-235.55 -48 1725
-231.694 -48.0556 1727
-228.091 -48.1669 1731
-224.599 -48.3061 1736
-220.447 -48.3061 1736
-216.296 -48.3061 1736
-212.756 -48.4452 1741
-208.832 -48.5009 1743
-204.664 -48.5009 1743
-200.956 -48.6122 1747
-198.017 -48.9182 1758
-194.255 -49.0295 1762
-190.041 -49.0295 1762
-187.41 -49.4469 1777
-183.882 -49.6417 1784
-180.018 -49.753 1788
-175.743 -49.753 1788
-172.618 -50.0869 1800
-168.688 -50.1982 1804
-165.194 -50.4487 1813
-160.858 -50.4487 1813
-156.695 -50.5043 1815
-152.691 -50.6156 1819
-149.32 -50.9495 1831
-144.941 -50.9495 1831
-140.87 -51.0609 1835
-136.928 -51.2278 1841
-132.67 -51.2835 1843
-128.263 -51.2835 1843
-124.124 -51.3948 1847
-120.161 -51.5896 1854
-115.728 -51.5896 1854
-111.294 -51.5896 1854
-106.976 -51.6452 1856
-102.538 -51.6452 1856
-98.0995 -51.6452 1856
-171.625 -104.543 3757
-162.641 -104.543 3757
-153.657 -104.543 3757
-143.71 -103.847 3732
-134.786 -103.847 3732
-125.861 -103.847 3732
-116.686 -103.624 3724
-107.55 -103.402 3716
-98.6635 -103.402 3716
-89.56 -103.151 3707
-80.5213 -102.929 3699
-71.6758 -102.929 3699
-62.9663 -103.151 3707
-54.1017 -103.151 3707
-45.4446 -103.624 3724
-36.6964 -104.07 3740
-27.8791 -104.543 3757
-18.895 -104.543 3757
-9.91083 -104.543 3757
-0.926707 -104.543 3757
8.05742 -104.543 3757
17.0415 -104.543 3757
25.8525 -103.847 3732
34.7023 -103.624 3724
43.3148 -102.929 3699
52.1602 -102.929 3699
60.8737 -102.706 3691
69.5489 -102.483 3683
78.3561 -102.483 3683
87.1632 -102.483 3683
95.9704 -102.483 3683
105.005 -102.706 3691
114.078 -102.929 3699
122.924 -102.929 3699
131.769 -102.929 3699
140.614 -102.929 3699
149.46 -102.929 3699
158.305 -102.929 3699
166.789 -102.706 3691
174.854 -102.261 3675
183.642 -102.261 3675
192.43 -102.261 3675
201.218 -102.261 3675
210.006 -102.261 3675
218.794 -102.261 3675
227.583 -102.261 3675
236.371 -102.261 3675
245.159 -102.261 3675
253.947 -102.261 3675
262.735 -102.261 3675
271.523 -102.261 3675
280.311 -102.261 3675
289.099 -102.261 3675
298.535 -102.483 3683
307.342 -102.483 3683
316.15 -102.483 3683
324.957 -102.483 3683
333.764 -102.483 3683
342.571 -102.483 3683
350.615 -102.261 3675
357.741 -101.788 3658
366.488 -101.788 3658
375.235 -101.788 3658
383.983 -101.788 3658
392.73 -101.788 3658
401.478 -101.788 3658
410.225 -101.788 3658
417.14 -101.343 3642
425.849 -101.343 3642
434.558 -101.343 3642
441.441 -100.925 3627
450.115 -100.925 3627
458.788 -100.925 3627
467.461 -100.925 3627
475.084 -100.703 3619
483.738 -100.703 3619
491.304 -100.48 3611
497.724 -100.035 3595
504.208 -99.6174 3580
512.769 -99.6174 3580
516.815 -98.7548 3549
524.266 -98.56 3542
531.533 -98.3374 3534
539.984 -98.3374 3534
548.435 -98.3374 3534
555.782 -98.1426 3527
561.817 -97.7252 3512
570.215 -97.7252 3512
581.085 -98.1426 3527
589.519 -98.1426 3527
603.039 -98.9774 3557
612.92 -99.2 3565
621.445 -99.2 3565
629.97 -99.2 3565
642.615 -99.84 3588
651.195 -99.84 3588
659.775 -99.84 3588
668.355 -99.84 3588
1039.28 -111.054 3991
1048.82 -111.054 3991
1058.37 -111.054 3991
1067.91 -111.054 3991
1087.98 -112.139 4030
1110.96 -113.503 4079
1120.72 -113.503 4079
1133.24 -113.781 4089
1143.02 -113.781 4089
1152.8 -113.781 4089
1172.36 -113.781 4089
1182.13 -113.781 4089
1191.91 -113.781 4089
1198.75 -113.503 4079
1208.51 -113.503 4079
1267.03 -113.503 4079
1276.78 -113.503 4079
1286.54 -113.503 4079
1293.11 -113.224 4069
1309.25 -113.781 4089
1319.03 -113.781 4089
1328.8 -113.781 4089
1335.31 -113.503 4079
1490.45 -108.466 3898
1499.77 -108.466 3898
1509.09 -108.466 3898
1518.41 -108.466 3898
1527.73 -108.466 3898
1456.89 -99.2 3565
1465.42 -99.2 3565
1473.94 -99.2 3565
1482.47 -99.2 3565
1468.83 -97.7252 3512
1486.48 -98.3374 3534
1494.93 -98.3374 3534
1503.38 -98.3374 3534
1511.83 -98.3374 3534
1498.34 -96.9182 3483
1506.67 -96.9182 3483
1511.96 -96.7234 3476
1513.71 -96.3061 3461
1521.99 -96.3061 3461
1533.36 -96.5008 3468
1551.43 -97.113 3490
1559.78 -97.113 3490
1571.27 -97.3078 3497
