1155.33 675.374 3691
1164.16 675.374 3691
1172.99 675.374 3691
1181.81 675.374 3691
1190.64 675.374 3691
1199.47 675.374 3691
1208.29 675.374 3691
1214.48 673.911 3683
1223.29 673.911 3683
1232.1 673.911 3683
1238.21 672.447 3675
1246.99 672.447 3675
1255.78 672.447 3675
1258.72 669.336 3658
1264.7 667.872 3650
1273.43 667.872 3650
1282.15 667.872 3650
1288.05 666.408 3642
1296.76 666.408 3642
1302.96 665.128 3635
1314.18 666.408 3642
1322.89 666.408 3642
1331.6 666.408 3642
1340.31 666.408 3642
1346.42 665.128 3635
1355.12 665.128 3635
1363.81 665.128 3635
1369.48 663.664 3627
1378.15 663.664 3627
1386.83 663.664 3627
1395.5 663.664 3627
1401.08 662.2 3619
1412.85 663.664 3627
1424.65 665.128 3635
1433.35 665.128 3635
1444.82 666.408 3642
1456.72 667.872 3650
1468.66 669.336 3658
1477.41 669.336 3658
1486.15 669.336 3658
1494.9 669.336 3658
1503.65 669.336 3658
1512.4 669.336 3658
1521.14 669.336 3658
1529.89 669.336 3658
1538.64 669.336 3658
1547.39 669.336 3658
1556.13 669.336 3658
1564.88 669.336 3658
1573.63 669.336 3658
1582.37 669.336 3658
1591.12 669.336 3658
1614.3 675.374 3691
1623.13 675.374 3691
1635.49 676.838 3699
1644.34 676.838 3699
1660.78 679.949 3716
1669.67 679.949 3716
1689.39 684.34 3740
1698.34 684.34 3740
1707.28 684.34 3740
1735.96 692.208 3783
1745 692.208 3783
1754.05 692.208 3783
1763.1 692.208 3783
1759.96 687.451 3757
1785.43 693.855 3792
1814.84 701.723 3835
1824.01 701.723 3835
1833.18 701.723 3835
1842.35 701.723 3835
1851.52 701.723 3835
1860.7 701.723 3835
1861.58 698.613 3818
1861.89 695.319 3800
1870.97 695.319 3800
1854.83 685.987 3749
1838.94 676.838 3699
1831.8 670.983 3667
1824.5 665.128 3635
1833.2 665.128 3635
1818.07 656.528 3588
1818.51 653.6 3572
1823.47 652.319 3565
1831.99 652.319 3565
1840.52 652.319 3565
1856.82 655.064 3580
1873.2 657.808 3595
1885.99 659.272 3603
1894.6 659.272 3603
1907.44 660.736 3611
1920.32 662.2 3619
1945.5 667.872 3650
1954.23 667.872 3650
1967.26 669.336 3658
1989.51 673.911 3683
2002.66 675.374 3691
2025.11 679.949 3716
2034 679.949 3716
2065.42 687.451 3757
2088.76 692.208 3783
2141.62 706.664 3862
2150.85 706.664 3862
2165.12 708.311 3871
2199.65 716.545 3916
2219.74 720.021 3935
2229.15 720.021 3935
2243.68 721.668 3944
2258.25 723.315 3953
2273.44 725.145 3963
2282.92 725.145 3963
2292.39 725.145 3963
2301.87 725.145 3963
2311.35 725.145 3963
2320.82 725.145 3963
2330.3 725.145 3963
2339.78 725.145 3963
2354.59 726.791 3972
2364.09 726.791 3972
2379.56 728.621 3982
2394.48 730.268 3991
2410.05 732.098 4001
2425.06 733.745 4010
2434.65 733.745 4010
2456.43 737.404 4030
2477.69 740.881 4049
2493.52 742.711 4059
2503.22 742.711 4059
2512.93 742.711 4059
2522.64 742.711 4059
2532.34 742.711 4059
2542.05 742.711 4059
2551.76 742.711 4059
2555.15 740.881 4049
2564.83 740.881 4049
2574.52 740.881 4049
2577.82 739.051 4039
2575.3 735.574 4020
2584.92 735.574 4020
2588.07 733.745 4010
2573.05 726.791 3972
2570.19 723.315 3953
2555.5 716.545 3916
2564.86 716.545 3916
2562.4 713.251 3898
2565.78 711.604 3889
2557.2 706.664 3862
2566.44 706.664 3862
2557.66 701.723 3835
2538.05 693.855 3792
2541.08 692.208 3783
2550.12 692.208 3783
2547.67 689.098 3766
2539.02 684.34 3740
2514.58 675.374 3691
2507 670.983 3667
2515.77 670.983 3667
529.252 135.038 738
531.017 135.038 738
532.782 135.038 738
534.547 135.038 738
534.131 134.489 735
535.16 134.306 734
536.915 134.306 734
537.203 133.94 732
538.953 133.94 732
538.487 133.391 729
540.231 133.391 729
541.231 133.208 728
542.226 133.026 727
543.964 133.026 727
545.703 133.026 727
547.441 133.026 727
549.18 133.026 727
550.918 133.026 727
552.656 133.026 727
554.395 133.026 727
556.133 133.026 727
-2352.49 582.446 3142
-2344.98 582.446 3142
-2333 581.333 3136
-2325.5 581.333 3136
-2318 581.333 3136
-2310.5 581.333 3136
-2294.19 579.109 3124
-2282.33 577.997 3118
-2274.87 577.997 3118
-2267.42 577.997 3118
-2255.61 576.885 3112
-2261.18 580.221 3130
-2262.33 582.446 3142
-2267.73 585.782 3160
-2260.18 585.782 3160
-2269.73 590.232 3184
-2292.67 598.203 3227
-2293.45 600.427 3239
-2285.7 600.427 3239
-2360.94 622.301 3357
-2352.92 622.301 3357
-2344.89 622.301 3357
-2521.69 673.835 3635
-2523.37 676.616 3650
-2514.64 676.616 3650
-2505.91 676.616 3650
-2508.81 679.767 3667
-2505.5 681.25 3675
-2496.71 681.25 3675
-2487.92 681.25 3675
-2467.67 678.099 3658
-2458.92 678.099 3658
-2444.81 676.616 3650
-2426.07 673.835 3635
-2427.36 676.616 3650
-2429.89 679.767 3667
-2421.12 679.767 3667
-2417.62 681.25 3675
-2408.83 681.25 3675
-2400.04 681.25 3675
-2386.05 679.767 3667
-2377.28 679.767 3667
-2368.51 679.767 3667
-2359.74 679.767 3667
-2350.97 679.767 3667
-2336.45 678.099 3658
-2327.71 678.099 3658
-2318.96 678.099 3658
-2300.11 675.133 3642
-2276.93 670.869 3619
-2268.27 670.869 3619
-2259.62 670.869 3619
-2250.97 670.869 3619
-2237.35 669.386 3611
-2233.66 670.869 3619
-2225 670.869 3619
-2216.35 670.869 3619
-2207.69 670.869 3619
-2135.86 701.271 3783
-2126.81 701.271 3783
-2127.28 704.422 3800
-2118.2 704.422 3800
-2109.11 704.422 3800
-2100.02 704.422 3800
-2072.23 698.119 3766
-2008.98 679.767 3667
-2000.22 679.767 3667
-1977.87 675.133 3642
-1977.81 678.099 3658
-1973.91 679.767 3667
-2009.08 694.968 3749
-2000.12 694.968 3749
-1991.15 694.968 3749
-1982.19 694.968 3749
-1973.22 694.968 3749
-1955.35 691.817 3732
-1946.43 691.817 3732
-1990.98 710.91 3835
-1995.76 715.915 3862
-1986.52 715.915 3862
-2004.94 725.925 3916
-1995.57 725.925 3916
-1986.21 725.925 3916
-1976.84 725.925 3916
-1727.01 693.3 3740
-1749.77 706.09 3809
-1740.66 706.09 3809
-1731.55 706.09 3809
-1730.13 709.242 3826
-1720.98 709.242 3826
-1711.83 709.242 3826
-1699.12 707.759 3818
-1689.99 707.759 3818
-1680.86 707.759 3818
-1671.73 707.759 3818
-1658.68 706.09 3809
-1653.47 707.759 3818
-1651.66 710.91 3835
-1642.49 710.91 3835
-1633.32 710.91 3835
-1616.95 707.759 3818
-1600.24 704.422 3800
-1591.15 704.422 3800
-1578.74 702.939 3792
-1569.67 702.939 3792
-1556.9 701.271 3783
-1547.85 701.271 3783
-1535.14 699.602 3774
-1519.24 696.451 3757
-1486.94 685.699 3699
-1478.1 685.699 3699
-664.58 327.927 1769
-660.35 327.927 1769
-659.087 329.41 1777
-655.575 329.781 1779
-651.32 329.781 1779
-647.066 329.781 1779
-642.089 329.41 1777
-632.456 326.629 1762
-628.243 326.629 1762
-621.196 325.146 1754
-614.539 323.849 1747
-609.663 323.478 1745
-604.796 323.107 1743
-600.628 323.107 1743
-595.433 322.551 1740
-588.554 321.068 1732
-583.4 320.512 1729
-579.265 320.512 1729
-573.135 319.4 1723
-568.024 318.844 1720
-563.911 318.844 1720
-559.798 318.844 1720
-554.393 318.102 1716
-549.327 317.546 1713
-543.639 316.619 1708
-539.555 316.619 1708
-534.217 315.878 1704
-529.52 315.507 1702
-525.141 315.322 1701
-521.073 315.322 1701
-516.398 314.951 1699
-512.335 314.951 1699
-507.674 314.58 1697
-503.616 314.58 1697
-498.969 314.209 1695
-494.916 314.209 1695
-490.862 314.209 1695
-486.809 314.209 1695
-482.471 314.024 1694
-477.855 313.653 1692
-473.809 313.653 1692
-469.208 313.282 1690
-465.167 313.282 1690
-461.125 313.282 1690
-457.084 313.282 1690
-453.043 313.282 1690
-449.001 313.282 1690
-444.96 313.282 1690
-440.919 313.282 1690
-436.619 313.097 1689
-432.58 313.097 1689
-428.541 313.097 1689
-424 312.726 1687
-419.468 312.356 1685
-415.438 312.356 1685
-411.409 312.356 1685
-407.38 312.356 1685
-403.35 312.356 1685
-399.795 312.726 1687
-395.761 312.726 1687
-392.191 313.097 1689
-388.152 313.097 1689
-384.795 313.653 1692
-380.749 313.653 1692
-377.149 314.024 1694
-373.098 314.024 1694
-369.047 314.024 1694
-364.996 314.024 1694
-360.945 314.024 1694
-356.894 314.024 1694
-353.468 314.58 1697
-349.41 314.58 1697
-345.759 314.951 1699
-341.696 314.951 1699
-338.23 315.507 1702
-334.16 315.507 1702
-330.478 315.878 1704
-326.403 315.878 1704
-322.328 315.878 1704
-318.253 315.878 1704
-314.178 315.878 1704
-310.104 315.878 1704
-306.388 316.248 1706
-302.308 316.248 1706
-298.229 316.248 1706
-294.149 316.248 1706
-290.41 316.619 1708
-286.326 316.619 1708
-282.241 316.619 1708
-278.32 316.805 1709
-274.554 317.175 1711
-270.778 317.546 1713
-266.682 317.546 1713
-262.586 317.546 1713
-258.49 317.546 1713
-254.69 317.917 1715
-250.589 317.917 1715
-246.488 317.917 1715
-242.104 317.546 1713
-238.286 317.917 1715
-234.185 317.917 1715
-230.084 317.917 1715
-226.114 318.102 1716
-222.011 318.102 1716
-217.908 318.102 1716
-214.053 318.473 1718
-210.189 318.844 1720
-206.076 318.844 1720
-201.963 318.844 1720
-197.85 318.844 1720
-193.737 318.844 1720
-189.624 318.844 1720
-185.511 318.844 1720
-181.609 319.214 1722
-177.8 319.771 1725
-174.078 320.512 1729
-169.944 320.512 1729
-166.001 320.883 1731
-161.955 321.068 1732
-157.995 321.439 1734
-154.47 322.737 1741
-150.307 322.737 1741
-146.311 323.107 1743
-142.143 323.107 1743
-137.975 323.107 1743
-133.807 323.107 1743
-129.639 323.107 1743
-125.615 323.478 1745
-121.721 324.219 1749
-117.538 324.219 1749
-113.81 325.517 1756
-110.172 327.185 1765
-106.312 328.298 1771
-102.077 328.298 1771
-98.2838 329.781 1779
-94.5053 331.449 1788
-90.5325 332.561 1794
-86.2425 332.561 1794
-82.0438 332.932 1796
-77.7491 332.932 1796
-73.4543 332.932 1796
-28.072 701.271 3783
-19.0257 701.271 3783
-9.97942 701.271 3783
-0.924734 694.968 3749
8.04026 694.968 3749
16.8919 690.334 3724
25.7971 690.334 3724
34.9352 694.968 3749
43.9002 694.968 3749
52.8652 694.968 3749
61.5499 691.817 3732
70.3231 690.334 3724
78.8667 687.182 3707
87.7312 687.182 3707
96.5958 687.182 3707
105.005 684.216 3691
113.585 682.733 3683
122.392 682.733 3683
131.199 682.733 3683
139.702 681.25 3675
148.813 682.733 3683
157.621 682.733 3683
166.428 682.733 3683
175.235 682.733 3683
184.042 682.733 3683
192.849 682.733 3683
201.656 682.733 3683
210.006 681.25 3675
218.794 681.25 3675
228.078 682.733 3683
236.885 682.733 3683
245.692 682.733 3683
254.499 682.733 3683
262.163 679.767 3667
270.932 679.767 3667
279.701 679.767 3667
288.469 679.767 3667
297.238 679.767 3667
306.007 679.767 3667
314.004 678.099 3658
322.045 676.616 3650
330.773 676.616 3650
339.502 676.616 3650
347.467 675.133 3642
356.176 675.133 3642
363.382 672.352 3627
372.055 672.352 3627
378.209 667.903 3603
384.356 663.64 3580
388.746 656.595 3542
397.216 656.595 3542
402.25 651.034 3512
409.83 649.737 3505
416.422 646.956 3490
422.09 642.878 3468
430.383 642.878 3468
437.79 641.58 3461
443.36 637.687 3440
447.91 632.497 3412
456.069 632.497 3412
463.276 631.199 3405
468.511 627.306 3384
473.646 623.413 3363
481.688 623.413 3363
487.836 621.004 3350
495.847 621.004 3350
505.813 623.413 3363
514.925 624.711 3370
526.243 628.604 3391
535.455 629.902 3398
545.82 632.497 3412
557.389 636.39 3433
567.904 638.985 3447
576.147 638.985 3447
584.39 638.985 3447
597.619 644.361 3476
605.931 644.361 3476
614.243 644.361 3476
625.063 646.956 3490
633.408 646.956 3490
641.754 646.956 3490
650.1 646.956 3490
658.445 646.956 3490
665.454 645.658 3483
673.782 645.658 3483
682.111 645.658 3483
690.44 645.658 3483
697.365 644.361 3476
705.677 644.361 3476
713.989 644.361 3476
722.301 644.361 3476
730.614 644.361 3476
738.926 644.361 3476
747.238 644.361 3476
753.811 642.878 3468
760.566 641.58 3461
768.842 641.58 3461
773.975 638.985 3447
782.218 638.985 3447
788.855 637.687 3440
797.081 637.687 3440
805.308 637.687 3440
813.534 637.687 3440
825.104 640.283 3454
835.053 641.58 3461
845.035 642.878 3468
853.328 642.878 3468
863.608 644.361 3476
877.188 648.254 3497
885.55 648.254 3497
893.913 648.254 3497
908.21 652.517 3520
922.356 656.595 3542
934.768 659.376 3557
943.274 659.376 3557
955.793 662.157 3572
970.544 666.42 3595
983.499 669.386 3611
992.134 669.386 3611
1005.2 672.352 3627
1022.54 678.099 3658
1031.29 678.099 3658
1040.04 678.099 3658
1051.36 679.767 3667
1062.45 681.25 3675
1071.23 681.25 3675
1080.02 681.25 3675
1088.81 681.25 3675
1097.6 681.25 3675
1108.79 682.733 3683
1120.03 684.216 3691
1128.86 684.216 3691
1137.68 684.216 3691
1146.51 684.216 3691
1155.33 684.216 3691
1161.64 682.733 3683
1170.45 682.733 3683
1176.69 681.25 3675
1188.06 682.733 3683
1196.87 682.733 3683
1205.67 682.733 3683
1214.48 682.733 3683
1223.29 682.733 3683
1229.42 681.25 3675
1235.51 679.767 3667
1244.28 679.767 3667
1253.05 679.767 3667
1258.72 678.099 3658
1264.7 676.616 3650
1270.63 675.133 3642
1279.34 675.133 3642
1288.05 675.133 3642
1296.76 675.133 3642
1302.96 673.835 3635
1311.65 673.835 3635
1320.35 673.835 3635
1329.04 673.835 3635
1337.73 673.835 3635
1346.42 673.835 3635
1355.12 673.835 3635
1363.81 673.835 3635
1369.48 672.352 3627
1378.15 672.352 3627
1386.83 672.352 3627
1395.5 672.352 3627
1401.08 670.869 3619
1412.85 672.352 3627
1424.65 673.835 3635
1433.35 673.835 3635
1444.82 675.133 3642
1456.72 676.616 3650
1465.45 676.616 3650
1474.18 676.616 3650
1482.9 676.616 3650
1494.9 678.099 3658
1503.65 678.099 3658
1512.4 678.099 3658
1521.14 678.099 3658
1529.89 678.099 3658
1538.64 678.099 3658
1547.39 678.099 3658
1556.13 678.099 3658
1561.46 676.616 3650
1570.19 676.616 3650
1582.37 678.099 3658
1591.12 678.099 3658
1610.8 682.733 3683
1619.61 682.733 3683
1631.96 684.216 3691
1640.78 684.216 3691
1656.76 687.182 3707
1669.67 688.851 3716
1689.39 693.3 3740
1698.34 693.3 3740
1707.28 693.3 3740
1735.96 701.271 3783
1745 701.271 3783
1754.05 701.271 3783
1763.1 701.271 3783
1767.93 699.602 3774
1785.43 702.939 3792
1814.84 710.91 3835
1824.01 710.91 3835
1841.79 714.247 3853
1851 714.247 3853
1860.22 714.247 3853
1860.7 710.91 3835
1865.48 709.242 3826
1861.89 704.422 3800
1870.97 704.422 3800
1854.83 694.968 3749
1838.94 685.699 3699
1831.8 679.767 3667
1824.5 673.835 3635
1833.2 673.835 3635
1814.02 663.64 3580
1822.58 663.64 3580
1823.47 660.859 3565
1835.59 662.157 3572
1844.13 662.157 3572
1860.97 665.123 3588
1877.37 667.903 3603
1885.99 667.903 3603
1894.6 667.903 3603
1907.44 669.386 3611
1920.32 670.869 3619
1945.5 676.616 3650
1954.23 676.616 3650
1967.26 678.099 3658
1989.51 682.733 3683
2002.66 684.216 3691
2025.11 688.851 3716
2034 688.851 3716
2065.42 696.451 3757
2088.76 701.271 3783
2136.63 714.247 3853
2145.84 714.247 3853
2165.12 717.584 3871
2199.65 725.925 3916
2219.74 729.448 3935
2229.15 729.448 3935
2243.68 731.116 3944
2258.25 732.784 3953
2273.44 734.638 3963
2282.92 734.638 3963
2292.39 734.638 3963
2307.1 736.306 3972
2316.59 736.306 3972
2326.09 736.306 3972
2335.59 736.306 3972
2345.09 736.306 3972
2354.59 736.306 3972
2364.09 736.306 3972
2384.94 739.828 3991
2394.48 739.828 3991
2410.05 741.682 4001
2425.06 743.351 4010
2446.79 747.058 4030
2468.01 750.58 4049
2483.81 752.434 4059
2493.52 752.434 4059
2503.22 752.434 4059
2519.12 754.288 4069
2528.85 754.288 4069
2538.58 754.288 4069
2548.31 754.288 4069
2558.04 754.288 4069
2567.77 754.288 4069
2577.5 754.288 4069
2587.23 754.288 4069
2584.2 750.58 4049
2593.88 750.58 4049
2603.56 750.58 4049
2600.98 747.058 4030
2597.66 743.351 4010
2582.55 736.306 3972
2579.65 732.784 3953
2589.1 732.784 3953
2592.63 731.116 3944
2596.13 729.448 3935
2592.96 725.925 3916
2602.32 725.925 3916
2587.68 719.252 3880
2566.84 710.91 3835
2576.01 710.91 3835
2585.18 710.91 3835
2576.76 706.09 3809
2574.33 702.939 3792
2531.62 688.851 3716
2534.35 687.182 3707
2543.21 687.182 3707
529.252 136.806 738
531.017 136.806 738
532.782 136.806 738
534.547 136.806 738
534.131 136.25 735
535.16 136.065 734
536.915 136.065 734
537.203 135.694 732
538.953 135.694 732
538.487 135.138 729
540.231 135.138 729
540.487 134.767 727
541.48 134.582 726
543.216 134.582 726
545.703 134.767 727
547.441 134.767 727
549.18 134.767 727
550.918 134.767 727
551.896 134.582 726
553.632 134.582 726
555.368 134.582 726
-2348 588.846 3136
-2340.5 588.846 3136
-2333 588.846 3136
-2316.6 586.593 3124
-2309.13 586.593 3124
-2301.66 586.593 3124
-2294.19 586.593 3124
-2282.33 585.466 3118
-2266.85 583.401 3107
-2259.42 583.401 3107
-2251.99 583.401 3107
-2261.18 587.719 3130
-2275.29 593.352 3160
-2284.96 597.859 3184
-2277.34 597.859 3184
-2269.73 597.859 3184
-2301.19 608.186 3239
-2311.86 613.068 3265
-2304.05 613.068 3265
-2394.7 639.356 3405
-2446.14 655.316 3490
-2437.79 655.316 3490
-2465.64 665.08 3542
-2521.69 682.543 3635
-2523.37 685.359 3650
-2514.64 685.359 3650
-2505.91 685.359 3650
-2508.81 688.552 3667
-2505.5 690.054 3675
-2496.71 690.054 3675
-2487.92 690.054 3675
-2467.67 686.862 3658
-2458.92 686.862 3658
-2444.81 685.359 3650
-2426.07 682.543 3635
-2427.36 685.359 3650
-2435.19 690.054 3675
-2426.41 690.054 3675
-2422.88 691.556 3683
-2414.07 691.556 3683
-2405.27 691.556 3683
-2396.46 691.556 3683
-2387.65 691.556 3683
-2378.84 691.556 3683
-2370.04 691.556 3683
-2361.23 691.556 3683
-2342.2 688.552 3667
-2327.71 686.862 3658
-2318.96 686.862 3658
-2300.11 683.857 3642
-2276.93 679.539 3619
-2268.27 679.539 3619
-2259.62 679.539 3619
-2250.97 679.539 3619
-2237.35 678.036 3611
-2233.66 679.539 3619
-2225 679.539 3619
-2216.35 679.539 3619
-2207.69 679.539 3619
-2135.86 710.333 3783
-2126.81 710.333 3783
-2117.77 710.333 3783
-2108.72 710.333 3783
-2099.67 710.333 3783
-2066.86 702.259 3740
-2030.96 693.058 3691
-1999.67 685.359 3650
-1990.94 685.359 3650
-1977.87 683.857 3642
-1977.81 686.862 3658
-1973.91 688.552 3667
-2009.08 703.949 3749
-2000.12 703.949 3749
-1991.15 703.949 3749
-1982.19 703.949 3749
-1973.22 703.949 3749
-1955.35 700.757 3732
-1946.43 700.757 3732
-1990.98 720.097 3835
-1995.76 725.167 3862
-1986.52 725.167 3862
-2004.94 735.306 3916
-1995.57 735.306 3916
-1986.21 735.306 3916
-1976.84 735.306 3916
-1727.01 702.259 3740
-1749.77 715.215 3809
-1740.66 715.215 3809
-1731.55 715.215 3809
-1718.37 713.525 3800
-1709.28 713.525 3800
-1696.62 712.023 3792
-1687.55 712.023 3792
-1678.48 712.023 3792
-1669.41 712.023 3792
-1663.85 713.525 3800
-1654.76 713.525 3800
-1649.57 715.215 3809
-1644.34 716.905 3818
-1635.21 716.905 3818
-1626.08 716.905 3818
-1616.95 716.905 3818
-1596.87 712.023 3792
-1587.8 712.023 3792
-1571.24 708.643 3774
-1562.22 708.643 3774
-1553.19 708.643 3774
-1544.17 708.643 3774
-1528.23 705.451 3757
-1502.66 697.752 3716
-1483.73 693.058 3691
-1474.9 693.058 3691
-664.58 332.165 1769
-660.35 332.165 1769
-657.603 332.916 1773
-655.575 334.042 1779
-651.32 334.042 1779
-647.066 334.042 1779
-640.644 332.916 1773
-632.456 330.85 1762
-628.243 330.85 1762
-621.196 329.348 1754
-614.539 328.034 1747
-609.663 327.658 1745
-604.796 327.283 1743
-600.628 327.283 1743
-595.433 326.719 1740
-588.554 325.217 1732
-583.4 324.654 1729
-579.265 324.654 1729
-573.135 323.527 1723
-568.024 322.964 1720
-563.911 322.964 1720
-559.798 322.964 1720
-554.393 322.213 1716
-549.327 321.65 1713
-543.639 320.711 1708
-539.555 320.711 1708
-534.217 319.96 1704
-529.52 319.584 1702
-525.141 319.396 1701
-521.073 319.396 1701
-516.398 319.021 1699
-512.335 319.021 1699
-507.674 318.645 1697
-503.616 318.645 1697
-498.969 318.27 1695
-494.916 318.27 1695
-490.862 318.27 1695
-486.809 318.27 1695
-482.471 318.082 1694
-477.855 317.706 1692
-473.809 317.706 1692
-469.208 317.331 1690
-465.167 317.331 1690
-461.125 317.331 1690
-457.084 317.331 1690
-453.043 317.331 1690
-449.001 317.331 1690
-444.96 317.331 1690
-440.919 317.331 1690
-436.619 317.143 1689
-432.58 317.143 1689
-428.541 317.143 1689
-424 316.768 1687
-419.468 316.392 1685
-415.438 316.392 1685
-411.409 316.392 1685
-407.38 316.392 1685
-403.35 316.392 1685
-399.795 316.768 1687
-395.761 316.768 1687
-392.191 317.143 1689
-388.152 317.143 1689
-384.795 317.706 1692
-380.749 317.706 1692
-377.149 318.082 1694
-373.098 318.082 1694
-369.047 318.082 1694
-364.996 318.082 1694
-360.945 318.082 1694
-356.894 318.082 1694
-353.468 318.645 1697
-349.41 318.645 1697
-345.759 319.021 1699
-341.696 319.021 1699
-338.23 319.584 1702
-334.16 319.584 1702
-330.478 319.96 1704
-326.403 319.96 1704
-322.328 319.96 1704
-318.253 319.96 1704
-314.178 319.96 1704
-310.104 319.96 1704
-306.388 320.335 1706
-302.308 320.335 1706
-298.229 320.335 1706
-294.149 320.335 1706
-290.41 320.711 1708
-286.326 320.711 1708
-282.241 320.711 1708
-278.32 320.898 1709
-274.554 321.274 1711
-270.778 321.65 1713
-266.682 321.65 1713
-262.586 321.65 1713
-258.49 321.65 1713
-254.69 322.025 1715
-250.589 322.025 1715
-246.488 322.025 1715
-242.104 321.65 1713
-238.286 322.025 1715
-234.185 322.025 1715
-230.084 322.025 1715
-226.114 322.213 1716
-222.011 322.213 1716
-217.908 322.213 1716
-214.053 322.588 1718
-210.189 322.964 1720
-206.076 322.964 1720
-201.963 322.964 1720
-197.85 322.964 1720
-193.737 322.964 1720
-189.624 322.964 1720
-185.511 322.964 1720
-181.609 323.339 1722
-177.8 323.903 1725
-174.078 324.654 1729
-169.944 324.654 1729
-166.001 325.029 1731
-161.955 325.217 1732
-157.995 325.593 1734
-154.647 327.283 1743
-150.479 327.283 1743
-146.311 327.283 1743
-142.143 327.283 1743
-138.134 327.658 1745
-133.961 327.658 1745
-129.788 327.658 1745
-125.759 328.034 1747
-121.721 328.409 1749
-117.538 328.409 1749
-113.939 330.099 1758
-110.297 331.789 1767
-106.552 333.291 1775
-102.307 333.291 1775
-98.56 334.981 1784
-94.5053 335.732 1788
-90.6334 337.234 1796
-86.3386 337.234 1796
-82.1352 337.61 1798
-77.8356 337.61 1798
-73.5361 337.61 1798
-84.0695 725.167 3862
-74.8343 725.167 3862
-65.5991 725.167 3862
-55.9698 720.097 3835
-46.3721 713.525 3800
-37.03 708.643 3774
-28.072 710.333 3783
-19.0257 710.333 3783
-9.97942 710.333 3783
-0.924734 703.949 3749
8.04026 703.949 3749
16.8919 699.254 3724
25.7971 699.254 3724
34.9352 703.949 3749
43.9002 703.949 3749
52.8652 703.949 3749
61.5499 700.757 3732
70.3231 699.254 3724
78.8667 696.062 3707
87.7312 696.062 3707
96.5958 696.062 3707
105.005 693.058 3691
113.585 691.556 3683
122.392 691.556 3683
131.199 691.556 3683
139.702 690.054 3675
148.813 691.556 3683
157.621 691.556 3683
166.428 691.556 3683
175.235 691.556 3683
184.042 691.556 3683
192.849 691.556 3683
201.656 691.556 3683
210.006 690.054 3675
218.794 690.054 3675
228.078 691.556 3683
236.885 691.556 3683
245.692 691.556 3683
254.499 691.556 3683
262.163 688.552 3667
270.932 688.552 3667
279.701 688.552 3667
288.469 688.552 3667
297.238 688.552 3667
306.007 688.552 3667
314.004 686.862 3658
322.045 685.359 3650
330.773 685.359 3650
339.502 685.359 3650
347.467 683.857 3642
356.176 683.857 3642
363.382 681.041 3627
372.055 681.041 3627
378.209 676.534 3603
384.356 672.216 3580
388.746 665.08 3542
397.216 665.08 3542
402.25 659.447 3512
409.83 658.133 3505
416.422 655.316 3490
423.063 652.688 3476
431.375 652.688 3476
437.79 649.871 3461
443.36 645.928 3440
449.748 643.299 3426
457.941 643.299 3426
463.276 639.356 3405
469.48 636.727 3391
475.617 634.098 3377
483.693 634.098 3377
487.836 629.029 3350
495.847 629.029 3350
505.813 631.47 3363
514.925 632.784 3370
526.243 636.727 3391
535.455 638.042 3398
545.82 640.67 3412
557.389 644.613 3433
567.904 647.242 3447
576.147 647.242 3447
584.39 647.242 3447
597.619 652.688 3476
605.931 652.688 3476
614.243 652.688 3476
625.063 655.316 3490
633.408 655.316 3490
641.754 655.316 3490
650.1 655.316 3490
658.445 655.316 3490
665.454 654.002 3483
673.782 654.002 3483
682.111 654.002 3483
690.44 654.002 3483
697.365 652.688 3476
705.677 652.688 3476
713.989 652.688 3476
722.301 652.688 3476
730.614 652.688 3476
738.926 652.688 3476
747.238 652.688 3476
753.811 651.185 3468
760.566 649.871 3461
768.842 649.871 3461
773.975 647.242 3447
782.218 647.242 3447
788.855 645.928 3440
797.081 645.928 3440
805.308 645.928 3440
813.534 645.928 3440
825.104 648.557 3454
835.053 649.871 3461
845.035 651.185 3468
853.328 651.185 3468
863.608 652.688 3476
877.188 656.631 3497
885.55 656.631 3497
893.913 656.631 3497
908.21 660.949 3520
922.356 665.08 3542
934.768 667.897 3557
943.274 667.897 3557
955.793 670.713 3572
970.544 675.032 3595
983.499 678.036 3611
992.134 678.036 3611
1005.2 681.041 3627
1022.54 686.862 3658
1031.29 686.862 3658
1040.04 686.862 3658
1051.36 688.552 3667
1062.45 690.054 3675
1071.23 690.054 3675
1080.02 690.054 3675
1088.81 690.054 3675
1097.6 690.054 3675
1108.79 691.556 3683
1120.03 693.058 3691
1128.86 693.058 3691
1137.68 693.058 3691
1146.51 693.058 3691
1155.33 693.058 3691
1161.64 691.556 3683
1170.45 691.556 3683
1176.69 690.054 3675
1188.06 691.556 3683
1196.87 691.556 3683
1205.67 691.556 3683
1214.48 691.556 3683
1223.29 691.556 3683
1229.42 690.054 3675
1235.51 688.552 3667
1244.28 688.552 3667
1253.05 688.552 3667
1258.72 686.862 3658
1264.7 685.359 3650
1270.63 683.857 3642
1279.34 683.857 3642
1288.05 683.857 3642
1296.76 683.857 3642
1302.96 682.543 3635
1311.65 682.543 3635
1320.35 682.543 3635
1329.04 682.543 3635
1337.73 682.543 3635
1346.42 682.543 3635
1355.12 682.543 3635
1363.81 682.543 3635
1369.48 681.041 3627
1378.15 681.041 3627
1386.83 681.041 3627
1395.5 681.041 3627
1401.08 679.539 3619
1412.85 681.041 3627
1424.65 682.543 3635
1433.35 682.543 3635
1444.82 683.857 3642
1456.72 685.359 3650
1465.45 685.359 3650
1474.18 685.359 3650
1482.9 685.359 3650
1494.9 686.862 3658
1503.65 686.862 3658
1512.4 686.862 3658
1521.14 686.862 3658
1529.89 686.862 3658
1538.64 686.862 3658
1547.39 686.862 3658
1556.13 686.862 3658
1561.46 685.359 3650
1570.19 685.359 3650
1582.37 686.862 3658
1591.12 686.862 3658
1610.8 691.556 3683
1619.61 691.556 3683
1631.96 693.058 3691
1640.78 693.058 3691
1656.76 696.062 3707
1669.67 697.752 3716
1689.39 702.259 3740
1698.34 702.259 3740
1707.28 702.259 3740
1735.96 710.333 3783
1745 710.333 3783
1754.05 710.333 3783
1763.1 710.333 3783
1772.14 710.333 3783
1789.19 713.525 3800
1819.1 721.787 3844
1828.29 721.787 3844
1846.09 725.167 3862
1855.33 725.167 3862
1864.56 725.167 3862
1869.43 723.477 3853
1865.48 718.407 3826
1861.89 713.525 3800
1870.97 713.525 3800
1854.83 703.949 3749
1838.94 694.56 3699
1831.8 688.552 3667
1824.5 682.543 3635
1833.2 682.543 3635
1818.07 673.718 3588
1822.58 672.216 3580
1823.47 669.399 3565
1835.59 670.713 3572
1844.13 670.713 3572
1860.97 673.718 3588
1877.37 676.534 3603
1890.17 678.036 3611
1898.81 678.036 3611
1907.44 678.036 3611
1920.32 679.539 3619
1945.5 685.359 3650
1954.23 685.359 3650
1967.26 686.862 3658
1993.83 693.058 3691
2011.34 696.062 3707
2038.19 702.259 3740
2047.13 702.259 3740
2061.02 703.949 3749
2088.76 710.333 3783
2136.63 723.477 3853
2145.84 723.477 3853
2165.12 726.857 3871
2194.6 733.616 3907
2214.1 736.996 3925
2223.48 736.996 3925
2238.56 738.874 3935
2258.25 742.254 3953
2273.44 744.131 3963
2282.92 744.131 3963
2292.39 744.131 3963
2307.1 745.821 3972
2316.59 745.821 3972
2326.09 745.821 3972
2335.59 745.821 3972
2345.09 745.821 3972
2354.59 745.821 3972
2364.09 745.821 3972
2384.94 749.389 3991
2394.48 749.389 3991
2421.49 754.834 4020
2431.11 754.834 4020
2452.26 758.402 4039
2474.11 762.157 4059
2483.81 762.157 4059
2499.66 764.035 4069
2509.39 764.035 4069
2519.12 764.035 4069
2535.07 765.913 4079
2544.82 765.913 4079
2554.57 765.913 4079
2564.33 765.913 4079
2580.39 767.79 4089
2590.17 767.79 4089
2599.95 767.79 4089
2609.73 767.79 4089
2613.1 765.913 4079
2622.85 765.913 4079
2613.25 760.28 4049
2622.93 760.28 4049
2620.26 756.712 4030
2629.89 756.712 4030
2626.43 752.957 4010
2611.04 745.821 3972
2620.54 745.821 3972
2624.08 744.131 3963
2633.55 744.131 3963
2624.36 738.874 3935
2615.03 733.616 3907
2606.23 728.547 3880
2615.51 728.547 3880
2618.7 726.857 3871
2585.87 715.215 3809
2559.55 705.451 3757
2545.97 699.254 3724
2554.88 699.254 3724
529.252 138.574 738
531.017 138.574 738
532.782 138.574 738
534.547 138.574 738
534.131 138.011 735
535.16 137.823 734
536.915 137.823 734
537.203 137.447 732
538.953 137.447 732
537.749 136.696 728
539.49 136.696 728
539.744 136.321 726
540.734 136.133 725
542.468 136.133 725
544.201 136.133 725
545.935 136.133 725
547.669 136.133 725
549.402 136.133 725
551.136 136.133 725
552.87 136.133 725
554.604 136.133 725
-2343.51 595.217 3130
-2336.02 595.217 3130
-2319.61 592.935 3118
-2312.15 592.935 3118
-2304.7 592.935 3118
-2297.24 592.935 3118
-2289.79 592.935 3118
-2282.33 592.935 3118
-2266.85 590.843 3107
-2259.42 590.843 3107
-2251.99 590.843 3107
-2261.18 595.217 3130
-2275.29 600.922 3160
-2284.96 605.486 3184
-2277.34 605.486 3184
-2278.28 607.768 3196
-2301.19 615.945 3239
-2372.04 637.054 3350
-2364.03 637.054 3350
-2394.7 647.513 3405
-2446.14 663.677 3490
-2437.79 663.677 3490
-2465.64 673.565 3542
-2499.49 685.165 3603
-2513 691.251 3635
-2504.3 691.251 3635
-2505.91 694.103 3650
-2502.65 695.624 3658
-2500.04 697.336 3667
-2491.27 697.336 3667
-2482.51 697.336 3667
-2467.67 695.624 3658
-2458.92 695.624 3658
-2444.81 694.103 3650
-2426.07 691.251 3635
-2427.36 694.103 3650
-2435.19 698.857 3675
-2426.41 698.857 3675
-2422.88 700.379 3683
-2414.07 700.379 3683
-2405.27 700.379 3683
-2396.46 700.379 3683
-2387.65 700.379 3683
-2384.01 701.9 3691
-2375.19 701.9 3691
-2366.36 701.9 3691
-2352.42 700.379 3683
-2333.43 697.336 3667
-2324.67 697.336 3667
-2305.16 694.103 3650
-2291.4 692.582 3642
-2282.69 692.582 3642
-2273.98 692.582 3642
-2265.27 692.582 3642
-2256.56 692.582 3642
-2247.85 692.582 3642
-2239.14 692.582 3642
-2230.43 692.582 3642
-2217.46 691.251 3635
-2135.86 719.395 3783
-2126.81 719.395 3783
-2117.77 719.395 3783
-2084.75 711.218 3740
-2075.81 711.218 3740
-2039.79 701.9 3691
-2008.4 694.103 3650
-1999.67 694.103 3650
-1990.94 694.103 3650
-1977.87 692.582 3642
-1977.81 695.624 3658
-1973.91 697.336 3667
-2009.08 712.929 3749
-2000.12 712.929 3749
-1991.15 712.929 3749
-1982.19 712.929 3749
-1973.22 712.929 3749
-1955.35 709.697 3732
-1946.43 709.697 3732
-1990.98 729.284 3835
-1995.76 734.418 3862
-1986.52 734.418 3862
-2004.94 744.687 3916
-2005.25 748.3 3935
-1995.84 748.3 3935
-1986.43 748.3 3935
-1709.5 700.379 3683
-1727.01 711.218 3740
-1718.07 711.218 3740
-1709.13 711.218 3740
-1715.64 717.684 3774
-1706.61 717.684 3774
-1697.59 717.684 3774
-1688.56 717.684 3774
-1679.54 717.684 3774
-1666.97 716.162 3766
-1657.97 716.162 3766
-1652.47 717.684 3774
-1643.44 717.684 3774
-1645.68 722.628 3800
-1636.59 722.628 3800
-1627.5 722.628 3800
-1618.41 722.628 3800
-1609.33 722.628 3800
-1582.13 714.451 3757
-1573.15 714.451 3757
-1564.16 714.451 3757
-1551.87 712.929 3749
-1539.2 711.218 3740
-1530.26 711.218 3740
-1514.8 708.175 3724
-1499.03 704.943 3707
-1470.46 695.624 3658
-1461.72 695.624 3658
-1449.79 694.103 3650
-664.58 336.402 1769
-660.35 336.402 1769
-656.12 336.402 1769
-651.889 336.402 1769
-647.659 336.402 1769
-643.429 336.402 1769
-639.199 336.402 1769
-630.302 333.93 1756
-626.103 333.93 1756
-620.133 332.979 1751
-614.539 332.219 1747
-609.663 331.838 1745
-604.796 331.458 1743
-600.628 331.458 1743
-595.433 330.887 1740
-588.554 329.366 1732
-583.4 328.796 1729
-579.265 328.796 1729
-573.135 327.655 1723
-568.024 327.084 1720
-563.911 327.084 1720
-559.798 327.084 1720
-554.393 326.324 1716
-549.327 325.753 1713
-543.639 324.802 1708
-539.555 324.802 1708
-534.844 324.422 1706
-530.142 324.042 1704
-525.45 323.661 1702
-521.38 323.661 1702
-517.006 323.471 1701
-512.938 323.471 1701
-508.272 323.091 1699
-504.209 323.091 1699
-499.558 322.71 1697
-494.916 322.33 1695
-490.862 322.33 1695
-486.809 322.33 1695
-482.756 322.33 1695
-478.703 322.33 1695
-474.649 322.33 1695
-469.763 321.76 1692
-465.717 321.76 1692
-461.671 321.76 1692
-457.625 321.76 1692
-454.383 322.33 1695
-450.33 322.33 1695
-446.277 322.33 1695
-442.223 322.33 1695
-438.17 322.33 1695
-434.117 322.33 1695
-430.064 322.33 1695
-425.256 321.76 1692
-421.21 321.76 1692
-417.164 321.76 1692
-413.118 321.76 1692
-409.072 321.76 1692
-405.026 321.76 1692
-401.454 322.14 1694
-397.403 322.14 1694
-393.584 322.33 1695
-389.531 322.33 1695
-385.933 322.71 1697
-381.874 322.71 1697
-377.816 322.71 1697
-374.199 323.091 1699
-370.136 323.091 1699
-366.073 323.091 1699
-361.584 322.71 1697
-357.526 322.71 1697
-353.885 323.091 1699
-349.822 323.091 1699
-346.37 323.661 1702
-342.702 324.042 1704
-338.627 324.042 1704
-334.552 324.042 1704
-330.478 324.042 1704
-326.786 324.422 1706
-322.706 324.422 1706
-318.627 324.422 1706
-314.547 324.422 1706
-310.832 324.802 1708
-306.747 324.802 1708
-302.663 324.802 1708
-298.579 324.802 1708
-294.494 324.802 1708
-290.58 324.992 1709
-286.493 324.992 1709
-282.406 324.992 1709
-278.971 325.753 1713
-274.875 325.753 1713
-270.778 325.753 1713
-266.682 325.753 1713
-262.586 325.753 1713
-258.791 326.133 1715
-254.69 326.133 1715
-250.589 326.133 1715
-246.488 326.133 1715
-242.387 326.133 1715
-238.286 326.133 1715
-234.185 326.133 1715
-230.486 326.704 1718
-226.378 326.704 1718
-222.528 327.084 1720
-218.415 327.084 1720
-214.302 327.084 1720
-210.189 327.084 1720
-206.076 327.084 1720
-201.963 327.084 1720
-197.85 327.084 1720
-193.962 327.465 1722
-189.845 327.465 1722
-185.727 327.465 1722
-181.714 327.655 1723
-178.007 328.415 1727
-174.078 328.796 1729
-169.944 328.796 1729
-166.097 329.366 1732
-162.142 329.746 1734
-158.36 330.507 1738
-154.647 331.458 1743
-150.479 331.458 1743
-146.311 331.458 1743
-142.143 331.458 1743
-138.134 331.838 1745
-133.961 331.838 1745
-129.788 331.838 1745
-125.759 332.219 1747
-121.721 332.599 1749
-117.538 332.599 1749
-113.939 334.31 1758
-110.297 336.022 1767
-106.552 337.543 1775
-102.307 337.543 1775
-98.56 339.255 1784
-94.5053 340.015 1788
-90.6334 341.537 1796
-86.3386 341.537 1796
-82.1352 341.917 1798
-77.8356 341.917 1798
-73.5361 341.917 1798
-84.0695 734.418 3862
-74.8343 734.418 3862
-65.5991 734.418 3862
-55.9698 729.284 3835
-46.3721 722.628 3800
-37.03 717.684 3774
-28.072 719.395 3783
-19.0257 719.395 3783
-9.97942 719.395 3783
-0.924734 712.929 3749
8.04026 712.929 3749
16.8919 708.175 3724
25.7971 708.175 3724
34.7023 708.175 3724
43.4084 704.943 3707
52.273 704.943 3707
60.6098 698.857 3675
69.3978 698.857 3675
78.1859 698.857 3675
86.9739 698.857 3675
95.7619 698.857 3675
104.322 697.336 3667
112.814 695.624 3658
121.561 695.624 3658
130.309 695.624 3658
139.056 695.624 3658
148.49 698.857 3675
157.278 698.857 3675
166.066 698.857 3675
174.854 698.857 3675
182.793 695.624 3658
191.54 695.624 3658
200.288 695.624 3658
209.549 697.336 3667
218.318 697.336 3667
227.087 697.336 3667
235.856 697.336 3667
244.625 697.336 3667
253.394 697.336 3667
261.519 695.624 3658
270.267 695.624 3658
279.014 695.624 3658
287.761 695.624 3658
296.509 695.624 3658
305.256 695.624 3658
313.317 694.103 3650
321.339 692.582 3642
330.048 692.582 3642
338.758 692.582 3642
346.799 691.251 3635
354.709 689.729 3627
362.581 688.208 3619
371.235 688.208 3619
377.37 683.644 3595
383.497 679.27 3572
387.868 672.044 3534
396.319 672.044 3534
402.25 667.86 3512
409.83 666.529 3505
416.422 663.677 3490
423.063 661.014 3476
431.375 661.014 3476
437.79 658.162 3461
443.36 654.168 3440
449.748 651.506 3426
457.941 651.506 3426
463.276 647.513 3405
469.48 644.85 3391
475.617 642.188 3377
483.693 642.188 3377
487.836 637.054 3350
495.847 637.054 3350
504.911 638.385 3357
514.925 640.857 3370
526.243 644.85 3391
534.352 644.85 3391
545.82 648.844 3412
556.252 651.506 3426
565.598 652.837 3433
573.807 652.837 3433
583.203 654.168 3440
592.633 655.5 3447
602.096 656.831 3454
610.356 656.831 3454
622.555 661.014 3476
630.867 661.014 3476
639.18 661.014 3476
646.002 659.493 3468
654.295 659.493 3468
661.25 658.162 3461
669.527 658.162 3461
676.432 656.831 3454
684.692 656.831 3454
692.951 656.831 3454
701.211 656.831 3454
709.47 656.831 3454
717.73 656.831 3454
727.461 658.162 3461
735.737 658.162 3461
744.013 658.162 3461
749.247 655.5 3447
755.951 654.168 3440
764.177 654.168 3440
770.831 652.837 3433
779.041 652.837 3433
785.645 651.506 3426
793.838 651.506 3426
803.669 652.837 3433
811.878 652.837 3433
820.088 652.837 3433
829.986 654.168 3440
838.212 654.168 3440
846.438 654.168 3440
854.664 654.168 3440
869.914 659.493 3468
878.207 659.493 3468
886.5 659.493 3468
900.469 663.677 3490
914.544 667.86 3512
926.884 670.713 3527
935.318 670.713 3527
949.639 674.896 3549
962.445 677.939 3565
979.141 683.644 3595
987.738 683.644 3595
1000.77 686.687 3611
1011.64 688.208 3619
1022.55 689.729 3627
1031.22 689.729 3627
1044.2 692.582 3642
1060.13 697.336 3667
1068.9 697.336 3667
1077.67 697.336 3667
1086.44 697.336 3667
1097.6 698.857 3675
1106.39 698.857 3675
1117.6 700.379 3683
1126.41 700.379 3683
1135.22 700.379 3683
1144.02 700.379 3683
1152.83 700.379 3683
1161.64 700.379 3683
1167.9 698.857 3675
1176.69 698.857 3675
1185.48 698.857 3675
1194.27 698.857 3675
1203.05 698.857 3675
1211.84 698.857 3675
1220.63 698.857 3675
1226.74 697.336 3667
1235.51 697.336 3667
1241.23 695.624 3658
1249.97 695.624 3658
1255.97 694.103 3650
1264.7 694.103 3650
1270.63 692.582 3642
1279.34 692.582 3642
1288.05 692.582 3642
1296.76 692.582 3642
1302.96 691.251 3635
1308.77 689.729 3627
1317.44 689.729 3627
1326.11 689.729 3627
1334.79 689.729 3627
1343.46 689.729 3627
1352.13 689.729 3627
1360.81 689.729 3627
1369.48 689.729 3627
1378.15 689.729 3627
1386.83 689.729 3627
1395.5 689.729 3627
1401.08 688.208 3619
1412.85 689.729 3627
1421.52 689.729 3627
1430.19 689.729 3627
1442.04 691.251 3635
1453.53 692.582 3642
1462.23 692.582 3642
1470.94 692.582 3642
1479.65 692.582 3642
1491.63 694.103 3650
1500.36 694.103 3650
1509.09 694.103 3650
1517.82 694.103 3650
1526.54 694.103 3650
1535.27 694.103 3650
1544 694.103 3650
1552.73 694.103 3650
1561.46 694.103 3650
1570.19 694.103 3650
1578.91 694.103 3650
1587.64 694.103 3650
1603.81 697.336 3667
1616.09 698.857 3675
1628.42 700.379 3683
1637.22 700.379 3683
1653.18 703.421 3699
1665.62 704.943 3707
1685.78 709.697 3732
1698.34 711.218 3740
1707.28 711.218 3740
1735.96 719.395 3783
1745 719.395 3783
1754.05 719.395 3783
1763.1 719.395 3783
1772.14 719.395 3783
1797.67 726.051 3818
1823.36 732.707 3853
1832.57 732.707 3853
1850.39 736.13 3871
1859.65 736.13 3871
1868.91 736.13 3871
1873.8 734.418 3862
1865.48 727.572 3826
1861.89 722.628 3800
1870.97 722.628 3800
1854.83 712.929 3749
1838.94 703.421 3699
1831.8 697.336 3667
1824.5 691.251 3635
1833.2 691.251 3635
1829.73 686.687 3611
1822.58 680.792 3580
1831.14 680.792 3580
1839.7 680.792 3580
1848.26 680.792 3580
1868.75 685.165 3603
1877.37 685.165 3603
1890.17 686.687 3611
1898.81 686.687 3611
1907.44 686.687 3611
1920.32 688.208 3619
1945.5 694.103 3650
1954.23 694.103 3650
1967.26 695.624 3658
1993.83 701.9 3691
2011.34 704.943 3707
2038.19 711.218 3740
2047.13 711.218 3740
2061.02 712.929 3749
2088.76 719.395 3783
2136.63 732.707 3853
2145.84 732.707 3853
2165.12 736.13 3871
2194.6 742.976 3907
2214.1 746.398 3925
2223.48 746.398 3925
2238.56 748.3 3935
2258.25 751.723 3953
2273.44 753.625 3963
2282.92 753.625 3963
2292.39 753.625 3963
2307.1 755.336 3972
2316.59 755.336 3972
2326.09 755.336 3972
2335.59 755.336 3972
2345.09 755.336 3972
2354.59 755.336 3972
2364.09 755.336 3972
2384.94 758.949 3991
2400.48 760.851 4001
2421.49 764.464 4020
2431.11 764.464 4020
2458.33 769.979 4049
2474.11 771.881 4059
2489.93 773.782 4069
2505.8 775.684 4079
2515.56 775.684 4079
2525.31 775.684 4079
2535.07 775.684 4079
2544.82 775.684 4079
2554.57 775.684 4079
2564.33 775.684 4079
2580.39 777.586 4089
2590.17 777.586 4089
2599.95 777.586 4089
2609.73 777.586 4089
2613.1 775.684 4079
2622.85 775.684 4079
2626.15 773.782 4069
2622.93 769.979 4049
2632.61 769.979 4049
2642.29 769.979 4049
2639.53 766.366 4030
2636.02 762.563 4010
2639.67 760.851 4001
2636.66 757.238 3982
2646.18 757.238 3982
2649.03 755.336 3972
2639.79 750.012 3944
2649.22 750.012 3944
2658.65 750.012 3944
2662 748.3 3935
2634.07 737.841 3880
2571.13 717.684 3774
2545.97 708.175 3724
2554.88 708.175 3724
529.252 140.342 738
531.017 140.342 738
532.782 140.342 738
534.547 140.342 738
534.131 139.771 735
535.16 139.581 734
536.915 139.581 734
537.203 139.201 732
538.953 139.201 732
537.749 138.44 728
539.49 138.44 728
539.744 138.06 726
540.734 137.87 725
542.468 137.87 725
544.201 137.87 725
545.935 137.87 725
547.669 137.87 725
549.402 137.87 725
551.136 137.87 725
552.87 137.87 725
554.604 137.87 725
-2343.51 602.715 3130
-2336.02 602.715 3130
-2319.61 600.404 3118
-2312.15 600.404 3118
-2304.7 600.404 3118
-2297.24 600.404 3118
-2289.79 600.404 3118
-2282.33 600.404 3118
-2266.85 598.286 3107
-2259.42 598.286 3107
-2251.99 598.286 3107
-2261.18 602.715 3130
-2279.61 609.647 3166
-2289.26 614.269 3190
-2281.64 614.269 3190
-2278.28 615.424 3196
-2301.19 623.704 3239
-2372.04 645.078 3350
-2364.03 645.078 3350
-2394.7 655.669 3405
-2446.14 672.037 3490
-2437.79 672.037 3490
-2465.64 682.05 3542
-2499.49 693.796 3603
-2513 699.958 3635
-2504.3 699.958 3635
-2505.91 702.847 3650
-2502.65 704.387 3658
-2500.04 706.12 3667
-2491.27 706.12 3667
-2482.51 706.12 3667
-2467.67 704.387 3658
-2458.92 704.387 3658
-2444.81 702.847 3650
-2426.07 699.958 3635
-2427.36 702.847 3650
-2435.19 707.661 3675
-2426.41 707.661 3675
-2422.88 709.201 3683
-2414.07 709.201 3683
-2405.27 709.201 3683
-2396.46 709.201 3683
-2387.65 709.201 3683
-2389.18 712.282 3699
-2380.33 712.282 3699
-2371.49 712.282 3699
-2362.64 712.282 3699
-2343.62 709.201 3683
-2334.81 709.201 3683
-2315.9 706.12 3667
-2301.47 704.387 3658
-2292.72 704.387 3658
-2283.97 704.387 3658
-2275.22 704.387 3658
-2266.48 704.387 3658
-2263.28 706.12 3667
-2254.51 706.12 3667
-2245.75 706.12 3667
-2231.49 704.387 3658
-2130.78 726.724 3774
-2121.75 726.724 3774
-2112.73 726.724 3774
-2052.98 709.201 3683
-2044.17 709.201 3683
-2017.13 702.847 3650
-2008.4 702.847 3650
-1999.67 702.847 3650
-1990.94 702.847 3650
-1974.07 699.958 3635
-1965.38 699.958 3635
-1973.91 706.12 3667
-1982.29 712.282 3699
-1973.44 712.282 3699
-1991.15 721.91 3749
-1982.19 721.91 3749
-1973.22 721.91 3749
-1955.35 718.637 3732
-1946.43 718.637 3732
-1977.48 733.464 3809
-1986.46 740.203 3844
-1977.26 740.203 3844
-1991.11 748.869 3889
-2005.25 757.727 3935
-1995.84 757.727 3935
-1986.43 757.727 3935
-1738.37 713.823 3707
-1729.5 713.823 3707
-1720.64 713.823 3707
-1704.39 710.742 3691
-1695.56 710.742 3691
-1690.39 712.282 3699
-1681.54 712.282 3699
-1672.7 712.282 3699
-1663.85 712.282 3699
-1669.77 718.637 3732
-1660.85 718.637 3732
-1659.45 721.91 3749
-1650.48 721.91 3749
-1648.96 725.184 3766
-1639.96 725.184 3766
-1634.42 726.724 3774
-1625.39 726.724 3774
-1616.37 726.724 3774
-1607.34 726.724 3774
-1594.93 725.184 3766
-1582.13 723.451 3757
-1573.15 723.451 3757
-1560.83 721.91 3749
-1548.14 720.177 3740
-1532.62 717.096 3724
-1523.71 717.096 3724
-1511.55 715.556 3716
-1495.79 712.282 3699
-1470.46 704.387 3658
-1461.72 704.387 3658
-1449.79 702.847 3650
-1435.14 699.958 3635
-663.829 340.255 1767
-659.603 340.255 1767
-655.378 340.255 1767
-651.889 340.64 1769
-647.659 340.64 1769
-643.429 340.64 1769
-639.199 340.64 1769
-629.584 337.752 1754
-625.39 337.752 1754
-620.133 337.174 1751
-614.539 336.404 1747
-609.663 336.018 1745
-604.796 335.633 1743
-600.628 335.633 1743
-595.433 335.056 1740
-588.554 333.515 1732
-583.4 332.938 1729
-579.265 332.938 1729
-573.135 331.782 1723
-568.024 331.204 1720
-563.911 331.204 1720
-559.798 331.204 1720
-554.393 330.434 1716
-549.327 329.857 1713
-543.958 329.086 1709
-539.871 329.086 1709
-535.471 328.894 1708
-530.764 328.509 1706
-526.067 328.124 1704
-521.992 328.124 1704
-517.917 328.124 1704
-513.24 327.738 1702
-509.17 327.738 1702
-505.1 327.738 1702
-500.735 327.546 1701
-496.084 327.161 1699
-492.021 327.161 1699
-487.958 327.161 1699
-483.895 327.161 1699
-479.832 327.161 1699
-475.769 327.161 1699
-470.596 326.39 1695
-466.543 326.39 1695
-462.49 326.39 1695
-458.977 326.776 1697
-455.992 327.546 1701
-451.924 327.546 1701
-447.856 327.546 1701
-443.789 327.546 1701
-439.721 327.546 1701
-435.653 327.546 1701
-431.078 327.161 1699
-427.016 327.161 1699
-422.953 327.161 1699
-418.89 327.161 1699
-414.827 327.161 1699
-410.764 327.161 1699
-406.701 327.161 1699
-403.113 327.546 1701
-399.045 327.546 1701
-394.977 327.546 1701
-390.91 327.546 1701
-386.842 327.546 1701
-382.775 327.546 1701
-378.707 327.546 1701
-374.86 327.738 1702
-370.79 327.738 1702
-366.72 327.738 1702
-362.437 327.546 1701
-358.369 327.546 1701
-354.51 327.738 1702
-350.44 327.738 1702
-346.777 328.124 1704
-343.104 328.509 1706
-339.025 328.509 1706
-334.945 328.509 1706
-330.865 328.509 1706
-327.169 328.894 1708
-323.085 328.894 1708
-319 328.894 1708
-314.916 328.894 1708
-311.014 329.086 1709
-306.927 329.086 1709
-303.194 329.471 1711
-299.103 329.471 1711
-295.011 329.471 1711
-290.92 329.471 1711
-287.164 329.857 1713
-283.067 329.857 1713
-278.971 329.857 1713
-275.196 330.242 1715
-271.095 330.242 1715
-266.994 330.242 1715
-262.892 330.242 1715
-258.791 330.242 1715
-254.839 330.434 1716
-250.735 330.434 1716
-246.632 330.434 1716
-242.528 330.434 1716
-238.703 330.819 1718
-234.595 330.819 1718
-230.486 330.819 1718
-226.642 331.204 1720
-222.787 331.59 1722
-218.669 331.59 1722
-214.552 331.59 1722
-210.434 331.59 1722
-206.316 331.59 1722
-202.198 331.59 1722
-198.08 331.59 1722
-194.075 331.782 1723
-189.955 331.782 1723
-185.835 331.782 1723
-182.136 332.552 1727
-178.419 333.323 1731
-174.38 333.515 1732
-170.238 333.515 1732
-166.288 333.9 1734
-162.516 334.671 1738
-158.542 335.056 1740
-154.647 335.633 1743
-150.479 335.633 1743
-146.479 336.018 1745
-142.306 336.018 1745
-138.134 336.018 1745
-133.961 336.018 1745
-129.788 336.018 1745
-125.903 336.789 1749
-121.721 336.789 1749
-117.538 336.789 1749
-113.939 338.522 1758
-110.422 340.64 1769
-106.672 342.18 1777
-102.423 342.18 1777
-98.56 343.528 1784
-94.5053 344.299 1788
-90.6334 345.839 1796
-86.3386 345.839 1796
-82.1352 346.224 1798
-77.8356 346.224 1798
-73.5361 346.224 1798
-102.54 743.67 3862
-93.3047 743.67 3862
-84.0695 743.67 3862
-74.8343 743.67 3862
-65.5991 743.67 3862
-55.9698 738.47 3835
-46.3721 731.731 3800
-37.03 726.724 3774
-28.0052 726.724 3774
-18.895 723.451 3757
-9.80268 715.556 3716
-0.910428 710.742 3691
7.8451 704.387 3658
16.5925 704.387 3658
25.3399 704.387 3658
34.0873 704.387 3658
42.6473 701.306 3642
51.3564 701.306 3642
59.6862 696.877 3619
68.4914 698.418 3627
77.1647 698.418 3627
85.8379 698.418 3627
94.5112 698.418 3627
102.957 696.877 3619
111.611 696.877 3619
120.265 696.877 3619
128.919 696.877 3619
137.877 698.418 3627
146.874 699.958 3635
155.566 699.958 3635
164.259 699.958 3635
172.951 699.958 3635
181.644 699.958 3635
190.336 699.958 3635
199.028 699.958 3635
207.264 698.418 3627
216.413 699.958 3635
225.105 699.958 3635
233.798 699.958 3635
242.49 699.958 3635
251.183 699.958 3635
259.875 699.958 3635
268.567 699.958 3635
277.26 699.958 3635
285.952 699.958 3635
294.645 699.958 3635
303.337 699.958 3635
312.029 699.958 3635
320.016 698.418 3627
328.689 698.418 3627
337.362 698.418 3627
345.272 696.877 3619
353.926 696.877 3619
360.176 692.256 3595
368.773 692.256 3595
375.795 689.367 3580
382.745 686.479 3565
387.1 679.162 3527
395.534 679.162 3527
402.25 676.273 3512
409.83 674.925 3505
416.422 672.037 3490
423.063 669.341 3476
431.375 669.341 3476
437.79 666.453 3461
443.36 662.409 3440
449.748 659.713 3426
457.941 659.713 3426
463.276 655.669 3405
469.48 652.973 3391
475.617 650.278 3377
483.693 650.278 3377
487.836 645.078 3350
494.811 643.731 3343
504.911 646.426 3357
513.855 647.582 3363
525.156 651.626 3384
533.248 651.626 3384
543.58 654.321 3398
553.979 657.017 3412
564.445 659.713 3426
572.637 659.713 3426
582.017 661.061 3433
590.226 661.061 3433
600.876 663.757 3447
609.119 663.757 3447
618.615 665.105 3454
626.875 665.105 3454
635.134 665.105 3454
643.394 665.105 3454
651.653 665.105 3454
658.576 663.757 3447
666.818 663.757 3447
673.69 662.409 3440
681.916 662.409 3440
690.142 662.409 3440
698.369 662.409 3440
706.595 662.409 3440
713.366 661.061 3433
721.575 661.061 3433
729.785 661.061 3433
737.994 661.061 3433
744.682 659.713 3426
751.336 658.365 3419
759.512 658.365 3419
766.116 657.017 3412
772.687 655.669 3405
780.829 655.669 3405
785.728 652.973 3391
795.475 654.321 3398
803.601 654.321 3398
811.727 654.321 3398
821.541 655.669 3405
833.095 658.365 3419
841.271 658.365 3419
849.447 658.365 3419
861.134 661.061 3433
871.116 662.409 3440
879.342 662.409 3440
894.793 667.801 3468
908.815 672.037 3490
