-1452.98 850.405 3572
-1447.67 852.31 3580
-1445.14 855.881 3595
-1439.74 857.786 3603
-1431.12 857.786 3603
-1425.66 859.69 3611
-1432.33 868.975 3650
-1430.24 873.023 3667
-1421.47 873.023 3667
-1415.78 874.927 3675
-1416.18 880.641 3699
-1416.85 886.593 3724
-1407.94 886.593 3724
-1405.05 890.402 3740
-1396.1 890.402 3740
-1387.16 890.402 3740
-1378.22 890.402 3740
-1366.35 888.497 3732
-1354.51 886.593 3724
-1345.61 886.593 3724
-1333.83 884.688 3716
-1324.94 884.688 3716
-1312.87 882.546 3707
-1304 882.546 3707
-1289.55 878.736 3691
-1272.4 873.023 3667
-1252.6 865.404 3635
-1238.43 861.595 3619
-1229.78 861.595 3619
-1213.03 855.881 3595
-1202.08 854.215 3588
-1188.18 850.405 3572
-1179.64 850.405 3572
-1168.8 848.739 3565
-1157.68 846.834 3557
-1139.48 839.692 3527
-1131.04 839.692 3527
-1122.61 839.692 3527
-1100.28 829.217 3483
-1082.85 822.312 3454
-1074.59 822.312 3454
-502.736 413.299 1736
-498.584 413.299 1736
-494.433 413.299 1736
-489.717 412.823 1734
-485.57 412.823 1734
-481.424 412.823 1734
-477.277 412.823 1734
-473.131 412.823 1734
-468.173 412.109 1731
-464.034 412.109 1731
-457.503 409.966 1722
-451.806 408.537 1716
-447.441 408.299 1715
-441.789 406.871 1709
-437.702 406.871 1709
-432.854 406.157 1706
-427.518 404.966 1701
-422.953 404.49 1699
-418.89 404.49 1699
-414.339 404.014 1697
-409.797 403.538 1695
-404.308 402.109 1689
-400.269 402.109 1689
-395.292 401.157 1685
-390.798 400.681 1683
-385.624 399.491 1678
-381.612 399.491 1678
-377.374 399.252 1677
-372.473 398.3 1673
-367.812 397.586 1670
-363.818 397.586 1670
-359.178 396.872 1667
-353.701 395.205 1660
-348.678 394.015 1655
-344.303 393.539 1653
-340.351 393.539 1653
-336.398 393.539 1653
-332.445 393.539 1653
-329.287 394.491 1657
-325.325 394.491 1657
-321.362 394.491 1657
-317.4 394.491 1657
-313.627 394.729 1658
-310.035 395.205 1660
-306.066 395.205 1660
-302.096 395.205 1660
-298.127 395.205 1660
-294.512 395.681 1662
-290.537 395.681 1662
-286.563 395.681 1662
-282.589 395.681 1662
-279.117 396.396 1665
-275.136 396.396 1665
-271.643 397.11 1668
-268.456 398.3 1673
-265.088 399.252 1677
-261.078 399.252 1677
-257.527 399.967 1680
-253.812 400.443 1682
-249.938 400.681 1683
-245.913 400.681 1683
-242.176 401.157 1685
-238.43 401.633 1687
-234.673 402.109 1689
-230.635 402.109 1689
-226.596 402.109 1689
-222.688 402.347 1690
-218.647 402.347 1690
-214.606 402.347 1690
-210.814 402.824 1692
-207.134 403.538 1695
-203.56 404.49 1699
-199.497 404.49 1699
-195.435 404.49 1699
-191.597 404.966 1701
-187.64 405.204 1702
-183.57 405.204 1702
-179.5 405.204 1702
-175.43 405.204 1702
-320.517 963.967 4049
-310.835 963.967 4049
-301.153 963.967 4049
-286.647 948.016 3982
-276.429 945.635 3972
-266.931 945.635 3972
-256.849 943.493 3963
-247.373 943.493 3963
-237.896 943.493 3963
-228.419 943.493 3963
-218.942 943.493 3963
-209.466 943.493 3963
-199.989 943.493 3963
-190.512 943.493 3963
-180.579 941.112 3953
-170.347 936.827 3935
-160.528 934.446 3925
-150.449 930.161 3907
-141.106 930.161 3907
-129.639 915.162 3844
-118.817 902.782 3792
-109.228 898.497 3774
-100.203 898.497 3774
-89.9707 886.593 3724
-80.5213 880.641 3699
-71.2108 874.927 3675
-62.4228 874.927 3675
-53.1531 867.071 3642
-44.1633 861.595 3619
-35.3522 857.786 3603
-26.5656 852.31 3580
-18.0048 852.31 3580
-9.40434 848.739 3565
-0.877375 846.834 3557
7.61133 844.93 3549
16.0981 844.93 3549
24.5848 844.93 3549
33.0715 844.93 3549
41.4763 843.263 3542
49.9463 843.263 3542
58.4163 843.263 3542
66.8863 843.263 3542
75.3563 843.263 3542
83.8263 843.263 3542
92.0878 841.358 3534
100.539 841.358 3534
108.774 839.692 3527
117.208 839.692 3527
125.642 839.692 3527
134.342 841.358 3534
142.793 841.358 3534
151.244 841.358 3534
159.378 839.692 3527
167.479 838.025 3520
175.897 838.025 3520
184.314 838.025 3520
192.732 838.025 3520
200.692 836.121 3512
208.673 834.454 3505
217.055 834.454 3505
225.436 834.454 3505
233.818 834.454 3505
242.683 836.121 3512
251.081 836.121 3512
259.48 836.121 3512
267.344 834.454 3505
275.726 834.454 3505
285.323 838.025 3520
293.74 838.025 3520
302.158 838.025 3520
311.193 839.692 3527
319.627 839.692 3527
328.712 841.358 3534
337.163 841.358 3534
347.863 846.834 3557
356.369 846.834 3557
364.875 846.834 3557
373.381 846.834 3557
381.028 844.93 3549
387.1 839.692 3527
395.534 839.692 3527
401.448 834.454 3505
408.894 832.55 3497
415.586 829.217 3483
423.915 829.217 3483
432.244 829.217 3483
434.248 817.313 3433
442.458 817.313 3433
449.748 815.646 3426
457.941 815.646 3426
459.467 803.981 3377
463.804 797.553 3350
469.984 794.458 3337
477.964 794.458 3337
484.924 792.791 3330
492.887 792.791 3330
499.797 791.125 3323
507.744 791.125 3323
515.69 791.125 3323
522.691 789.696 3317
530.623 789.696 3317
538.555 789.696 3317
547.475 791.125 3323
555.421 791.125 3323
563.368 791.125 3323
571.314 791.125 3323
581.701 794.458 3337
589.68 794.458 3337
597.66 794.458 3337
605.64 794.458 3337
614.723 795.886 3343
622.717 795.886 3343
630.711 795.886 3343
638.706 795.886 3343
646.7 795.886 3343
654.694 795.886 3343
661.498 794.458 3337
669.478 794.458 3337
678.676 795.886 3343
686.67 795.886 3343
694.664 795.886 3343
701.397 794.458 3337
709.377 794.458 3337
717.357 794.458 3337
725.337 794.458 3337
733.317 794.458 3337
741.296 794.458 3337
749.276 794.458 3337
757.256 794.458 3337
765.236 794.458 3337
773.215 794.458 3337
781.195 794.458 3337
787.52 792.791 3330
795.483 792.791 3330
803.446 792.791 3330
811.409 792.791 3330
819.372 792.791 3330
827.335 792.791 3330
835.298 792.791 3330
845.033 794.458 3337
853.013 794.458 3337
867.701 800.648 3363
881.212 805.647 3384
894.823 810.647 3405
902.965 810.647 3405
914.854 813.98 3419
932.478 822.312 3454
946.73 827.55 3476
955.042 827.55 3476
971.391 834.454 3505
983.966 838.025 3520
996.33 841.358 3534
1004.78 841.358 3534
1019.83 846.834 3557
1037.29 854.215 3588
1050.25 857.786 3603
1063.56 861.595 3619
1072.22 861.595 3619
1090.13 868.975 3650
1103.98 873.023 3667
1115.17 874.927 3675
1123.96 874.927 3675
1132.75 874.927 3675
1144.02 876.832 3683
1155.33 878.736 3691
1164.16 878.736 3691
1175.53 880.641 3699
1184.38 880.641 3699
1195.8 882.546 3707
1204.67 882.546 3707
1213.53 882.546 3707
1219.76 880.641 3699
1228.6 880.641 3699
1237.45 880.641 3699
1246.29 880.641 3699
1252.42 878.736 3691
1261.25 878.736 3691
1267.32 876.832 3683
1273.36 874.927 3675
1282.15 874.927 3675
1290.94 874.927 3675
1299.72 874.927 3675
1305.66 873.023 3667
1314.43 873.023 3667
1319.95 870.88 3658
1328.7 870.88 3658
1337.45 870.88 3658
1340.31 867.071 3642
1346.42 865.404 3635
1355.12 865.404 3635
1360.81 863.5 3627
1369.48 863.5 3627
1375.11 861.595 3619
1383.77 861.595 3619
1389.34 859.69 3611
1394.88 857.786 3603
1397.65 854.215 3588
1406.23 854.215 3588
1408.51 850.405 3572
1414.27 848.739 3565
1422.79 848.739 3565
1428.11 846.834 3557
1436.61 846.834 3557
1432.93 839.692 3527
1438.5 838.025 3520
1443.63 836.121 3512
1452.03 836.121 3512
1454.19 832.55 3497
1456.7 829.217 3483
1462.08 827.55 3476
1473.36 829.217 3483
1481.69 829.217 3483
1493.01 830.883 3490
1517.27 839.692 3527
1542.14 848.739 3565
1550.67 848.739 3565
1569.25 854.215 3588
1584.43 857.786 3603
1610.29 867.071 3642
1619 867.071 3642
1642.46 874.927 3675
1665.62 882.546 3707
1740.44 917.305 3853
1749.65 917.305 3853
1767.08 921.59 3871
1792.86 930.161 3907
1823.42 941.112 3953
1832.87 941.112 3953
1860.04 950.159 3991
1869.58 950.159 3991
1879.12 950.159 3991
1888.67 950.159 3991
1893.93 948.016 3982
1898.67 945.635 3972
1903.85 943.493 3963
1913.32 943.493 3963
1904.36 934.446 3925
1891.81 923.733 3880
1883.45 915.162 3844
1892.64 915.162 3844
1897.38 913.019 3835
1872.25 896.592 3766
1864.27 888.497 3732
1873.19 888.497 3732
1861.44 878.736 3691
1853.54 870.88 3658
1838.36 859.69 3611
1842.91 857.786 3603
1859.74 861.595 3619
1868.4 861.595 3619
1881.2 863.5 3627
1889.88 863.5 3627
1898.55 863.5 3627
1907.22 863.5 3627
1923.82 867.071 3642
1941.02 870.88 3658
1963.09 876.832 3683
1971.9 876.832 3683
1998.45 884.688 3716
2015.98 888.497 3732
2038.47 894.449 3757
2047.45 894.449 3757
2104.06 915.162 3844
2152.83 932.303 3916
2198.64 948.016 3982
2208.16 948.016 3982
2233.28 954.682 4010
2248.46 957.063 4020
2258.07 957.063 4020
2267.69 957.063 4020
2277.3 957.063 4020
2286.91 957.063 4020
2296.52 957.063 4020
2306.14 957.063 4020
2309.99 954.682 4010
2314.37 952.54 4001
2323.94 952.54 4001
2333.51 952.54 4001
2343.08 952.54 4001
2357.94 954.682 4010
2367.52 954.682 4010
2383.04 957.063 4020
2392.66 957.063 4020
2402.27 957.063 4020
2411.88 957.063 4020
2421.49 957.063 4020
2431.11 957.063 4020
2440.72 957.063 4020
2456.43 959.444 4030
2471.57 961.587 4039
2481.23 961.587 4039
2490.89 961.587 4039
2494.98 959.444 4030
2498.4 957.063 4020
2508.01 957.063 4020
2517.62 957.063 4020
2533.52 959.444 4030
2548.84 961.587 4039
2558.5 961.587 4039
2568.16 961.587 4039
2577.82 961.587 4039
2581.71 959.444 4030
2591.35 959.444 4030
2594.53 957.063 4020
2597.66 954.682 4010
2601.4 952.54 4001
2616.84 954.682 4010
2626.43 954.682 4010
2636.02 954.682 4010
2639.67 952.54 4001
2649.24 952.54 4001
2658.81 952.54 4001
2649.03 945.635 3972
2633.77 936.827 3935
2630.41 932.303 3916
2639.78 932.303 3916
2636.97 928.018 3898
2634.07 923.733 3880
2637.21 921.59 3871
2646.47 921.59 3871
2643.38 917.305 3853
2652.59 917.305 3853
2625.19 904.687 3800
2628.73 902.782 3792
2637.8 902.782 3792
536.526 172.367 724
538.257 172.367 724
539.988 172.367 724
540.971 172.129 723
541.949 171.89 722
543.676 171.89 722
544.647 171.652 721
545.613 171.414 720
546.575 171.176 719
548.294 171.176 719
549.249 170.938 718
-2365.97 759.888 3160
-2358.41 759.888 3160
-2346.39 758.445 3154
-2325.5 754.117 3136
-2313.57 752.674 3130
-2306.08 752.674 3130
-2298.6 752.674 3130
-2295.51 754.117 3136
-2288.01 754.117 3136
-2302.32 761.331 3166
-2294.75 761.331 3166
-2291.52 762.774 3172
-2305.53 769.988 3202
-2315.82 776 3227
-2308.1 776 3227
-2336.74 788.264 3278
-2360.87 799.085 3323
-2372.04 805.578 3350
-2364.03 805.578 3350
-2404.55 822.17 3419
-2430.72 833.953 3468
-2422.42 833.953 3468
-2424.57 837.56 3483
-2425.95 840.927 3497
-2417.59 840.927 3497
-2409.23 840.927 3497
-2400.87 840.927 3497
-2387.72 839.243 3490
-2379.37 839.243 3490
-2371.02 839.243 3490
-2362.68 839.243 3490
-2349.61 837.56 3483
-2341.28 837.56 3483
-2332.95 837.56 3483
-2324.62 837.56 3483
-2316.3 837.56 3483
-2307.97 837.56 3483
-2308.88 840.927 3497
-2300.52 840.927 3497
-2301.99 844.534 3512
-2298.81 846.458 3520
-2299.51 849.824 3534
-2291.06 849.824 3534
-2287.77 851.748 3542
-2283.81 853.431 3549
-2280.45 855.355 3557
-2271.94 855.355 3557
-2272.98 858.962 3572
-2264.44 858.962 3572
-2260.95 860.886 3580
-2252.39 860.886 3580
-2248.84 862.81 3588
-2244.63 864.493 3595
-2241.01 866.417 3603
-2232.4 866.417 3603
-2228.72 868.34 3611
-2229.92 872.188 3627
-2226.15 874.112 3635
-2217.46 874.112 3635
-2213.02 875.795 3642
-2204.31 875.795 3642
-2200.42 877.719 3650
-2191.69 877.719 3650
-2187.75 879.643 3658
-2179 879.643 3658
-2170.25 879.643 3658
-2161.51 879.643 3658
-2152.76 879.643 3658
-2139.32 877.719 3650
-2130.59 877.719 3650
-2113.15 874.112 3635
-2104.45 874.112 3635
-2091.15 872.188 3627
-2082.48 872.188 3627
-2073.8 872.188 3627
-2069.68 874.112 3635
-2060.99 874.112 3635
-2052.3 874.112 3635
-2043.61 874.112 3635
-2038.83 875.795 3642
-2030.12 875.795 3642
-2021.42 875.795 3642
-2012.71 875.795 3642
-2004 875.795 3642
-1995.29 875.795 3642
-1986.58 875.795 3642
-1977.87 875.795 3642
-1969.16 875.795 3642
-1969.06 879.643 3658
-1965.14 881.807 3667
-1956.37 881.807 3667
-1951.85 883.731 3675
-1947.29 885.654 3683
-1938.49 885.654 3683
-1929.68 885.654 3683
-1916.7 883.731 3675
-1903.76 881.807 3667
-1894.99 881.807 3667
-1881.59 879.643 3658
-1868.75 877.719 3650
-1855.94 875.795 3642
-1847.23 875.795 3642
-1830.95 872.188 3627
-1818.26 870.264 3619
-1805.6 868.34 3611
-1796.97 868.34 3611
-1784.37 866.417 3603
-1768.36 862.81 3588
-1759.78 862.81 3588
-1751.2 862.81 3588
-1742.62 862.81 3588
-1734.04 862.81 3588
-1710.56 855.355 3557
-1702.05 855.355 3557
-1693.54 855.355 3557
-1681.25 853.431 3549
-1672.76 853.431 3549
-1664.28 853.431 3549
-1659.52 855.355 3557
-1651.02 855.355 3557
-1642.51 855.355 3557
-1634 855.355 3557
-1625.5 855.355 3557
-1616.99 855.355 3557
-1608.49 855.355 3557
-1596.38 853.431 3549
-1587.89 853.431 3549
-1579.41 853.431 3549
-1570.92 853.431 3549
-1559.35 851.748 3542
-1550.88 851.748 3542
-1542.41 851.748 3542
-1536.97 853.431 3549
-1528.49 853.431 3549
-1523.43 855.355 3557
-1514.92 855.355 3557
-1509.8 857.279 3565
-1504.23 858.962 3572
-1499.03 860.886 3580
-1490.47 860.886 3580
-1481.91 860.886 3580
-1470.06 858.962 3572
-1461.52 858.962 3572
-1450.13 857.279 3565
-1444.43 858.962 3572
-1442.32 862.81 3588
-1436.54 864.493 3595
-1427.94 864.493 3595
-1422.51 866.417 3603
-1426.45 874.112 3635
-1423.61 877.719 3650
-1414.88 877.719 3650
-1412.7 881.807 3667
-1413.12 887.578 3691
-1407.34 889.502 3699
-1398.49 889.502 3699
-1399.04 895.514 3724
-1390.13 895.514 3724
-1381.23 895.514 3724
-1372.32 895.514 3724
-1357.19 891.426 3707
-1348.33 891.426 3707
-1339.46 891.426 3707
-1327.73 889.502 3699
-1318.88 889.502 3699
-1304.37 885.654 3683
-1295.56 885.654 3683
-1281.17 881.807 3667
-1266.5 877.719 3650
-1247.09 870.264 3619
-1232.96 866.417 3603
-1224.34 866.417 3603
-1207.96 860.886 3580
-1194.38 857.279 3565
-1185.85 857.279 3565
-1177.33 857.279 3565
-1163.56 853.431 3549
-1147.91 848.141 3527
-1134.63 844.534 3512
-1126.23 844.534 3512
-1113.06 840.927 3497
-1093.33 832.27 3461
-1069.69 820.487 3412
-1061.53 820.487 3412
-504.184 418.66 1741
-500.02 418.66 1741
-495.857 418.66 1741
-491.694 418.66 1741
-486.131 417.457 1736
-481.979 417.457 1736
-477.277 416.977 1734
-473.131 416.977 1734
-468.173 416.255 1731
-464.034 416.255 1731
-457.503 414.091 1722
-451.806 412.648 1716
-447.441 412.408 1715
-441.789 410.965 1709
-437.702 410.965 1709
-432.854 410.243 1706
-428.272 409.762 1704
-423.451 409.041 1701
-419.383 409.041 1701
-414.827 408.56 1699
-409.797 407.598 1695
-405.026 406.877 1692
-400.98 406.877 1692
-396.23 406.155 1689
-391.262 405.193 1685
-386.773 404.713 1683
-382.749 404.713 1683
-377.599 403.51 1678
-372.918 402.789 1675
-368.913 402.789 1675
-364.908 402.789 1675
-359.394 401.105 1668
-354.34 399.903 1663
-349.731 399.182 1660
-345.137 398.46 1657
-341.174 398.46 1657
-337.212 398.46 1657
-333.451 398.701 1658
-329.486 398.701 1658
-325.521 398.701 1658
-321.556 398.701 1658
-317.591 398.701 1658
-314.572 399.903 1663
-310.596 399.903 1663
-306.619 399.903 1663
-302.642 399.903 1663
-298.665 399.903 1663
-294.689 399.903 1663
-290.537 399.663 1662
-286.563 399.663 1662
-283.099 400.384 1665
-279.452 400.865 1667
-275.466 400.865 1667
-272.294 402.067 1672
-268.777 402.789 1675
-265.246 403.51 1678
-261.233 403.51 1678
-257.527 403.991 1680
-253.963 404.713 1683
-250.235 405.193 1685
-246.206 405.193 1685
-242.751 406.155 1689
-238.712 406.155 1689
-234.812 406.396 1690
-230.771 406.396 1690
-226.73 406.396 1690
-222.952 406.877 1692
-219.165 407.358 1694
-215.114 407.358 1694
-211.437 408.079 1697
-207.623 408.56 1699
-203.92 409.281 1702
-199.85 409.281 1702
-195.78 409.281 1702
-191.935 409.762 1704
-188.081 410.243 1706
-184.001 410.243 1706
-180.133 410.724 1708
-176.048 410.724 1708
-171.964 410.724 1708
-320.517 973.667 4049
-310.835 973.667 4049
-301.153 973.667 4049
-286.647 957.555 3982
-276.429 955.15 3972
-266.931 955.15 3972
-256.201 950.581 3953
-246.748 950.581 3953
-237.896 952.986 3963
-228.419 952.986 3963
-218.942 952.986 3963
-209.466 952.986 3963
-199.484 950.581 3953
-190.031 950.581 3953
-180.579 950.581 3953
-170.347 946.253 3935
-160.528 943.848 3925
-150.449 939.52 3907
-141.106 939.52 3907
-130.246 928.699 3862
-119.35 915.954 3809
-109.489 909.701 3783
-100.442 909.701 3783
-90.164 897.437 3732
-80.6954 891.426 3707
-71.5208 887.578 3691
-62.6945 887.578 3691
-53.518 881.807 3667
-44.444 875.795 3642
-35.5092 870.264 3619
-26.625 862.81 3588
-18.045 862.81 3588
-9.42281 858.962 3572
-0.877375 855.355 3557
7.61133 853.431 3549
16.0981 853.431 3549
24.5848 853.431 3549
33.0715 853.431 3549
41.5583 853.431 3549
50.045 853.431 3549
58.4163 851.748 3542
66.7352 849.824 3534
75.1861 849.824 3534
83.6369 849.824 3534
92.0878 849.824 3534
100.34 848.141 3527
108.558 846.458 3520
116.975 846.458 3520
125.393 846.458 3520
134.076 848.141 3527
142.51 848.141 3527
150.944 848.141 3527
159.062 846.458 3520
167.479 846.458 3520
175.897 846.458 3520
183.895 844.534 3512
192.294 844.534 3512
200.692 844.534 3512
208.673 842.851 3505
217.055 842.851 3505
225.436 842.851 3505
233.818 842.851 3505
242.199 842.851 3505
250.581 842.851 3505
258.962 842.851 3505
266.734 840.927 3497
275.096 840.927 3497
284.674 844.534 3512
293.74 846.458 3520
302.158 846.458 3520
310.575 846.458 3520
318.992 846.458 3520
328.061 848.141 3527
336.495 848.141 3527
347.081 853.431 3549
355.567 853.431 3549
364.054 853.431 3549
372.541 853.431 3549
381.028 853.431 3549
387.1 848.141 3527
395.534 848.141 3527
400.532 840.927 3497
408.076 839.243 3490
415.586 837.56 3483
423.063 835.877 3476
431.375 835.877 3476
434.248 825.537 3433
442.458 825.537 3433
448.829 822.17 3419
457.005 822.17 3419
459.467 812.07 3377
463.804 805.578 3350
469.984 802.451 3337
477.964 802.451 3337
484.924 800.768 3330
492.887 800.768 3330
499.797 799.085 3323
507.744 799.085 3323
515.69 799.085 3323
522.691 797.642 3317
530.623 797.642 3317
538.555 797.642 3317
547.475 799.085 3323
555.421 799.085 3323
563.368 799.085 3323
571.314 799.085 3323
581.701 802.451 3337
589.68 802.451 3337
597.66 802.451 3337
605.64 802.451 3337
614.723 803.894 3343
622.717 803.894 3343
630.711 803.894 3343
638.706 803.894 3343
646.7 803.894 3343
654.694 803.894 3343
661.498 802.451 3337
669.478 802.451 3337
678.676 803.894 3343
686.67 803.894 3343
694.664 803.894 3343
701.397 802.451 3337
709.377 802.451 3337
717.357 802.451 3337
725.337 802.451 3337
733.317 802.451 3337
741.296 802.451 3337
749.276 802.451 3337
757.256 802.451 3337
765.236 802.451 3337
773.215 802.451 3337
781.195 802.451 3337
787.52 800.768 3330
795.483 800.768 3330
803.446 800.768 3330
811.409 800.768 3330
819.372 800.768 3330
827.335 800.768 3330
835.298 800.768 3330
845.033 802.451 3337
853.013 802.451 3337
867.701 808.704 3363
881.212 813.754 3384
894.823 818.803 3405
902.965 818.803 3405
914.854 822.17 3419
932.478 830.587 3454
946.73 835.877 3476
955.042 835.877 3476
971.391 842.851 3505
983.966 846.458 3520
996.33 849.824 3534
1004.78 849.824 3534
1019.83 855.355 3557
1037.29 862.81 3588
1050.25 866.417 3603
1063.56 870.264 3619
1072.22 870.264 3619
1090.13 877.719 3650
1103.98 881.807 3667
1115.17 883.731 3675
1123.96 883.731 3675
1132.75 883.731 3675
1144.02 885.654 3683
1155.33 887.578 3691
1164.16 887.578 3691
1175.53 889.502 3699
1184.38 889.502 3699
1195.8 891.426 3707
1204.67 891.426 3707
1213.53 891.426 3707
1219.76 889.502 3699
1228.6 889.502 3699
1237.45 889.502 3699
1246.29 889.502 3699
1252.42 887.578 3691
1261.25 887.578 3691
1267.32 885.654 3683
1273.36 883.731 3675
1282.15 883.731 3675
1290.94 883.731 3675
1299.72 883.731 3675
1305.66 881.807 3667
1311.21 879.643 3658
1319.95 879.643 3658
1328.7 879.643 3658
1337.45 879.643 3658
1340.31 875.795 3642
1346.42 874.112 3635
1355.12 874.112 3635
1360.81 872.188 3627
1366.46 870.264 3619
1372.07 868.34 3611
1380.71 868.34 3611
1389.34 868.34 3611
1391.78 864.493 3595
1397.65 862.81 3588
1406.23 862.81 3588
1405.74 857.279 3565
1411.1 855.355 3557
1419.6 855.355 3557
1424.9 853.431 3549
1433.38 853.431 3549
1430.09 846.458 3520
1435.24 844.534 3512
1437.47 840.927 3497
1445.83 840.927 3497
1448.37 837.56 3483
1450.43 833.953 3468
1458.72 833.953 3468
1467.01 833.953 3468
1475.31 833.953 3468
1490.02 837.56 3483
1514.26 846.458 3520
1542.14 857.279 3565
1550.67 857.279 3565
1569.25 862.81 3588
1584.43 866.417 3603
1610.29 875.795 3642
1619 875.795 3642
1642.46 883.731 3675
1665.62 891.426 3707
1740.44 926.534 3853
1749.65 926.534 3853
1775.3 935.191 3889
1792.86 939.52 3907
1823.42 950.581 3953
1832.87 950.581 3953
1860.04 959.719 3991
1869.58 959.719 3991
1879.12 959.719 3991
1888.67 959.719 3991
1893.93 957.555 3982
1898.67 955.15 3972
1903.85 952.986 3963
1913.32 952.986 3963
1904.36 943.848 3925
1891.81 933.027 3880
1883.45 924.37 3844
1892.64 924.37 3844
1888.97 918.118 3818
1867.77 903.449 3757
1856.27 893.59 3716
1865.16 893.59 3716
1857.4 885.654 3683
1849.49 877.719 3650
1838.36 868.34 3611
1838.81 864.493 3595
1855.63 868.34 3611
1864.27 868.34 3611
1872.9 868.34 3611
1881.54 868.34 3611
1890.17 868.34 3611
1898.81 868.34 3611
1915.9 872.188 3627
1941.02 879.643 3658
1963.09 885.654 3683
1971.9 885.654 3683
1998.45 893.59 3716
2015.98 897.437 3732
2038.47 903.449 3757
2047.45 903.449 3757
2104.06 924.37 3844
2152.83 941.684 3916
2198.64 957.555 3982
2208.16 957.555 3982
2233.28 964.288 4010
2248.46 966.693 4020
2263.69 969.098 4030
2273.33 969.098 4030
2282.96 969.098 4030
2286.91 966.693 4020
2296.52 966.693 4020
2306.14 966.693 4020
2309.99 964.288 4010
2314.37 962.124 4001
2323.94 962.124 4001
2333.51 962.124 4001
2343.08 962.124 4001
2357.94 964.288 4010
2367.52 964.288 4010
2383.04 966.693 4020
2392.66 966.693 4020
2402.27 966.693 4020
2411.88 966.693 4020
2427.52 969.098 4030
2437.15 969.098 4030
2446.79 969.098 4030
2461.91 971.262 4039
2471.57 971.262 4039
2481.23 971.262 4039
2490.89 971.262 4039
2500.55 971.262 4039
2504.61 969.098 4030
2514.25 969.098 4030
2517.62 966.693 4020
2533.52 969.098 4030
2548.84 971.262 4039
2558.5 971.262 4039
2568.16 971.262 4039
2577.82 971.262 4039
2581.71 969.098 4030
2591.35 969.098 4030
2594.53 966.693 4020
2597.66 964.288 4010
2607.25 964.288 4010
2616.84 964.288 4010
2626.43 964.288 4010
2636.02 964.288 4010
2639.67 962.124 4001
2649.24 962.124 4001
2658.81 962.124 4001
2649.03 955.15 3972
2633.77 946.253 3935
2630.41 941.684 3916
2639.78 941.684 3916
2636.97 937.356 3898
2634.07 933.027 3880
2637.21 930.863 3871
2646.47 930.863 3871
2649.55 928.699 3862
2658.79 928.699 3862
2625.19 913.789 3800
2628.73 911.866 3792
2637.8 911.866 3792
2628.72 905.613 3766
536.526 174.101 724
538.257 174.101 724
539.988 174.101 724
541.719 174.101 724
541.949 173.62 722
543.676 173.62 722
544.647 173.38 721
545.613 173.139 720
546.575 172.899 719
548.294 172.899 719
549.249 172.658 718
-2365.97 767.458 3160
-2358.41 767.458 3160
-2346.39 766.001 3154
-2325.5 761.629 3136
-2313.57 760.172 3130
-2306.08 760.172 3130
-2298.6 760.172 3130
-2295.51 761.629 3136
-2288.01 761.629 3136
-2302.32 768.915 3166
-2294.75 768.915 3166
-2291.52 770.372 3172
-2305.53 777.658 3202
-2320.12 785.187 3233
-2312.39 785.187 3233
-2336.74 796.116 3278
-2360.87 807.045 3323
-2372.04 813.602 3350
-2364.03 813.602 3350
-2404.55 830.36 3419
-2430.72 842.261 3468
-2422.42 842.261 3468
-2424.57 845.904 3483
-2425.95 849.304 3497
-2417.59 849.304 3497
-2409.23 849.304 3497
-2400.87 849.304 3497
-2387.72 847.604 3490
-2379.37 847.604 3490
-2371.02 847.604 3490
-2362.68 847.604 3490
-2349.61 845.904 3483
-2341.28 845.904 3483
-2332.95 845.904 3483
-2324.62 845.904 3483
-2316.3 845.904 3483
-2307.97 845.904 3483
-2308.88 849.304 3497
-2300.52 849.304 3497
-2301.99 852.947 3512
-2298.81 854.89 3520
-2299.51 858.29 3534
-2291.06 858.29 3534
-2287.77 860.233 3542
-2283.81 861.933 3549
-2280.45 863.876 3557
-2271.94 863.876 3557
-2272.98 867.519 3572
-2264.44 867.519 3572
-2260.95 869.462 3580
-2252.39 869.462 3580
-2248.84 871.405 3588
-2244.63 873.105 3595
-2241.01 875.048 3603
-2232.4 875.048 3603
-2228.72 876.991 3611
-2229.92 880.877 3627
-2226.15 882.819 3635
-2217.46 882.819 3635
-2213.02 884.52 3642
-2204.31 884.52 3642
-2200.42 886.462 3650
-2191.69 886.462 3650
-2187.75 888.405 3658
-2179 888.405 3658
-2170.25 888.405 3658
-2161.51 888.405 3658
-2152.76 888.405 3658
-2139.32 886.462 3650
-2130.59 886.462 3650
-2113.15 882.819 3635
-2104.45 882.819 3635
-2095.76 882.819 3635
-2087.07 882.819 3635
-2078.38 882.819 3635
-2069.68 882.819 3635
-2064.96 884.52 3642
-2056.25 884.52 3642
-2047.54 884.52 3642
-2038.83 884.52 3642
-2030.12 884.52 3642
-2021.42 884.52 3642
-2012.71 884.52 3642
-2004 884.52 3642
-1995.29 884.52 3642
-1986.58 884.52 3642
-1977.87 884.52 3642
-1969.16 884.52 3642
-1969.06 888.405 3658
-1965.14 890.591 3667
-1956.37 890.591 3667
-1951.85 892.534 3675
-1947.29 894.477 3683
-1938.49 894.477 3683
-1929.68 894.477 3683
-1916.7 892.534 3675
-1903.76 890.591 3667
-1894.99 890.591 3667
-1881.59 888.405 3658
-1868.75 886.462 3650
-1855.94 884.52 3642
-1847.23 884.52 3642
-1830.95 880.877 3627
-1818.26 878.934 3619
-1805.6 876.991 3611
-1796.97 876.991 3611
-1784.37 875.048 3603
-1775.76 875.048 3603
-1763.22 873.105 3595
-1754.62 873.105 3595
-1746.02 873.105 3595
-1734.04 871.405 3588
-1710.56 863.876 3557
-1702.05 863.876 3557
-1693.54 863.876 3557
-1685.04 863.876 3557
-1676.53 863.876 3557
-1668.03 863.876 3557
-1659.52 863.876 3557
-1651.02 863.876 3557
-1642.51 863.876 3557
-1634 863.876 3557
-1625.5 863.876 3557
-1616.99 863.876 3557
-1608.49 863.876 3557
-1596.38 861.933 3549
-1587.89 861.933 3549
-1579.41 861.933 3549
-1570.92 861.933 3549
-1559.35 860.233 3542
-1550.88 860.233 3542
-1542.41 860.233 3542
-1536.97 861.933 3549
-1528.49 861.933 3549
-1523.43 863.876 3557
-1514.92 863.876 3557
-1509.8 865.819 3565
-1504.23 867.519 3572
-1499.03 869.462 3580
-1490.47 869.462 3580
-1481.91 869.462 3580
-1470.06 867.519 3572
-1461.52 867.519 3572
-1450.13 865.819 3565
-1444.43 867.519 3572
-1442.32 871.405 3588
-1433.74 871.405 3588
-1425.16 871.405 3588
-1419.35 873.105 3595
-1417.03 876.991 3611
-1417.76 882.819 3635
-1409.06 882.819 3635
-1409.23 888.405 3658
-1403.93 890.591 3667
-1404.29 896.42 3691
-1395.47 896.42 3691
-1389.64 898.363 3699
-1380.8 898.363 3699
-1371.95 898.363 3699
-1363.11 898.363 3699
-1354.26 898.363 3699
-1339.6 894.477 3683
-1330.79 894.477 3683
-1316.24 890.591 3667
-1304.26 888.405 3658
-1295.52 888.405 3658
-1286.77 888.405 3658
-1275.23 886.462 3650
-1261.29 882.819 3635
-1244.33 876.991 3611
-1227.82 871.405 3588
-1219.24 871.405 3588
-1202.9 865.819 3565
-1189.02 861.933 3549
-1180.53 861.933 3549
-1172.04 861.933 3549
-1161.26 860.233 3542
-1143.03 852.947 3512
-1129.78 849.304 3497
-1121.42 849.304 3497
-1110.83 847.604 3490
-1093.33 840.561 3461
-1074.08 832.06 3426
-1065.88 832.06 3426
-505.342 423.802 1745
-501.169 423.802 1745
-496.996 423.802 1745
-492.824 423.802 1745
-488.651 423.802 1745
-484.478 423.802 1745
-478.929 422.588 1740
-474.222 422.102 1738
-468.443 420.645 1732
-464.302 420.645 1732
-458.3 418.945 1725
-452.332 417.245 1718
-447.702 416.759 1716
-442.823 416.03 1713
-438.727 416.03 1713
-433.362 414.816 1708
-428.775 414.33 1706
-423.7 413.359 1702
-419.63 413.359 1702
-415.315 413.116 1701
-410.281 412.144 1697
-405.744 411.659 1695
-401.691 411.659 1695
-396.934 410.93 1692
-392.191 410.201 1689
-387.233 409.23 1685
-383.203 409.23 1685
-378.724 408.744 1683
-373.586 407.53 1678
-369.353 407.287 1677
-365.343 407.287 1677
-360.256 406.073 1672
-354.766 404.373 1665
-350.152 403.644 1662
-345.761 403.158 1660
-341.792 403.158 1660
-337.415 402.673 1658
-333.853 403.158 1660
-329.883 403.158 1660
-325.914 403.158 1660
-321.944 403.158 1660
-318.358 403.644 1662
-314.951 404.373 1665
-310.969 404.373 1665
-306.988 404.373 1665
-303.006 404.373 1665
-299.025 404.373 1665
-295.043 404.373 1665
-291.062 404.373 1665
-287.08 404.373 1665
-283.099 404.373 1665
-279.452 404.858 1667
-275.466 404.858 1667
-272.294 406.073 1672
-269.098 407.287 1677
-265.562 408.016 1680
-261.545 408.016 1680
-257.834 408.501 1682
-254.264 409.23 1685
-250.829 410.201 1689
-246.79 410.201 1689
-242.895 410.444 1690
-239.136 410.93 1692
-235.09 410.93 1692
-231.044 410.93 1692
-227.401 411.659 1695
-223.347 411.659 1695
-219.812 412.63 1699
-215.749 412.63 1699
-211.935 413.116 1701
-208.234 413.844 1704
-204.399 414.33 1706
-200.319 414.33 1706
-196.24 414.33 1706
-192.498 415.059 1709
-188.411 415.059 1709
-184.325 415.059 1709
-180.449 415.544 1711
-176.564 416.03 1713
-172.467 416.03 1713
-168.371 416.03 1713
-330.2 983.366 4049
-320.517 983.366 4049
-310.835 983.366 4049
-301.153 983.366 4049
-286.647 967.094 3982
-276.429 964.665 3972
-266.931 964.665 3972
-256.201 960.051 3953
-246.748 960.051 3953
-237.296 960.051 3953
-227.843 960.051 3953
-218.39 960.051 3953
-208.937 960.051 3953
-199.484 960.051 3953
-190.031 960.051 3953
-180.168 957.865 3944
-170.347 955.679 3935
-160.528 953.251 3925
-150.449 948.879 3907
-141.106 948.879 3907
-130.246 937.95 3862
-119.35 925.078 3809
-109.749 920.949 3792
-100.681 920.949 3792
-90.5747 910.506 3749
-81.0655 904.435 3724
-71.6758 898.363 3699
-62.8304 898.363 3699
-53.6347 892.534 3675
-44.444 884.52 3642
-35.5092 878.934 3619
-26.677 873.105 3595
-18.0802 873.105 3595
-9.44391 869.462 3580
-0.879348 865.819 3565
7.62849 863.876 3557
16.1344 863.876 3557
24.5848 861.933 3549
33.0715 861.933 3549
41.5583 861.933 3549
50.045 861.933 3549
58.2844 858.29 3534
66.7352 858.29 3534
75.0372 856.59 3527
83.4713 856.59 3527
91.9054 856.59 3527
100.14 854.89 3520
108.558 854.89 3520
116.975 854.89 3520
125.393 854.89 3520
133.81 854.89 3520
142.227 854.89 3520
150.645 854.89 3520
159.062 854.89 3520
167.479 854.89 3520
175.497 852.947 3512
183.895 852.947 3512
192.294 852.947 3512
200.292 851.247 3505
208.197 849.304 3497
216.559 849.304 3497
224.922 849.304 3497
233.284 849.304 3497
242.199 851.247 3505
250.581 851.247 3505
258.962 851.247 3505
266.734 849.304 3497
275.096 849.304 3497
284.674 852.947 3512
293.073 852.947 3512
301.471 852.947 3512
310.575 854.89 3520
318.992 854.89 3520
328.712 858.29 3534
337.163 858.29 3534
346.396 860.233 3542
355.567 861.933 3549
364.054 861.933 3549
372.541 861.933 3549
381.028 861.933 3549
387.1 856.59 3527
395.534 856.59 3527
400.532 849.304 3497
408.076 847.604 3490
415.586 845.904 3483
421.238 840.561 3461
429.514 840.561 3461
434.248 833.76 3433
439.751 828.66 3412
446.991 826.96 3405
455.134 826.96 3405
456.745 815.303 3357
463.804 813.602 3350
469.984 810.445 3337
477.964 810.445 3337
484.924 808.745 3330
492.887 808.745 3330
499.797 807.045 3323
507.744 807.045 3323
515.69 807.045 3323
522.691 805.588 3317
530.623 805.588 3317
539.529 807.045 3323
547.475 807.045 3323
555.421 807.045 3323
563.368 807.045 3323
571.314 807.045 3323
581.701 810.445 3337
589.68 810.445 3337
597.66 810.445 3337
605.64 810.445 3337
614.723 811.902 3343
622.717 811.902 3343
630.711 811.902 3343
638.706 811.902 3343
646.7 811.902 3343
654.694 811.902 3343
661.498 810.445 3337
670.682 811.902 3343
678.676 811.902 3343
686.67 811.902 3343
694.664 811.902 3343
701.397 810.445 3337
709.377 810.445 3337
717.357 810.445 3337
725.337 810.445 3337
733.317 810.445 3337
741.296 810.445 3337
749.276 810.445 3337
757.256 810.445 3337
765.236 810.445 3337
773.215 810.445 3337
781.195 810.445 3337
787.52 808.745 3330
795.483 808.745 3330
803.446 808.745 3330
811.409 808.745 3330
819.372 808.745 3330
827.335 808.745 3330
835.298 808.745 3330
845.033 810.445 3337
853.013 810.445 3337
867.701 816.76 3363
881.212 821.86 3384
894.823 826.96 3405
902.965 826.96 3405
914.854 830.36 3419
932.478 838.861 3454
946.73 844.204 3476
955.042 844.204 3476
973.331 852.947 3512
987.88 858.29 3534
1000.56 861.933 3549
1009.05 861.933 3549
1019.83 863.876 3557
1037.29 871.405 3588
1052.58 876.991 3611
1065.92 880.877 3627
1074.59 880.877 3627
1092.52 888.405 3658
1103.98 890.591 3667
1115.17 892.534 3675
1123.96 892.534 3675
1135.22 894.477 3683
1144.02 894.477 3683
1155.33 896.42 3691
1164.16 896.42 3691
1175.53 898.363 3699
1184.38 898.363 3699
1195.8 900.306 3707
1204.67 900.306 3707
1213.53 900.306 3707
1219.76 898.363 3699
1228.6 898.363 3699
1237.45 898.363 3699
1246.29 898.363 3699
1252.42 896.42 3691
1261.25 896.42 3691
1267.32 894.477 3683
1273.36 892.534 3675
1282.15 892.534 3675
1290.94 892.534 3675
1299.72 892.534 3675
1305.66 890.591 3667
1311.21 888.405 3658
1319.95 888.405 3658
1328.7 888.405 3658
1331.6 884.52 3642
1337.73 882.819 3635
1343.46 880.877 3627
1352.13 880.877 3627
1357.81 878.934 3619
1363.44 876.991 3611
1372.07 876.991 3611
1380.71 876.991 3611
1386.27 875.048 3603
1389.07 871.405 3588
1391.42 867.519 3572
1399.96 867.519 3572
1402.59 863.876 3557
1407.92 861.933 3549
1416.41 861.933 3549
1422.09 860.233 3542
1430.56 860.233 3542
1426.84 852.947 3512
1429.11 849.304 3497
1434.59 847.604 3490
1442.94 847.604 3490
1442.13 842.261 3468
1447.5 840.561 3461
1452.83 838.861 3454
1467.01 842.261 3468
1475.31 842.261 3468
1487.02 844.204 3476
1517.27 856.59 3527
1545.17 867.519 3572
1553.71 867.519 3572
1569.25 871.405 3588
1591.47 878.934 3619
1610.29 884.52 3642
1619 884.52 3642
1646.03 894.477 3683
1665.62 900.306 3707
1740.44 935.764 3853
1749.65 935.764 3853
1775.3 944.508 3889
1792.86 948.879 3907
1823.42 960.051 3953
1832.87 960.051 3953
1855.84 967.094 3982
1869.58 969.28 3991
1879.12 969.28 3991
1888.67 969.28 3991
1893.93 967.094 3982
1898.67 964.665 3972
1903.85 962.48 3963
1913.32 962.48 3963
1900 951.065 3916
1887.42 940.136 3871
1874.63 929.207 3826
1883.78 929.207 3826
1880.06 922.892 3800
1863.79 910.506 3749
1856.27 902.492 3716
1865.16 902.492 3716
1857.4 894.477 3683
1849.49 886.462 3650
1838.36 876.991 3611
1838.81 873.105 3595
1847.41 873.105 3595
1856.01 873.105 3595
1868.75 875.048 3603
1877.37 875.048 3603
1890.17 876.991 3611
1898.81 876.991 3611
1911.67 878.934 3619
1941.02 888.405 3658
1963.09 894.477 3683
1971.9 894.477 3683
1998.45 902.492 3716
2015.98 906.378 3732
2038.47 912.449 3757
2047.45 912.449 3757
2104.06 933.578 3844
2152.83 951.065 3916
2198.64 967.094 3982
2208.16 967.094 3982
2233.28 973.894 4010
2248.46 976.323 4020
2263.69 978.752 4030
2273.33 978.752 4030
2282.96 978.752 4030
2286.91 976.323 4020
2296.52 976.323 4020
2306.14 976.323 4020
2309.99 973.894 4010
2314.37 971.709 4001
2323.94 971.709 4001
2333.51 971.709 4001
2343.08 971.709 4001
2357.94 973.894 4010
2367.52 973.894 4010
2383.04 976.323 4020
2392.66 976.323 4020
2402.27 976.323 4020
2411.88 976.323 4020
2427.52 978.752 4030
2437.15 978.752 4030
2446.79 978.752 4030
2461.91 980.938 4039
2471.57 980.938 4039
2481.23 980.938 4039
2490.89 980.938 4039
2500.55 980.938 4039
2504.61 978.752 4030
2514.25 978.752 4030
2517.62 976.323 4020
2533.52 978.752 4030
2548.84 980.938 4039
2558.5 980.938 4039
2568.16 980.938 4039
2577.82 980.938 4039
2581.71 978.752 4030
2591.35 978.752 4030
2594.53 976.323 4020
2597.66 973.894 4010
2607.25 973.894 4010
2616.84 973.894 4010
2626.43 973.894 4010
2636.02 973.894 4010
2639.67 971.709 4001
2636.66 967.094 3982
2646.18 967.094 3982
2636.36 960.051 3953
2627.07 953.251 3925
2630.41 951.065 3916
2639.78 951.065 3916
2636.97 946.693 3898
2634.07 942.322 3880
2637.21 940.136 3871
2646.47 940.136 3871
2649.55 937.95 3862
2658.79 937.95 3862
2619.67 920.949 3792
2628.73 920.949 3792
2637.8 920.949 3792
2628.72 914.635 3766
536.526 175.835 724
538.257 175.835 724
539.988 175.835 724
541.719 175.835 724
541.949 175.35 722
543.676 175.35 722
544.647 175.107 721
545.613 174.864 720
546.575 174.621 719
548.294 174.621 719
549.249 174.378 718
-2365.97 775.028 3160
-2358.41 775.028 3160
-2346.39 773.556 3154
-2325.5 769.141 3136
-2313.57 767.67 3130
-2306.08 767.67 3130
-2298.6 767.67 3130
-2295.51 769.141 3136
-2288.01 769.141 3136
-2302.32 776.499 3166
-2294.75 776.499 3166
-2291.52 777.971 3172
-2305.53 785.329 3202
-2320.12 792.932 3233
-2312.39 792.932 3233
-2336.74 803.969 3278
-2346.66 810.1 3303
-2357.88 816.722 3330
-2349.92 816.722 3330
-2379.93 829.966 3384
-2416 845.418 3447
-2407.75 845.418 3447
-2419.7 852.53 3476
-2416.24 854.247 3483
-2407.91 854.247 3483
-2399.58 854.247 3483
-2391.26 854.247 3483
-2382.93 854.247 3483
-2374.6 854.247 3483
-2366.27 854.247 3483
-2347.79 850.568 3468
-2339.49 850.568 3468
-2331.2 850.568 3468
-2322.91 850.568 3468
-2314.61 850.568 3468
-2311.64 852.53 3476
-2307.97 854.247 3483
-2308.88 857.681 3497
-2300.52 857.681 3497
-2292.16 857.681 3497
-2293.59 861.36 3512
-2290.4 863.322 3520
-2281.98 863.322 3520
-2282.61 866.756 3534
-2279.3 868.718 3542
-2280.45 872.397 3557
-2271.94 872.397 3557
-2263.44 872.397 3557
-2264.44 876.076 3572
-2255.9 876.076 3572
-2247.36 876.076 3572
-2243.83 878.038 3580
-2240.26 880 3588
-2236.04 881.717 3595
-2227.44 881.717 3595
-2223.78 883.679 3603
-2225 887.603 3619
-2221.25 889.565 3627
-2212.57 889.565 3627
-2208.76 891.527 3635
-2204.31 893.244 3642
-2195.6 893.244 3642
-2186.89 893.244 3642
-2182.96 895.206 3650
-2179 897.168 3658
-2170.25 897.168 3658
-2161.51 897.168 3658
-2148.05 895.206 3650
-2139.32 895.206 3650
-2130.59 895.206 3650
-2113.15 891.527 3635
-2104.45 891.527 3635
-2095.76 891.527 3635
-2087.07 891.527 3635
-2078.38 891.527 3635
-2069.68 891.527 3635
-2064.96 893.244 3642
-2056.25 893.244 3642
-2047.54 893.244 3642
-2038.83 893.244 3642
-2030.12 893.244 3642
-2021.42 893.244 3642
-2012.71 893.244 3642
-2004 893.244 3642
-1995.29 893.244 3642
-1986.58 893.244 3642
-1977.87 893.244 3642
-1969.16 893.244 3642
-1969.06 897.168 3658
-1960.32 897.168 3658
-1951.57 897.168 3658
-1947.6 899.375 3667
-1938.83 899.375 3667
-1930.06 899.375 3667
-1921.3 899.375 3667
-1912.53 899.375 3667
-1899.09 897.168 3658
-1890.34 897.168 3658
-1877.48 895.206 3650
-1864.65 893.244 3642
-1852.38 891.527 3635
-1843.68 891.527 3635
-1830.95 889.565 3627
-1818.26 887.603 3619
-1805.6 885.641 3611
-1796.97 885.641 3611
-1784.37 883.679 3603
-1775.76 883.679 3603
-1763.22 881.717 3595
-1754.62 881.717 3595
-1746.02 881.717 3595
-1734.04 880 3588
-1710.56 872.397 3557
-1702.05 872.397 3557
-1693.54 872.397 3557
-1685.04 872.397 3557
-1676.53 872.397 3557
-1668.03 872.397 3557
-1659.52 872.397 3557
-1651.02 872.397 3557
-1642.51 872.397 3557
-1634 872.397 3557
-1625.5 872.397 3557
-1616.99 872.397 3557
-1608.49 872.397 3557
-1596.38 870.435 3549
-1587.89 870.435 3549
-1579.41 870.435 3549
-1567.82 868.718 3542
-1559.35 868.718 3542
-1550.88 868.718 3542
-1542.41 868.718 3542
-1533.94 868.718 3542
-1528.49 870.435 3549
-1523.43 872.397 3557
-1514.92 872.397 3557
-1509.8 874.359 3565
-1501.28 874.359 3565
-1495.68 876.076 3572
-1487.14 876.076 3572
-1478.6 876.076 3572
-1467.18 874.359 3565
-1458.65 874.359 3565
-1450.13 874.359 3565
-1441.6 874.359 3565
-1439.11 878.038 3580
-1433.74 880 3588
-1425.16 880 3588
-1419.35 881.717 3595
-1417.03 885.641 3611
-1417.76 891.527 3635
-1409.06 891.527 3635
-1409.23 897.168 3658
-1403.93 899.375 3667
-1404.29 905.262 3691
-1395.47 905.262 3691
-1389.64 907.224 3699
-1380.8 907.224 3699
-1371.95 907.224 3699
-1363.11 907.224 3699
-1354.26 907.224 3699
-1339.6 903.3 3683
-1330.79 903.3 3683
-1316.24 899.375 3667
-1304.26 897.168 3658
-1295.52 897.168 3658
-1286.77 897.168 3658
-1275.23 895.206 3650
-1261.29 891.527 3635
-1244.33 885.641 3611
-1227.82 880 3588
-1219.24 880 3588
-1202.9 874.359 3565
-1189.02 870.435 3549
-1180.53 870.435 3549
-1172.04 870.435 3549
-1161.26 868.718 3542
-1143.03 861.36 3512
-1129.78 857.681 3497
-1121.42 857.681 3497
-1110.83 855.964 3490
-1093.33 848.852 3461
-1082.85 847.135 3454
-1074.59 847.135 3454
-512.143 430.189 1754
-507.948 430.189 1754
-503.754 430.189 1754
-498.136 428.963 1749
-493.388 428.473 1747
-488.651 427.982 1745
-484.478 427.982 1745
-479.204 427.001 1741
-474.768 426.756 1740
-469.525 425.775 1736
-465.374 425.775 1736
-459.363 424.058 1729
-452.859 421.851 1720
-448.224 421.36 1718
-443.34 420.624 1715
-439.239 420.624 1715
-433.616 419.153 1709
-428.775 418.417 1706
-424.197 417.926 1704
-420.123 417.926 1704
-415.56 417.436 1702
-411.248 417.191 1701
-405.744 415.719 1695
-401.691 415.719 1695
-397.403 415.474 1694
-392.888 414.983 1692
-388.152 414.247 1689
-384.113 414.247 1689
-378.724 412.776 1683
-374.477 412.531 1682
-369.353 411.304 1677
-365.343 411.304 1677
-360.902 410.814 1675
-354.766 408.361 1665
-350.784 408.361 1665
-346.178 407.625 1662
-342.204 407.625 1662
-337.822 407.135 1660
-333.853 407.135 1660
-329.883 407.135 1660
-325.914 407.135 1660
-321.944 407.135 1660
-318.358 407.625 1662
-314.951 408.361 1665
-310.969 408.361 1665
-306.988 408.361 1665
-303.006 408.361 1665
-299.025 408.361 1665
-295.043 408.361 1665
-291.062 408.361 1665
-287.08 408.361 1665
-283.439 408.852 1667
-279.62 409.097 1668
-275.631 409.097 1668
-272.783 410.814 1675
-269.259 411.55 1678
-265.878 412.531 1682
-261.856 412.531 1682
-258.294 413.266 1685
-254.868 414.247 1689
-250.978 414.493 1690
-246.936 414.493 1690
-243.182 414.983 1692
-239.419 415.474 1694
-235.507 415.719 1695
-231.454 415.719 1695
-227.937 416.7 1699
-223.874 416.7 1699
-220.2 417.436 1702
-216.13 417.436 1702
-212.309 417.926 1704
-208.723 418.907 1708
-204.758 419.153 1709
-200.672 419.153 1709
-196.585 419.153 1709
-192.723 419.643 1711
-189.073 420.624 1715
-184.972 420.624 1715
-180.871 420.624 1715
-176.77 420.624 1715
-173.172 421.851 1720
-169.059 421.851 1720
-164.946 421.851 1720
-330.2 993.066 4049
-320.517 993.066 4049
-310.835 993.066 4049
-301.153 993.066 4049
-286.647 976.633 3982
-276.429 974.18 3972
-266.931 974.18 3972
-256.201 969.52 3953
-246.748 969.52 3953
-237.296 969.52 3953
-227.843 969.52 3953
-218.39 969.52 3953
-208.937 969.52 3953
-199.484 969.52 3953
-190.031 969.52 3953
-180.168 967.313 3944
-170.347 965.106 3935
-160.528 962.653 3925
-150.449 958.238 3907
-141.106 958.238 3907
-130.246 947.202 3862
-119.35 934.203 3809
-109.749 930.033 3792
-100.681 930.033 3792
-90.5747 919.487 3749
-81.2396 915.318 3732
-71.8309 909.186 3707
-62.9663 909.186 3707
-53.8682 905.262 3691
-44.5416 895.206 3650
-35.6662 891.527 3635
-26.9738 891.527 3635
-18.1205 883.679 3603
-9.44391 878.038 3580
-0.881075 876.076 3572
7.64565 874.359 3565
16.1706 874.359 3565
24.6956 874.359 3565
33.1461 872.397 3557
41.5583 870.435 3549
50.045 870.435 3549
58.4163 868.718 3542
66.7352 866.756 3534
75.0372 865.039 3527
83.4713 865.039 3527
91.9054 865.039 3527
100.14 863.322 3520
108.558 863.322 3520
116.975 863.322 3520
125.393 863.322 3520
133.81 863.322 3520
142.227 863.322 3520
150.645 863.322 3520
159.062 863.322 3520
167.479 863.322 3520
175.497 861.36 3512
183.895 861.36 3512
192.294 861.36 3512
200.292 859.643 3505
208.197 857.681 3497
216.559 857.681 3497
224.922 857.681 3497
233.284 857.681 3497
242.199 859.643 3505
250.581 859.643 3505
258.962 859.643 3505
266.734 857.681 3497
275.096 857.681 3497
284.674 861.36 3512
293.74 863.322 3520
302.158 863.322 3520
311.193 865.039 3527
319.627 865.039 3527
329.456 868.718 3542
337.926 868.718 3542
347.081 870.435 3549
355.567 870.435 3549
364.054 870.435 3549
372.541 870.435 3549
380.276 868.718 3542
385.454 861.36 3512
393.852 861.36 3512
400.532 857.681 3497
408.076 855.964 3490
414.751 852.53 3476
420.386 847.135 3454
428.645 847.135 3454
432.478 838.551 3419
439.751 836.834 3412
446.991 835.117 3405
455.134 835.117 3405
456.745 823.344 3357
463.804 821.627 3350
469.984 818.439 3337
477.964 818.439 3337
484.924 816.722 3330
491.851 815.005 3323
499.797 815.005 3323
507.744 815.005 3323
515.69 815.005 3323
522.691 813.534 3317
530.623 813.534 3317
539.529 815.005 3323
547.475 815.005 3323
555.421 815.005 3323
563.368 815.005 3323
571.314 815.005 3323
581.701 818.439 3337
589.68 818.439 3337
597.66 818.439 3337
606.729 819.911 3343
614.723 819.911 3343
622.717 819.911 3343
630.711 819.911 3343
638.706 819.911 3343
646.7 819.911 3343
654.694 819.911 3343
662.688 819.911 3343
670.682 819.911 3343
678.676 819.911 3343
686.67 819.911 3343
694.664 819.911 3343
701.397 818.439 3337
709.377 818.439 3337
717.357 818.439 3337
725.337 818.439 3337
733.317 818.439 3337
741.296 818.439 3337
749.276 818.439 3337
757.256 818.439 3337
765.236 818.439 3337
773.215 818.439 3337
781.195 818.439 3337
787.52 816.722 3330
795.483 816.722 3330
803.446 816.722 3330
811.409 816.722 3330
819.372 816.722 3330
827.335 816.722 3330
835.298 816.722 3330
845.033 818.439 3337
853.013 818.439 3337
867.701 824.816 3363
881.212 829.966 3384
894.823 835.117 3405
902.965 835.117 3405
914.854 838.551 3419
932.478 847.135 3454
946.73 852.53 3476
955.042 852.53 3476
973.331 861.36 3512
987.88 866.756 3534
1000.56 870.435 3549
1009.05 870.435 3549
1019.83 872.397 3557
1037.29 880 3588
1052.58 885.641 3611
1065.92 889.565 3627
1074.59 889.565 3627
1092.52 897.168 3658
1106.39 901.338 3675
1117.6 903.3 3683
1126.41 903.3 3683
1135.22 903.3 3683
1144.02 903.3 3683
1155.33 905.262 3691
1164.16 905.262 3691
1175.53 907.224 3699
1184.38 907.224 3699
1195.8 909.186 3707
1204.67 909.186 3707
1213.53 909.186 3707
1219.76 907.224 3699
1228.6 907.224 3699
1237.45 907.224 3699
1243.6 905.262 3691
1252.42 905.262 3691
1261.25 905.262 3691
1267.32 903.3 3683
1273.36 901.338 3675
1282.15 901.338 3675
1290.94 901.338 3675
1296.89 899.375 3667
1302.46 897.168 3658
1311.21 897.168 3658
1317.07 895.206 3650
1325.79 895.206 3650
1331.6 893.244 3642
1337.73 891.527 3635
1340.5 887.603 3619
1349.15 887.603 3619
1354.8 885.641 3611
1363.44 885.641 3611
1365.99 881.717 3595
1374.59 881.717 3595
1380.49 880 3588
1385.98 878.038 3580
1388.69 874.359 3565
1397.22 874.359 3565
1399.44 870.435 3549
1405.15 868.718 3542
1413.62 868.718 3542
1416.06 865.039 3527
1424.5 865.039 3527
1423.99 859.643 3505
1426.24 855.964 3490
1431.71 854.247 3483
1440.04 854.247 3483
1442.13 850.568 3468
1450.43 850.568 3468
1452.83 847.135 3454
1467.01 850.568 3468
1475.31 850.568 3468
1487.02 852.53 3476
1520.28 866.756 3534
1548.63 878.038 3580
1557.19 878.038 3580
1575.81 883.679 3603
1594.98 889.565 3627
1617.36 897.168 3658
1626.11 897.168 3658
1653.18 907.224 3699
1673.26 913.355 3724
1748.57 949.409 3871
1757.82 949.409 3871
1779.41 956.031 3898
1796.99 960.446 3916
1823.42 969.52 3953
1832.87 969.52 3953
1855.84 976.633 3982
1869.58 978.84 3991
1879.12 978.84 3991
1888.67 978.84 3991
1893.93 976.633 3982
1894.37 971.973 3963
1903.85 971.973 3963
1913.32 971.973 3963
1895.63 958.238 3907
1883.03 947.202 3862
1874.63 938.372 3826
1883.78 938.372 3826
1884.51 934.203 3809
1867.77 921.449 3757
1856.27 911.393 3716
1865.16 911.393 3716
1857.4 903.3 3683
1849.49 895.206 3650
1838.36 885.641 3611
1838.81 881.717 3595
1847.41 881.717 3595
1856.01 881.717 3595
1864.6 881.717 3595
1869.55 880 3588
1878.13 880 3588
1886.71 880 3588
1907.44 885.641 3611
1932.53 893.244 3642
1954.56 899.375 3667
1963.33 899.375 3667
1985.01 905.262 3691
2011.66 913.355 3724
2034.13 919.487 3749
2043.09 919.487 3749
2094.21 938.372 3826
2152.83 960.446 3916
2193.12 974.18 3972
2202.62 974.18 3972
2233.28 983.5 4010
2254.05 988.406 4030
2263.69 988.406 4030
2273.33 988.406 4030
2282.96 988.406 4030
2286.91 985.953 4020
2296.52 985.953 4020
2306.14 985.953 4020
2309.99 983.5 4010
2314.37 981.293 4001
2323.94 981.293 4001
2333.51 981.293 4001
2343.08 981.293 4001
2357.94 983.5 4010
2367.52 983.5 4010
2383.04 985.953 4020
2392.66 985.953 4020
2402.27 985.953 4020
2411.88 985.953 4020
2427.52 988.406 4030
2437.15 988.406 4030
2446.79 988.406 4030
2461.91 990.613 4039
2471.57 990.613 4039
2481.23 990.613 4039
2490.89 990.613 4039
2500.55 990.613 4039
2504.61 988.406 4030
2514.25 988.406 4030
2523.89 988.406 4030
2533.52 988.406 4030
2548.84 990.613 4039
2558.5 990.613 4039
2568.16 990.613 4039
2577.82 990.613 4039
2587.47 990.613 4039
2597.13 990.613 4039
2600.98 988.406 4030
2597.66 983.5 4010
2607.25 983.5 4010
2616.84 983.5 4010
2626.43 983.5 4010
2636.02 983.5 4010
2639.67 981.293 4001
2636.66 976.633 3982
2646.18 976.633 3982
2643.03 971.973 3963
2627.07 962.653 3925
2624.37 958.238 3907
2633.71 958.238 3907
2636.97 956.031 3898
2646.29 956.031 3898
2643.35 951.616 3880
2652.62 951.616 3880
2655.73 949.409 3871
2664.98 949.409 3871
2661.81 944.994 3853
2664.78 942.787 3844
2673.97 942.787 3844
2683.17 942.787 3844
2692.36 942.787 3844
536.526 177.57 724
538.257 177.57 724
539.988 177.57 724
541.719 177.57 724
541.949 177.079 722
543.676 177.079 722
544.647 176.834 721
545.613 176.589 720
546.575 176.343 719
548.294 176.343 719
549.249 176.098 718
