-156.868 593.631 1817
-152.691 594.284 1819
-148.831 596.244 1825
-144.466 596.244 1825
-140.87 599.511 1835
-136.631 600.165 1837
-132.238 600.165 1837
-127.845 600.165 1837
-123.587 600.818 1839
-119.189 600.818 1839
-114.791 600.818 1839
-102.079 1152.3 3527
-93.6454 1152.3 3527
-85.2112 1152.3 3527
-76.6247 1150.02 3520
-68.2073 1150.02 3520
-60.1636 1157.2 3542
-51.6936 1157.2 3542
-43.2237 1157.2 3542
-35.048 1167.01 3572
-26.5063 1167.01 3572
-17.9645 1167.01 3572
-9.42281 1167.01 3572
-0.881075 1167.01 3572
7.66066 1167.01 3572
16.2024 1167.01 3572
24.7441 1167.01 3572
33.1461 1162.1 3557
50.8065 1177.13 3603
59.4223 1177.13 3603
68.0382 1177.13 3603
77.3349 1187.59 3635
86.0273 1187.59 3635
94.7196 1187.59 3635
103.412 1187.59 3635
111.611 1182.36 3619
120.265 1182.36 3619
128.634 1179.75 3611
137.269 1179.75 3611
145.904 1179.75 3611
154.539 1179.75 3611
162.135 1172.23 3588
170.715 1172.23 3588
179.645 1174.52 3595
189.079 1179.75 3611
197.714 1179.75 3611
206.349 1179.75 3611
214.508 1177.13 3603
223.124 1177.13 3603
231.74 1177.13 3603
239.822 1174.52 3595
247.935 1172.23 3588
255.943 1169.62 3580
264.504 1169.62 3580
272.454 1167.01 3572
280.996 1167.01 3572
289.538 1167.01 3572
298.08 1167.01 3572
306.621 1167.01 3572
315.163 1167.01 3572
324.43 1169.62 3580
335.13 1177.13 3603
343.746 1177.13 3603
354.709 1184.97 3627
363.382 1184.97 3627
372.055 1184.97 3627
379.889 1182.36 3619
384.356 1169.62 3580
385.454 1147.4 3512
393.852 1147.4 3512
394.805 1126.17 3447
402.23 1123.88 3440
408.785 1119.31 3426
414.422 1112.44 3405
422.564 1112.44 3405
430.707 1112.44 3405
438.849 1112.44 3405
446.991 1112.44 3405
455.134 1112.44 3405
462.324 1110.16 3398
467.542 1103.3 3377
472.801 1096.76 3357
480.828 1096.76 3357
486.817 1092.19 3343
494.811 1092.19 3343
500.85 1087.94 3330
508.813 1087.94 3330
516.776 1087.94 3330
523.636 1085.65 3323
531.582 1085.65 3323
539.529 1085.65 3323
547.475 1085.65 3323
555.421 1085.65 3323
564.554 1087.94 3330
572.517 1087.94 3330
580.48 1087.94 3330
588.444 1087.94 3330
597.66 1090.23 3337
605.64 1090.23 3337
613.62 1090.23 3337
621.6 1090.23 3337
629.579 1090.23 3337
637.559 1090.23 3337
645.539 1090.23 3337
653.519 1090.23 3337
661.498 1090.23 3337
670.682 1092.19 3343
678.676 1092.19 3343
686.67 1092.19 3343
694.664 1092.19 3343
702.659 1092.19 3343
713.629 1096.76 3357
721.656 1096.76 3357
729.684 1096.76 3357
734.635 1092.19 3343
742.629 1092.19 3343
750.623 1092.19 3343
758.617 1092.19 3343
768.217 1094.48 3350
776.228 1094.48 3350
784.238 1094.48 3350
792.249 1094.48 3350
801.932 1096.76 3357
811.408 1098.72 3363
819.45 1098.72 3363
827.492 1098.72 3363
835.534 1098.72 3363
842.07 1096.76 3357
850.098 1096.76 3357
856.336 1094.48 3350
862.541 1092.19 3343
870.535 1092.19 3343
878.529 1092.19 3343
886.523 1092.19 3343
896.391 1094.48 3350
909.801 1101.01 3370
923.579 1107.87 3391
931.688 1107.87 3391
939.797 1107.87 3391
949.863 1110.16 3398
961.935 1114.73 3412
974.075 1119.31 3426
982.267 1119.31 3426
994.508 1123.88 3440
1002.73 1123.88 3440
1025.65 1140.22 3490
1034 1140.22 3490
1057.88 1157.2 3542
1080.19 1172.23 3588
1093.33 1177.13 3603
1101.94 1177.13 3603
1122.58 1189.88 3642
1141.54 1200.66 3675
1150.33 1200.66 3675
1159.11 1200.66 3675
1167.9 1200.66 3675
1166.12 1189.88 3642
1174.83 1189.88 3642
1181.27 1187.59 3635
1182.1 1179.75 3611
1188.1 1177.13 3603
1196.72 1177.13 3603
1205.33 1177.13 3603
1206.2 1169.62 3580
1214.76 1169.62 3580
1223.32 1169.62 3580
1229.13 1167.01 3572
1232.47 1162.1 3557
1240.98 1162.1 3557
1244.22 1157.2 3542
1257.99 1162.1 3557
1266.5 1162.1 3557
1277.87 1164.72 3565
1291.81 1169.62 3580
1300.37 1169.62 3580
1308.93 1169.62 3580
1317.49 1169.62 3580
1326.05 1169.62 3580
1334.61 1169.62 3580
1343.17 1169.62 3580
1354.75 1172.23 3588
1365.99 1174.52 3595
1374.59 1174.52 3595
1383.19 1174.52 3595
1380.17 1164.72 3565
1385.58 1162.1 3557
1394.08 1162.1 3557
1396.68 1157.2 3542
1405.15 1157.2 3542
1410.42 1154.59 3534
1418.87 1154.59 3534
1427.32 1154.59 3534
1423.99 1145.12 3505
1429.11 1142.5 3497
1428.84 1135.64 3476
1437.15 1135.64 3476
1430.49 1123.88 3440
1421.15 1110.16 3398
1423.39 1105.58 3384
1431.48 1105.58 3384
1439.57 1105.58 3384
1450.66 1107.87 3391
1458.77 1107.87 3391
1466.88 1107.87 3391
1474.98 1107.87 3391
1483.09 1107.87 3391
1491.2 1107.87 3391
1511.69 1117.02 3419
1532.31 1126.17 3447
1540.56 1126.17 3447
1558.24 1133.03 3468
1566.53 1133.03 3468
1574.82 1133.03 3468
1583.12 1133.03 3468
1584.98 1128.45 3454
1825.65 1094.48 3350
1833.66 1094.48 3350
1864.21 1107.87 3391
1876.19 1110.16 3398
1884.31 1110.16 3398
1892.44 1110.16 3398
1900.56 1110.16 3398
1908.69 1110.16 3398
1916.81 1110.16 3398
1873.34 1062.46 3252
1881.12 1062.46 3252
1888.89 1062.46 3252
1896.67 1062.46 3252
1904.44 1062.46 3252
-2356.98 1036.02 3148
-2349.46 1036.02 3148
-2333 1032.07 3136
-2312.15 1026.15 3118
-2304.7 1026.15 3118
-2323.77 1038 3154
-2316.22 1038 3154
-2313.07 1039.97 3160
-2305.52 1039.97 3160
-2297.96 1039.97 3160
-2286.06 1038 3154
-2274.18 1036.02 3148
-2279.61 1041.95 3166
-2276.35 1043.92 3172
-2268.76 1043.92 3172
-2269.73 1047.87 3184
-2274.9 1053.79 3202
-2284.95 1062.02 3227
-2277.23 1062.02 3227
-2287.1 1070.25 3252
-2288.43 1074.53 3265
-2312.06 1089.34 3310
-2304.14 1089.34 3310
-2323.98 1102.5 3350
-2358.83 1122.91 3412
-2350.67 1122.91 3412
-2342.51 1122.91 3412
-2334.35 1122.91 3412
-2326.19 1122.91 3412
-2318.03 1122.91 3412
-2300.4 1118.3 3398
-2292.27 1118.3 3398
-2284.15 1118.3 3398
-2276.02 1118.3 3398
-2258.55 1113.69 3384
-2245.8 1111.39 3377
-2251.64 1118.3 3398
-2248.14 1120.6 3405
-2240 1120.6 3405
-2241.03 1125.21 3419
-2242 1129.82 3433
-2266.32 1146.27 3483
-2257.99 1146.27 3483
-2258.71 1150.88 3497
-2250.34 1150.88 3497
-2241.98 1150.88 3497
-2233.62 1150.88 3497
-2211.89 1143.97 3476
-2180.76 1132.12 3440
-2172.53 1132.12 3440
-2159.9 1129.82 3433
-2151.69 1129.82 3433
-2188.44 1153.51 3505
-2180.06 1153.51 3505
-2171.68 1153.51 3505
-2163.3 1153.51 3505
-2154.91 1153.51 3505
-2146.53 1153.51 3505
-2133.27 1150.88 3497
-2124.91 1150.88 3497
-2125.63 1155.82 3512
-2117.23 1155.82 3512
-2108.83 1155.82 3512
-2100.43 1155.82 3512
-2092.03 1155.82 3512
-2083.63 1155.82 3512
-2075.24 1155.82 3512
-2066.84 1155.82 3512
-2067.23 1160.75 3527
-2067.55 1165.69 3542
-2059.08 1165.69 3542
-2050.61 1165.69 3542
-2037.53 1163.06 3534
-2029.08 1163.06 3534
-2016.63 1160.75 3527
-1983.14 1146.27 3483
-1970.84 1143.97 3476
-1978.9 1153.51 3505
-1970.52 1153.51 3505
-1966.06 1155.82 3512
-1962.12 1158.45 3520
-1953.7 1158.45 3520
-1945.28 1158.45 3520
-1936.87 1158.45 3520
-1920.23 1153.51 3505
-1911.85 1153.51 3505
-1899.12 1150.88 3497
-1883.19 1146.27 3483
-1871.1 1143.97 3476
-1862.78 1143.97 3476
-1846.47 1139.03 3461
-1827.04 1132.12 3440
-1785.5 1111.39 3377
-1777.43 1111.39 3377
-1782.05 1150.88 3497
-1773.69 1150.88 3497
-1765.33 1150.88 3497
-1756.96 1150.88 3497
-1752.6 1153.51 3505
-1744.22 1153.51 3505
-1735.84 1153.51 3505
-1745.69 1165.69 3542
-1755.86 1178.19 3580
-1762.43 1188.4 3611
-1753.79 1188.4 3611
-1756.76 1196.3 3635
-1759.13 1203.87 3658
-1750.38 1203.87 3658
-1741.63 1203.87 3658
-1732.88 1203.87 3658
-1705.76 1191.03 3619
-1697.1 1191.03 3619
-1680.98 1185.76 3603
-1640.34 1163.06 3534
-1628.66 1160.75 3527
-1606.44 1150.88 3497
-1598.08 1150.88 3497
-1589.72 1150.88 3497
-1558.74 1134.42 3447
-1544.2 1129.82 3433
-1535.99 1129.82 3433
-1527.78 1129.82 3433
-1510.28 1122.91 3412
-1499.04 1120.6 3405
-1490.9 1120.6 3405
-1464.46 1106.78 3363
-1450.79 1102.5 3350
-1439.77 1100.2 3343
-1431.77 1100.2 3343
-1421.22 1098.22 3337
-1410.28 1095.92 3330
-1402.32 1095.92 3330
-1394.35 1095.92 3330
-1386.39 1095.92 3330
-1373.05 1091.64 3317
-1362.23 1089.34 3310
-1354.32 1089.34 3310
-1351.69 1093.61 3323
-1343.74 1093.61 3323
-1341.43 1098.22 3337
-1341.44 1104.8 3357
-1335.79 1106.78 3363
-1327.75 1106.78 3363
-1327.95 1113.69 3384
-1330.78 1122.91 3412
-1322.62 1122.91 3412
-1341.81 1146.27 3483
-1336.16 1148.58 3490
-1336.19 1155.82 3512
-1327.79 1155.82 3512
-1319.39 1155.82 3512
-1310.99 1155.82 3512
-1302.6 1155.82 3512
-1294.2 1155.82 3512
-1285.8 1155.82 3512
-1280.31 1158.45 3520
-1279.84 1165.69 3542
-1273.89 1167.99 3549
-1265.4 1167.99 3549
-1256.91 1167.99 3549
-1248.43 1167.99 3549
-1245.53 1173.26 3565
-1237 1173.26 3565
-1233.65 1178.19 3580
-1225.09 1178.19 3580
-1216.53 1178.19 3580
-1207.96 1178.19 3580
-1199.4 1178.19 3580
-1168.22 1155.82 3512
-1159.83 1155.82 3512
-1146.51 1150.88 3497
-1133.59 1146.27 3483
-559.562 570.009 1732
-561.513 576.262 1751
-558.281 577.25 1754
-555.982 579.224 1760
-551.773 579.224 1760
-547.564 579.224 1760
-544.899 580.87 1765
-540.679 580.87 1765
-536.458 580.87 1765
-532.237 580.87 1765
-528.017 580.87 1765
-523.796 580.87 1765
-518.692 579.883 1762
-514.479 579.883 1762
-510.265 579.883 1762
-506.339 580.212 1763
-502.123 580.212 1763
-497.907 580.212 1763
-493.691 580.212 1763
-490.031 580.87 1765
-485.81 580.87 1765
-482.135 581.528 1767
-478.451 582.186 1769
-474.22 582.186 1769
-469.99 582.186 1769
-466.287 582.844 1771
-464.139 585.477 1779
-460.143 585.806 1780
-455.887 585.806 1780
-451.63 585.806 1780
-447.374 585.806 1780
-443.117 585.806 1780
-438.121 584.819 1777
-432.895 583.503 1773
-428.172 582.844 1771
-423.937 582.844 1771
-417.806 580.212 1763
-413.355 579.883 1762
-406.123 575.604 1749
-401.481 574.946 1747
-397.304 574.946 1747
-391.101 571.984 1738
-386.054 570.668 1734
-379.265 566.718 1722
-375.147 566.718 1722
-369.521 564.415 1715
-364.141 562.44 1709
-359.844 562.111 1708
-355.759 562.111 1708
-351.263 561.453 1706
-346.166 559.807 1701
-341.696 559.149 1699
-337.633 559.149 1699
-333.178 558.491 1697
-329.12 558.491 1697
-325.062 558.491 1697
-321.76 559.807 1701
-317.88 560.136 1702
-313.81 560.136 1702
-309.74 560.136 1702
-306.029 560.794 1704
-302.308 561.453 1706
-298.229 561.453 1706
-294.494 562.111 1708
-291.77 564.744 1716
-288.002 565.402 1718
-283.894 565.402 1718
-280.111 566.06 1720
-276.479 567.047 1723
-272.991 568.364 1727
-268.862 568.364 1727
-265.498 570.009 1732
-261.658 570.668 1734
-258.403 572.642 1740
-254.242 572.642 1740
-250.512 573.63 1743
-246.91 574.946 1747
-243.288 576.262 1751
-239.101 576.262 1751
-235.584 577.908 1756
-231.912 579.224 1760
-228.35 580.87 1765
-224.13 580.87 1765
-220.657 582.844 1771
-216.666 583.503 1773
-213.505 586.465 1782
-209.243 586.465 1782
-205.442 587.781 1786
-201.622 589.097 1790
-197.341 589.097 1790
-193.061 589.097 1790
-188.991 589.756 1792
-184.912 590.414 1794
-181.227 592.389 1800
-176.922 592.389 1800
-173.001 593.705 1804
-168.968 594.692 1807
-164.829 595.35 1809
-160.503 595.35 1809
-157.041 598.642 1819
-152.859 599.3 1821
-148.994 601.274 1827
-144.625 601.274 1827
-140.87 603.907 1835
-136.779 605.224 1839
-132.382 605.224 1839
-127.984 605.224 1839
-123.721 605.882 1841
-119.319 605.882 1841
-114.916 605.882 1841
67.8871 1183.13 3595
77.3349 1196.3 3635
86.0273 1196.3 3635
94.7196 1196.3 3635
103.412 1196.3 3635
111.611 1191.03 3619
120.265 1191.03 3619
128.634 1188.4 3611
137.269 1188.4 3611
145.904 1188.4 3611
154.539 1188.4 3611
162.135 1180.83 3588
170.715 1180.83 3588
179.645 1183.13 3595
189.079 1188.4 3611
197.714 1188.4 3611
206.349 1188.4 3611
214.508 1185.76 3603
223.124 1185.76 3603
231.74 1185.76 3603
239.822 1183.13 3595
247.935 1180.83 3588
255.371 1175.56 3572
263.913 1175.56 3572
271.921 1173.26 3565
279.187 1167.99 3549
288.322 1170.63 3557
296.828 1170.63 3557
305.334 1170.63 3557
313.84 1170.63 3557
322.345 1170.63 3557
330.851 1170.63 3557
339.357 1170.63 3557
347.863 1170.63 3557
363.303 1139.03 3461
371.58 1139.03 3461
379.856 1139.03 3461
386.562 1134.42 3447
394.805 1134.42 3447
402.23 1132.12 3440
408.785 1127.51 3426
414.422 1120.6 3405
422.564 1120.6 3405
430.707 1120.6 3405
438.849 1120.6 3405
446.991 1120.6 3405
455.134 1120.6 3405
462.324 1118.3 3398
467.542 1111.39 3377
472.801 1104.8 3357
480.828 1104.8 3357
486.817 1100.2 3343
494.811 1100.2 3343
500.85 1095.92 3330
508.813 1095.92 3330
516.776 1095.92 3330
523.636 1093.61 3323
531.582 1093.61 3323
539.529 1093.61 3323
547.475 1093.61 3323
555.421 1093.61 3323
563.368 1093.61 3323
571.314 1093.61 3323
580.48 1095.92 3330
588.444 1095.92 3330
597.66 1098.22 3337
605.64 1098.22 3337
613.62 1098.22 3337
621.6 1098.22 3337
629.579 1098.22 3337
637.559 1098.22 3337
645.539 1098.22 3337
653.519 1098.22 3337
661.498 1098.22 3337
669.478 1098.22 3337
677.458 1098.22 3337
685.438 1098.22 3337
693.418 1098.22 3337
702.659 1100.2 3343
710.653 1100.2 3343
718.647 1100.2 3343
726.641 1100.2 3343
734.635 1100.2 3343
742.629 1100.2 3343
750.623 1100.2 3343
758.617 1100.2 3343
766.612 1100.2 3343
774.606 1100.2 3343
784.238 1102.5 3350
792.249 1102.5 3350
801.932 1104.8 3357
811.408 1106.78 3363
819.45 1106.78 3363
827.492 1106.78 3363
835.534 1106.78 3363
842.07 1104.8 3357
850.098 1104.8 3357
856.336 1102.5 3350
862.541 1100.2 3343
868.973 1098.22 3337
876.953 1098.22 3337
884.932 1098.22 3337
894.518 1100.2 3343
906.291 1104.8 3357
917.86 1109.08 3370
929.765 1113.69 3384
937.857 1113.69 3384
949.863 1118.3 3398
961.935 1122.91 3412
972.085 1125.21 3419
980.26 1125.21 3419
996.531 1134.42 3447
1013.23 1143.97 3476
1032.12 1155.82 3512
1040.52 1155.82 3512
1048.92 1155.82 3512
1122.58 1198.6 3642
1141.54 1209.46 3675
1150.33 1209.46 3675
1159.11 1209.46 3675
1167.9 1209.46 3675
1166.12 1198.6 3642
1174.83 1198.6 3642
1181.27 1196.3 3635
1188.1 1185.76 3603
1196.72 1185.76 3603
1205.33 1185.76 3603
1206.2 1178.19 3580
1214.76 1178.19 3580
1223.32 1178.19 3580
1229.13 1175.56 3572
1232.47 1170.63 3557
1240.98 1170.63 3557
1244.22 1165.69 3542
1257.99 1170.63 3557
1266.5 1170.63 3557
1277.87 1173.26 3565
1291.81 1178.19 3580
1300.37 1178.19 3580
1308.93 1178.19 3580
1317.49 1178.19 3580
1326.05 1178.19 3580
1334.61 1178.19 3580
1343.17 1178.19 3580
1354.75 1180.83 3588
1365.99 1183.13 3595
1374.59 1183.13 3595
1383.19 1183.13 3595
1380.17 1173.26 3565
1385.58 1170.63 3557
1394.08 1170.63 3557
1396.68 1165.69 3542
1405.15 1165.69 3542
1410.42 1163.06 3534
1418.87 1163.06 3534
1427.32 1163.06 3534
1423.99 1153.51 3505
1429.11 1150.88 3497
1428.84 1143.97 3476
1437.15 1143.97 3476
1430.49 1132.12 3440
1421.15 1118.3 3398
1423.39 1113.69 3384
1431.48 1113.69 3384
1439.57 1113.69 3384
1450.66 1115.99 3391
1458.77 1115.99 3391
1466.88 1115.99 3391
1474.98 1115.99 3391
1483.09 1115.99 3391
1497.36 1120.6 3405
1524.07 1134.42 3447
1545.21 1143.97 3476
1553.52 1143.97 3476
1564.98 1146.27 3483
1573.3 1146.27 3483
1581.63 1146.27 3483
1589.96 1146.27 3483
1584.98 1136.73 3454
1809.63 1102.5 3350
1817.64 1102.5 3350
1825.65 1102.5 3350
1833.66 1102.5 3350
1868.06 1118.3 3398
1891.65 1127.51 3426
1899.84 1127.51 3426
1908.03 1127.51 3426
1908.39 1122.91 3412
1908.69 1118.3 3398
1916.81 1118.3 3398
1873.34 1070.25 3252
1881.12 1070.25 3252
1888.89 1070.25 3252
1896.67 1070.25 3252
1904.44 1070.25 3252
1886.35 1055.77 3208
-2356.98 1043.56 3148
-2349.46 1043.56 3148
-2328.54 1037.6 3130
-2312.15 1033.62 3118
-2304.7 1033.62 3118
-2323.77 1045.55 3154
-2316.22 1045.55 3154
-2313.07 1047.54 3160
-2305.52 1047.54 3160
-2297.96 1047.54 3160
-2286.06 1045.55 3154
-2274.18 1043.56 3148
-2279.61 1049.53 3166
-2276.35 1051.52 3172
-2268.76 1051.52 3172
-2269.73 1055.5 3184
-2274.9 1061.46 3202
-2284.95 1069.75 3227
-2277.23 1069.75 3227
-2287.1 1078.04 3252
-2288.43 1082.35 3265
-2312.06 1097.27 3310
-2304.14 1097.27 3310
-2323.98 1110.53 3350
-2358.83 1131.08 3412
-2350.67 1131.08 3412
-2342.51 1131.08 3412
-2334.35 1131.08 3412
-2326.19 1131.08 3412
-2318.03 1131.08 3412
-2300.4 1126.44 3398
-2296.99 1128.76 3405
-2288.85 1128.76 3405
-2280.71 1128.76 3405
-2258.55 1121.8 3384
-2259.77 1126.44 3398
-2256.28 1128.76 3405
-2257.38 1133.4 3419
-2249.21 1133.4 3419
-2250.21 1138.04 3433
-2246.57 1140.36 3440
-2266.32 1154.62 3483
-2257.99 1154.62 3483
-2268.4 1164.23 3512
-2260 1164.23 3512
-2251.6 1164.23 3512
-2243.2 1164.23 3512
-2216.35 1154.62 3483
-2203.58 1152.29 3476
-2195.27 1152.29 3476
-2159.9 1138.04 3433
-2151.69 1138.04 3433
-2188.44 1161.91 3505
-2189.39 1166.88 3520
-2180.97 1166.88 3520
-2172.55 1166.88 3520
-2164.14 1166.88 3520
-2155.72 1166.88 3520
-2147.3 1166.88 3520
-2134.02 1164.23 3512
-2125.63 1164.23 3512
-2117.23 1164.23 3512
-2108.83 1164.23 3512
-2100.43 1164.23 3512
-2092.03 1164.23 3512
-2083.63 1164.23 3512
-2075.24 1164.23 3512
-2066.84 1164.23 3512
-2067.23 1169.2 3527
-2071.64 1176.49 3549
-2063.15 1176.49 3549
-2054.67 1176.49 3549
-2046.18 1176.49 3549
-2037.69 1176.49 3549
-2016.63 1169.2 3527
-1995.67 1161.91 3505
-1974.81 1154.62 3483
-1982.85 1164.23 3512
-1974.46 1164.23 3512
-1970.54 1166.88 3520
-1966.02 1169.2 3527
-1957.59 1169.2 3527
-1949.15 1169.2 3527
-1936.87 1166.88 3520
-1920.23 1161.91 3505
-1911.85 1161.91 3505
-1899.12 1159.26 3497
-1883.19 1154.62 3483
-1871.1 1152.29 3476
-1862.78 1152.29 3476
-1846.47 1147.32 3461
-1827.04 1140.36 3440
-1785.5 1119.48 3377
-1777.43 1119.48 3377
-1782.05 1159.26 3497
-1773.69 1159.26 3497
-1765.33 1159.26 3497
-1756.96 1159.26 3497
-1752.6 1161.91 3505
-1744.22 1161.91 3505
-1735.84 1161.91 3505
-1745.69 1174.17 3542
-1755.86 1186.77 3580
-1774.14 1205 3635
-1765.45 1205 3635
-1764.01 1209.98 3650
-1767.3 1218.26 3675
-1762.34 1220.92 3683
-1753.54 1220.92 3683
-1744.73 1220.92 3683
-1724.14 1212.63 3658
-1715.39 1212.63 3658
-1688.45 1199.7 3619
-1672.37 1194.4 3603
-1628.66 1169.2 3527
-1613.33 1164.23 3512
-1604.93 1164.23 3512
-1589.72 1159.26 3497
-1571.86 1152.29 3476
-1563.55 1152.29 3476
-1555.23 1152.29 3476
-1537.13 1145 3454
-1528.87 1145 3454
-1502.12 1131.08 3412
-1493.96 1131.08 3412
-1464.46 1114.84 3363
-1450.79 1110.53 3350
-1439.77 1108.21 3343
-1431.77 1108.21 3343
-1421.22 1106.22 3337
-1410.28 1103.9 3330
-1402.32 1103.9 3330
-1394.35 1103.9 3330
-1386.39 1103.9 3330
-1373.05 1099.59 3317
-1362.23 1097.27 3310
-1354.32 1097.27 3310
-1351.69 1101.58 3323
-1343.74 1101.58 3323
-1341.43 1106.22 3337
-1341.44 1112.85 3357
-1335.79 1114.84 3363
-1327.75 1114.84 3363
-1322.46 1117.16 3370
-1330.78 1131.08 3412
-1322.62 1131.08 3412
-1344.51 1156.94 3490
-1347.65 1166.88 3520
-1339.23 1166.88 3520
-1330.82 1166.88 3520
-1322.4 1166.88 3520
-1310.99 1164.23 3512
-1302.6 1164.23 3512
-1294.2 1164.23 3512
-1285.8 1164.23 3512
-1279.84 1174.17 3542
-1276.76 1179.15 3557
-1268.25 1179.15 3557
-1262.58 1181.8 3565
-1254.05 1181.8 3565
-1250.77 1186.77 3580
-1242.21 1186.77 3580
-1238.82 1191.74 3595
-1235.7 1197.05 3611
-1227.06 1197.05 3611
-1218.43 1197.05 3611
-1199.4 1186.77 3580
-572.166 582.777 1758
-567.962 582.777 1758
-563.758 582.777 1758
-561.145 584.435 1763
-558.825 586.424 1769
-554.595 586.424 1769
-550.364 586.424 1769
-545.517 585.761 1767
-541.291 585.761 1767
-537.066 585.761 1767
-532.237 585.098 1765
-528.017 585.098 1765
-523.796 585.098 1765
-518.692 584.103 1762
-514.479 584.103 1762
-510.555 584.435 1763
-506.913 585.098 1765
-502.693 585.098 1765
-498.472 585.098 1765
-494.251 585.098 1765
-490.031 585.098 1765
-485.81 585.098 1765
-482.135 585.761 1767
-478.992 587.087 1771
-474.757 587.087 1771
-470.522 587.087 1771
-467.34 588.413 1775
-464.4 590.07 1780
-460.66 590.733 1782
-456.399 590.733 1782
-452.138 590.733 1782
-447.374 590.07 1780
-443.117 590.07 1780
-438.614 589.739 1779
-432.895 587.75 1773
-428.172 587.087 1771
-423.937 587.087 1771
-418.754 585.761 1767
-413.355 584.103 1762
-407.749 582.114 1756
-401.481 579.131 1747
-397.304 579.131 1747
-391.776 577.142 1741
-386.054 574.821 1734
-379.925 571.838 1725
-375.8 571.838 1725
-370.167 569.517 1718
-364.993 567.86 1713
-360.054 566.534 1709
-355.968 566.534 1709
-351.263 565.539 1706
-346.166 563.882 1701
-341.696 563.219 1699
-337.633 563.219 1699
-333.571 563.219 1699
-329.12 562.556 1697
-325.062 562.556 1697
-321.76 563.882 1701
-317.693 563.882 1701
-313.625 563.882 1701
-309.74 564.213 1702
-306.029 564.876 1704
-302.308 565.539 1706
-298.229 565.539 1706
-294.667 566.534 1709
-291.6 568.523 1715
-288.002 569.517 1718
-283.894 569.517 1718
-280.111 570.18 1720
-276.479 571.175 1723
-273.308 573.164 1729
-269.173 573.164 1729
-265.498 574.158 1732
-261.96 575.484 1736
-258.106 576.147 1738
-253.95 576.147 1738
-250.512 577.805 1743
-246.91 579.131 1747
-243.288 580.457 1751
-239.101 580.457 1751
-235.584 582.114 1756
-231.912 583.44 1760
-228.35 585.098 1765
-224.13 585.098 1765
-220.657 587.087 1771
-216.911 588.413 1775
-213.505 590.733 1782
-209.243 590.733 1782
-205.672 592.722 1788
-201.622 593.385 1790
-197.782 594.711 1794
-193.492 594.711 1794
-189.202 594.711 1794
-185.325 596.037 1798
-181.227 596.7 1800
-176.922 596.7 1800
-173.001 598.026 1804
-168.968 599.021 1807
-164.829 599.684 1809
-160.503 599.684 1809
-157.213 603.662 1821
-153.195 604.988 1825
-148.994 605.651 1827
-144.625 605.651 1827
-141.023 608.966 1837
-136.928 610.292 1841
-132.526 610.292 1841
-128.123 610.292 1841
-123.855 610.955 1843
-119.448 610.955 1843
-115.041 610.955 1843
77.3349 1205 3635
86.0273 1205 3635
94.7196 1205 3635
103.412 1205 3635
111.611 1199.7 3619
120.265 1199.7 3619
128.634 1197.05 3611
137.269 1197.05 3611
145.581 1194.4 3603
154.197 1194.4 3603
162.135 1189.42 3588
170.715 1189.42 3588
179.645 1191.74 3595
189.917 1202.35 3627
198.59 1202.35 3627
207.264 1202.35 3627
215.937 1202.35 3627
224.61 1202.35 3627
232.254 1197.05 3611
239.822 1191.74 3595
247.935 1189.42 3588
255.943 1186.77 3580
264.504 1186.77 3580
271.31 1179.15 3557
279.187 1176.49 3549
288.322 1179.15 3557
296.828 1179.15 3557
305.334 1179.15 3557
313.84 1179.15 3557
322.345 1179.15 3557
330.851 1179.15 3557
338.594 1176.49 3549
377.551 1140.36 3440
385.777 1140.36 3440
394.003 1140.36 3440
402.23 1140.36 3440
408.785 1135.72 3426
414.422 1128.76 3405
422.564 1128.76 3405
430.707 1128.76 3405
438.849 1128.76 3405
446.991 1128.76 3405
455.134 1128.76 3405
462.324 1126.44 3398
467.542 1119.48 3377
472.801 1112.85 3357
480.828 1112.85 3357
486.817 1108.21 3343
494.811 1108.21 3343
500.85 1103.9 3330
508.813 1103.9 3330
516.776 1103.9 3330
523.636 1101.58 3323
531.582 1101.58 3323
539.529 1101.58 3323
547.475 1101.58 3323
555.421 1101.58 3323
563.368 1101.58 3323
571.314 1101.58 3323
580.48 1103.9 3330
588.444 1103.9 3330
597.66 1106.22 3337
605.64 1106.22 3337
613.62 1106.22 3337
621.6 1106.22 3337
629.579 1106.22 3337
637.559 1106.22 3337
645.539 1106.22 3337
653.519 1106.22 3337
661.498 1106.22 3337
669.478 1106.22 3337
677.458 1106.22 3337
685.438 1106.22 3337
693.418 1106.22 3337
702.659 1108.21 3343
710.653 1108.21 3343
718.647 1108.21 3343
726.641 1108.21 3343
733.317 1106.22 3337
741.296 1106.22 3337
750.623 1108.21 3343
758.617 1108.21 3343
766.612 1108.21 3343
774.606 1108.21 3343
784.238 1110.53 3350
792.249 1110.53 3350
801.932 1112.85 3357
811.408 1114.84 3363
819.45 1114.84 3363
827.492 1114.84 3363
835.534 1114.84 3363
842.07 1112.85 3357
850.098 1112.85 3357
854.547 1108.21 3343
860.993 1106.22 3337
867.15 1103.9 3330
875.113 1103.9 3330
881.22 1101.58 3323
894.518 1108.21 3343
906.291 1112.85 3357
917.86 1117.16 3370
929.765 1121.8 3384
937.857 1121.8 3384
949.863 1126.44 3398
961.935 1131.08 3412
972.085 1133.4 3419
980.26 1133.4 3419
996.531 1142.68 3447
1013.23 1152.29 3476
1032.12 1164.23 3512
1040.52 1164.23 3512
1048.92 1164.23 3512
1141.54 1218.26 3675
1150.33 1218.26 3675
1159.11 1218.26 3675
1167.9 1218.26 3675
1166.12 1207.32 3642
1174.83 1207.32 3642
1186.42 1184.12 3572
1194.96 1184.12 3572
1203.5 1184.12 3572
1212.05 1184.12 3572
1220.59 1184.12 3572
1223.97 1179.15 3557
1229.7 1176.49 3549
1235.75 1174.17 3542
1244.22 1174.17 3542
1252.69 1174.17 3542
1258.31 1171.52 3534
1272.13 1176.49 3549
1286.4 1181.8 3565
1294.92 1181.8 3565
1303.44 1181.8 3565
1311.97 1181.8 3565
1320.49 1181.8 3565
1329.02 1181.8 3565
1331.54 1176.49 3549
1340.03 1176.49 3549
1354.59 1181.8 3565
1363.12 1181.8 3565
1371.64 1181.8 3565
1377.07 1179.15 3557
1373.89 1169.2 3527
1382.33 1169.2 3527
1378.93 1159.26 3497
1387.29 1159.26 3497
1398.85 1161.91 3505
1407.23 1161.91 3505
1415.61 1161.91 3505
1420.74 1159.26 3497
1420.52 1152.29 3476
1414.04 1140.36 3440
1422.26 1140.36 3440
1413.02 1126.44 3398
1409.44 1117.16 3370
1406.14 1108.21 3343
1417.1 1110.53 3350
1436.59 1119.48 3377
1444.67 1119.48 3377
1452.74 1119.48 3377
1466.88 1124.12 3391
1474.98 1124.12 3391
1483.09 1124.12 3391
1497.36 1128.76 3405
1524.07 1142.68 3447
1545.21 1152.29 3476
1553.52 1152.29 3476
1564.98 1154.62 3483
1573.3 1154.62 3483
1581.63 1154.62 3483
1589.96 1154.62 3483
1809.63 1110.53 3350
1817.64 1110.53 3350
1825.65 1110.53 3350
1833.66 1110.53 3350
1868.06 1126.44 3398
1891.65 1135.72 3426
1899.84 1135.72 3426
1908.03 1135.72 3426
1908.39 1131.08 3412
1908.69 1126.44 3398
1916.81 1126.44 3398
1865.85 1073.73 3239
1873.6 1073.73 3239
1881.34 1073.73 3239
1889.09 1073.73 3239
1896.83 1073.73 3239
1886.35 1063.45 3208
-2343.51 1045.09 3130
-2336.02 1045.09 3130
-2319.61 1041.09 3118
-2304 1037.41 3107
-2300.26 1039.08 3112
-2319.35 1051.1 3148
-2311.82 1051.1 3148
-2304.29 1051.1 3148
-2296.76 1051.1 3148
-2289.23 1051.1 3148
-2277.36 1049.1 3142
-2269.84 1049.1 3142
-2266.65 1051.1 3148
-2267.73 1055.11 3160
-2260.18 1055.11 3160
-2261.18 1059.12 3172
-2262.12 1063.12 3184
-2267.25 1069.13 3202
-2259.59 1069.13 3202
-2273.74 1079.48 3233
-2270.21 1081.49 3239
-2284.82 1092.17 3271
-2276.99 1092.17 3271
-2301.08 1107.53 3317
-2339.47 1129.9 3384
-2331.38 1129.9 3384
-2323.29 1129.9 3384
-2315.2 1129.9 3384
-2288.7 1120.89 3357
-2308.52 1134.58 3398
-2300.4 1134.58 3398
-2296.99 1136.92 3405
-2288.85 1136.92 3405
-2280.71 1136.92 3405
-2258.55 1129.9 3384
-2259.77 1134.58 3398
-2256.28 1136.92 3405
-2257.38 1141.59 3419
-2249.21 1141.59 3419
-2250.21 1146.26 3433
-2246.57 1148.6 3440
-2266.32 1162.96 3483
-2257.99 1162.96 3483
-2268.4 1172.64 3512
-2260 1172.64 3512
-2251.6 1172.64 3512
-2243.2 1172.64 3512
-2216.35 1162.96 3483
-2203.58 1160.62 3476
-2195.27 1160.62 3476
-2155.5 1143.93 3426
-2189.39 1175.31 3520
-2180.97 1175.31 3520
-2172.55 1175.31 3520
-2164.14 1175.31 3520
-2155.72 1175.31 3520
-2147.3 1175.31 3520
-2134.02 1172.64 3512
-2116.55 1167.63 3497
-2108.18 1167.63 3497
-2099.82 1167.63 3497
-2096.24 1170.3 3505
-2087.86 1170.3 3505
-2079.48 1170.3 3505
-2071.1 1170.3 3505
-2062.72 1170.3 3505
-2067.23 1177.65 3527
-2071.64 1185 3549
-2063.15 1185 3549
-2054.67 1185 3549
-2046.18 1185 3549
-2037.69 1185 3549
-2016.63 1177.65 3527
-1995.67 1170.3 3505
-1974.81 1162.96 3483
-1982.85 1172.64 3512
-1974.46 1172.64 3512
-1970.54 1175.31 3520
-1966.02 1177.65 3527
-1957.59 1177.65 3527
-1949.15 1177.65 3527
-1936.87 1175.31 3520
-1920.23 1170.3 3505
-1911.85 1170.3 3505
-1899.12 1167.63 3497
-1883.19 1162.96 3483
-1871.1 1160.62 3476
-1862.78 1160.62 3476
-1846.47 1155.61 3461
-1827.04 1148.6 3440
-1773.69 1167.63 3497
-1765.33 1167.63 3497
-1756.96 1167.63 3497
-1748.6 1167.63 3497
-1740.24 1167.63 3497
-1755.86 1195.35 3580
-1774.14 1213.71 3635
-1765.45 1213.71 3635
-1764.01 1218.72 3650
-1767.3 1227.07 3675
-1762.34 1229.74 3683
-1753.54 1229.74 3683
-1744.73 1229.74 3683
-1724.14 1221.39 3658
-1715.39 1221.39 3658
-1688.45 1208.37 3619
-1672.37 1203.03 3603
-1628.66 1177.65 3527
-1613.33 1172.64 3512
-1604.93 1172.64 3512
-1589.72 1167.63 3497
-1571.86 1160.62 3476
-1563.55 1160.62 3476
-1555.23 1160.62 3476
-1537.13 1153.28 3454
-1528.87 1153.28 3454
-1502.12 1139.25 3412
-1493.96 1139.25 3412
-1458.8 1118.55 3350
-1447.76 1116.21 3343
-1437.18 1114.21 3337
-1429.2 1114.21 3337
-1418.24 1111.87 3330
-1401.81 1105.19 3310
-1396.84 1107.53 3317
-1388.91 1107.53 3317
-1380.98 1107.53 3317
-1373.05 1107.53 3317
-1354 1098.52 3290
-1346.13 1098.52 3290
-1346.4 1105.19 3310
-1338.49 1105.19 3310
-1335.8 1109.54 3323
-1335.84 1116.21 3343
-1335.79 1122.89 3363
-1327.75 1122.89 3363
-1322.46 1125.23 3370
-1330.78 1139.25 3412
-1322.62 1139.25 3412
-1344.51 1165.3 3490
-1347.65 1175.31 3520
-1339.23 1175.31 3520
-1330.82 1175.31 3520
-1322.4 1175.31 3520
-1310.99 1172.64 3512
-1302.6 1172.64 3512
-1294.2 1172.64 3512
-1285.8 1172.64 3512
-1279.84 1182.66 3542
-1279.63 1190.34 3565
-1271.1 1190.34 3565
-1262.58 1190.34 3565
-1259.33 1195.35 3580
-1250.77 1195.35 3580
-1242.21 1195.35 3580
-1249.84 1211.04 3627
-1243.91 1213.71 3635
-1235.22 1213.71 3635
-1226.52 1213.71 3635
-1199.4 1195.35 3580
-572.166 586.989 1758
-567.962 586.989 1758
-565.361 588.658 1763
-563.692 591.329 1771
-560.088 591.997 1773
-555.849 591.997 1773
-551.609 591.997 1773
-545.517 589.994 1767
-541.291 589.994 1767
-537.066 589.994 1767
-532.237 589.326 1765
-528.017 589.326 1765
-523.796 589.326 1765
-518.692 588.324 1762
-514.479 588.324 1762
-510.555 588.658 1763
-507.488 589.994 1767
-503.262 589.994 1767
-499.037 589.994 1767
-494.251 589.326 1765
-490.031 589.326 1765
-485.81 589.326 1765
-482.681 590.662 1769
-479.533 591.997 1773
-475.293 591.997 1773
-471.053 591.997 1773
-467.866 593.333 1777
-464.921 595.002 1782
-460.66 595.002 1782
-456.399 595.002 1782
-452.645 595.67 1784
-448.379 595.67 1784
-444.113 595.67 1784
-439.354 595.002 1782
-434.36 594.001 1779
-430.106 594.001 1779
-425.852 594.001 1779
-419.702 591.329 1771
-414.059 589.326 1765
-409.142 588.324 1762
-402.63 584.985 1752
-398.441 584.985 1752
-393.126 583.316 1747
-386.945 580.311 1738
-380.806 577.306 1729
-376.672 577.306 1729
-370.598 574.301 1720
-365.42 572.631 1715
-360.476 571.296 1711
-356.384 571.296 1711
-351.675 570.294 1708
-346.37 568.291 1702
-341.696 567.289 1699
-337.633 567.289 1699
-333.571 567.289 1699
-329.508 567.289 1699
-325.062 566.621 1697
-321.76 567.957 1701
-317.693 567.957 1701
-313.625 567.957 1701
-309.74 568.291 1702
-306.029 568.958 1704
-302.308 569.626 1706
-298.229 569.626 1706
-294.667 570.628 1709
-291.6 572.631 1715
-288.002 573.633 1718
-283.894 573.633 1718
-280.111 574.301 1720
-276.479 575.302 1723
-273.308 577.306 1729
-269.173 577.306 1729
-265.498 578.307 1732
-261.96 579.643 1736
-258.106 580.311 1738
-253.95 580.311 1738
-250.8 582.648 1745
-247.192 583.984 1749
-243.288 584.651 1751
-239.101 584.651 1751
-235.853 586.989 1758
-232.176 588.324 1762
-228.868 590.662 1769
-224.638 590.662 1769
-221.155 592.665 1775
-217.155 593.333 1777
-213.744 595.67 1784
-209.478 595.67 1784
-205.902 597.673 1790
-202.072 599.009 1794
-197.782 599.009 1794
-193.492 599.009 1794
-189.624 600.345 1798
-185.531 601.012 1800
-181.629 602.348 1804
-177.315 602.348 1804
-173.097 602.682 1805
-169.155 604.017 1809
-165.194 605.353 1813
-160.858 605.353 1813
-157.213 608.024 1821
-153.363 610.028 1827
-149.32 611.363 1831
-144.941 611.363 1831
-141.177 614.034 1839
-137.226 616.038 1845
-132.814 616.038 1845
-128.402 616.038 1845
-123.99 616.038 1845
-119.578 616.038 1845
-115.166 616.038 1845
77.3349 1213.71 3635
86.0273 1213.71 3635
94.7196 1213.71 3635
103.412 1213.71 3635
111.611 1208.37 3619
120.265 1208.37 3619
128.349 1203.03 3603
136.965 1203.03 3603
144.975 1198.02 3588
153.555 1198.02 3588
162.135 1198.02 3588
170.715 1198.02 3588
189.917 1211.04 3627
198.59 1211.04 3627
207.264 1211.04 3627
215.937 1211.04 3627
224.61 1211.04 3627
232.254 1205.7 3611
240.355 1203.03 3603
248.419 1200.36 3595
255.943 1195.35 3580
264.504 1195.35 3580
271.31 1187.67 3557
279.187 1185 3549
288.97 1190.34 3565
297.495 1190.34 3565
306.02 1190.34 3565
314.545 1190.34 3565
322.345 1187.67 3557
330.851 1187.67 3557
338.594 1185 3549
376.783 1146.26 3433
385.777 1148.6 3440
394.003 1148.6 3440
402.23 1148.6 3440
408.785 1143.93 3426
414.422 1136.92 3405
422.564 1136.92 3405
430.707 1136.92 3405
438.849 1136.92 3405
446.991 1136.92 3405
455.134 1136.92 3405
461.371 1132.24 3391
467.542 1127.57 3377
472.801 1120.89 3357
480.828 1120.89 3357
486.817 1116.21 3343
494.811 1116.21 3343
500.85 1111.87 3330
508.813 1111.87 3330
516.776 1111.87 3330
522.691 1107.53 3317
530.623 1107.53 3317
539.529 1109.54 3323
547.475 1109.54 3323
555.421 1109.54 3323
562.35 1107.53 3317
570.282 1107.53 3317
580.48 1111.87 3330
588.444 1111.87 3330
597.66 1114.21 3337
605.64 1114.21 3337
613.62 1114.21 3337
620.296 1111.87 3330
628.259 1111.87 3330
637.559 1114.21 3337
645.539 1114.21 3337
653.519 1114.21 3337
661.498 1114.21 3337
668.074 1111.87 3330
676.037 1111.87 3330
684 1111.87 3330
693.418 1114.21 3337
702.659 1116.21 3343
710.653 1116.21 3343
718.647 1116.21 3343
726.641 1116.21 3343
733.317 1114.21 3337
741.296 1114.21 3337
749.276 1114.21 3337
757.256 1114.21 3337
765.236 1114.21 3337
774.606 1116.21 3343
782.6 1116.21 3343
790.594 1116.21 3343
798.588 1116.21 3343
809.96 1120.89 3357
817.988 1120.89 3357
826.015 1120.89 3357
834.043 1120.89 3357
838.559 1116.21 3343
846.553 1116.21 3343
853.013 1114.21 3337
859.187 1111.87 3330
863.765 1107.53 3317
871.697 1107.53 3317
879.629 1107.53 3317
892.912 1114.21 3337
906.291 1120.89 3357
917.86 1125.23 3370
929.765 1129.9 3384
937.857 1129.9 3384
949.863 1134.58 3398
961.935 1139.25 3412
972.085 1141.59 3419
980.26 1141.59 3419
996.531 1150.94 3447
1013.23 1160.62 3476
1032.12 1172.64 3512
1040.52 1172.64 3512
1048.92 1172.64 3512
1150.33 1227.07 3675
1159.11 1227.07 3675
1167.9 1227.07 3675
1204.24 1185 3549
1212.73 1185 3549
1221.21 1185 3549
1227.28 1182.66 3542
1230.51 1177.65 3527
1236.49 1175.31 3520
1244.91 1175.31 3520
1253.32 1175.31 3520
1264.25 1177.65 3527
1275.21 1179.99 3534
1283.66 1179.99 3534
1292.11 1179.99 3534
1300.56 1179.99 3534
1309.01 1179.99 3534
1317.46 1179.99 3534
1315.03 1170.3 3505
1320.39 1167.63 3497
1331.8 1170.3 3505
1340.18 1170.3 3505
1348.56 1170.3 3505
1356.94 1170.3 3505
1354.03 1160.62 3476
1342.74 1143.93 3426
1350.93 1143.93 3426
1359.13 1143.93 3426
1367.32 1143.93 3426
1372.7 1141.59 3419
1380.88 1141.59 3419
1389.05 1141.59 3419
1391.51 1136.92 3405
1388.14 1127.57 3377
1396.22 1127.57 3377
1401.38 1125.23 3370
1398.15 1116.21 3343
1400.67 1111.87 3330
1414.14 1116.21 3343
1425.11 1118.55 3350
1433.12 1118.55 3350
1452.74 1127.57 3377
1466.88 1132.24 3391
1474.98 1132.24 3391
1483.09 1132.24 3391
1497.36 1136.92 3405
1524.07 1150.94 3447
1545.21 1160.62 3476
1553.52 1160.62 3476
1564.98 1162.96 3483
1579.63 1167.63 3497
1587.99 1167.63 3497
1596.35 1167.63 3497
1753.62 1098.52 3290
1772.19 1105.19 3310
1780.11 1105.19 3310
1809.63 1118.55 3350
1817.64 1118.55 3350
1825.65 1118.55 3350
1833.66 1118.55 3350
1879.61 1141.59 3419
1891.65 1143.93 3426
1899.84 1143.93 3426
1908.03 1143.93 3426
1908.39 1139.25 3412
1908.69 1134.58 3398
1916.81 1134.58 3398
1863.33 1071.14 3208
1871.01 1071.14 3208
1878.68 1071.14 3208
1886.35 1071.14 3208
-2334.52 1048.56 3118
-2327.07 1048.56 3118
-2315.15 1046.54 3112
-2304 1044.86 3107
-2296.57 1044.86 3107
-2310.5 1054.61 3136
-2303.01 1054.61 3136
-2299.9 1056.63 3142
-2292.38 1056.63 3142
-2284.87 1056.63 3142
-2273.01 1054.61 3136
-2265.51 1054.61 3136
-2262.33 1056.63 3142
-2259.12 1058.64 3148
-2251.6 1058.64 3148
-2252.62 1062.68 3160
-2249.33 1064.7 3166
-2258.75 1072.77 3190
-2251.12 1072.77 3190
-2256.15 1078.82 3208
-2270.21 1089.25 3239
-2280.63 1097.99 3265
-2272.82 1097.99 3265
-2287.21 1108.75 3297
-2320.81 1128.93 3357
-2312.78 1128.93 3357
-2304.75 1128.93 3357
-2296.72 1128.93 3357
-2283.92 1126.58 3350
-2308.52 1142.72 3398
-2300.4 1142.72 3398
-2296.99 1145.07 3405
-2288.85 1145.07 3405
-2280.71 1145.07 3405
-2258.55 1138.01 3384
-2259.77 1142.72 3398
-2256.28 1145.07 3405
-2257.38 1149.78 3419
-2249.21 1149.78 3419
-2250.21 1154.49 3433
-2246.57 1156.84 3440
-2266.32 1171.3 3483
-2257.99 1171.3 3483
-2268.4 1181.05 3512
-2260 1181.05 3512
-2251.6 1181.05 3512
-2243.2 1181.05 3512
-2230.35 1178.7 3505
-2208.02 1171.3 3483
-2199.69 1171.3 3483
-2142.29 1145.07 3405
-2189.39 1183.75 3520
-2180.97 1183.75 3520
-2195.39 1196.19 3557
-2186.88 1196.19 3557
-2178.38 1196.19 3557
-2169.87 1196.19 3557
-2143.14 1186.1 3527
-2125.63 1181.05 3512
-2117.23 1181.05 3512
-2108.83 1181.05 3512
-2109.4 1186.1 3527
-2100.97 1186.1 3527
-2092.53 1186.1 3527
-2071.1 1178.7 3505
-2066.84 1181.05 3512
-2071.33 1188.45 3534
-2094.4 1206.61 3588
-2085.82 1206.61 3588
-2081.3 1208.97 3595
-2072.7 1208.97 3595
-2064.1 1208.97 3595
-2033.78 1196.19 3557
-2008.19 1186.1 3527
-1987.28 1178.7 3505
-1982.85 1181.05 3512
-1974.46 1181.05 3512
-1970.54 1183.75 3520
-1966.02 1186.1 3527
-1957.59 1186.1 3527
-1949.15 1186.1 3527
-1774.14 1222.42 3635
-1765.45 1222.42 3635
-1764.01 1227.46 3650
-1767.3 1235.87 3675
-1773.83 1246.63 3707
-1764.96 1246.63 3707
-1756.1 1246.63 3707
-1735.92 1238.56 3683
-1727.11 1238.56 3683
-1710.84 1233.18 3667
-1679.79 1217.04 3619
-1628.66 1186.1 3527
-1613.33 1181.05 3512
-1604.93 1181.05 3512
-1589.72 1176.01 3497
-1571.86 1168.95 3476
-1563.55 1168.95 3476
-1555.23 1168.95 3476
-1546.92 1168.95 3476
-1528.87 1161.55 3454
-1508.28 1152.13 3426
-1500.09 1152.13 3426
-1458.8 1126.58 3350
-1447.76 1124.22 3343
-1434.17 1119.85 3330
-1426.21 1119.85 3330
-1415.26 1117.5 3323
-1401.81 1113.12 3310
-1393.89 1113.12 3310
-1385.98 1113.12 3310
-1378.06 1113.12 3310
-1359.39 1104.38 3284
-1349.06 1102.36 3278
-1341.22 1102.36 3278
-1338.27 1106.4 3290
-1330.4 1106.4 3290
-1330.57 1113.12 3310
-1327.85 1117.5 3323
-1327.85 1124.22 3343
-1319.86 1124.22 3343
-1317.36 1128.93 3357
-1330.78 1147.43 3412
-1322.62 1147.43 3412
-1344.51 1173.66 3490
-1347.65 1183.75 3520
-1339.23 1183.75 3520
-1330.82 1183.75 3520
-1322.4 1183.75 3520
-1279.63 1198.88 3565
-1271.1 1198.88 3565
-1262.58 1198.88 3565
-1259.33 1203.92 3580
-1250.77 1203.92 3580
-1242.21 1203.92 3580
-1249.84 1219.73 3627
-1243.91 1222.42 3635
-1235.22 1222.42 3635
-1226.52 1222.42 3635
-572.166 591.2 1758
-567.962 591.2 1758
-565.361 592.881 1763
-563.692 595.572 1771
-560.088 596.244 1773
-555.849 596.244 1773
-551.609 596.244 1773
-545.517 594.227 1767
-541.291 594.227 1767
-537.066 594.227 1767
-532.237 593.554 1765
-528.017 593.554 1765
-523.796 593.554 1765
-518.692 592.545 1762
-514.479 592.545 1762
-510.555 592.881 1763
-507.488 594.227 1767
-503.262 594.227 1767
-499.037 594.227 1767
-494.251 593.554 1765
-490.031 593.554 1765
-485.81 593.554 1765
-482.681 594.899 1769
-479.533 596.244 1773
-475.293 596.244 1773
-471.053 596.244 1773
-467.866 597.59 1777
-464.921 599.271 1782
-460.66 599.271 1782
-456.399 599.271 1782
-452.645 599.944 1784
-448.379 599.944 1784
-444.113 599.944 1784
-439.354 599.271 1782
-434.36 598.262 1779
-430.106 598.262 1779
-425.852 598.262 1779
-419.702 595.572 1771
-414.059 593.554 1765
-409.142 592.545 1762
-402.63 589.182 1752
-398.441 589.182 1752
-393.126 587.501 1747
-386.945 584.474 1738
-380.806 581.448 1729
-376.672 581.448 1729
-370.598 578.421 1720
-365.42 576.74 1715
-360.476 575.394 1711
-356.384 575.394 1711
-351.675 574.385 1708
-346.37 572.368 1702
-341.696 571.359 1699
-337.633 571.359 1699
-333.571 571.359 1699
-329.508 571.359 1699
-325.062 570.686 1697
-321.76 572.031 1701
-317.693 572.031 1701
-313.625 572.031 1701
-309.558 572.031 1701
-306.029 573.04 1704
-302.308 573.713 1706
-298.229 573.713 1706
-294.667 574.722 1709
-291.6 576.74 1715
-288.002 577.748 1718
-283.894 577.748 1718
-279.785 577.748 1718
-276.319 579.094 1722
-273.308 581.448 1729
-269.173 581.448 1729
-265.498 582.456 1732
-261.96 583.802 1736
-258.106 584.474 1738
-253.95 584.474 1738
-250.8 586.828 1745
-247.192 588.173 1749
-243.288 588.846 1751
-239.101 588.846 1751
-235.853 591.2 1758
-232.176 592.545 1762
-228.868 594.899 1769
-224.638 594.899 1769
-221.155 596.917 1775
-217.155 597.59 1777
-213.744 599.944 1784
-209.478 599.944 1784
-205.902 601.961 1790
-202.072 603.307 1794
-197.782 603.307 1794
-193.492 603.307 1794
-189.624 604.652 1798
-185.531 605.324 1800
-181.629 606.669 1804
-177.315 606.669 1804
-173.097 607.006 1805
-169.155 608.351 1809
-165.194 609.696 1813
-160.858 609.696 1813
-157.213 612.386 1821
-153.363 614.404 1827
-149.483 616.422 1833
-145.1 616.422 1833
-141.331 619.112 1841
-137.598 622.139 1850
-133.462 623.484 1854
-129.028 623.484 1854
-124.595 623.484 1854
-120.161 623.484 1854
-115.728 623.484 1854
77.3349 1222.42 3635
86.0273 1222.42 3635
94.7196 1222.42 3635
103.412 1222.42 3635
111.611 1217.04 3619
120.265 1217.04 3619
128.349 1211.66 3603
136.965 1211.66 3603
144.975 1206.61 3588
153.555 1206.61 3588
162.135 1206.61 3588
170.715 1206.61 3588
189.917 1219.73 3627
198.59 1219.73 3627
207.264 1219.73 3627
215.937 1219.73 3627
224.61 1219.73 3627
232.254 1214.35 3611
240.889 1214.35 3611
248.419 1208.97 3595
256.515 1206.61 3588
265.095 1206.61 3588
271.31 1196.19 3557
280.445 1198.88 3565
289.538 1201.23 3572
298.08 1201.23 3572
306.621 1201.23 3572
315.163 1201.23 3572
323.07 1198.88 3565
331.595 1198.88 3565
338.594 1193.5 3549
376.783 1154.49 3433
385.777 1156.84 3440
394.003 1156.84 3440
402.23 1156.84 3440
408.785 1152.13 3426
414.422 1145.07 3405
422.564 1145.07 3405
430.707 1145.07 3405
438.849 1145.07 3405
446.991 1145.07 3405
455.134 1145.07 3405
461.371 1140.36 3391
467.542 1135.66 3377
472.801 1128.93 3357
480.828 1128.93 3357
486.817 1124.22 3343
494.811 1124.22 3343
500.85 1119.85 3330
508.813 1119.85 3330
516.776 1119.85 3330
522.691 1115.48 3317
530.623 1115.48 3317
539.529 1117.5 3323
547.475 1117.5 3323
555.421 1117.5 3323
562.35 1115.48 3317
570.282 1115.48 3317
580.48 1119.85 3330
588.444 1119.85 3330
597.66 1122.2 3337
605.64 1122.2 3337
613.62 1122.2 3337
620.296 1119.85 3330
628.259 1119.85 3330
637.559 1122.2 3337
645.539 1122.2 3337
653.519 1122.2 3337
661.498 1122.2 3337
668.074 1119.85 3330
676.037 1119.85 3330
684 1119.85 3330
693.418 1122.2 3337
702.659 1124.22 3343
710.653 1124.22 3343
718.647 1124.22 3343
726.641 1124.22 3343
733.317 1122.2 3337
741.296 1122.2 3337
749.276 1122.2 3337
757.256 1122.2 3337
765.236 1122.2 3337
774.606 1124.22 3343
782.6 1124.22 3343
790.594 1124.22 3343
798.588 1124.22 3343
809.96 1128.93 3357
817.988 1128.93 3357
826.015 1128.93 3357
834.043 1128.93 3357
838.559 1124.22 3343
846.553 1124.22 3343
853.013 1122.2 3337
859.187 1119.85 3330
863.765 1115.48 3317
871.697 1115.48 3317
879.629 1115.48 3317
892.912 1122.2 3337
906.291 1128.93 3357
919.766 1135.66 3377
929.765 1138.01 3384
937.857 1138.01 3384
951.819 1145.07 3405
961.935 1147.43 3412
972.085 1149.78 3419
980.26 1149.78 3419
992.484 1154.49 3433
1008.85 1163.9 3461
1030.06 1178.7 3505
1038.44 1178.7 3505
1046.83 1178.7 3505
1179.47 1168.95 3476
1197.69 1178.7 3505
1206.07 1178.7 3505
1214.46 1178.7 3505
1222.84 1178.7 3505
1228.41 1176.01 3497
1236.77 1176.01 3497
1242.64 1173.66 3490
1250.99 1173.66 3490
1259.33 1173.66 3490
1267.68 1173.66 3490
1276.02 1173.66 3490
1284.37 1173.66 3490
1287.53 1168.95 3476
1295.84 1168.95 3476
1277.51 1145.07 3405
1290.94 1149.78 3419
1312.42 1161.55 3454
1320.68 1161.55 3454
1328.94 1161.55 3454
1337.2 1161.55 3454
1329.1 1147.43 3412
1320.79 1133.3 3370
1328.85 1133.3 3370
1336.91 1133.3 3370
1344.97 1133.3 3370
1353.03 1133.3 3370
1361.09 1133.3 3370
1369.15 1133.3 3370
1374.34 1130.95 3363
1379.92 1128.93 3357
1387.95 1128.93 3357
1390.15 1124.22 3343
1392.71 1119.85 3330
1392.26 1113.12 3310
1408.64 1119.85 3330
1425.11 1126.58 3350
1433.12 1126.58 3350
1449.73 1133.3 3370
1463.85 1138.01 3384
1474.98 1140.36 3391
1483.09 1140.36 3391
1497.36 1145.07 3405
1524.07 1159.2 3447
1545.21 1168.95 3476
1553.52 1168.95 3476
1561.83 1168.95 3476
1579.63 1176.01 3497
1587.99 1176.01 3497
1596.35 1176.01 3497
1753.62 1106.4 3290
1772.19 1113.12 3310
1780.11 1113.12 3310
1809.63 1126.58 3350
1817.64 1126.58 3350
1825.65 1126.58 3350
1833.66 1126.58 3350
1879.61 1149.78 3419
1891.65 1152.13 3426
1899.84 1152.13 3426
1908.03 1152.13 3426
1908.39 1147.43 3412
1900.83 1138.01 3384
1908.92 1138.01 3384
1890.38 1122.2 3337
1841.08 1074.79 3196
1848.72 1074.79 3196
1863.33 1078.82 3208
1871.01 1078.82 3208
1878.68 1078.82 3208
1872.24 1070.75 3184
1876.31 1068.73 3178
-2334.52 1056.03 3118
-2327.07 1056.03 3118
-2311.43 1052.3 3107
-2299.55 1050.27 3101
-2292.13 1050.27 3101
-2310.5 1062.12 3136
-2303.01 1062.12 3136
-2295.51 1062.12 3136
-2288.01 1062.12 3136
-2280.51 1062.12 3136
-2268.66 1060.09 3130
-2261.18 1060.09 3130
-2258.01 1062.12 3136
-2254.82 1064.15 3142
-2247.3 1064.15 3142
-2244.07 1066.19 3148
-2245.07 1070.25 3160
-2241.76 1072.28 3166
-2234.19 1072.28 3166
-2247.71 1082.44 3196
-2257.59 1090.91 3221
-2271.55 1101.41 3252
-2263.77 1101.41 3252
-2282.35 1114.28 3290
-2279.33 1116.65 3297
-2307.96 1134.6 3350
-2299.94 1134.6 3350
-2291.93 1134.6 3350
-2283.92 1134.6 3350
-2294.26 1143.75 3377
-2286.18 1143.75 3377
-2296.99 1153.23 3405
-2288.85 1153.23 3405
-2280.71 1153.23 3405
-2258.55 1146.12 3384
-2250.46 1146.12 3384
-2256.28 1153.23 3405
-2252.76 1155.6 3412
-2244.6 1155.6 3412
-2241.03 1157.97 3419
-2242 1162.71 3433
-2266.32 1179.65 3483
-2257.99 1179.65 3483
-2263.87 1187.1 3505
-2255.49 1187.1 3505
-2247.11 1187.1 3505
-2238.73 1187.1 3505
-2230.35 1187.1 3505
-2208.02 1179.65 3483
-2199.69 1179.65 3483
-2195.39 1204.71 3557
-2186.88 1204.71 3557
-2178.38 1204.71 3557
-2169.87 1204.71 3557
-2161.37 1204.71 3557
-2125.63 1189.47 3512
-2139.53 1202 3549
-2131.05 1202 3549
-2122.56 1202 3549
-2114.07 1202 3549
-2105.59 1202 3549
-2079.96 1192.18 3520
-2071.55 1192.18 3520
-2093.61 1209.79 3572
-2098.49 1217.58 3595
-2089.89 1217.58 3595
-2095.19 1225.71 3619
-2086.54 1225.71 3619
-2077.88 1225.71 3619
-2069.23 1225.71 3619
-2038.37 1212.5 3580
-2003.73 1196.92 3534
-1995.28 1196.92 3534
-1974.46 1189.47 3512
-1966.06 1189.47 3512
-1957.66 1189.47 3512
-1949.26 1189.47 3512
-1773.83 1255.51 3707
-1764.96 1255.51 3707
-1756.1 1255.51 3707
-1735.92 1247.38 3683
-1727.11 1247.38 3683
-1710.84 1241.96 3667
-1679.79 1225.71 3619
-1628.66 1194.55 3527
-1606.44 1184.39 3497
-1598.08 1184.39 3497
-1589.72 1184.39 3497
-1571.86 1177.28 3476
-1563.55 1177.28 3476
-1555.23 1177.28 3476
-1546.92 1177.28 3476
-1538.61 1177.28 3476
-1508.28 1160.34 3426
-1500.09 1160.34 3426
-1458.8 1134.6 3350
-1442.13 1127.83 3330
-1434.17 1127.83 3330
-1426.21 1127.83 3330
-1409.72 1121.05 3310
-1393.34 1114.28 3290
-1385.47 1114.28 3290
-1377.6 1114.28 3290
-1369.74 1114.28 3290
-1359.39 1112.25 3284
-1349.06 1110.22 3278
-1333.04 1103.44 3258
-1328.1 1105.81 3265
-1320.29 1105.81 3265
-1322.53 1114.28 3290
-1314.67 1114.28 3290
-1317.52 1123.42 3317
-1309.59 1123.42 3317
-1309.51 1130.2 3337
-1314.4 1141.37 3370
-1306.34 1141.37 3370
-1344.51 1182.02 3490
-1347.65 1192.18 3520
-1339.23 1192.18 3520
-1330.82 1192.18 3520
-1279.63 1207.42 3565
-1271.1 1207.42 3565
-1262.58 1207.42 3565
-1259.33 1212.5 3580
-1250.77 1212.5 3580
-1242.21 1212.5 3580
-1249.84 1228.42 3627
-1243.91 1231.13 3635
-1235.22 1231.13 3635
-1226.52 1231.13 3635
-572.166 595.411 1758
-567.962 595.411 1758
-565.361 597.105 1763
-564.328 600.492 1773
-560.088 600.492 1773
-555.849 600.492 1773
-551.609 600.492 1773
-545.517 598.46 1767
-541.291 598.46 1767
-537.066 598.46 1767
-531.634 597.105 1763
-527.119 596.766 1762
-522.906 596.766 1762
-518.692 596.766 1762
-514.771 597.105 1763
-511.134 597.782 1765
-507.488 598.46 1767
-503.262 598.46 1767
-499.037 598.46 1767
-494.811 598.46 1767
-490.586 598.46 1767
-486.361 598.46 1767
-482.681 599.137 1769
-479.533 600.492 1773
-476.365 601.846 1777
-472.116 601.846 1777
-467.866 601.846 1777
-464.921 603.54 1782
-461.694 604.895 1786
-457.423 604.895 1786
-453.66 605.572 1788
-449.384 605.572 1788
-445.109 605.572 1788
-440.833 605.572 1788
-435.581 604.217 1784
-431.315 604.217 1784
-427.049 604.217 1784
-421.835 602.862 1780
-415.467 599.814 1771
-410.303 598.46 1767
-403.549 594.734 1756
-399.35 594.734 1756
-394.251 593.379 1752
-388.503 591.008 1745
-381.908 587.283 1734
-377.761 587.283 1734
-371.675 584.235 1725
-366.485 582.541 1720
-361.318 580.848 1715
-357.217 580.848 1715
-351.881 578.816 1709
-346.777 577.122 1704
-342.099 576.106 1701
-338.031 576.106 1701
-333.571 575.429 1699
-329.508 575.429 1699
-325.062 574.751 1697
-321.76 576.106 1701
-317.693 576.106 1701
-313.625 576.106 1701
-309.558 576.106 1701
-306.029 577.122 1704
-302.308 577.8 1706
-298.229 577.8 1706
-294.667 578.816 1709
-291.6 580.848 1715
-288.002 581.864 1718
