1598.11 959.223 3595
1631.28 973.898 3650
1651.24 980.569 3675
1728.24 1020.86 3826
1737.39 1020.86 3826
1779.41 1040.07 3898
1801.12 1047.27 3925
1836.8 1062.48 3982
1846.32 1062.48 3982
1868.89 1069.95 4010
1887.85 1075.29 4030
1897.49 1075.29 4030
1907.12 1075.29 4030
1916.76 1075.29 4030
1921.62 1072.62 4020
1926.43 1069.95 4010
1936.01 1069.95 4010
1936.38 1064.88 3991
1927.4 1054.75 3953
1918.72 1044.87 3916
1928.09 1044.87 3916
1897.38 1023.26 3835
1880.7 1009.39 3783
1856.27 991.509 3716
1865.16 991.509 3716
1844.8 976.033 3658
1837.84 967.762 3627
1834.29 961.358 3603
1831.14 955.221 3580
1839.7 955.221 3580
1848.26 955.221 3580
1856.82 955.221 3580
1865.39 955.221 3580
1878.13 957.356 3588
1886.71 957.356 3588
1898.99 959.223 3595
1916.08 963.492 3611
1941.24 971.764 3642
1949.95 971.764 3642
1967.26 976.033 3658
1985.19 980.569 3675
2002.66 984.838 3691
2033.83 995.778 3732
2042.75 995.778 3732
2098.96 1018.72 3818
2147.29 1037.67 3889
2156.59 1037.67 3889
2170.9 1040.07 3898
2216.58 1057.41 3963
2226.05 1057.41 3963
2240.61 1059.82 3972
2250.11 1059.82 3972
2259.61 1059.82 3972
2285.67 1067.55 4001
2295.24 1067.55 4001
2304.81 1067.55 4001
2314.37 1067.55 4001
2312.9 1062.48 3982
2322.43 1062.48 3982
2331.95 1062.48 3982
2341.47 1062.48 3982
2350.99 1062.48 3982
2371.78 1067.55 4001
2381.35 1067.55 4001
2390.91 1067.55 4001
2400.48 1067.55 4001
2421.49 1072.62 4020
2431.11 1072.62 4020
2464.4 1083.03 4059
2474.11 1083.03 4059
2483.81 1083.03 4059
2493.52 1083.03 4059
2503.22 1083.03 4059
2519.12 1085.7 4069
2535.07 1088.36 4079
2544.82 1088.36 4079
2554.57 1088.36 4079
2558.04 1085.7 4069
2574.08 1088.36 4079
2583.84 1088.36 4079
2593.59 1088.36 4079
2603.35 1088.36 4079
2593.88 1080.36 4049
2603.56 1080.36 4049
2613.25 1080.36 4049
2622.93 1080.36 4049
2639.11 1083.03 4059
2655.34 1085.7 4069
2665.07 1085.7 4069
2674.8 1085.7 4069
2684.53 1085.7 4069
2694.27 1085.7 4069
2717.29 1091.03 4089
2727.06 1091.03 4089
2736.84 1091.03 4089
2746.62 1091.03 4089
2756.4 1091.03 4089
2766.18 1091.03 4089
2775.95 1091.03 4089
2778.92 1088.36 4079
2788.67 1088.36 4079
2784.71 1083.03 4059
2767.56 1072.62 4020
2770.27 1069.95 4010
2779.86 1069.95 4010
2769.97 1062.48 3982
2779.49 1062.48 3982
2768.7 1054.75 3953
2688.9 1020.86 3826
2698.05 1020.86 3826
542.774 190.511 714
544.481 190.511 714
546.189 190.511 714
-2374.95 853.956 3172
-2367.37 853.956 3172
-2355.32 852.341 3166
-2338.85 849.11 3154
-2326.87 847.495 3148
-2319.35 847.495 3148
-2303.01 844.265 3136
-2291.11 842.649 3130
-2283.63 842.649 3130
-2280.51 844.265 3136
-2273.01 844.265 3136
-2274.18 847.495 3148
-2270.97 849.11 3154
-2272.04 852.341 3166
-2264.47 852.341 3166
-2265.45 855.572 3178
-2274.9 862.033 3202
-2280.7 867.148 3221
-2273 867.148 3221
-2282.88 873.878 3246
-2292.64 880.609 3271
-2321.14 894.608 3323
-2313.19 894.608 3323
-2319.12 899.992 3343
-2320.81 903.762 3357
-2312.78 903.762 3357
-2304.75 903.762 3357
-2291.93 901.877 3350
-2283.92 901.877 3350
-2299.01 911.03 3384
-2290.92 911.03 3384
-2287.55 912.915 3391
-2288.85 916.684 3405
-2294.77 922.338 3426
-2286.58 922.338 3426
-2278.39 922.338 3426
-2284.11 927.991 3447
-2295.02 935.798 3476
-2286.7 935.798 3476
-2287.57 939.567 3490
-2279.22 939.567 3490
-2275.43 941.452 3497
-2267.07 941.452 3497
-2258.71 941.452 3497
-2255.49 943.606 3505
-2251.6 945.49 3512
-2243.2 945.49 3512
-2239.89 947.644 3520
-2245.42 953.567 3542
-2241.37 955.451 3549
-2232.89 955.451 3549
-2234.43 959.759 3565
-2235.27 963.797 3580
-2231.68 965.951 3588
-2223.1 965.951 3588
-2223.78 969.989 3603
-2220.08 972.143 3611
-2216.35 974.296 3619
-2207.69 974.296 3619
-2203.9 976.45 3627
-2200.07 978.604 3635
-2191.38 978.604 3635
-2182.69 978.604 3635
-2178.18 980.488 3642
-2174.24 982.642 3650
-2165.51 982.642 3650
-2156.78 982.642 3650
-2148.05 982.642 3650
-2139.32 982.642 3650
-2130.59 982.642 3650
-2117.22 980.488 3642
-2104.45 978.604 3635
-2091.15 976.45 3627
-2082.48 976.45 3627
-2073.8 976.45 3627
-2065.13 976.45 3627
-2051.92 974.296 3619
-2043.27 974.296 3619
-2034.61 974.296 3619
-2025.96 974.296 3619
-2017.3 974.296 3619
-2008.65 974.296 3619
-2000 974.296 3619
-1986.94 972.143 3611
-1978.3 972.143 3611
-1969.67 972.143 3611
-1961.03 972.143 3611
-1956.73 974.296 3619
-1952.38 976.45 3627
-1947.99 978.604 3635
-1939.3 978.604 3635
-1934.32 980.488 3642
-1934.07 984.796 3658
-1930.06 987.219 3667
-1921.3 987.219 3667
-1916.7 989.373 3675
-1907.91 989.373 3675
-1899.12 989.373 3675
-1890.33 989.373 3675
-1877.45 987.219 3667
-1864.1 984.796 3658
-1855.35 984.796 3658
-1846.6 984.796 3658
-1837.85 984.796 3658
-1829.11 984.796 3658
-1820.36 984.796 3658
-1811.61 984.796 3658
-1811.24 989.373 3675
-1802.45 989.373 3675
-1793.67 989.373 3675
-1780.99 987.219 3667
-1764.01 982.642 3650
-1751.43 980.488 3642
-1742.72 980.488 3642
-1723.06 974.296 3619
-1710.62 972.143 3611
-1687.37 963.797 3580
-1675.06 961.643 3572
-1666.52 961.643 3572
-1651.02 957.605 3557
-1638.82 955.451 3549
-1623.44 951.413 3534
-1614.99 951.413 3534
-1603.35 949.528 3527
-1591.75 947.644 3520
-1583.34 947.644 3520
-1574.92 947.644 3520
-1562.94 945.49 3512
-1551.45 943.606 3505
-1533.38 937.683 3483
-1525.05 937.683 3483
-1513.67 935.798 3476
-1498.86 931.76 3461
-1493.6 933.645 3468
-1485.31 933.645 3468
-1477.02 933.645 3468
-1475.08 937.683 3483
-1469.69 939.567 3490
-1464.28 941.452 3497
-1455.92 941.452 3497
-1447.56 941.452 3497
-1442.49 943.606 3505
-1434.1 943.606 3505
-1425.72 943.606 3505
-1417.34 943.606 3505
-1411.77 945.49 3512
-1403.38 945.49 3512
-1394.98 945.49 3512
-1386.58 945.49 3512
-1378.18 945.49 3512
-1381.48 953.567 3542
-1373.01 953.567 3542
-1370.32 957.605 3557
-1361.82 957.605 3557
-1353.31 957.605 3557
-1344.8 957.605 3557
-1336.3 957.605 3557
-1324.81 955.451 3549
-1316.32 955.451 3549
-1307.83 955.451 3549
-1299.35 955.451 3549
-1288.31 953.567 3542
-1279.84 953.567 3542
-1265.99 949.528 3527
-1257.55 949.528 3527
-1246.64 947.644 3520
-1235.41 945.49 3512
-1227.01 945.49 3512
-1210.98 939.567 3490
-1197.81 935.798 3476
-1184.36 931.76 3461
-1178.47 933.645 3468
-1170.17 933.645 3468
-1161.88 933.645 3468
-1132.63 916.684 3405
-1124.49 916.684 3405
-588.828 483.514 1796
-584.533 483.514 1796
-580.885 484.052 1798
-576.585 484.052 1798
-572.285 484.052 1798
-567.986 484.052 1798
-558.043 479.206 1780
-552.853 478.399 1777
-547.369 477.322 1773
-543.129 477.322 1773
-537.674 476.245 1769
-530.126 473.284 1758
-521.435 469.245 1743
-517.267 469.245 1743
-512.51 468.707 1741
-508.055 468.438 1740
-501.288 466.015 1731
-497.148 466.015 1731
-490.731 463.861 1723
-485.198 462.515 1718
-479.13 460.63 1711
-475.038 460.63 1711
-470.121 459.823 1708
-464.127 457.938 1701
-459.518 457.4 1699
-454.115 456.054 1694
-450.064 456.054 1694
-444.17 454.169 1687
-439.092 453.092 1683
-434.809 452.823 1682
-430.787 452.823 1682
-426.258 452.285 1680
-422.24 452.285 1680
-417.725 451.746 1678
-413.712 451.746 1678
-409.7 451.746 1678
-405.687 451.746 1678
-401.675 451.746 1678
-397.662 451.746 1678
-393.649 451.746 1678
-389.637 451.746 1678
-385.624 451.746 1678
-381.612 451.746 1678
-376.924 450.939 1675
-372.918 450.939 1675
-368.913 450.939 1675
-364.908 450.939 1675
-360.902 450.939 1675
-356.897 450.939 1675
-352.891 450.939 1675
-348.886 450.939 1675
-345.292 451.477 1677
-341.282 451.477 1677
-337.473 451.746 1678
-333.46 451.746 1678
-329.84 452.285 1680
-325.823 452.285 1680
-321.806 452.285 1680
-318.166 452.823 1682
-314.144 452.823 1682
-310.122 452.823 1682
-306.282 453.092 1683
-302.976 454.169 1687
-299.296 454.708 1689
-295.257 454.708 1689
-291.391 454.977 1690
-288.88 457.4 1699
-285.99 459.284 1706
-281.911 459.284 1706
-279.297 461.707 1715
-276.319 463.592 1722
-273.624 466.015 1731
-269.484 466.015 1731
-267.798 470.322 1747
-266.035 474.63 1763
-264.195 478.937 1779
-259.941 478.937 1779
-257.267 481.898 1790
-254.683 485.129 1802
-250.374 485.129 1802
-247.84 488.629 1815
-244.305 490.244 1821
-241.004 492.398 1829
-236.631 492.398 1829
-232.765 493.475 1833
-228.631 494.013 1835
-224.732 495.09 1839
-220.334 495.09 1839
-215.936 495.09 1839
-211.999 496.167 1843
-208.042 497.244 1847
-203.625 497.244 1847
-199.209 497.244 1847
-195.319 498.59 1852
-191.097 499.128 1854
-186.663 499.128 1854
-182.23 499.128 1854
-178.372 500.744 1860
-174.485 502.359 1866
-170.205 502.897 1868
-165.738 502.897 1868
-161.616 503.974 1872
-157.14 503.974 1872
-152.663 503.974 1872
-280.6 1049.41 3898
-271.279 1049.41 3898
-261.958 1049.41 3898
-252.053 1046.98 3889
-242.753 1046.98 3889
-235.074 1054.25 3916
-225.71 1054.25 3916
-216.346 1054.25 3916
-207.457 1056.68 3925
-198.071 1056.68 3925
-188.685 1056.68 3925
-178.888 1054.25 3916
-169.134 1051.83 3907
-159.424 1049.41 3898
-149.409 1044.56 3880
-140.131 1044.56 3880
-130.853 1044.56 3880
-121.01 1039.72 3862
-110.502 1027.87 3818
-101.372 1027.87 3818
-91.1787 1016.03 3774
-81.6097 1009.29 3749
-72.1603 1002.56 3724
-63.2551 1002.56 3724
-54.1017 997.987 3707
-44.8467 989.373 3675
-35.8918 984.796 3658
-27.1444 984.796 3658
-18.3166 980.488 3642
-9.50459 969.989 3603
-0.888721 969.989 3603
7.70999 967.835 3595
16.3067 967.835 3595
24.7441 961.643 3572
33.2206 959.759 3565
41.652 957.605 3557
50.1578 957.605 3557
58.6637 957.605 3557
67.0185 955.451 3549
75.5052 955.451 3549
83.9919 955.451 3549
92.2963 953.567 3542
100.539 951.413 3534
108.99 951.413 3534
117.44 951.413 3534
125.891 951.413 3534
134.342 951.413 3534
142.793 951.413 3534
151.244 951.413 3534
159.695 951.413 3534
168.146 951.413 3534
176.247 949.528 3527
184.681 949.528 3527
193.115 949.528 3527
201.149 947.644 3520
209.566 947.644 3520
217.488 945.49 3512
225.887 945.49 3512
234.285 945.49 3512
243.236 947.644 3520
251.653 947.644 3520
260.071 947.644 3520
267.878 945.49 3512
276.276 945.49 3512
285.89 949.528 3527
294.909 951.413 3534
303.359 951.413 3534
311.81 951.413 3534
320.261 951.413 3534
328.712 951.413 3534
337.163 951.413 3534
345.614 951.413 3534
354.866 953.567 3542
363.336 953.567 3542
371.806 953.567 3542
379.417 951.413 3534
384.685 943.606 3505
393.067 943.606 3505
399.73 939.567 3490
405.504 933.645 3468
412.126 929.876 3454
418.682 926.107 3440
426.908 926.107 3440
431.592 918.568 3412
437.947 914.799 3398
442.397 907.261 3370
450.455 907.261 3370
457.562 905.377 3363
462.004 898.377 3337
468.012 894.608 3323
475.958 894.608 3323
482.012 891.108 3310
488.891 889.224 3303
496.789 889.224 3303
504.688 889.224 3303
512.586 889.224 3303
520.485 889.224 3303
529.503 891.108 3310
537.418 891.108 3310
546.487 892.993 3317
554.419 892.993 3317
562.35 892.993 3317
570.282 892.993 3317
578.214 892.993 3317
586.146 892.993 3317
596.407 896.493 3330
605.64 898.377 3337
613.62 898.377 3337
621.6 898.377 3337
629.579 898.377 3337
637.559 898.377 3337
645.539 898.377 3337
653.519 898.377 3337
662.688 899.992 3343
670.682 899.992 3343
678.676 899.992 3343
686.67 899.992 3343
694.664 899.992 3343
701.397 898.377 3337
709.377 898.377 3337
717.357 898.377 3337
723.815 896.493 3330
731.778 896.493 3330
738.186 894.608 3323
746.133 894.608 3323
754.079 894.608 3323
762.025 894.608 3323
768.581 892.993 3317
776.513 892.993 3317
784.445 892.993 3317
789.033 889.224 3303
796.931 889.224 3303
808.241 892.993 3317
816.173 892.993 3317
824.105 892.993 3317
835.298 896.493 3330
843.261 896.493 3330
851.224 896.493 3330
867.701 905.377 3363
879.389 909.146 3377
892.983 914.799 3398
901.109 914.799 3398
918.6 924.222 3433
932.478 929.876 3454
944.551 933.645 3468
952.844 933.645 3468
969.174 941.452 3497
983.966 947.644 3520
1000.56 955.451 3549
1009.05 955.451 3549
1019.83 957.605 3557
1034.98 963.797 3580
1047.91 967.835 3595
1058.86 969.989 3603
1067.48 969.989 3603
1085.65 978.604 3635
1098.86 982.642 3650
1107.59 982.642 3650
1116.32 982.642 3650
1125.04 982.642 3650
1133.77 982.642 3650
1142.5 982.642 3650
1151.23 982.642 3650
1162.5 984.796 3658
1171.25 984.796 3658
1179.99 984.796 3658
1188.74 984.796 3658
1197.49 984.796 3658
1206.24 984.796 3658
1214.98 984.796 3658
1223.73 984.796 3658
1232.48 984.796 3658
1241.23 984.796 3658
1249.97 984.796 3658
1258.72 984.796 3658
1267.47 984.796 3658
1276.22 984.796 3658
1284.96 984.796 3658
1293.71 984.796 3658
1302.46 984.796 3658
1311.21 984.796 3658
1319.95 984.796 3658
1328.7 984.796 3658
1337.45 984.796 3658
1343.25 982.642 3650
1351.98 982.642 3650
1360.71 982.642 3650
1366.43 980.488 3642
1369.48 976.45 3627
1378.15 976.45 3627
1386.83 976.45 3627
1389.34 972.143 3611
1394.88 969.989 3603
1400.38 967.835 3595
1408.98 967.835 3595
1411.66 963.797 3580
1417.05 961.643 3572
1422.79 959.759 3565
1428.11 957.605 3557
1436.61 957.605 3557
1432.93 949.528 3527
1438.5 947.644 3520
1443.63 945.49 3512
1452.03 945.49 3512
1454.19 941.452 3497
1456.7 937.683 3483
1462.08 935.798 3476
1470.4 935.798 3476
1478.71 935.798 3476
1493.01 939.567 3490
1510.82 945.49 3512
1528.73 951.413 3534
1537.19 951.413 3534
1549.14 953.567 3542
1564.2 957.605 3557
1589.51 967.835 3595
1612.33 976.45 3627
1631.28 982.642 3650
1651.24 989.373 3675
1728.24 1030.02 3826
1737.39 1030.02 3826
1779.41 1049.41 3898
1801.12 1056.68 3925
1836.8 1072.02 3982
1846.32 1072.02 3982
1868.89 1079.56 4010
1887.85 1084.94 4030
1897.49 1084.94 4030
1907.12 1084.94 4030
1916.76 1084.94 4030
1921.62 1082.25 4020
1926.43 1079.56 4010
1936.01 1079.56 4010
1936.38 1074.45 3991
1927.4 1064.21 3953
1918.72 1054.25 3916
1928.09 1054.25 3916
1897.38 1032.45 3835
1880.7 1018.45 3783
1856.27 1000.41 3716
1865.16 1000.41 3716
1844.8 984.796 3658
1837.84 976.45 3627
1834.29 969.989 3603
1831.14 963.797 3580
1839.7 963.797 3580
1848.26 963.797 3580
1856.82 963.797 3580
1865.39 963.797 3580
1878.13 965.951 3588
1886.71 965.951 3588
1898.99 967.835 3595
1916.08 972.143 3611
1941.24 980.488 3642
1949.95 980.488 3642
1967.26 984.796 3658
1985.19 989.373 3675
2002.66 993.68 3691
2033.83 1004.72 3732
2042.75 1004.72 3732
2098.96 1027.87 3818
2147.29 1046.98 3889
2156.59 1046.98 3889
2170.9 1049.41 3898
2216.58 1066.91 3963
2226.05 1066.91 3963
2240.61 1069.33 3972
2250.11 1069.33 3972
2259.61 1069.33 3972
2285.67 1077.14 4001
2295.24 1077.14 4001
2304.81 1077.14 4001
2314.37 1077.14 4001
2312.9 1072.02 3982
2322.43 1072.02 3982
2331.95 1072.02 3982
2341.47 1072.02 3982
2350.99 1072.02 3982
2371.78 1077.14 4001
2381.35 1077.14 4001
2390.91 1077.14 4001
2400.48 1077.14 4001
2421.49 1082.25 4020
2431.11 1082.25 4020
2464.4 1092.75 4059
2474.11 1092.75 4059
2483.81 1092.75 4059
2493.52 1092.75 4059
2503.22 1092.75 4059
2519.12 1095.44 4069
2535.07 1098.14 4079
2544.82 1098.14 4079
2554.57 1098.14 4079
2558.04 1095.44 4069
2574.08 1098.14 4079
2583.84 1098.14 4079
2593.59 1098.14 4079
2603.35 1098.14 4079
2600.29 1092.75 4059
2609.99 1092.75 4059
2613.25 1090.06 4049
2622.93 1090.06 4049
2645.61 1095.44 4069
2655.34 1095.44 4069
2665.07 1095.44 4069
2674.8 1095.44 4069
2684.53 1095.44 4069
2694.27 1095.44 4069
2717.29 1100.83 4089
2727.06 1100.83 4089
2736.84 1100.83 4089
2746.62 1100.83 4089
2756.4 1100.83 4089
2766.18 1100.83 4089
2775.95 1100.83 4089
2785.73 1100.83 4089
2795.51 1100.83 4089
2798.43 1098.14 4079
2780.64 1087.37 4039
2777.18 1082.25 4020
2786.79 1082.25 4020
2789.45 1079.56 4010
2799.04 1079.56 4010
2795.32 1074.45 3991
2688.9 1030.02 3826
2698.05 1030.02 3826
542.774 192.221 714
544.481 192.221 714
546.189 192.221 714
-2374.95 861.555 3172
-2367.37 861.555 3172
-2359.78 861.555 3172
-2338.85 856.666 3154
-2326.87 855.036 3148
-2319.35 855.036 3148
-2303.01 851.777 3136
-2291.11 850.147 3130
-2283.63 850.147 3130
-2280.51 851.777 3136
-2273.01 851.777 3136
-2278.51 856.666 3154
-2275.29 858.296 3160
-2276.35 861.555 3172
-2268.76 861.555 3172
-2269.73 864.814 3184
-2279.17 871.333 3208
-2284.95 876.494 3227
-2277.23 876.494 3227
-2291.32 884.914 3258
-2301.75 891.976 3284
-2326.03 904.47 3330
-2318.07 904.47 3330
-2328.83 911.803 3357
-2320.81 911.803 3357
-2312.78 911.803 3357
-2304.75 911.803 3357
-2296.72 911.803 3357
-2297.56 915.334 3370
-2299.01 919.137 3384
-2290.92 919.137 3384
-2292.27 922.939 3398
-2288.85 924.841 3405
-2294.77 930.544 3426
-2286.58 930.544 3426
-2283.04 932.446 3433
-2284.11 936.248 3447
-2295.02 944.125 3476
-2286.7 944.125 3476
-2287.57 947.928 3490
-2279.22 947.928 3490
-2275.43 949.829 3497
-2267.07 949.829 3497
-2258.71 949.829 3497
-2260 953.903 3512
-2256.73 956.076 3520
-2248.31 956.076 3520
-2248.8 959.879 3534
-2245.42 962.052 3542
-2246.43 966.126 3557
-2237.92 966.126 3557
-2238.82 970.2 3572
-2235.27 972.373 3580
-2236.04 976.447 3595
-2227.44 976.447 3595
-2223.78 978.62 3603
-2225 982.966 3619
-2221.25 985.139 3627
-2212.57 985.139 3627
-2203.9 985.139 3627
-2200.07 987.312 3635
-2195.6 989.213 3642
-2186.89 989.213 3642
-2182.96 991.386 3650
-2174.24 991.386 3650
-2165.51 991.386 3650
-2156.78 991.386 3650
-2148.05 991.386 3650
-2139.32 991.386 3650
-2130.59 991.386 3650
-2117.22 989.213 3642
-2104.45 987.312 3635
-2091.15 985.139 3627
-2082.48 985.139 3627
-2073.8 985.139 3627
-2065.13 985.139 3627
-2051.92 982.966 3619
-2043.27 982.966 3619
-2034.61 982.966 3619
-2025.96 982.966 3619
-2017.3 982.966 3619
-2008.65 982.966 3619
-2000 982.966 3619
-1986.94 980.793 3611
-1978.3 980.793 3611
-1969.67 980.793 3611
-1961.03 980.793 3611
-1956.73 982.966 3619
-1952.38 985.139 3627
-1947.99 987.312 3635
-1939.3 987.312 3635
-1930.61 987.312 3635
-1929.84 991.386 3650
-1930.06 996.003 3667
-1921.3 996.003 3667
-1912.53 996.003 3667
-1903.76 996.003 3667
-1894.99 996.003 3667
-1886.22 996.003 3667
-1877.45 996.003 3667
-1864.1 993.559 3658
-1855.35 993.559 3658
-1842.56 991.386 3650
-1833.83 991.386 3650
-1829.11 993.559 3658
-1824.84 996.003 3667
-1816.07 996.003 3667
-1811.24 998.176 3675
-1802.45 998.176 3675
-1793.67 998.176 3675
-1784.88 998.176 3675
-1772.22 996.003 3667
-1755.28 991.386 3650
-1746.55 991.386 3650
-1726.87 985.139 3627
-1710.62 980.793 3611
-1691.14 974.546 3588
-1675.06 970.2 3572
-1666.52 970.2 3572
-1651.02 966.126 3557
-1638.82 963.953 3549
-1620.22 957.977 3527
-1611.79 957.977 3527
-1600.17 956.076 3520
-1591.75 956.076 3520
-1579.74 953.903 3512
-1571.34 953.903 3512
-1559.83 952.002 3505
-1541.71 946.026 3483
-1533.38 946.026 3483
-1525.05 946.026 3483
-1507.14 940.051 3461
-1495.83 938.15 3454
-1487.57 938.15 3454
-1482.31 940.051 3461
-1474.04 940.051 3461
-1468.72 941.952 3468
-1466.75 946.026 3483
-1461.35 947.928 3490
-1453 947.928 3490
-1444.66 947.928 3490
-1439.19 949.829 3497
-1434.1 952.002 3505
-1425.72 952.002 3505
-1417.34 952.002 3505
-1411.77 953.903 3512
-1403.38 953.903 3512
-1394.98 953.903 3512
-1386.58 953.903 3512
-1378.18 953.903 3512
-1378.36 959.879 3534
-1369.91 959.879 3534
-1367.24 963.953 3549
-1358.75 963.953 3549
-1350.27 963.953 3549
-1341.78 963.953 3549
-1333.29 963.953 3549
-1324.81 963.953 3549
-1316.32 963.953 3549
-1305.25 962.052 3542
-1296.78 962.052 3542
-1288.31 962.052 3542
-1279.84 962.052 3542
-1265.99 957.977 3527
-1255.06 956.076 3520
-1246.64 956.076 3520
-1232.95 952.002 3505
-1224.57 952.002 3505
-1210.98 947.928 3490
-1197.81 944.125 3476
-1184.36 940.051 3461
-1176.09 940.051 3461
-1167.81 940.051 3461
-1159.54 940.051 3461
-1132.63 924.841 3405
-1124.49 924.841 3405
-588.172 487.273 1794
-583.882 487.273 1794
-580.238 487.816 1796
-575.944 487.816 1796
-571.649 487.816 1796
-567.354 487.816 1796
-557.73 483.199 1779
-552.853 482.655 1777
-548.604 482.655 1777
-544.355 482.655 1777
-537.674 480.483 1769
-530.729 478.038 1760
-523.828 475.594 1751
-519.641 475.594 1751
-513.099 473.421 1743
-508.055 472.606 1740
-501.288 470.161 1731
-497.148 470.161 1731
-490.731 467.988 1723
-485.198 466.63 1718
-479.13 464.729 1711
-475.038 464.729 1711
-470.121 463.914 1708
-464.4 462.285 1702
-459.518 461.47 1699
-454.383 460.383 1695
-450.33 460.383 1695
-444.697 458.754 1689
-440.136 458.21 1687
-435.068 457.124 1683
-431.043 457.124 1683
-426.765 456.852 1682
-422.24 456.309 1680
-418.223 456.309 1680
-414.205 456.309 1680
-409.7 455.766 1678
-405.687 455.766 1678
-401.675 455.766 1678
-397.662 455.766 1678
-393.649 455.766 1678
-390.101 456.309 1680
-386.084 456.309 1680
-382.066 456.309 1680
-377.599 455.766 1678
-373.586 455.766 1678
-369.353 455.494 1677
-365.343 455.494 1677
-361.333 455.494 1677
-357.323 455.494 1677
-353.313 455.494 1677
-349.302 455.494 1677
-345.498 455.766 1678
-341.485 455.766 1678
-337.473 455.766 1678
-333.858 456.309 1680
-330.233 456.852 1682
-326.211 456.852 1682
-322.189 456.852 1682
-318.356 457.124 1683
-314.331 457.124 1683
-310.306 457.124 1683
-307.01 458.21 1687
-302.976 458.21 1687
-299.473 459.025 1690
-295.432 459.025 1690
-291.735 459.568 1692
-289.22 462.013 1701
-286.326 463.914 1708
-282.241 463.914 1708
-279.297 465.815 1715
-276.319 467.717 1722
-273.624 470.161 1731
-269.484 470.161 1731
-267.798 474.507 1747
-266.035 478.853 1763
-263.898 482.655 1777
-259.648 482.655 1777
-257.267 486.186 1790
-254.683 489.446 1802
-250.374 489.446 1802
-247.84 492.977 1815
-244.305 494.606 1821
-241.004 496.779 1829
-236.631 496.779 1829
-232.765 497.866 1833
-228.631 498.409 1835
-224.732 499.495 1839
-220.334 499.495 1839
-215.936 499.495 1839
-211.999 500.582 1843
-208.042 501.668 1847
-203.625 501.668 1847
-199.209 501.668 1847
-195.319 503.026 1852
-191.097 503.57 1854
-186.865 504.113 1856
-182.426 504.113 1856
-178.372 505.199 1860
-174.672 507.372 1868
-170.752 509.002 1874
-166.27 509.002 1874
-162.048 509.817 1877
-157.56 509.817 1877
-153.071 509.817 1877
-269.4 1051.41 3871
-260.143 1051.41 3871
-250.887 1051.41 3871
-241.63 1051.41 3871
-234.534 1061.19 3907
-225.191 1061.19 3907
-215.849 1061.19 3907
-207.457 1066.08 3925
-198.071 1066.08 3925
-188.685 1066.08 3925
-178.888 1063.63 3916
-169.134 1061.19 3907
-159.424 1058.75 3898
-149.409 1053.86 3880
-140.131 1053.86 3880
-130.853 1053.86 3880
-121.01 1048.97 3862
-110.502 1037.02 3818
-101.372 1037.02 3818
-91.1787 1025.07 3774
-81.6097 1018.28 3749
-72.1603 1011.49 3724
-63.2551 1011.49 3724
-53.985 1004.69 3699
-44.7491 996.003 3667
-35.8918 993.559 3658
-27.1444 993.559 3658
-18.3166 989.213 3642
-9.54679 982.966 3619
-0.888721 978.62 3603
7.72714 978.62 3603
16.343 978.62 3603
24.7995 972.373 3580
33.2859 970.2 3572
41.7456 968.299 3565
50.2706 968.299 3565
58.7956 968.299 3565
67.1695 966.126 3557
75.5052 963.953 3549
83.9919 963.953 3549
92.2963 962.052 3542
100.766 962.052 3542
109.236 962.052 3542
117.706 962.052 3542
125.891 959.879 3534
134.342 959.879 3534
142.793 959.879 3534
151.244 959.879 3534
159.695 959.879 3534
168.146 959.879 3534
176.596 959.879 3534
184.681 957.977 3527
193.115 957.977 3527
201.549 957.977 3527
209.566 956.076 3520
217.984 956.076 3520
226.401 956.076 3520
234.819 956.076 3520
243.236 956.076 3520
251.653 956.076 3520
260.588 957.977 3527
269.022 957.977 3527
277.456 957.977 3527
286.458 959.879 3534
294.909 959.879 3534
303.359 959.879 3534
311.81 959.879 3534
320.261 959.879 3534
328.712 959.879 3534
337.163 959.879 3534
346.396 962.052 3542
354.866 962.052 3542
363.336 962.052 3542
371.806 962.052 3542
379.417 959.879 3534
387.1 957.977 3527
395.534 957.977 3527
400.532 949.829 3497
407.257 946.026 3483
413.797 941.952 3468
418.682 934.347 3440
426.908 934.347 3440
433.363 930.544 3426
438.849 924.841 3405
445.154 921.038 3391
453.262 921.038 3391
457.562 913.433 3363
464.773 911.803 3357
468.012 902.568 3323
475.958 902.568 3323
482.012 899.037 3310
488.891 897.136 3303
496.789 897.136 3303
505.757 899.037 3310
513.672 899.037 3310
521.588 899.037 3310
529.503 899.037 3310
537.418 899.037 3310
546.487 900.939 3317
554.419 900.939 3317
562.35 900.939 3317
570.282 900.939 3317
578.214 900.939 3317
586.146 900.939 3317
596.407 904.47 3330
605.64 906.371 3337
613.62 906.371 3337
621.6 906.371 3337
629.579 906.371 3337
637.559 906.371 3337
645.539 906.371 3337
653.519 906.371 3337
661.498 906.371 3337
670.682 908.001 3343
678.676 908.001 3343
686.67 908.001 3343
694.664 908.001 3343
701.397 906.371 3337
709.377 906.371 3337
715.852 904.47 3330
723.815 904.47 3330
731.778 904.47 3330
738.186 902.568 3323
746.133 902.568 3323
754.079 902.568 3323
762.025 902.568 3323
769.971 902.568 3323
777.918 902.568 3323
784.445 900.939 3317
789.033 897.136 3303
798.62 899.037 3310
808.241 900.939 3317
816.173 900.939 3317
824.105 900.939 3317
835.298 904.47 3330
843.261 904.47 3330
851.224 904.47 3330
867.701 913.433 3363
879.389 917.235 3377
892.983 922.939 3398
901.109 922.939 3398
918.6 932.446 3433
932.478 938.15 3454
944.551 941.952 3468
952.844 941.952 3468
969.174 949.829 3497
983.966 956.076 3520
1000.56 963.953 3549
1009.05 963.953 3549
1019.83 966.126 3557
1034.98 972.373 3580
1047.91 976.447 3595
1058.86 978.62 3603
1067.48 978.62 3603
1085.65 987.312 3635
1098.86 991.386 3650
1107.59 991.386 3650
1116.32 991.386 3650
1125.04 991.386 3650
1133.77 991.386 3650
1142.5 991.386 3650
1151.23 991.386 3650
1162.5 993.559 3658
1171.25 993.559 3658
1179.99 993.559 3658
1188.74 993.559 3658
1197.49 993.559 3658
1206.24 993.559 3658
1214.98 993.559 3658
1223.73 993.559 3658
1232.48 993.559 3658
1238.51 991.386 3650
1247.24 991.386 3650
1255.97 991.386 3650
1264.7 991.386 3650
1276.22 993.559 3658
1284.96 993.559 3658
1293.71 993.559 3658
1302.46 993.559 3658
1311.21 993.559 3658
1319.95 993.559 3658
1328.7 993.559 3658
1337.45 993.559 3658
1343.25 991.386 3650
1351.98 991.386 3650
1360.71 991.386 3650
1366.43 989.213 3642
1369.48 985.139 3627
1378.15 985.139 3627
1386.83 985.139 3627
1389.34 980.793 3611
1394.88 978.62 3603
1400.38 976.447 3595
1408.98 976.447 3595
1411.66 972.373 3580
1417.05 970.2 3572
1422.79 968.299 3565
1428.11 966.126 3557
1436.61 966.126 3557
1432.93 957.977 3527
1438.5 956.076 3520
1443.63 953.903 3512
1452.03 953.903 3512
1454.19 949.829 3497
1456.7 946.026 3483
1462.08 944.125 3476
1470.4 944.125 3476
1478.71 944.125 3476
1493.01 947.928 3490
1510.82 953.903 3512
1528.73 959.879 3534
1537.19 959.879 3534
1549.14 962.052 3542
1564.2 966.126 3557
1589.51 976.447 3595
1612.33 985.139 3627
1631.28 991.386 3650
1651.24 998.176 3675
1720.56 1034.57 3809
1729.67 1034.57 3809
1754.76 1044.08 3844
1788.73 1058.75 3898
1819.27 1071.24 3944
1828.7 1071.24 3944
1860.04 1084.01 3991
1883.16 1091.88 4020
1897.49 1094.6 4030
1907.12 1094.6 4030
1916.76 1094.6 4030
1916.84 1089.17 4010
1917.3 1084.01 3991
1926.84 1084.01 3991
1922.8 1076.4 3963
1927.4 1073.68 3953
1909.9 1058.75 3898
1919.23 1058.75 3898
1897.38 1041.63 3835
1876.22 1025.07 3774
1847.78 1004.69 3699
1856.63 1004.69 3699
1836.73 989.213 3642
1833.78 982.966 3619
1830.22 976.447 3595
1827.05 970.2 3572
1835.59 970.2 3572
1840.52 968.299 3565
1849.04 968.299 3565
1861.22 970.2 3572
1869.76 970.2 3572
1878.3 970.2 3572
1891.07 972.373 3580
1903.87 974.546 3588
1928.98 982.966 3619
1937.63 982.966 3619
1958.66 989.213 3642
1976.01 993.559 3658
1989.64 996.003 3667
2011.49 1002.52 3691
2020.31 1002.52 3691
2094.01 1034.57 3809
2147.29 1056.3 3889
2156.59 1056.3 3889
2170.9 1058.75 3898
2216.58 1076.4 3963
2226.05 1076.4 3963
2240.61 1078.84 3972
2250.11 1078.84 3972
2259.61 1078.84 3972
2285.67 1086.72 4001
2295.24 1086.72 4001
2304.81 1086.72 4001
2314.37 1086.72 4001
2312.9 1081.56 3982
2322.43 1081.56 3982
2331.95 1081.56 3982
2341.47 1081.56 3982
2350.99 1081.56 3982
2371.78 1086.72 4001
2381.35 1086.72 4001
2390.91 1086.72 4001
2400.48 1086.72 4001
2410.05 1086.72 4001
2419.62 1086.72 4001
2452.26 1097.04 4039
2461.91 1097.04 4039
2471.57 1097.04 4039
2481.23 1097.04 4039
2490.89 1097.04 4039
2506.74 1099.76 4049
2528.85 1105.19 4069
2538.58 1105.19 4069
2548.31 1105.19 4069
2551.76 1102.48 4059
2567.77 1105.19 4069
2577.5 1105.19 4069
2587.23 1105.19 4069
2596.96 1105.19 4069
2600.29 1102.48 4059
2609.99 1102.48 4059
2613.25 1099.76 4049
2629.41 1102.48 4059
2645.61 1105.19 4069
2655.34 1105.19 4069
2671.62 1107.91 4079
2681.38 1107.91 4079
2697.73 1110.62 4089
2707.51 1110.62 4089
2717.29 1110.62 4089
2727.06 1110.62 4089
2736.84 1110.62 4089
2746.62 1110.62 4089
2756.4 1110.62 4089
2766.18 1110.62 4089
2775.95 1110.62 4089
2785.73 1110.62 4089
2795.51 1110.62 4089
2805.29 1110.62 4089
2787.53 1099.76 4049
2797.21 1099.76 4049
2806.89 1099.76 4049
2789.45 1089.17 4010
2799.04 1089.17 4010
2808.62 1089.17 4010
542.774 193.931 714
544.481 193.931 714
546.189 193.931 714
-2374.95 869.154 3172
-2367.37 869.154 3172
-2359.78 869.154 3172
-2338.85 864.221 3154
-2326.87 862.577 3148
-2319.35 862.577 3148
-2303.01 859.289 3136
-2291.11 857.645 3130
-2283.63 857.645 3130
-2280.51 859.289 3136
-2273.01 859.289 3136
-2278.51 864.221 3154
-2275.29 865.865 3160
-2276.35 869.154 3172
-2268.76 869.154 3172
-2269.73 872.442 3184
-2279.17 879.018 3208
-2284.95 884.224 3227
-2277.23 884.224 3227
-2291.32 892.718 3258
-2301.75 899.842 3284
-2326.03 912.447 3330
-2318.07 912.447 3330
-2328.83 919.845 3357
-2320.81 919.845 3357
-2312.78 919.845 3357
-2304.75 919.845 3357
-2296.72 919.845 3357
-2297.56 923.407 3370
-2299.01 927.243 3384
-2290.92 927.243 3384
-2292.27 931.079 3398
-2288.85 932.997 3405
-2294.77 938.752 3426
-2286.58 938.752 3426
-2283.04 940.67 3433
-2284.11 944.506 3447
-2295.02 952.452 3476
-2286.7 952.452 3476
-2282.98 954.37 3483
-2274.65 954.37 3483
-2275.43 958.206 3497
-2267.07 958.206 3497
-2258.71 958.206 3497
-2260 962.316 3512
-2256.73 964.508 3520
-2248.31 964.508 3520
-2248.8 968.344 3534
-2245.42 970.536 3542
-2246.43 974.647 3557
-2237.92 974.647 3557
-2238.82 978.757 3572
-2235.27 980.949 3580
-2236.04 985.059 3595
-2227.44 985.059 3595
-2223.78 987.251 3603
-2225 991.635 3619
-2221.25 993.827 3627
-2212.57 993.827 3627
-2203.9 993.827 3627
-2200.07 996.019 3635
-2195.6 997.937 3642
-2186.89 997.937 3642
-2182.96 1000.13 3650
-2174.24 1000.13 3650
-2165.51 1000.13 3650
-2156.78 1000.13 3650
-2148.05 1000.13 3650
-2134.63 997.937 3642
-2125.93 997.937 3642
-2117.22 997.937 3642
-2099.82 993.827 3627
-2091.15 993.827 3627
-2082.48 993.827 3627
-2069.23 991.635 3619
-2060.57 991.635 3619
-2051.92 991.635 3619
-2043.27 991.635 3619
-2034.61 991.635 3619
-2025.96 991.635 3619
-2012.84 989.443 3611
-2004.21 989.443 3611
-1995.57 989.443 3611
-1982.54 987.251 3603
-1969.54 985.059 3595
-1960.94 985.059 3595
-1952.35 985.059 3595
-1948.07 987.251 3603
-1943.76 989.443 3611
-1939.42 991.635 3619
-1930.76 991.635 3619
-1930.61 996.019 3635
-1929.84 1000.13 3650
-1930.06 1004.79 3667
-1921.3 1004.79 3667
-1912.53 1004.79 3667
-1903.76 1004.79 3667
-1894.99 1004.79 3667
-1886.22 1004.79 3667
-1877.45 1004.79 3667
-1864.1 1002.32 3658
-1855.35 1002.32 3658
-1842.56 1000.13 3650
-1833.83 1000.13 3650
-1829.11 1002.32 3658
-1828.82 1006.98 3675
-1820.03 1006.98 3675
-1811.24 1006.98 3675
-1802.45 1006.98 3675
-1793.67 1006.98 3675
-1784.88 1006.98 3675
-1772.22 1004.79 3667
-1759.13 1002.32 3658
-1750.38 1002.32 3658
-1734.01 997.937 3642
-1718.2 993.827 3627
-1694.44 985.059 3595
-1675.06 978.757 3572
-1666.52 978.757 3572
-1651.02 974.647 3557
-1638.82 972.455 3549
-1620.22 966.426 3527
-1611.79 966.426 3527
-1600.17 964.508 3520
-1591.75 964.508 3520
-1579.74 962.316 3512
-1571.34 962.316 3512
-1559.83 960.398 3505
-1541.71 954.37 3483
-1533.38 954.37 3483
-1525.05 954.37 3483
-1507.14 948.342 3461
-1495.83 946.424 3454
-1487.57 946.424 3454
-1482.31 948.342 3461
-1474.04 948.342 3461
-1468.72 950.26 3468
-1466.75 954.37 3483
-1461.35 956.288 3490
-1453 956.288 3490
-1444.66 956.288 3490
-1439.19 958.206 3497
-1434.1 960.398 3505
-1425.72 960.398 3505
-1417.34 960.398 3505
-1411.77 962.316 3512
-1403.38 962.316 3512
-1394.98 962.316 3512
-1386.58 962.316 3512
-1378.18 962.316 3512
-1378.36 968.344 3534
-1369.91 968.344 3534
-1367.24 972.455 3549
-1358.75 972.455 3549
-1350.27 972.455 3549
-1341.78 972.455 3549
-1333.29 972.455 3549
-1324.81 972.455 3549
-1316.32 972.455 3549
-1305.25 970.536 3542
-1296.78 970.536 3542
-1288.31 970.536 3542
-1279.84 970.536 3542
-1265.99 966.426 3527
-1255.06 964.508 3520
-1246.64 964.508 3520
-1232.95 960.398 3505
-1224.57 960.398 3505
-1210.98 956.288 3490
-1197.81 952.452 3476
-1184.36 948.342 3461
-1176.09 948.342 3461
-1167.81 948.342 3461
-1159.54 948.342 3461
-1132.63 932.997 3405
-1124.49 932.997 3405
-1100.61 919.845 3357
-583.882 491.57 1794
-580.238 492.118 1796
-575.944 492.118 1796
-571.649 492.118 1796
-567.354 492.118 1796
-557.73 487.46 1779
-553.475 487.46 1779
-549.221 487.46 1779
-544.967 487.46 1779
-539.497 486.364 1775
-532.237 483.624 1765
-525.922 481.706 1758
-521.719 481.706 1758
-514.865 479.24 1749
-508.347 477.048 1741
-502.157 475.13 1734
-498.01 475.13 1734
-492.439 473.76 1729
-486.328 471.842 1722
-480.25 469.924 1715
-476.149 469.924 1715
-470.396 468.28 1709
-465.491 467.458 1706
-460.33 466.362 1702
-454.919 464.992 1697
-450.861 464.992 1697
-444.96 463.074 1690
-440.658 462.8 1689
-435.068 461.156 1683
-431.043 461.156 1683
-427.019 461.156 1683
-422.24 460.333 1680
-418.223 460.333 1680
-414.205 460.333 1680
-409.7 459.785 1678
-405.687 459.785 1678
-401.675 459.785 1678
-397.662 459.785 1678
-393.649 459.785 1678
-390.101 460.333 1680
-386.084 460.333 1680
-382.066 460.333 1680
-377.599 459.785 1678
-373.586 459.785 1678
-369.353 459.511 1677
-365.343 459.511 1677
-361.333 459.511 1677
-357.323 459.511 1677
-353.523 459.785 1678
-349.511 459.785 1678
-345.498 459.785 1678
-341.485 459.785 1678
-337.875 460.333 1680
-334.255 460.882 1682
-330.233 460.882 1682
-326.211 460.882 1682
-322.189 460.882 1682
-318.734 461.704 1685
-314.705 461.704 1685
-310.675 461.704 1685
-307.01 462.252 1687
-303.335 462.8 1689
-299.473 463.074 1690
-295.432 463.074 1690
-292.08 464.17 1694
-289.39 466.362 1702
-286.326 468.006 1708
-282.241 468.006 1708
-279.297 469.924 1715
-276.319 471.842 1722
-273.624 474.308 1731
-269.484 474.308 1731
-267.798 478.692 1747
-266.035 483.076 1763
-263.898 486.912 1777
-259.648 486.912 1777
-257.267 490.474 1790
-254.683 493.762 1802
-250.374 493.762 1802
-247.84 497.325 1815
-244.305 498.969 1821
-241.004 501.161 1829
-236.631 501.161 1829
-232.765 502.257 1833
-228.631 502.805 1835
-224.732 503.901 1839
-220.334 503.901 1839
-216.171 504.449 1841
-212.229 505.545 1845
-208.042 506.093 1847
-204.177 507.463 1852
-199.748 507.463 1852
-195.319 507.463 1852
-191.097 508.011 1854
-187.066 509.107 1858
-182.623 509.107 1858
-178.947 511.299 1866
-175.046 512.943 1872
-171.025 514.313 1877
-166.537 514.313 1877
-162.221 514.861 1879
-157.728 514.861 1879
-153.234 514.861 1879
-267.521 1053.29 3844
-259.539 1058.22 3862
-250.303 1058.22 3862
-241.068 1058.22 3862
-233.454 1065.62 3889
-224.154 1065.62 3889
-215.849 1070.55 3907
-206.506 1070.55 3907
-197.163 1070.55 3907
-187.387 1068.08 3898
-178.066 1068.08 3898
-168.745 1068.08 3898
-158.687 1063.15 3880
-149.409 1063.15 3880
-140.131 1063.15 3880
-130.853 1063.15 3880
-121.574 1063.15 3880
-110.502 1046.16 3818
-101.372 1046.16 3818
-91.1787 1034.11 3774
-81.4138 1024.79 3740
-72.3153 1022.6 3732
-63.3909 1022.6 3732
-54.1017 1015.75 3707
-44.8467 1006.98 3675
-35.9801 1004.79 3667
-27.2112 1004.79 3667
-18.3568 1000.13 3650
-9.54679 991.635 3619
-0.892668 991.635 3619
7.72714 987.251 3603
16.343 987.251 3603
24.855 983.141 3588
33.3604 980.949 3580
41.8276 978.757 3572
50.3693 978.757 3572
58.7956 976.839 3565
67.1695 974.647 3557
75.6754 974.647 3557
84.1813 974.647 3557
92.2963 970.536 3542
100.766 970.536 3542
109.236 970.536 3542
117.706 970.536 3542
126.176 970.536 3542
134.646 970.536 3542
143.116 970.536 3542
151.586 970.536 3542
160.056 970.536 3542
168.146 968.344 3534
176.596 968.344 3534
185.047 968.344 3534
193.115 966.426 3527
201.549 966.426 3527
209.566 964.508 3520
217.984 964.508 3520
226.401 964.508 3520
234.819 964.508 3520
243.236 964.508 3520
251.653 964.508 3520
260.588 966.426 3527
269.022 966.426 3527
277.456 966.426 3527
286.458 968.344 3534
294.909 968.344 3534
303.359 968.344 3534
311.81 968.344 3534
320.261 968.344 3534
328.712 968.344 3534
337.163 968.344 3534
346.396 970.536 3542
354.866 970.536 3542
363.336 970.536 3542
371.806 970.536 3542
379.417 968.344 3534
387.1 966.426 3527
395.534 966.426 3527
400.532 958.206 3497
407.257 954.37 3483
413.797 950.26 3468
418.682 942.588 3440
426.908 942.588 3440
433.363 938.752 3426
438.849 932.997 3405
445.154 929.161 3391
453.262 929.161 3391
457.562 921.489 3363
464.773 919.845 3357
468.012 910.529 3323
475.958 910.529 3323
482.012 906.967 3310
488.891 905.049 3303
496.789 905.049 3303
505.757 906.967 3310
513.672 906.967 3310
521.588 906.967 3310
529.503 906.967 3310
537.418 906.967 3310
546.487 908.885 3317
554.419 908.885 3317
562.35 908.885 3317
570.282 908.885 3317
578.214 908.885 3317
586.146 908.885 3317
596.407 912.447 3330
604.37 912.447 3330
612.333 912.447 3330
620.296 912.447 3330
629.579 914.365 3337
637.559 914.365 3337
645.539 914.365 3337
653.519 914.365 3337
661.498 914.365 3337
670.682 916.009 3343
678.676 916.009 3343
686.67 916.009 3343
694.664 916.009 3343
701.397 914.365 3337
709.377 914.365 3337
715.852 912.447 3330
723.815 912.447 3330
731.778 912.447 3330
738.186 910.529 3323
746.133 910.529 3323
754.079 910.529 3323
762.025 910.529 3323
769.971 910.529 3323
777.918 910.529 3323
784.445 908.885 3317
790.705 906.967 3310
800.309 908.885 3317
808.241 908.885 3317
816.173 908.885 3317
825.596 910.529 3323
833.542 910.529 3323
843.261 912.447 3330
851.224 912.447 3330
867.701 921.489 3363
879.389 925.325 3377
892.983 931.079 3398
901.109 931.079 3398
916.727 938.752 3426
928.699 942.588 3440
940.738 946.424 3454
948.998 946.424 3454
967.234 956.288 3490
981.73 962.316 3512
998.586 970.536 3542
1007.06 970.536 3542
1017.53 972.455 3549
1032.67 978.757 3572
1045.87 983.141 3588
1058.86 987.251 3603
1067.48 987.251 3603
1085.65 996.019 3635
1098.86 1000.13 3650
1107.59 1000.13 3650
1116.32 1000.13 3650
1127.51 1002.32 3658
1136.26 1002.32 3658
1145.01 1002.32 3658
1153.75 1002.32 3658
1165.36 1004.79 3667
1174.13 1004.79 3667
1182.9 1004.79 3667
1191.67 1004.79 3667
1200.44 1004.79 3667
1206.24 1002.32 3658
1214.98 1002.32 3658
1223.73 1002.32 3658
1232.48 1002.32 3658
1241.23 1002.32 3658
1249.97 1002.32 3658
1258.72 1002.32 3658
1267.47 1002.32 3658
1276.22 1002.32 3658
1284.96 1002.32 3658
1293.71 1002.32 3658
1302.46 1002.32 3658
1311.21 1002.32 3658
1319.95 1002.32 3658
1328.7 1002.32 3658
1337.45 1002.32 3658
1346.2 1002.32 3658
1351.98 1000.13 3650
1360.71 1000.13 3650
1366.43 997.937 3642
1372.5 996.019 3635
1378.15 993.827 3627
1386.83 993.827 3627
1392.42 991.635 3619
1394.88 987.251 3603
1400.38 985.059 3595
1408.98 985.059 3595
1414.81 983.141 3588
1420.22 980.949 3580
1425.59 978.757 3572
1431.32 976.839 3565
1439.84 976.839 3565
1432.93 966.426 3527
1441.37 966.426 3527
1443.63 962.316 3512
1452.03 962.316 3512
1457.52 960.398 3505
1459.63 956.288 3490
1462.08 952.452 3476
1470.4 952.452 3476
1478.71 952.452 3476
1493.01 956.288 3490
1510.82 962.316 3512
1528.73 968.344 3534
1537.19 968.344 3534
1549.14 970.536 3542
1560.68 972.455 3549
1582.88 980.949 3580
1612.33 993.827 3627
1621 993.827 3627
1643.61 1002.32 3658
1689.39 1024.79 3740
1706.06 1029.45 3757
1738.78 1043.7 3809
1772.21 1058.22 3862
1810.5 1075.48 3925
1819.89 1075.48 3925
1838.13 1080.69 3944
1865.36 1091.1 3982
1874.89 1091.1 3982
1884.41 1091.1 3982
1893.93 1091.1 3982
1903.45 1091.1 3982
1908.17 1088.36 3972
1917.67 1088.36 3972
1909.21 1078.22 3935
1900.58 1068.08 3898
1887.86 1055.75 3853
1897.07 1055.75 3853
1846.42 1022.6 3732
1851.37 1020.41 3724
1831.8 1004.79 3667
1816.47 991.635 3619
1825.13 991.635 3619
1821.62 985.059 3595
1814.94 976.839 3565
1819.38 974.647 3557
1827.88 974.647 3557
1836.39 974.647 3557
1844.9 974.647 3557
1849.23 972.455 3549
1861.91 974.647 3557
1870.41 974.647 3557
1886.84 978.757 3572
1895.38 978.757 3572
1912.45 983.141 3588
1921.03 983.141 3588
1937.68 987.251 3603
1954.94 991.635 3619
1963.59 991.635 3619
1998.41 1004.79 3667
2007.18 1004.79 3667
2089.06 1041.23 3800
2112.5 1048.35 3826
2121.65 1048.35 3826
2170.9 1068.08 3898
2195.32 1075.48 3925
2220.44 1083.15 3953
2235.53 1085.89 3963
2245.01 1085.89 3963
2259.61 1088.36 3972
2285.67 1096.31 4001
2295.24 1096.31 4001
2304.81 1096.31 4001
2314.37 1096.31 4001
2307.1 1088.36 3972
2316.59 1088.36 3972
2326.09 1088.36 3972
2335.59 1088.36 3972
2339.78 1085.89 3963
2360.52 1091.1 3982
2370.04 1091.1 3982
2384.94 1093.57 3991
2394.48 1093.57 3991
2404.03 1093.57 3991
2413.57 1093.57 3991
2440.72 1101.51 4020
2450.33 1101.51 4020
2459.95 1101.51 4020
2469.56 1101.51 4020
2479.17 1101.51 4020
2500.55 1106.72 4039
2510.21 1106.72 4039
2526.1 1109.46 4049
2535.79 1109.46 4049
2551.76 1112.2 4059
2567.77 1114.94 4069
2577.5 1114.94 4069
2587.23 1114.94 4069
2596.96 1114.94 4069
2600.29 1112.2 4059
2609.99 1112.2 4059
2613.25 1109.46 4049
2629.41 1112.2 4059
2645.61 1114.94 4069
2655.34 1114.94 4069
2671.62 1117.68 4079
2681.38 1117.68 4079
2697.73 1120.42 4089
2707.51 1120.42 4089
2717.29 1120.42 4089
2775.95 1120.42 4089
2785.73 1120.42 4089
2795.51 1120.42 4089
2805.29 1120.42 4089
2787.53 1109.46 4049
2797.21 1109.46 4049
2806.89 1109.46 4049
2789.45 1098.77 4010
2799.04 1098.77 4010
2808.62 1098.77 4010
540.493 194.82 711
542.956 195.094 712
544.659 195.094 712
-2374.95 876.752 3172
-2367.37 876.752 3172
-2359.78 876.752 3172
-2338.85 871.777 3154
-2326.87 870.118 3148
-2319.35 870.118 3148
-2303.01 866.802 3136
-2291.11 865.143 3130
-2288.01 866.802 3136
-2284.87 868.46 3142
-2277.36 868.46 3142
-2282.85 873.435 3160
-2279.61 875.094 3166
-2284.96 880.069 3184
-2277.34 880.069 3184
-2274.01 881.727 3190
-2292.67 891.954 3227
-2289.2 893.613 3233
-2281.47 893.613 3233
-2296.24 902.458 3265
-2301.75 907.709 3284
-2326.03 920.424 3330
-2318.07 920.424 3330
-2328.83 927.887 3357
-2324.95 929.545 3363
-2316.91 929.545 3363
-2308.87 929.545 3363
-2300.83 929.545 3363
-2302.33 933.415 3377
-2299.01 935.35 3384
-2290.92 935.35 3384
-2292.27 939.219 3398
-2288.85 941.154 3405
-2294.77 946.959 3426
-2286.58 946.959 3426
-2283.04 948.893 3433
-2284.11 952.763 3447
-2289.73 958.568 3468
-2281.44 958.568 3468
-2282.98 962.714 3483
-2274.65 962.714 3483
-2275.43 966.583 3497
-2267.07 966.583 3497
-2263.87 968.794 3505
-2260 970.729 3512
-2261.22 974.875 3527
-2252.78 974.875 3527
-2248.8 976.81 3534
-2245.42 979.021 3542
-2246.43 983.167 3557
-2237.92 983.167 3557
-2243.83 989.525 3580
-2240.26 991.736 3588
-2236.04 993.671 3595
-2227.44 993.671 3595
-2223.78 995.882 3603
-2225 1000.3 3619
-2221.25 1002.52 3627
-2212.57 1002.52 3627
-2203.9 1002.52 3627
-2200.07 1004.73 3635
-2195.6 1006.66 3642
-2186.89 1006.66 3642
-2182.96 1008.87 3650
-2174.24 1008.87 3650
-2165.51 1008.87 3650
-2156.78 1008.87 3650
-2148.05 1008.87 3650
-2134.63 1006.66 3642
-2125.93 1006.66 3642
-2113.15 1004.73 3635
-2095.19 1000.3 3619
-2086.54 1000.3 3619
-2077.88 1000.3 3619
-2069.23 1000.3 3619
-2060.57 1000.3 3619
-2051.92 1000.3 3619
-2043.27 1000.3 3619
-2034.61 1000.3 3619
-2017 995.882 3603
-2008.39 995.882 3603
-1999.77 995.882 3603
-1986.73 993.671 3595
-1974.28 991.736 3588
-1965.7 991.736 3588
-1957.12 991.736 3588
-1948.54 991.736 3588
-1939.96 991.736 3588
-1939.46 995.882 3603
-1935.13 998.093 3611
-1926.49 998.093 3611
-1917.86 998.093 3611
-1917.68 1002.52 3627
-1921.12 1008.87 3650
-1912.39 1008.87 3650
-1907.83 1011.08 3658
-1903.76 1013.57 3667
-1894.99 1013.57 3667
-1886.22 1013.57 3667
-1872.84 1011.08 3658
-1855.94 1006.66 3642
-1847.23 1006.66 3642
-1838.52 1006.66 3642
-1833.83 1008.87 3650
-1829.11 1011.08 3658
-1828.82 1015.78 3675
-1820.03 1015.78 3675
-1811.24 1015.78 3675
-1802.45 1015.78 3675
-1793.67 1015.78 3675
-1784.88 1015.78 3675
-1772.22 1013.57 3667
-1759.13 1011.08 3658
-1750.38 1011.08 3658
-1734.01 1006.66 3642
-1718.2 1002.52 3627
-1694.44 993.671 3595
-1675.06 987.313 3572
-1666.52 987.313 3572
-1647.3 980.956 3549
-1635.58 979.021 3542
-1617.01 972.94 3520
-1608.59 972.94 3520
-1596.54 970.729 3512
-1581.35 966.583 3497
-1572.99 966.583 3497
-1564.63 966.583 3497
-1550.04 962.714 3483
-1538.61 960.779 3476
-1526.77 958.568 3468
-1518.48 958.568 3468
-1498 950.828 3440
-1489.77 950.828 3440
-1481.54 950.828 3440
-1476.32 952.763 3447
-1468.07 952.763 3447
-1465.76 956.633 3461
-1460.43 958.568 3468
-1458.42 962.714 3483
-1450.09 962.714 3483
-1441.76 962.714 3483
-1436.31 964.648 3490
-1430.83 966.583 3497
-1422.47 966.583 3497
-1417.34 968.794 3505
-1408.96 968.794 3505
-1400.58 968.794 3505
-1392.2 968.794 3505
-1383.81 968.794 3505
-1378.18 970.729 3512
-1378.36 976.81 3534
-1369.91 976.81 3534
-1364.54 979.021 3542
-1356.07 979.021 3542
-1350.27 980.956 3549
-1341.78 980.956 3549
-1333.29 980.956 3549
-1322.19 979.021 3542
-1313.72 979.021 3542
-1305.25 979.021 3542
-1296.78 979.021 3542
-1288.31 979.021 3542
-1279.84 979.021 3542
-1265.99 974.875 3527
-1255.06 972.94 3520
-1246.64 972.94 3520
-1232.95 968.794 3505
-1224.57 968.794 3505
-1210.98 964.648 3490
-1197.81 960.779 3476
-1184.36 956.633 3461
-1176.09 956.633 3461
-1167.81 956.633 3461
-1157.19 954.698 3454
-1132.63 941.154 3405
-1124.49 941.154 3405
-1100.61 927.887 3357
-583.231 495.315 1792
-579.592 495.868 1794
-575.302 495.868 1794
-571.012 495.868 1794
-566.722 495.868 1794
-557.73 491.722 1779
-553.475 491.722 1779
-549.221 491.722 1779
-544.967 491.722 1779
-539.497 490.616 1775
-532.237 487.852 1765
-525.922 485.917 1758
-521.719 485.917 1758
-514.865 483.43 1749
-508.347 481.219 1741
-502.157 479.284 1734
-498.01 479.284 1734
-492.439 477.902 1729
-486.328 475.967 1722
-480.25 474.032 1715
-476.149 474.032 1715
-470.396 472.374 1709
-465.491 471.544 1706
-460.33 470.439 1702
-454.919 469.057 1697
-450.861 469.057 1697
-444.96 467.122 1690
-440.658 466.846 1689
-435.068 465.187 1683
-431.043 465.187 1683
-427.019 465.187 1683
-422.24 464.358 1680
-418.223 464.358 1680
-414.205 464.358 1680
-409.7 463.805 1678
-405.687 463.805 1678
-401.675 463.805 1678
-397.662 463.805 1678
-393.649 463.805 1678
-390.101 464.358 1680
-386.084 464.358 1680
-382.066 464.358 1680
-377.599 463.805 1678
-373.586 463.805 1678
-369.353 463.529 1677
-365.343 463.529 1677
-361.333 463.529 1677
-357.323 463.529 1677
-353.523 463.805 1678
-349.511 463.805 1678
-345.498 463.805 1678
-341.485 463.805 1678
-337.875 464.358 1680
-334.255 464.911 1682
-330.233 464.911 1682
-326.211 464.911 1682
-322.189 464.911 1682
-318.734 465.74 1685
-314.705 465.74 1685
-310.675 465.74 1685
-307.01 466.293 1687
-303.335 466.846 1689
-299.473 467.122 1690
-295.432 467.122 1690
-292.08 468.228 1694
-289.39 470.439 1702
-286.326 472.097 1708
-282.241 472.097 1708
-279.297 474.032 1715
-276.319 475.967 1722
-273.624 478.455 1731
-269.484 478.455 1731
-267.798 482.877 1747
-266.035 487.299 1763
-263.898 491.169 1777
-259.648 491.169 1777
-256.98 494.21 1788
-254.683 498.079 1802
-250.374 498.079 1802
-247.567 501.12 1813
-244.036 502.778 1819
-240.741 504.989 1827
-236.372 504.989 1827
-232.511 506.095 1831
-228.382 506.648 1833
-224.732 508.306 1839
-220.334 508.306 1839
-216.171 508.859 1841
-212.229 509.965 1845
-208.042 510.517 1847
-204.177 511.899 1852
-199.748 511.899 1852
-195.319 511.899 1852
-191.303 513.005 1856
-187.066 513.558 1858
-182.623 513.558 1858
-179.139 516.322 1868
-175.233 517.98 1874
-171.207 519.362 1879
-166.714 519.362 1879
-162.221 519.362 1879
-157.728 519.362 1879
-153.234 519.362 1879
-267.521 1062.5 3844
-259.539 1067.47 3862
-250.303 1067.47 3862
-241.068 1067.47 3862
-233.454 1074.93 3889
-224.154 1074.93 3889
-215.849 1079.91 3907
-206.506 1079.91 3907
-197.163 1079.91 3907
-187.387 1077.42 3898
-178.066 1077.42 3898
-168.745 1077.42 3898
-158.687 1072.45 3880
-149.409 1072.45 3880
-140.131 1072.45 3880
-130.853 1072.45 3880
-121.574 1072.45 3880
-110.502 1055.31 3818
-101.372 1055.31 3818
-91.1787 1043.15 3774
-81.4138 1033.75 3740
-72.3153 1031.54 3732
-63.3909 1031.54 3732
-54.1017 1024.63 3707
-44.8467 1015.78 3675
-35.9801 1013.57 3667
-27.2112 1013.57 3667
-18.3568 1008.87 3650
-9.54679 1000.3 3619
-0.892668 1000.3 3619
7.76146 1000.3 3619
16.4156 1000.3 3619
24.855 991.736 3588
33.3604 989.525 3580
41.9213 989.525 3580
50.4821 989.525 3580
58.7956 985.379 3565
67.3206 985.379 3565
