-289.666 -280.166 1680
-285.989 -280.5 1682
-281.967 -280.5 1682
-277.945 -280.5 1682
-273.923 -280.5 1682
-269.9 -280.5 1682
-265.878 -280.5 1682
-261.856 -280.5 1682
-257.834 -280.5 1682
-253.51 -280.166 1680
-249.493 -280.166 1680
-245.183 -279.833 1678
-240.739 -279.332 1675
-236.734 -279.332 1675
-232.728 -279.332 1675
-228.723 -279.332 1675
-224.717 -279.332 1675
-220.448 -278.999 1673
-216.06 -278.499 1670
-212.066 -278.499 1670
-207.824 -278.165 1668
-203.224 -277.331 1663
-198.888 -276.831 1660
-194.918 -276.831 1660
-190.718 -276.497 1658
-186.19 -275.664 1653
-182.238 -275.664 1653
-178.285 -275.664 1653
-174.227 -275.497 1652
-170.276 -275.497 1652
-165.923 -274.83 1648
-161.982 -274.83 1648
-157.945 -274.663 1647
-154.007 -274.663 1647
-150.068 -274.663 1647
-146.13 -274.663 1647
-142.019 -274.329 1645
-138.001 -274.163 1644
-134.07 -274.163 1644
-130.455 -274.83 1648
-126.514 -274.83 1648
-122.871 -275.497 1652
-119.136 -275.997 1655
-115.318 -276.331 1657
-111.423 -276.497 1658
-107.458 -276.497 1658
-103.93 -277.665 1665
-100.129 -278.165 1668
-96.5435 -279.332 1675
-92.5381 -279.332 1675
-88.797 -280.166 1680
-85.0319 -281 1685
-81.4833 -282.668 1695
-77.43 -282.668 1695
-73.5499 -283.335 1699
-69.5689 -283.668 1701
-65.5013 -283.668 1701
-61.4337 -283.668 1701
-73.9817 -636.711 3818
-64.8517 -636.711 3818
-55.7217 -636.711 3818
-46.6894 -638.045 3826
-37.7168 -641.047 3844
-28.725 -645.55 3871
-19.4683 -645.55 3871
-10.2828 -650.052 3898
-0.961487 -650.052 3898
8.35981 -650.052 3898
17.6811 -650.052 3898
26.6907 -642.548 3853
35.8205 -641.047 3844
45.0127 -641.047 3844
54.7125 -647.05 3880
63.9907 -647.05 3880
73.6089 -650.052 3898
82.9302 -650.052 3898
92.2515 -650.052 3898
101.573 -650.052 3898
112.999 -662.393 3972
124.286 -672.065 4030
135.219 -678.569 4069
144.95 -678.569 4069
155.06 -680.237 4079
164.814 -680.237 4079
174.568 -680.237 4079
184.322 -680.237 4079
194.076 -680.237 4079
202.831 -676.902 4059
212.537 -676.902 4059
222.244 -676.902 4059
231.95 -676.902 4059
241.656 -676.902 4059
251.363 -676.902 4059
272.109 -680.237 4079
281.863 -680.237 4079
291.618 -680.237 4079
301.372 -680.237 4079
311.126 -680.237 4079
332.294 -664.061 3982
341.816 -664.061 3982
351.338 -664.061 3982
359.954 -662.393 3972
369.452 -662.393 3972
373.608 -653.054 3916
376.811 -642.548 3853
383.32 -638.045 3826
392.469 -638.045 3826
401.618 -638.045 3826
410.767 -638.045 3826
418.05 -635.21 3809
427.159 -635.21 3809
434.32 -632.375 3792
443.388 -632.375 3792
452.456 -632.375 3792
463.593 -635.21 3809
472.701 -635.21 3809
486.237 -641.047 3844
495.429 -641.047 3844
504.621 -641.047 3844
512.61 -639.546 3835
521.781 -639.546 3835
530.952 -639.546 3835
540.122 -639.546 3835
549.293 -639.546 3835
1699.21 -662.393 3972
1708.71 -662.393 3972
1718.2 -662.393 3972
1727.7 -662.393 3972
1733.26 -660.892 3963
1742.74 -660.892 3963
1760.62 -664.061 3982
1770.14 -664.061 3982
1801.12 -672.065 4030
1814.8 -673.566 4039
1828.97 -675.234 4049
1838.65 -675.234 4049
1852.9 -676.902 4059
1867.2 -678.569 4069
1876.93 -678.569 4069
1886.66 -678.569 4069
1891.73 -676.902 4059
1896.75 -675.234 4049
1906.43 -675.234 4049
1911.38 -673.566 4039
1916.76 -672.065 4030
3032.53 -680.237 4079
3042.28 -680.237 4079
3052.04 -680.237 4079
3054.28 -678.569 4069
3064.01 -678.569 4069
3073.74 -678.569 4069
3046.34 -670.398 4020
3048.35 -668.73 4010
3065.57 -670.398 4020
3075.18 -670.398 4020
-2438.08 -596.17 3627
-2429.41 -596.17 3627
-2420.73 -596.17 3627
-2412.06 -596.17 3627
-2403.39 -596.17 3627
-2394.71 -596.17 3627
-2386.04 -596.17 3627
-2382.61 -597.485 3635
-2378.49 -598.636 3642
-2369.78 -598.636 3642
-2361.07 -598.636 3642
-2347.84 -597.485 3635
-2328.85 -594.855 3619
-2320.2 -594.855 3619
-2311.54 -594.855 3619
-2292.71 -592.225 3603
-2284.09 -592.225 3603
-2275.48 -592.225 3603
-1239.79 -567.734 3454
-1231.53 -567.734 3454
-1223.27 -567.734 3454
-1171.39 -547.352 3330
-1163.43 -547.352 3330
-1155.46 -547.352 3330
-1145.09 -546.202 3323
-1137.14 -546.202 3323
-1129.19 -546.202 3323
-564.328 -291.428 1773
-560.72 -291.757 1775
-556.476 -291.757 1775
-552.231 -291.757 1775
-547.986 -291.757 1775
-543.742 -291.757 1775
-539.497 -291.757 1775
-533.443 -290.771 1769
-528.615 -290.442 1767
-524.389 -290.442 1767
-518.987 -289.784 1763
-512.143 -288.305 1754
-506.5 -287.483 1749
-502.318 -287.483 1749
-497.566 -287.155 1747
-492.259 -286.497 1743
-487.531 -286.168 1741
-483.367 -286.168 1741
-478.378 -285.675 1738
-473.677 -285.346 1736
-468.173 -284.525 1731
-462.425 -283.538 1725
-458.3 -283.538 1725
-452.332 -282.388 1718
-446.398 -281.237 1711
-441.531 -280.744 1708
-437.446 -280.744 1708
-432.347 -280.087 1704
-426.01 -278.607 1695
-421.21 -278.114 1692
-417.164 -278.114 1692
-411.409 -276.964 1685
-406.896 -276.635 1683
-401.675 -275.813 1678
-397.662 -275.813 1678
-392.476 -274.991 1673
-388.476 -274.991 1673
-382.637 -273.676 1665
-378.655 -273.676 1665
-374.223 -273.347 1663
-370.024 -273.183 1662
-365.609 -272.854 1660
-361.64 -272.854 1660
-357.67 -272.854 1660
-353.274 -272.526 1658
-349.31 -272.526 1658
-345.761 -272.854 1660
-342.204 -273.183 1662
-338.229 -273.183 1662
-334.858 -273.676 1665
-330.877 -273.676 1665
-327.288 -274.005 1667
-323.302 -274.005 1667
-319.507 -274.169 1668
-315.897 -274.498 1670
-312.277 -274.827 1672
-308.278 -274.827 1672
-304.462 -274.991 1673
-301.359 -275.813 1678
-297.701 -276.142 1680
-293.684 -276.142 1680
-289.666 -276.142 1680
-285.989 -276.47 1682
-281.967 -276.47 1682
-277.945 -276.47 1682
-273.923 -276.47 1682
-269.9 -276.47 1682
-265.878 -276.47 1682
-261.856 -276.47 1682
-257.834 -276.47 1682
-253.51 -276.142 1680
-249.493 -276.142 1680
-245.183 -275.813 1678
-240.739 -275.32 1675
-236.734 -275.32 1675
-232.728 -275.32 1675
-228.723 -275.32 1675
-224.717 -275.32 1675
-220.448 -274.991 1673
-216.06 -274.498 1670
-212.066 -274.498 1670
-207.824 -274.169 1668
-203.224 -273.347 1663
-198.888 -272.854 1660
-194.918 -272.854 1660
-190.718 -272.526 1658
-186.19 -271.704 1653
-182.238 -271.704 1653
-178.285 -271.704 1653
-174.227 -271.539 1652
-170.276 -271.539 1652
-165.923 -270.882 1648
-161.982 -270.882 1648
-157.945 -270.718 1647
-154.007 -270.718 1647
-150.068 -270.718 1647
-146.13 -270.718 1647
-142.019 -270.389 1645
-138.001 -270.224 1644
-134.07 -270.224 1644
-130.455 -270.882 1648
-126.514 -270.882 1648
-122.945 -271.704 1653
-119.28 -272.361 1657
-115.388 -272.526 1658
-111.557 -272.854 1660
-107.588 -272.854 1660
-103.93 -273.676 1665
-100.129 -274.169 1668
-96.5435 -275.32 1675
-92.5381 -275.32 1675
-89.0612 -276.964 1685
-85.0319 -276.964 1685
-81.4833 -278.607 1695
-77.43 -278.607 1695
-73.5499 -279.265 1699
-69.5689 -279.594 1701
-65.5013 -279.594 1701
-61.4337 -279.594 1701
-73.8073 -626.086 3809
-64.6988 -626.086 3809
-55.5904 -626.086 3809
-46.4819 -626.086 3809
-37.5402 -628.88 3826
-28.5915 -633.318 3853
-19.3778 -633.318 3853
-10.2116 -636.277 3871
-0.954827 -636.277 3871
8.30191 -636.277 3871
17.5586 -636.277 3871
26.6283 -631.839 3844
35.4944 -626.086 3809
44.4974 -624.606 3800
53.8382 -627.565 3818
62.9682 -627.565 3818
73.269 -637.756 3880
82.5473 -637.756 3880
91.8255 -637.756 3880
101.104 -637.756 3880
112.459 -649.755 3953
123.978 -660.768 4020
134.222 -663.891 4039
143.881 -663.891 4039
154.3 -667.178 4059
164.006 -667.178 4059
173.712 -667.178 4059
183.418 -667.178 4059
193.125 -667.178 4059
202.831 -667.178 4059
212.537 -667.178 4059
221.696 -665.534 4049
231.379 -665.534 4049
281.172 -668.822 4069
290.903 -668.822 4069
300.633 -668.822 4069
331.459 -652.878 3972
340.957 -652.878 3972
350.456 -652.878 3972
358.232 -649.755 3953
367.685 -649.755 3953
370.173 -637.756 3880
373.388 -627.565 3818
381.616 -626.086 3809
391.648 -627.565 3818
400.778 -627.565 3818
409.908 -627.565 3818
417.062 -624.606 3800
426.149 -624.606 3800
434.32 -623.291 3792
442.336 -621.812 3783
451.382 -621.812 3783
463.593 -626.086 3809
472.701 -626.086 3809
483.96 -628.88 3826
493.109 -628.88 3826
503.44 -630.359 3835
512.61 -630.359 3835
521.781 -630.359 3835
530.952 -630.359 3835
540.122 -630.359 3835
549.293 -630.359 3835
1672.17 -649.755 3953
1681.63 -649.755 3953
1691.08 -649.755 3953
1708.71 -652.878 3972
1718.2 -652.878 3972
1727.7 -652.878 3972
1728.89 -649.755 3953
1738.34 -649.755 3953
1756.2 -652.878 3972
1765.7 -652.878 3972
1792.18 -659.124 4010
1814.8 -663.891 4039
1824.46 -663.891 4039
1834.11 -663.891 4039
1848.34 -665.534 4049
1862.61 -667.178 4059
1872.31 -667.178 4059
1882.02 -667.178 4059
1891.73 -667.178 4059
1892.06 -663.891 4039
1901.72 -663.891 4039
1907.12 -662.411 4030
1916.76 -662.411 4030
3032.53 -670.466 4079
3042.28 -670.466 4079
3052.04 -670.466 4079
3054.28 -668.822 4069
3027.12 -660.768 4020
3036.73 -660.768 4020
3046.34 -660.768 4020
3048.35 -659.124 4010
3065.57 -660.768 4020
3075.18 -660.768 4020
-2432.7 -586.186 3619
-2424.05 -586.186 3619
-2415.39 -586.186 3619
-2412.06 -587.482 3627
-2403.39 -587.482 3627
-2394.71 -587.482 3627
-2386.04 -587.482 3627
-2377.37 -587.482 3627
-2378.49 -589.911 3642
-2369.78 -589.911 3642
-2361.07 -589.911 3642
-2347.84 -588.778 3635
-2328.85 -586.186 3619
-2320.2 -586.186 3619
-2311.54 -586.186 3619
-2292.71 -583.594 3603
-2284.09 -583.594 3603
-2275.48 -583.594 3603
-1239.79 -559.46 3454
-1231.53 -559.46 3454
-1223.27 -559.46 3454
-1173.85 -540.509 3337
-1165.87 -540.509 3337
-1157.89 -540.509 3337
-1149.91 -540.509 3337
-1141.93 -540.509 3337
-1133.95 -540.509 3337
-564.328 -287.181 1773
-560.088 -287.181 1773
-555.849 -287.181 1773
-551.609 -287.181 1773
-547.369 -287.181 1773
-543.129 -287.181 1773
-537.674 -286.533 1769
-532.84 -286.209 1767
-527.418 -285.561 1763
-523.202 -285.561 1763
-518.103 -285.075 1760
-511.267 -283.617 1751
-505.921 -282.97 1747
-501.744 -282.97 1747
-496.996 -282.646 1745
-491.694 -281.998 1741
-487.251 -281.836 1740
-483.09 -281.836 1740
-478.378 -281.512 1738
-473.131 -280.864 1734
-467.091 -279.73 1727
-461.621 -278.92 1722
-457.503 -278.92 1722
-451.806 -277.948 1716
-446.398 -277.138 1711
-441.014 -276.329 1706
-436.934 -276.329 1706
-431.84 -275.681 1702
-426.01 -274.547 1695
-420.712 -273.737 1690
-416.671 -273.737 1690
-411.409 -272.927 1685
-406.896 -272.603 1683
-401.675 -271.793 1678
-397.662 -271.793 1678
-392.946 -271.307 1675
-388.476 -270.983 1673
-383.096 -270.012 1667
-379.11 -270.012 1667
-374.223 -269.364 1663
-370.024 -269.202 1662
-365.609 -268.878 1660
-361.64 -268.878 1660
-357.67 -268.878 1660
-353.274 -268.554 1658
-349.31 -268.554 1658
-345.345 -268.554 1658
-342.204 -269.202 1662
-338.229 -269.202 1662
-334.858 -269.688 1665
-330.877 -269.688 1665
-327.288 -270.012 1667
-323.302 -270.012 1667
-319.507 -270.174 1668
-315.897 -270.498 1670
-312.277 -270.821 1672
-308.278 -270.821 1672
-304.462 -270.983 1673
-301.359 -271.793 1678
-297.701 -272.117 1680
-293.684 -272.117 1680
-289.666 -272.117 1680
-285.989 -272.441 1682
-281.967 -272.441 1682
-277.945 -272.441 1682
-273.923 -272.441 1682
-269.9 -272.441 1682
-265.878 -272.441 1682
-261.856 -272.441 1682
-257.834 -272.441 1682
-253.51 -272.117 1680
-249.493 -272.117 1680
-245.183 -271.793 1678
-241.027 -271.631 1677
-236.734 -271.307 1675
-232.728 -271.307 1675
-228.723 -271.307 1675
-224.717 -271.307 1675
-220.448 -270.983 1673
-216.06 -270.498 1670
-212.066 -270.498 1670
-207.824 -270.174 1668
-203.468 -269.688 1665
-198.888 -268.878 1660
-194.918 -268.878 1660
-190.718 -268.554 1658
-186.19 -267.744 1653
-182.238 -267.744 1653
-178.285 -267.744 1653
-174.227 -267.582 1652
-170.276 -267.582 1652
-165.822 -266.772 1647
-161.884 -266.772 1647
-157.945 -266.772 1647
-154.007 -266.772 1647
-150.068 -266.772 1647
-146.13 -266.772 1647
-142.019 -266.448 1645
-138.085 -266.448 1645
-134.151 -266.448 1645
-130.613 -267.258 1650
-126.668 -267.258 1650
-122.945 -267.744 1653
-119.28 -268.392 1657
-115.388 -268.554 1658
-111.759 -269.364 1663
-107.782 -269.364 1663
-103.93 -269.688 1665
-100.249 -270.498 1670
-96.5435 -271.307 1675
-92.5381 -271.307 1675
-89.0612 -272.927 1685
-85.1328 -273.251 1687
-81.5794 -274.871 1697
-77.5214 -274.871 1697
-73.6365 -275.519 1701
-69.6098 -275.681 1702
-65.5398 -275.681 1702
-61.4698 -275.681 1702
-73.8073 -616.961 3809
-64.6988 -616.961 3809
-55.5904 -616.961 3809
-46.4819 -616.961 3809
-37.5402 -619.715 3826
-28.4579 -621.172 3835
-19.2872 -621.172 3835
-10.1641 -624.088 3853
-0.950387 -624.088 3853
8.2633 -624.088 3853
17.477 -624.088 3853
26.6283 -622.63 3844
35.4944 -616.961 3809
44.4038 -614.208 3792
53.8382 -618.419 3818
62.9682 -618.419 3818
72.0982 -618.419 3818
81.2282 -618.419 3818
90.9735 -622.63 3844
100.166 -622.63 3844
111.662 -635.75 3925
122.498 -643.363 3972
133.591 -651.138 4020
143.204 -651.138 4020
152.817 -651.138 4020
162.43 -651.138 4020
172.043 -651.138 4020
181.656 -651.138 4020
191.269 -651.138 4020
200.882 -651.138 4020
210.495 -651.138 4020
220.108 -651.138 4020
229.721 -651.138 4020
330.708 -641.905 3963
340.185 -641.905 3963
349.662 -641.905 3963
358.232 -640.285 3953
367.685 -640.285 3953
366.739 -622.63 3844
371.628 -615.503 3800
380.715 -615.503 3800
390.725 -616.961 3809
399.833 -616.961 3809
408.942 -616.961 3809
416.184 -614.208 3792
425.252 -614.208 3792
433.289 -612.75 3783
442.336 -612.75 3783
451.382 -612.75 3783
462.497 -615.503 3800
471.584 -615.503 3800
482.948 -618.419 3818
492.078 -618.419 3818
501.208 -618.419 3818
507.932 -615.503 3800
517.019 -615.503 3800
524.998 -614.208 3792
534.066 -614.208 3792
543.134 -614.208 3792
1680.21 -643.363 3972
1689.71 -643.363 3972
1699.21 -643.363 3972
1708.71 -643.363 3972
1718.2 -643.363 3972
1727.7 -643.363 3972
1733.26 -641.905 3963
1738.34 -640.285 3953
1756.2 -643.363 3972
1765.7 -643.363 3972
1792.18 -649.518 4010
1814.8 -654.215 4039
1824.46 -654.215 4039
1834.11 -654.215 4039
1848.34 -655.835 4049
1862.61 -657.455 4059
1872.31 -657.455 4059
1882.02 -657.455 4059
1891.73 -657.455 4059
1892.06 -654.215 4039
1901.72 -654.215 4039
1907.12 -652.758 4030
1916.76 -652.758 4030
3032.53 -660.694 4079
3042.28 -660.694 4079
3052.04 -660.694 4079
3054.28 -659.075 4069
3027.12 -651.138 4020
3036.73 -651.138 4020
3046.34 -651.138 4020
3048.35 -649.518 4010
3065.57 -651.138 4020
3075.18 -651.138 4020
-2432.7 -577.517 3619
-2424.05 -577.517 3619
-2415.39 -577.517 3619
-2412.06 -578.793 3627
-2403.39 -578.793 3627
-2394.71 -578.793 3627
-2386.04 -578.793 3627
-2377.37 -578.793 3627
-2378.49 -581.187 3642
-2369.78 -581.187 3642
-2361.07 -581.187 3642
-2347.84 -580.07 3635
-2328.85 -577.517 3619
-2320.2 -577.517 3619
-2311.54 -577.517 3619
-2292.71 -574.963 3603
-2284.09 -574.963 3603
-2275.48 -574.963 3603
-1239.79 -551.186 3454
-1231.53 -551.186 3454
-1223.27 -551.186 3454
-1173.85 -532.515 3337
-1165.87 -532.515 3337
-1157.89 -532.515 3337
-1154.39 -534.59 3350
-1146.38 -534.59 3350
-1138.37 -534.59 3350
-564.328 -282.934 1773
-560.088 -282.934 1773
-555.849 -282.934 1773
-551.609 -282.934 1773
-547.369 -282.934 1773
-543.129 -282.934 1773
-537.674 -282.295 1769
-532.84 -281.976 1767
-527.418 -281.338 1763
-523.202 -281.338 1763
-518.103 -280.859 1760
-511.267 -279.423 1751
-505.921 -278.785 1747
-501.744 -278.785 1747
-496.996 -278.465 1745
-491.694 -277.827 1741
-487.251 -277.668 1740
-483.09 -277.668 1740
-478.378 -277.348 1738
-473.131 -276.71 1734
-467.091 -275.593 1727
-461.621 -274.795 1722
-457.503 -274.795 1722
-451.806 -273.838 1716
-446.398 -273.04 1711
-441.014 -272.242 1706
-436.934 -272.242 1706
-431.84 -271.604 1702
-426.01 -270.487 1695
-420.712 -269.689 1690
-416.671 -269.689 1690
-411.409 -268.891 1685
-406.896 -268.572 1683
-401.675 -267.774 1678
-397.662 -267.774 1678
-392.946 -267.295 1675
-388.94 -267.295 1675
-383.096 -266.018 1667
-379.11 -266.018 1667
-374.223 -265.38 1663
-370.247 -265.38 1663
-365.609 -264.901 1660
-361.64 -264.901 1660
-357.67 -264.901 1660
-353.274 -264.582 1658
-349.31 -264.582 1658
-345.761 -264.901 1660
-342.204 -265.22 1662
-338.229 -265.22 1662
-334.858 -265.699 1665
-330.877 -265.699 1665
-327.484 -266.178 1668
-323.496 -266.178 1668
-319.507 -266.178 1668
-315.897 -266.497 1670
-312.463 -266.976 1673
-308.463 -266.976 1673
-304.462 -266.976 1673
-301.359 -267.774 1678
-297.701 -268.093 1680
-293.684 -268.093 1680
-290.011 -268.412 1682
-285.989 -268.412 1682
-281.967 -268.412 1682
-277.945 -268.412 1682
-274.085 -268.572 1683
-270.061 -268.572 1683
-266.036 -268.572 1683
-262.012 -268.572 1683
-257.987 -268.572 1683
-253.812 -268.412 1682
-249.79 -268.412 1682
-245.183 -267.774 1678
-241.17 -267.774 1678
-237.016 -267.614 1677
-233.006 -267.614 1677
-228.723 -267.295 1675
-224.717 -267.295 1675
-220.448 -266.976 1673
-216.06 -266.497 1670
-212.066 -266.497 1670
-207.824 -266.178 1668
-203.468 -265.699 1665
-198.888 -264.901 1660
-194.918 -264.901 1660
-190.718 -264.582 1658
-186.19 -263.784 1653
-182.238 -263.784 1653
-178.285 -263.784 1653
-174.227 -263.625 1652
-170.276 -263.625 1652
-165.822 -262.827 1647
-161.884 -262.827 1647
-157.945 -262.827 1647
-154.007 -262.827 1647
-150.068 -262.827 1647
-146.13 -262.827 1647
-142.019 -262.508 1645
-138.085 -262.508 1645
-134.151 -262.508 1645
-130.613 -263.305 1650
-126.668 -263.305 1650
-123.094 -264.103 1655
-119.28 -264.423 1657
-115.666 -265.22 1662
-111.759 -265.38 1663
-107.782 -265.38 1663
-103.93 -265.699 1665
-100.369 -266.816 1672
-96.6588 -267.614 1677
-92.6486 -267.614 1677
-89.0612 -268.891 1685
-85.1328 -269.21 1687
-81.5794 -270.806 1697
-77.5214 -270.806 1697
-73.6798 -271.604 1702
-69.6916 -271.923 1704
-65.7708 -272.561 1708
-61.6865 -272.561 1708
-57.6021 -272.561 1708
-73.8073 -607.837 3809
-64.6988 -607.837 3809
-55.5904 -607.837 3809
-46.4819 -607.837 3809
-37.5402 -610.549 3826
-28.5247 -613.422 3844
-19.3325 -613.422 3844
-10.1641 -614.858 3853
-0.950387 -614.858 3853
8.2633 -614.858 3853
17.477 -614.858 3853
26.6283 -613.422 3844
35.4944 -607.837 3809
44.4038 -605.124 3792
53.8382 -609.273 3818
62.9682 -609.273 3818
72.0982 -609.273 3818
81.2282 -609.273 3818
90.9735 -613.422 3844
100.166 -613.422 3844
111.662 -626.348 3925
122.498 -633.848 3972
133.591 -641.508 4020
143.204 -641.508 4020
152.817 -641.508 4020
162.43 -641.508 4020
172.043 -641.508 4020
181.656 -641.508 4020
191.269 -641.508 4020
200.882 -641.508 4020
210.495 -641.508 4020
220.108 -641.508 4020
229.721 -641.508 4020
330.708 -632.412 3963
340.185 -632.412 3963
349.662 -632.412 3963
358.232 -630.816 3953
367.685 -630.816 3953
366.739 -613.422 3844
371.628 -606.4 3800
380.715 -606.4 3800
390.725 -607.837 3809
399.833 -607.837 3809
408.942 -607.837 3809
416.184 -605.124 3792
425.252 -605.124 3792
433.289 -603.688 3783
442.336 -603.688 3783
451.382 -603.688 3783
462.497 -606.4 3800
471.584 -606.4 3800
482.948 -609.273 3818
492.078 -609.273 3818
501.208 -609.273 3818
507.932 -606.4 3800
517.019 -606.4 3800
524.998 -605.124 3792
534.066 -605.124 3792
543.134 -605.124 3792
1680.21 -633.848 3972
1689.71 -633.848 3972
1703.49 -635.444 3982
1716.88 -636.88 3991
1726.42 -636.88 3991
1735.97 -636.88 3991
1741.57 -635.444 3982
1742.74 -632.412 3963
1752.22 -632.412 3963
1761.7 -632.412 3963
1792.18 -639.912 4010
1801.77 -639.912 4010
1820.39 -643.104 4030
1830.03 -643.104 4030
1843.77 -644.54 4039
1858.02 -646.136 4049
1867.7 -646.136 4049
1877.38 -646.136 4049
1887.07 -646.136 4049
1887.85 -643.104 4030
1897.49 -643.104 4030
1902.39 -641.508 4020
1907.25 -639.912 4010
2981.23 -639.912 4010
3005.73 -643.104 4030
3015.37 -643.104 4030
3025.01 -643.104 4030
3019.59 -639.912 4010
3029.17 -639.912 4010
3038.76 -639.912 4010
3048.35 -639.912 4010
3065.57 -641.508 4020
3075.18 -641.508 4020
-2424.05 -568.847 3619
-2415.39 -568.847 3619
-2412.06 -570.105 3627
-2403.39 -570.105 3627
-2394.71 -570.105 3627
-2380.78 -568.847 3619
-2372.12 -568.847 3619
-2378.49 -572.463 3642
-2369.78 -572.463 3642
-2361.07 -572.463 3642
-1173.85 -524.522 3337
-1165.87 -524.522 3337
-1157.89 -524.522 3337
-1154.39 -526.565 3350
-1146.38 -526.565 3350
-1138.37 -526.565 3350
-563.692 -278.372 1771
-559.457 -278.372 1771
-555.222 -278.372 1771
-550.987 -278.372 1771
-546.134 -278.058 1769
-541.904 -278.058 1769
-536.458 -277.429 1765
-531.634 -277.115 1763
-527.119 -276.957 1762
-522.906 -276.957 1762
-516.926 -276.014 1756
-510.099 -274.6 1747
-505.342 -274.285 1745
-501.169 -274.285 1745
-496.427 -273.971 1743
-491.412 -273.499 1740
-486.691 -273.185 1738
-482.535 -273.185 1738
-477.277 -272.556 1734
-472.585 -272.242 1732
-467.091 -271.456 1727
-461.621 -270.67 1722
-457.503 -270.67 1722
-451.542 -269.57 1715
-445.876 -268.627 1709
-440.497 -267.841 1704
-436.422 -267.841 1704
-431.586 -267.369 1701
-425.759 -266.269 1694
-420.463 -265.483 1689
-416.424 -265.483 1689
-411.409 -264.854 1685
-406.896 -264.54 1683
-401.675 -263.754 1678
-397.662 -263.754 1678
-392.946 -263.282 1675
-388.94 -263.282 1675
-383.096 -262.025 1667
-379.11 -262.025 1667
-374.223 -261.396 1663
-370.247 -261.396 1663
-365.609 -260.925 1660
-361.64 -260.925 1660
-357.67 -260.925 1660
-353.274 -260.61 1658
-349.31 -260.61 1658
-345.761 -260.925 1660
-342.204 -261.239 1662
-338.229 -261.239 1662
-334.858 -261.711 1665
-330.877 -261.711 1665
-327.484 -262.182 1668
-323.496 -262.182 1668
-319.507 -262.182 1668
-315.897 -262.497 1670
-312.463 -262.968 1673
-308.463 -262.968 1673
-304.462 -262.968 1673
-301.18 -263.597 1677
-297.701 -264.068 1680
-293.684 -264.068 1680
-290.011 -264.383 1682
-285.989 -264.383 1682
-281.967 -264.383 1682
-277.945 -264.383 1682
-274.085 -264.54 1683
-270.061 -264.54 1683
-266.036 -264.54 1683
-262.012 -264.54 1683
-257.987 -264.54 1683
-253.812 -264.383 1682
-249.79 -264.383 1682
-245.183 -263.754 1678
-241.17 -263.754 1678
-237.016 -263.597 1677
-233.006 -263.597 1677
-228.723 -263.282 1675
-224.717 -263.282 1675
-220.448 -262.968 1673
-216.06 -262.497 1670
-212.066 -262.497 1670
-207.824 -262.182 1668
-203.468 -261.711 1665
-198.648 -260.61 1658
-194.683 -260.61 1658
-190.373 -260.139 1655
-186.19 -259.824 1653
-182.238 -259.824 1653
-178.285 -259.824 1653
-174.227 -259.667 1652
-170.276 -259.667 1652
-165.822 -258.881 1647
-161.884 -258.881 1647
-157.945 -258.881 1647
-154.007 -258.881 1647
-150.068 -258.881 1647
-146.13 -258.881 1647
-142.019 -258.567 1645
-138.085 -258.567 1645
-134.151 -258.567 1645
-130.613 -259.353 1650
-126.668 -259.353 1650
-123.094 -260.139 1655
-119.28 -260.453 1657
-115.666 -261.239 1662
-111.759 -261.396 1663
-107.782 -261.396 1663
-103.93 -261.711 1665
-100.369 -262.811 1672
-96.6588 -263.597 1677
-92.6486 -263.597 1677
-89.0612 -264.854 1685
-85.1328 -265.169 1687
-81.5794 -266.74 1697
-77.5214 -266.74 1697
-73.6798 -267.526 1702
-69.6916 -267.841 1704
-65.7708 -268.47 1708
-61.6865 -268.47 1708
-57.6021 -268.47 1708
-73.4779 -596.04 3792
-64.6988 -598.712 3809
-55.5904 -598.712 3809
-46.4819 -598.712 3809
-37.4617 -600.127 3818
-28.5247 -604.214 3844
-19.3325 -604.214 3844
-10.1641 -605.628 3853
-0.950387 -605.628 3853
8.2633 -605.628 3853
17.477 -605.628 3853
26.6283 -604.214 3844
35.4944 -598.712 3809
44.2984 -594.625 3783
53.4716 -596.04 3792
62.5394 -596.04 3792
72.0982 -600.127 3818
81.2282 -600.127 3818
90.3582 -600.127 3818
99.4882 -600.127 3818
111.662 -616.945 3925
121.912 -621.347 3953
132.328 -625.905 3982
141.85 -625.905 3982
152.817 -631.878 4020
162.43 -631.878 4020
172.043 -631.878 4020
181.656 -631.878 4020
190.793 -630.306 4010
200.383 -630.306 4010
209.972 -630.306 4010
219.068 -628.891 4001
329.123 -619.932 3944
338.554 -619.932 3944
347.985 -619.932 3944
354.879 -615.531 3916
364.243 -615.531 3916
365.88 -602.799 3835
370.845 -596.04 3792
378.11 -593.211 3774
388.981 -596.04 3792
398.049 -596.04 3792
407.117 -596.04 3792
414.209 -593.211 3774
423.234 -593.211 3774
432.258 -593.211 3774
441.283 -593.211 3774
451.382 -594.625 3783
461.524 -596.04 3792
470.591 -596.04 3792
479.659 -596.04 3792
488.727 -596.04 3792
497.795 -596.04 3792
505.66 -594.625 3783
514.706 -594.625 3783
523.752 -594.625 3783
1680.21 -624.333 3972
1689.71 -624.333 3972
1703.49 -625.905 3982
1716.88 -627.32 3991
1726.42 -627.32 3991
1735.97 -627.32 3991
1741.57 -625.905 3982
1742.74 -622.918 3963
1752.22 -622.918 3963
1761.7 -622.918 3963
1788.16 -628.891 4001
1801.77 -630.306 4010
1815.87 -631.878 4020
1825.49 -631.878 4020
1839.66 -633.45 4030
1858.02 -636.436 4049
1867.7 -636.436 4049
1877.38 -636.436 4049
1887.07 -636.436 4049
1883.16 -631.878 4020
1892.78 -631.878 4020
1897.66 -630.306 4010
1902.97 -628.891 4001
2957.56 -627.32 3991
2967.1 -627.32 3991
2990.82 -630.306 4010
3000.41 -630.306 4010
3010 -630.306 4010
3019.59 -630.306 4010
3029.17 -630.306 4010
3038.76 -630.306 4010
3041.51 -628.891 4001
3057.94 -630.306 4010
3067.53 -630.306 4010
-2406.74 -560.178 3619
-2398.09 -560.178 3619
-2389.43 -560.178 3619
-2380.78 -560.178 3619
-2372.12 -560.178 3619
-2363.47 -560.178 3619
-2354.81 -560.178 3619
-1173.85 -516.528 3337
-1165.87 -516.528 3337
-1157.89 -516.528 3337
-1154.39 -518.54 3350
-1146.38 -518.54 3350
-1138.37 -518.54 3350
-1101.68 -505.383 3265
-563.055 -273.82 1769
-558.825 -273.82 1769
-554.595 -273.82 1769
-549.12 -273.201 1765
-544.899 -273.201 1765
-540.679 -273.201 1765
-535.546 -272.737 1762
-531.333 -272.737 1762
-525.922 -272.117 1758
-521.719 -272.117 1758
-516.337 -271.498 1754
-509.515 -270.105 1745
-504.763 -269.796 1743
-500.595 -269.796 1743
-495.857 -269.486 1741
-490.847 -269.022 1738
-485.57 -268.402 1734
-481.424 -268.402 1734
-476.727 -268.093 1732
-472.312 -267.938 1731
-466.009 -266.7 1723
-461.085 -266.235 1720
-456.972 -266.235 1720
-451.542 -265.461 1715
-445.876 -264.533 1709
-439.98 -263.449 1702
-435.91 -263.449 1702
-431.586 -263.294 1701
-425.759 -262.211 1694
-420.463 -261.437 1689
-416.424 -261.437 1689
-411.409 -260.818 1685
-406.896 -260.508 1683
-401.675 -259.734 1678
-397.662 -259.734 1678
-392.946 -259.27 1675
-388.94 -259.27 1675
-383.096 -258.032 1667
-379.11 -258.032 1667
-374.223 -257.413 1663
-370.247 -257.413 1663
-365.609 -256.948 1660
-361.64 -256.948 1660
-357.67 -256.948 1660
-353.274 -256.639 1658
-349.31 -256.639 1658
-345.761 -256.948 1660
-342.204 -257.258 1662
-338.229 -257.258 1662
-334.858 -257.722 1665
-330.877 -257.722 1665
-327.484 -258.186 1668
-323.496 -258.186 1668
-319.507 -258.186 1668
-315.897 -258.496 1670
-312.463 -258.96 1673
-308.463 -258.96 1673
-304.462 -258.96 1673
-301.18 -259.58 1677
-297.701 -260.044 1680
-293.684 -260.044 1680
-290.011 -260.353 1682
-285.989 -260.353 1682
-281.967 -260.353 1682
-277.945 -260.353 1682
-274.085 -260.508 1683
-270.061 -260.508 1683
-266.036 -260.508 1683
-262.012 -260.508 1683
-257.987 -260.508 1683
-253.812 -260.353 1682
-249.79 -260.353 1682
-245.183 -259.734 1678
-241.17 -259.734 1678
-237.016 -259.58 1677
-233.006 -259.58 1677
-228.723 -259.27 1675
-224.717 -259.27 1675
-220.448 -258.96 1673
-216.06 -258.496 1670
-212.066 -258.496 1670
-207.824 -258.186 1668
-203.468 -257.722 1665
-198.648 -256.639 1658
-194.683 -256.639 1658
-190.373 -256.174 1655
-186.19 -255.865 1653
-182.238 -255.865 1653
-178.285 -255.865 1653
-174.227 -255.71 1652
-170.07 -255.4 1650
-165.822 -254.936 1647
-161.884 -254.936 1647
-157.945 -254.936 1647
-154.007 -254.936 1647
-150.068 -254.936 1647
-146.13 -254.936 1647
-142.019 -254.626 1645
-138.085 -254.626 1645
-134.151 -254.626 1645
-130.613 -255.4 1650
-126.668 -255.4 1650
-123.094 -256.174 1655
-119.28 -256.484 1657
-115.666 -257.258 1662
-111.692 -257.258 1662
-107.782 -257.413 1663
-103.93 -257.722 1665
-100.369 -258.806 1672
-96.6588 -259.58 1677
-92.6486 -259.58 1677
-89.1669 -261.127 1687
-85.1328 -261.127 1687
-81.5794 -262.675 1697
-77.5214 -262.675 1697
-73.6798 -263.449 1702
-69.7734 -264.068 1706
-65.7708 -264.378 1708
-61.6865 -264.378 1708
-57.6021 -264.378 1708
-73.4779 -586.956 3792
-64.6988 -589.588 3809
-55.5904 -589.588 3809
-46.4819 -589.588 3809
-37.4617 -590.981 3818
-28.5247 -595.005 3844
-19.3325 -595.005 3844
-10.1641 -596.398 3853
-0.950387 -596.398 3853
8.2633 -596.398 3853
17.477 -596.398 3853
26.6283 -595.005 3844
35.4944 -589.588 3809
44.2984 -585.563 3783
53.4716 -586.956 3792
62.5394 -586.956 3792
71.7583 -588.195 3800
81.0367 -589.588 3809
90.1452 -589.588 3809
99.2537 -589.588 3809
111.15 -604.757 3907
121.634 -610.484 3944
132.328 -616.366 3982
141.85 -616.366 3982
152.437 -620.7 4010
162.026 -620.7 4010
171.615 -620.7 4010
181.204 -620.7 4010
190.793 -620.7 4010
199.433 -617.759 3991
208.977 -617.759 3991
218.028 -616.366 3982
326.786 -606.15 3916
336.15 -606.15 3916
345.515 -606.15 3916
353.248 -603.364 3898
362.569 -603.364 3898
362.541 -588.195 3800
369.085 -584.17 3774
378.11 -584.17 3774
387.135 -584.17 3774
396.159 -584.17 3774
405.184 -584.17 3774
413.331 -582.932 3766
422.337 -582.932 3766
430.311 -581.539 3757
439.295 -581.539 3757
449.353 -582.932 3766
459.333 -584.17 3774
468.358 -584.17 3774
478.521 -585.563 3783
487.567 -585.563 3783
496.613 -585.563 3783
504.457 -584.17 3774
513.481 -584.17 3774
520.153 -581.539 3757
1680.21 -614.818 3972
1689.71 -614.818 3972
1727.87 -625.189 4039
1737.53 -625.189 4039
1747.19 -625.189 4039
1756.85 -625.189 4039
1753.82 -620.7 4010
1759.45 -619.307 4001
1769.02 -619.307 4001
1761.7 -613.425 3963
1783.69 -617.759 3991
1801.77 -620.7 4010
1815.87 -622.248 4020
1825.49 -622.248 4020
1839.66 -623.796 4030
1853.43 -625.189 4039
1863.09 -625.189 4039
1872.75 -625.189 4039
1882.41 -625.189 4039
1874.26 -619.307 4001
1883.83 -619.307 4001
1893.4 -619.307 4001
1902.97 -619.307 4001
2964.97 -619.307 4001
2974.54 -619.307 4001
2984.11 -619.307 4001
2986.19 -617.759 3991
3010 -620.7 4010
3019.59 -620.7 4010
3029.17 -620.7 4010
3038.76 -620.7 4010
3048.35 -620.7 4010
3065.57 -622.248 4020
3075.18 -622.248 4020
-2392.78 -550.289 3611
-2389.43 -551.509 3619
-2380.78 -551.509 3619
-2372.12 -551.509 3619
-2363.47 -551.509 3619
-2354.81 -551.509 3619
-1188.91 -511.582 3357
-1180.89 -511.582 3357
-1172.86 -511.582 3357
-1157.89 -508.534 3337
-1140.61 -504.419 3310
-1128.24 -502.438 3297
-1120.36 -502.438 3297
-1101.68 -497.562 3265
-561.145 -268.668 1763
-556.929 -268.668 1763
-552.714 -268.668 1763
-548.498 -268.668 1763
-543.356 -268.211 1760
-539.147 -268.211 1760
-534.938 -268.211 1760
-530.126 -267.906 1758
-524.726 -267.297 1754
-520.531 -267.297 1754
-515.454 -266.839 1751
-508.931 -265.62 1743
-504.184 -265.315 1741
-500.02 -265.315 1741
-495.857 -265.315 1741
-489.717 -264.249 1734
-485.57 -264.249 1734
-481.424 -264.249 1734
-476.452 -263.791 1731
-471.221 -263.182 1727
-465.198 -262.115 1720
-460.013 -261.506 1716
-455.909 -261.506 1716
-451.016 -261.048 1713
-445.615 -260.286 1708
-439.721 -259.22 1701
-435.653 -259.22 1701
-431.078 -258.915 1699
-425.759 -258.153 1694
-420.463 -257.391 1689
-416.424 -257.391 1689
-411.409 -256.781 1685
-406.896 -256.477 1683
-401.675 -255.715 1678
-397.662 -255.715 1678
-392.946 -255.257 1675
-388.94 -255.257 1675
-383.096 -254.038 1667
-379.11 -254.038 1667
-374.223 -253.429 1663
-370.247 -253.429 1663
-365.609 -252.972 1660
-361.64 -252.972 1660
-357.67 -252.972 1660
-353.061 -252.514 1657
-349.099 -252.514 1657
-345.761 -252.972 1660
-342.204 -253.276 1662
-338.229 -253.276 1662
-334.858 -253.734 1665
-330.877 -253.734 1665
-327.484 -254.191 1668
-323.496 -254.191 1668
-319.507 -254.191 1668
-315.897 -254.496 1670
-312.463 -254.953 1673
-308.463 -254.953 1673
-304.462 -254.953 1673
-301.18 -255.562 1677
-297.701 -256.019 1680
-293.684 -256.019 1680
-290.011 -256.324 1682
-285.989 -256.324 1682
-281.967 -256.324 1682
-277.945 -256.324 1682
-274.085 -256.477 1683
-270.061 -256.477 1683
-266.036 -256.477 1683
-262.012 -256.477 1683
-257.987 -256.477 1683
-253.812 -256.324 1682
-249.79 -256.324 1682
-245.183 -255.715 1678
-241.17 -255.715 1678
-237.016 -255.562 1677
-233.006 -255.562 1677
-228.723 -255.257 1675
-224.449 -254.953 1673
-220.448 -254.953 1673
-215.801 -254.191 1668
-211.812 -254.191 1668
-207.824 -254.191 1668
-203.468 -253.734 1665
-198.528 -252.514 1657
-194.566 -252.514 1657
-190.373 -252.21 1655
-186.19 -251.905 1653
-182.127 -251.752 1652
-178.177 -251.752 1652
-174.227 -251.752 1652
-170.07 -251.448 1650
-165.822 -250.991 1647
-161.884 -250.991 1647
-157.945 -250.991 1647
-154.007 -250.991 1647
-150.068 -250.991 1647
-146.13 -250.991 1647
-142.019 -250.686 1645
-138.001 -250.533 1644
-134.07 -250.533 1644
-130.613 -251.448 1650
-126.668 -251.448 1650
-123.094 -252.21 1655
-119.28 -252.514 1657
-115.666 -253.276 1662
-111.692 -253.276 1662
-107.782 -253.429 1663
-103.93 -253.734 1665
-100.369 -254.8 1672
-96.6588 -255.562 1677
-92.6486 -255.562 1677
-89.1669 -257.086 1687
-85.1328 -257.086 1687
-81.5794 -258.61 1697
-77.5214 -258.61 1697
-73.6798 -259.372 1702
-69.7734 -259.982 1706
-65.7708 -260.286 1708
-61.6865 -260.286 1708
-57.6021 -260.286 1708
-73.6329 -579.092 3800
-64.6988 -580.463 3809
-55.5904 -580.463 3809
-46.4819 -580.463 3809
-37.4617 -581.835 3818
-28.5247 -585.797 3844
-19.3325 -585.797 3844
-10.1641 -587.168 3853
-0.950387 -587.168 3853
8.2633 -587.168 3853
17.477 -587.168 3853
26.6283 -585.797 3844
35.4944 -580.463 3809
44.2984 -576.501 3783
53.4716 -577.872 3792
62.5394 -577.872 3792
71.6072 -577.872 3792
80.8453 -579.092 3800
90.1452 -580.463 3809
99.2537 -580.463 3809
111.15 -595.398 3907
121.634 -601.036 3944
132.328 -606.827 3982
141.85 -606.827 3982
152.437 -611.094 4010
162.026 -611.094 4010
171.615 -611.094 4010
181.204 -611.094 4010
189.889 -608.199 3991
198.034 -603.932 3963
207.511 -603.932 3963
215.947 -601.036 3944
323.782 -591.283 3880
333.06 -591.283 3880
342.338 -591.283 3880
346.723 -583.054 3826
355.872 -583.054 3826
360.06 -575.129 3774
367.422 -572.539 3757
376.407 -572.539 3757
386.314 -573.91 3766
395.32 -573.91 3766
404.325 -573.91 3766
411.465 -571.32 3749
420.43 -571.32 3749
428.364 -569.948 3740
437.308 -569.948 3740
447.325 -571.32 3749
458.359 -573.91 3766
467.365 -573.91 3766
476.37 -573.91 3766
485.376 -573.91 3766
493.2 -572.539 3757
502.184 -572.539 3757
511.168 -572.539 3757
520.153 -572.539 3757
1727.87 -615.513 4039
1741.83 -617.037 4049
1751.51 -617.037 4049
1761.2 -617.037 4049
1766.5 -615.513 4039
1759.45 -609.723 4001
1769.02 -609.723 4001
1765.7 -605.303 3972
1775.19 -605.303 3972
1793.23 -608.199 3991
1811.36 -611.094 4010
1820.94 -611.094 4010
1835.1 -612.618 4020
1849.3 -614.142 4030
1858.94 -614.142 4030
1868.57 -614.142 4030
1864.7 -609.723 4001
1869.58 -608.199 3991
1870.18 -605.303 3972
1879.67 -605.303 3972
1884.89 -603.932 3963
2973.81 -615.513 4039
2983.47 -615.513 4039
2993.13 -615.513 4039
3002.79 -615.513 4039
3012.45 -615.513 4039
2993.67 -609.723 4001
3010 -611.094 4010
3027.12 -612.618 4020
3036.73 -612.618 4020
3046.34 -612.618 4020
3055.95 -612.618 4020
3073.19 -614.142 4030
3082.83 -614.142 4030
-2392.78 -541.639 3611
-2389.43 -542.839 3619
-2380.78 -542.839 3619
-2372.12 -542.839 3619
-2363.47 -542.839 3619
-2354.81 -542.839 3619
-1188.91 -503.54 3357
-1180.89 -503.54 3357
-1172.86 -503.54 3357
-1157.89 -500.54 3337
-1140.61 -496.49 3310
-1128.24 -494.54 3297
-1120.36 -494.54 3297
-1101.68 -489.74 3265
-565.04 -264.295 1762
-561.145 -264.445 1763
-556.929 -264.445 1763
-552.714 -264.445 1763
-548.498 -264.445 1763
-543.356 -263.995 1760
-539.147 -263.995 1760
-534.938 -263.995 1760
-530.126 -263.695 1758
-524.726 -263.095 1754
-520.531 -263.095 1754
-515.454 -262.645 1751
-508.931 -261.445 1743
-504.184 -261.145 1741
-500.02 -261.145 1741
-495.857 -261.145 1741
-489.717 -260.095 1734
-485.57 -260.095 1734
-481.424 -260.095 1734
-476.452 -259.645 1731
-471.221 -259.045 1727
-465.198 -257.995 1720
-460.013 -257.395 1716
-455.909 -257.395 1716
-451.016 -256.945 1713
-445.615 -256.195 1708
-439.721 -255.145 1701
-435.653 -255.145 1701
-431.078 -254.845 1699
-425.759 -254.095 1694
-420.463 -253.345 1689
-416.424 -253.345 1689
-411.409 -252.745 1685
-406.896 -252.445 1683
-401.675 -251.695 1678
-397.662 -251.695 1678
-392.946 -251.245 1675
-388.94 -251.245 1675
-383.096 -250.045 1667
-379.11 -250.045 1667
-374.223 -249.445 1663
-370.247 -249.445 1663
-365.609 -248.995 1660
-361.64 -248.995 1660
-357.67 -248.995 1660
-353.061 -248.545 1657
-349.099 -248.545 1657
-345.761 -248.995 1660
-342.204 -249.295 1662
-338.229 -249.295 1662
-334.858 -249.745 1665
-330.877 -249.745 1665
-327.484 -250.195 1668
-323.496 -250.195 1668
-319.507 -250.195 1668
-315.897 -250.495 1670
-312.463 -250.945 1673
-308.463 -250.945 1673
-304.462 -250.945 1673
-301.18 -251.545 1677
-297.701 -251.995 1680
-293.684 -251.995 1680
-290.011 -252.295 1682
-285.989 -252.295 1682
-281.967 -252.295 1682
-277.945 -252.295 1682
-274.085 -252.445 1683
-270.061 -252.445 1683
-266.036 -252.445 1683
-262.012 -252.445 1683
-257.987 -252.445 1683
-253.812 -252.295 1682
-249.79 -252.295 1682
-245.183 -251.695 1678
-241.17 -251.695 1678
-237.016 -251.545 1677
-233.006 -251.545 1677
-228.723 -251.245 1675
-224.449 -250.945 1673
-220.448 -250.945 1673
-215.801 -250.195 1668
-211.812 -250.195 1668
-207.824 -250.195 1668
-203.468 -249.745 1665
-198.528 -248.545 1657
-194.566 -248.545 1657
-190.373 -248.245 1655
-186.19 -247.945 1653
-182.127 -247.795 1652
-178.177 -247.795 1652
-174.227 -247.795 1652
-170.07 -247.495 1650
-165.822 -247.045 1647
-161.884 -247.045 1647
-157.945 -247.045 1647
-154.007 -247.045 1647
-150.068 -247.045 1647
-146.13 -247.045 1647
-142.019 -246.745 1645
-138.001 -246.595 1644
-134.07 -246.595 1644
-130.613 -247.495 1650
-126.668 -247.495 1650
-123.094 -248.245 1655
-119.352 -248.695 1658
-115.666 -249.295 1662
-111.692 -249.295 1662
-107.782 -249.445 1663
-104.055 -250.045 1667
-100.429 -250.945 1673
-96.6588 -251.545 1677
-92.6486 -251.545 1677
-89.1669 -253.045 1687
-85.1328 -253.045 1687
-81.5794 -254.545 1697
-77.5214 -254.545 1697
-73.6798 -255.295 1702
-69.7734 -255.895 1706
-65.7708 -256.195 1708
-61.6865 -256.195 1708
-57.6021 -256.195 1708
-73.6329 -569.989 3800
-64.8517 -572.689 3818
-55.7217 -572.689 3818
-46.5917 -572.689 3818
-37.4617 -572.689 3818
-28.5247 -576.589 3844
-19.3325 -576.589 3844
-10.1641 -577.939 3853
-0.950387 -577.939 3853
8.2633 -577.939 3853
17.477 -577.939 3853
26.6283 -576.589 3844
35.4944 -571.339 3809
44.2984 -567.439 3783
53.4716 -568.789 3792
62.5394 -568.789 3792
71.6072 -568.789 3792
80.8453 -569.989 3800
90.1452 -571.339 3809
99.2537 -571.339 3809
111.15 -586.038 3907
121.634 -591.588 3944
132.328 -597.288 3982
141.85 -597.288 3982
152.437 -601.488 4010
162.026 -601.488 4010
171.615 -601.488 4010
181.204 -601.488 4010
189.889 -598.638 3991
198.034 -594.438 3963
207.511 -594.438 3963
215.947 -591.588 3944
323.782 -581.988 3880
333.06 -581.988 3880
342.338 -581.988 3880
346.723 -573.889 3826
355.872 -573.889 3826
360.06 -566.089 3774
367.422 -563.539 3757
376.407 -563.539 3757
386.314 -564.889 3766
395.32 -564.889 3766
404.325 -564.889 3766
411.465 -562.339 3749
420.43 -562.339 3749
428.364 -560.989 3740
437.308 -560.989 3740
447.325 -562.339 3749
458.359 -564.889 3766
467.365 -564.889 3766
476.37 -564.889 3766
485.376 -564.889 3766
493.2 -563.539 3757
502.184 -563.539 3757
511.168 -563.539 3757
520.153 -563.539 3757
529.137 -563.539 3757
538.121 -563.539 3757
1732.15 -607.338 4049
1741.83 -607.338 4049
1751.51 -607.338 4049
1761.2 -607.338 4049
1766.5 -605.838 4039
1759.45 -600.138 4001
1769.02 -600.138 4001
1765.7 -595.788 3972
1775.19 -595.788 3972
1793.23 -598.638 3991
1811.36 -601.488 4010
1820.94 -601.488 4010
1835.1 -602.988 4020
1849.3 -604.488 4030
1858.94 -604.488 4030
1868.57 -604.488 4030
1864.7 -600.138 4001
1869.58 -598.638 3991
1870.18 -595.788 3972
1879.67 -595.788 3972
1884.89 -594.438 3963
2993.51 -611.838 4079
3003.26 -611.838 4079
3013.02 -611.838 4079
3022.77 -611.838 4079
3010.22 -607.338 4049
3019.91 -607.338 4049
3022.11 -605.838 4039
3025.01 -604.488 4030
3034.65 -604.488 4030
3044.28 -604.488 4030
3053.92 -604.488 4030
3063.56 -604.488 4030
3087.68 -607.338 4049
3097.36 -607.338 4049
-1188.91 -495.498 3357
-1180.89 -495.498 3357
-1172.86 -495.498 3357
-1148.52 -488.561 3310
-1127.17 -482.805 3271
-1117.29 -481.919 3265
-1109.49 -481.919 3265
-1101.68 -481.919 3265
-565.04 -260.074 1762
-560.827 -260.074 1762
-556.613 -260.074 1762
-551.773 -259.779 1760
-547.564 -259.779 1760
-543.356 -259.779 1760
-539.147 -259.779 1760
-534.33 -259.483 1758
-529.523 -259.188 1756
-524.128 -258.598 1752
-519.938 -258.598 1752
-514.865 -258.155 1749
-508.347 -256.974 1741
-504.184 -256.974 1741
-500.02 -256.974 1741
-495.572 -256.827 1740
-489.717 -255.941 1734
-484.73 -255.498 1731
-480.591 -255.498 1731
-476.452 -255.498 1731
-471.221 -254.908 1727
-465.198 -253.875 1720
-459.745 -253.137 1715
-455.643 -253.137 1715
-450.489 -252.546 1711
-445.093 -251.808 1706
-439.204 -250.775 1699
-435.141 -250.775 1699
-430.064 -250.185 1695
-425.256 -249.742 1692
-419.965 -249.004 1687
-415.931 -249.004 1687
-410.921 -248.413 1683
-406.654 -248.266 1682
-401.435 -247.528 1677
-397.425 -247.528 1677
-392.946 -247.233 1675
-388.476 -246.937 1673
-383.096 -246.052 1667
-379.11 -246.052 1667
-374.223 -245.461 1663
-370.247 -245.461 1663
-365.609 -245.019 1660
-361.64 -245.019 1660
-357.67 -245.019 1660
-353.061 -244.576 1657
-349.099 -244.576 1657
-345.761 -245.019 1660
-342.204 -245.314 1662
-338.229 -245.314 1662
-334.858 -245.757 1665
-330.877 -245.757 1665
-327.484 -246.199 1668
-323.496 -246.199 1668
-319.507 -246.199 1668
-315.897 -246.495 1670
-312.463 -246.937 1673
-308.463 -246.937 1673
-304.462 -246.937 1673
-301.18 -247.528 1677
-297.701 -247.971 1680
-293.684 -247.971 1680
-289.666 -247.971 1680
-285.989 -248.266 1682
-281.967 -248.266 1682
-277.945 -248.266 1682
-273.923 -248.266 1682
-269.9 -248.266 1682
-265.878 -248.266 1682
-261.856 -248.266 1682
-257.834 -248.266 1682
-253.51 -247.971 1680
-249.493 -247.971 1680
-245.183 -247.675 1678
-241.027 -247.528 1677
-236.734 -247.233 1675
-232.728 -247.233 1675
-228.45 -246.937 1673
-224.449 -246.937 1673
-220.317 -246.79 1672
-215.801 -246.199 1668
-211.812 -246.199 1668
-207.824 -246.199 1668
-203.468 -245.757 1665
-198.528 -244.576 1657
-194.566 -244.576 1657
-190.373 -244.281 1655
-186.19 -243.985 1653
-182.127 -243.838 1652
-178.177 -243.838 1652
-174.227 -243.838 1652
-169.864 -243.247 1648
-165.822 -243.1 1647
-161.884 -243.1 1647
-157.945 -243.1 1647
-154.007 -243.1 1647
-150.068 -243.1 1647
-146.13 -243.1 1647
-141.932 -242.657 1644
-138.001 -242.657 1644
-134.07 -242.657 1644
-130.613 -243.543 1650
-126.668 -243.543 1650
-123.094 -244.281 1655
-119.352 -244.723 1658
-115.666 -245.314 1662
-111.692 -245.314 1662
-107.782 -245.461 1663
-104.055 -246.052 1667
-100.429 -246.937 1673
-96.6588 -247.528 1677
-92.6486 -247.528 1677
-88.9555 -248.413 1683
-85.1328 -249.004 1687
-81.4352 -250.037 1694
-77.3843 -250.037 1694
-73.6798 -251.218 1702
-69.7734 -251.808 1706
-65.7708 -252.103 1708
-61.6865 -252.103 1708
-57.6021 -252.103 1708
-73.6329 -560.886 3800
-64.8517 -563.543 3818
-55.7217 -563.543 3818
-46.5917 -563.543 3818
-37.4617 -563.543 3818
-28.5247 -567.38 3844
-19.3325 -567.38 3844
-10.1641 -568.709 3853
-0.950387 -568.709 3853
8.2633 -568.709 3853
17.477 -568.709 3853
26.6283 -567.38 3844
35.4105 -560.886 3800
44.2984 -558.377 3783
53.3447 -558.377 3783
62.391 -558.377 3783
71.6072 -559.705 3792
80.675 -559.705 3792
89.7429 -559.705 3792
98.8107 -559.705 3792
110.638 -574.022 3889
120.771 -578.008 3916
131.697 -584.945 3963
141.173 -584.945 3963
152.095 -590.554 4001
161.662 -590.554 4001
171.23 -590.554 4001
180.798 -590.554 4001
188.985 -586.273 3972
197.084 -582.14 3944
206.516 -582.14 3944
212.936 -574.022 3889
319.276 -564.723 3826
328.425 -564.723 3826
337.574 -564.723 3826
344.367 -560.886 3800
353.454 -560.886 3800
359.297 -555.867 3766
367.422 -554.539 3757
376.407 -554.539 3757
385.391 -554.539 3757
394.375 -554.539 3757
403.359 -554.539 3757
411.465 -553.358 3749
420.43 -553.358 3749
426.532 -549.668 3724
436.372 -550.849 3732
446.251 -552.03 3740
457.264 -554.539 3757
467.365 -555.867 3766
476.37 -555.867 3766
485.376 -555.867 3766
493.2 -554.539 3757
502.184 -554.539 3757
511.168 -554.539 3757
520.153 -554.539 3757
529.137 -554.539 3757
538.121 -554.539 3757
1732.15 -597.639 4049
1741.83 -597.639 4049
1751.51 -597.639 4049
1761.2 -597.639 4049
1766.5 -596.163 4039
1759.45 -590.554 4001
1769.02 -590.554 4001
1765.7 -586.273 3972
1775.19 -586.273 3972
1789.19 -587.749 3982
1802.77 -589.078 3991
1812.32 -589.078 3991
1821.86 -589.078 3991
1831.4 -589.078 3991
1840.95 -589.078 3991
1850.49 -589.078 3991
1860.04 -589.078 3991
1856.46 -584.945 3963
1852.76 -580.812 3935
1862.17 -580.812 3935
1871.58 -580.812 3935
2993.51 -602.067 4079
3003.26 -602.067 4079
3013.02 -602.067 4079
3022.77 -602.067 4079
3010.22 -597.639 4049
3019.91 -597.639 4049
3022.11 -596.163 4039
3025.01 -594.834 4030
3034.65 -594.834 4030
3044.28 -594.834 4030
3053.92 -594.834 4030
3063.56 -594.834 4030
3087.68 -597.639 4049
3097.36 -597.639 4049
-1196 -490.361 3377
-1187.92 -490.361 3377
-1179.85 -490.361 3377
-1148.52 -480.632 3310
-1138.19 -479.615 3303
-1130.3 -479.615 3303
-1122.4 -479.615 3303
-1112.48 -478.744 3297
-566.002 -256.289 1765
-561.782 -256.289 1765
-557.561 -256.289 1765
-552.4 -255.853 1762
-548.187 -255.853 1762
-543.356 -255.563 1760
-539.147 -255.563 1760
-533.722 -254.982 1756
-528.92 -254.691 1754
-524.128 -254.401 1752
-519.938 -254.401 1752
-514.865 -253.965 1749
-508.347 -252.804 1741
-503.894 -252.658 1740
-499.733 -252.658 1740
-495.003 -252.368 1738
-489.152 -251.497 1732
-484.73 -251.352 1731
-480.591 -251.352 1731
-475.351 -250.771 1727
-470.13 -250.19 1723
-465.198 -249.754 1720
-459.745 -249.028 1715
-455.643 -249.028 1715
-450.489 -248.447 1711
-444.571 -247.431 1704
-438.687 -246.415 1697
-434.629 -246.415 1697
-429.81 -245.979 1694
-424.754 -245.398 1690
-419.468 -244.672 1685
-415.438 -244.672 1685
-410.676 -244.237 1682
-406.171 -243.946 1680
-400.956 -243.22 1675
-396.951 -243.22 1675
-392.476 -242.93 1673
-388.476 -242.93 1673
-383.096 -242.058 1667
-379.11 -242.058 1667
-374.223 -241.478 1663
-370.247 -241.478 1663
-365.609 -241.042 1660
-361.64 -241.042 1660
-357.67 -241.042 1660
-353.061 -240.606 1657
-349.099 -240.606 1657
-345.345 -240.752 1658
-341.792 -241.042 1660
-337.822 -241.042 1660
-334.456 -241.478 1663
-330.877 -241.768 1665
-327.288 -242.058 1667
-323.302 -242.058 1667
-319.507 -242.204 1668
-315.897 -242.494 1670
-311.903 -242.494 1670
-307.91 -242.494 1670
-304.462 -242.93 1673
-301.18 -243.51 1677
-297.347 -243.656 1678
-293.334 -243.656 1678
-289.666 -243.946 1680
-285.649 -243.946 1680
-281.632 -243.946 1680
-277.614 -243.946 1680
-273.597 -243.946 1680
-269.579 -243.946 1680
-265.878 -244.237 1682
-261.856 -244.237 1682
-257.834 -244.237 1682
-253.51 -243.946 1680
-249.493 -243.946 1680
-245.037 -243.51 1677
-240.739 -243.22 1675
-236.734 -243.22 1675
-232.728 -243.22 1675
-228.45 -242.93 1673
-224.449 -242.93 1673
-220.317 -242.784 1672
-215.801 -242.204 1668
-211.812 -242.204 1668
-207.699 -242.058 1667
-203.468 -241.768 1665
-198.528 -240.606 1657
-194.566 -240.606 1657
-190.373 -240.316 1655
-186.078 -239.88 1652
-182.127 -239.88 1652
-178.177 -239.88 1652
-174.016 -239.59 1650
-169.864 -239.299 1648
-165.822 -239.154 1647
-161.884 -239.154 1647
-157.945 -239.154 1647
-154.007 -239.154 1647
-149.886 -238.864 1645
-145.952 -238.864 1645
-141.932 -238.719 1644
-137.833 -238.428 1642
-133.907 -238.428 1642
-130.455 -239.299 1648
-126.514 -239.299 1648
-123.094 -240.316 1655
-119.352 -240.752 1658
-115.666 -241.332 1662
-111.692 -241.332 1662
-107.912 -241.768 1665
-104.055 -242.058 1667
-100.429 -242.93 1673
-96.5435 -243.22 1675
-92.5381 -243.22 1675
-88.9555 -244.382 1683
-85.1328 -244.963 1687
-81.4352 -245.979 1694
-77.3843 -245.979 1694
-73.4633 -246.415 1697
-69.6098 -247.141 1702
-65.7708 -248.012 1708
-61.6865 -248.012 1708
-57.6021 -248.012 1708
-83.2859 -555.558 3826
-74.1367 -555.558 3826
-64.9876 -555.558 3826
-55.7217 -554.397 3818
-46.5917 -554.397 3818
-37.4617 -554.397 3818
-28.3911 -555.558 3826
-19.242 -555.558 3826
-10.1403 -558.172 3844
-0.948167 -558.172 3844
8.244 -558.172 3844
17.4362 -558.172 3844
26.5037 -555.558 3826
35.4105 -551.783 3800
44.193 -548.008 3774
53.3447 -549.314 3783
62.391 -549.314 3783
