2038.19 630.585 3740
2075.6 639.353 3792
2137.99 655.707 3889
2177.66 664.981 3944
2187.09 664.981 3944
2233.28 676.109 4010
2254.05 679.481 4030
2263.69 679.481 4030
2273.33 679.481 4030
2282.96 679.481 4030
2292.6 679.481 4030
2302.24 679.481 4030
2311.87 679.481 4030
2321.51 679.481 4030
2325.36 677.795 4020
2323.94 674.591 4001
2333.51 674.591 4001
2337.22 672.905 3991
2341.47 671.388 3982
2345.09 669.702 3972
2354.59 669.702 3972
2364.09 669.702 3972
2373.58 669.702 3972
2377.68 668.184 3963
2387.16 668.184 3963
2396.64 668.184 3963
2400.04 666.498 3953
2409.49 666.498 3953
2418.95 666.498 3953
2428.4 666.498 3953
2432.3 664.981 3944
2441.73 664.981 3944
2445.57 663.463 3935
2454.98 663.463 3935
2464.39 663.463 3935
2473.8 663.463 3935
2483.21 663.463 3935
2492.62 663.463 3935
2502.03 663.463 3935
2541.44 671.388 3982
2550.96 671.388 3982
2560.48 671.388 3982
2570 671.388 3982
2585.36 672.905 3991
2601.4 674.591 4001
2610.97 674.591 4001
2620.54 674.591 4001
2630.1 674.591 4001
2645.61 676.109 4010
2655.2 676.109 4010
2664.79 676.109 4010
528.202 124.6 739
529.97 124.6 739
531.737 124.6 739
532.782 124.431 738
533.823 124.262 737
535.585 124.262 737
537.347 124.262 737
539.11 124.262 737
540.138 124.094 736
541.898 124.094 736
542.919 123.925 735
544.677 123.925 735
545.691 123.757 734
547.446 123.757 734
549.202 123.757 734
550.957 123.757 734
552.712 123.757 734
554.467 123.757 734
556.223 123.757 734
557.978 123.757 734
559.733 123.757 734
561.488 123.757 734
-2356.98 538.312 3148
-2349.46 538.312 3148
-2333 536.26 3136
-2325.5 536.26 3136
-2331.31 539.338 3154
-2323.77 539.338 3154
-2316.22 539.338 3154
-2308.68 539.338 3154
-2296.76 538.312 3148
-2297.96 540.364 3160
-2290.4 540.364 3160
-2287.18 541.39 3166
-2296.89 545.494 3190
-2333.76 556.096 3252
-2325.98 556.096 3252
-2318.2 556.096 3252
-2463.89 593.032 3468
-2455.59 593.032 3468
-2493.88 604.318 3534
-2512.15 610.816 3572
-2552.67 622.786 3642
-2543.96 622.786 3642
-2546.39 625.522 3658
-2543.89 627.061 3667
-2557.24 632.533 3699
-2548.4 632.533 3699
-2545.04 633.901 3707
-2536.18 633.901 3707
-2527.31 633.901 3707
-2518.45 633.901 3707
-2504.17 632.533 3699
-2484.53 629.797 3683
-2475.72 629.797 3683
-2456.2 627.061 3667
-2441.42 625.522 3658
-2422.04 622.786 3642
-2413.33 622.786 3642
-2404.62 622.786 3642
-2395.91 622.786 3642
-2366.88 617.485 3611
-2358.24 617.485 3611
-2344.4 616.117 3603
-2335.79 616.117 3603
-2327.17 616.117 3603
-2318.56 616.117 3603
-2309.94 616.117 3603
-2301.32 616.117 3603
-2292.71 616.117 3603
-2274.58 613.552 3588
-2266 613.552 3588
-2257.42 613.552 3588
-2243.83 612.184 3580
-2225.9 609.619 3565
-2217.38 609.619 3565
-1966.39 699.224 4089
-1956.62 699.224 4089
-1946.84 699.224 4089
-1927.59 695.804 4069
-1908.43 692.384 4049
-1898.75 692.384 4049
-1884.4 690.674 4039
-1857.1 684.176 4001
-1817.06 672.89 3935
-1815.92 675.968 3953
-1806.46 675.968 3953
-1797.01 675.968 3953
-1792.08 677.678 3963
-1782.6 677.678 3963
-1773.13 677.678 3963
-1763.65 677.678 3963
-1754.17 677.678 3963
-1744.7 677.678 3963
-1735.22 677.678 3963
-1717.47 674.429 3944
-1708.04 674.429 3944
-1698.61 674.429 3944
-1685.32 672.89 3935
-1675.91 672.89 3935
-1658.45 669.641 3916
-1649.09 669.641 3916
-1632.19 666.562 3898
-1619.12 665.023 3889
-1624.72 671.18 3925
-1619.45 672.89 3935
-1610.04 672.89 3935
-1600.63 672.89 3935
-1591.22 672.89 3935
-1581.81 672.89 3935
-1572.4 672.89 3935
-1559.02 671.18 3925
-1549.64 671.18 3925
-1533.19 668.102 3907
-1523.84 668.102 3907
-1514.5 668.102 3907
-620.198 287.795 1683
-618.37 288.821 1689
-614.331 288.821 1689
-610.292 288.821 1689
-606.253 288.821 1689
-602.214 288.821 1689
-598.175 288.821 1689
-594.137 288.821 1689
-590.098 288.821 1689
-586.059 288.821 1689
-582.02 288.821 1689
-576.612 288.137 1685
-571.903 287.795 1683
-566.866 287.282 1680
-562.849 287.282 1680
-558.831 287.282 1680
-554.154 286.94 1678
-549.157 286.427 1675
-545.152 286.427 1675
-539.531 285.572 1670
-534.576 285.059 1667
-528.998 284.204 1662
-525.024 284.204 1662
-520.422 283.862 1660
-516.453 283.862 1660
-512.483 283.862 1660
-506.982 283.007 1655
-503.024 283.007 1655
-499.067 283.007 1655
-494.511 282.665 1653
-490.261 282.494 1652
-486.311 282.494 1652
-482.36 282.494 1652
-478.41 282.494 1652
-474.459 282.494 1652
-470.794 282.665 1653
-466.841 282.665 1653
-462.888 282.665 1653
-460.046 283.349 1657
-456.359 283.52 1658
-452.394 283.52 1658
-448.97 283.862 1660
-445.537 284.204 1662
-441.562 284.204 1662
-437.588 284.204 1662
-433.614 284.204 1662
-429.639 284.204 1662
-425.665 284.204 1662
-421.691 284.204 1662
-417.716 284.204 1662
-413.991 284.375 1663
-410.507 284.717 1665
-406.526 284.717 1665
-403.028 285.059 1667
-399.76 285.572 1670
-395.766 285.572 1670
-391.773 285.572 1670
-388.244 285.914 1672
-384.245 285.914 1672
-381.384 286.769 1677
-377.374 286.769 1677
-373.364 286.769 1677
-369.574 286.94 1678
-365.561 286.94 1678
-361.548 286.94 1678
-357.962 287.282 1680
-353.945 287.282 1680
-351.385 288.479 1687
-347.351 288.479 1687
-343.724 288.821 1689
-340.288 289.334 1692
-336.839 289.847 1695
-332.785 289.847 1695
-330.09 291.044 1702
-327.169 292.07 1708
-324.03 292.925 1713
-319.934 292.925 1713
-317.128 294.122 1720
-313.379 294.464 1722
-311.057 296.174 1732
-306.916 296.174 1732
-304.347 297.713 1741
-302.77 300.278 1756
-299.761 301.475 1763
-295.546 301.475 1763
-293.313 303.527 1775
-289.72 304.211 1779
-285.947 304.724 1782
-281.685 304.724 1782
-278.358 305.75 1788
-274.083 305.75 1788
-270.712 306.776 1794
-266.422 306.776 1794
-262.132 306.776 1794
-257.842 306.776 1794
-253.552 306.776 1794
-249.262 306.776 1794
-244.972 306.776 1794
-240.682 306.776 1794
-236.392 306.776 1794
-232.102 306.776 1794
-227.812 306.776 1794
-223.772 307.118 1796
-219.721 307.46 1798
-215.422 307.46 1798
-211.122 307.46 1798
-207.053 307.802 1800
-202.748 307.802 1800
-198.995 308.657 1805
-194.679 308.657 1805
-190.573 308.999 1807
-186.459 309.341 1809
-182.737 310.367 1815
-178.397 310.367 1815
-174.632 311.393 1821
-170.277 311.393 1821
-166.287 312.077 1825
-161.923 312.077 1825
-157.559 312.077 1825
-324.736 680.927 3982
-315.214 680.927 3982
-305.692 680.927 3982
-294.013 675.968 3953
-280.6 666.562 3898
-269.4 661.945 3871
-260.143 661.945 3871
-250.887 661.945 3871
-241.63 661.945 3871
-232.373 661.945 3871
-223.635 663.484 3880
-214.854 665.023 3889
-205.554 665.023 3889
-196.255 665.023 3889
-186.522 663.484 3880
-177.244 663.484 3880
-167.966 663.484 3880
-161.305 674.429 3944
-152.22 675.968 3953
-143.129 677.678 3963
-133.652 677.678 3963
-125.366 684.176 4001
-116.059 685.715 4010
-107.77 694.094 4059
-98.0642 694.094 4059
-88.3579 694.094 4059
105.508 692.384 4049
116.043 697.514 4079
125.798 697.514 4079
135.552 697.514 4079
143.56 689.135 4030
152.817 687.425 4020
161.662 684.176 4001
171.23 684.176 4001
180.798 684.176 4001
188.985 679.217 3972
198.484 679.217 3972
207.982 679.217 3972
215.947 674.429 3944
224.864 672.89 3935
231.535 665.023 3889
240.835 665.023 3889
246.662 655.789 3835
254.698 652.882 3818
263.206 651.343 3809
272.315 651.343 3809
279.502 646.897 3783
287.862 645.358 3774
296.887 645.358 3774
305.912 645.358 3774
314.936 645.358 3774
323.961 645.358 3774
332.28 643.99 3766
341.286 643.99 3766
350.291 643.99 3766
357.675 641.083 3749
366.64 641.083 3749
373.902 638.176 3732
382.826 638.176 3732
390.071 635.44 3716
393.696 627.061 3667
396.319 617.485 3611
404.954 617.485 3611
411.757 614.749 3595
417.664 610.816 3572
423.461 606.883 3549
429.27 603.121 3527
437.705 603.121 3527
443.356 599.359 3505
448.902 595.597 3483
454.343 591.835 3461
462.619 591.835 3461
467.086 587.047 3433
472.388 583.456 3412
478.575 581.062 3398
486.701 581.062 3398
491.768 577.471 3377
497.772 575.077 3363
507.919 577.471 3377
517.064 578.668 3384
527.329 581.062 3398
536.558 582.259 3405
549.179 587.047 3433
560.798 590.638 3454
573.836 595.597 3483
582.164 595.597 3483
591.68 596.794 3490
602.605 599.359 3505
616.041 604.318 3534
624.492 604.318 3534
635.63 606.883 3549
645.568 608.251 3557
655.545 609.619 3565
664.07 609.619 3565
672.595 609.619 3565
682.458 610.816 3572
690.999 610.816 3572
699.541 610.816 3572
711.255 613.552 3588
719.835 613.552 3588
728.415 613.552 3588
736.995 613.552 3588
745.575 613.552 3588
752.473 612.184 3580
761.034 612.184 3580
769.595 612.184 3580
776.417 610.816 3572
784.958 610.816 3572
793.5 610.816 3572
802.042 610.816 3572
810.584 610.816 3572
819.125 610.816 3572
832.997 614.749 3595
841.593 614.749 3595
850.19 614.749 3595
858.787 614.749 3595
869.314 616.117 3603
881.828 618.853 3619
890.482 618.853 3619
899.136 618.853 3619
907.791 618.853 3619
920.496 621.589 3635
929.189 621.589 3635
939.687 622.786 3642
952.563 625.522 3658
961.31 625.522 3658
970.058 625.522 3658
983.354 628.429 3675
994.302 629.797 3683
1005.29 631.165 3691
1014.11 631.165 3691
1027.37 633.901 3707
1036.24 633.901 3707
1045.1 633.901 3707
1053.97 633.901 3707
1062.83 633.901 3707
1074.3 635.44 3716
1083.19 635.44 3716
1092.07 635.44 3716
1100.96 635.44 3716
1109.84 635.44 3716
1121.14 636.808 3724
1130.04 636.808 3724
1138.95 636.808 3724
1147.85 636.808 3724
1156.76 636.808 3724
1165.66 636.808 3724
1174.57 636.808 3724
1183.47 636.808 3724
1192.38 636.808 3724
1201.29 636.808 3724
1210.19 636.808 3724
1219.1 636.808 3724
1228 636.808 3724
1236.91 636.808 3724
1243.13 635.44 3716
1248.99 633.901 3707
1257.85 633.901 3707
1266.72 633.901 3707
1272.83 632.533 3699
1281.67 632.533 3699
1290.52 632.533 3699
1299.37 632.533 3699
1308.21 632.533 3699
1317.06 632.533 3699
1320.17 629.797 3683
1328.97 629.797 3683
1340.69 631.165 3691
1349.51 631.165 3691
1358.34 631.165 3691
1367.17 631.165 3691
1375.99 631.165 3691
1381.82 629.797 3683
1393.64 631.165 3691
1402.47 631.165 3691
1411.3 631.165 3691
1420.12 631.165 3691
1428.95 631.165 3691
1440.89 632.533 3699
1452.87 633.901 3707
1461.74 633.901 3707
1477.35 636.808 3724
1486.25 636.808 3724
1495.16 636.808 3724
1504.06 636.808 3724
1512.97 636.808 3724
1521.87 636.808 3724
1530.78 636.808 3724
1539.68 636.808 3724
1548.59 636.808 3724
1557.49 636.808 3724
1566.4 636.808 3724
1578.69 638.176 3732
1587.61 638.176 3732
1596.54 638.176 3732
1605.46 638.176 3732
1614.39 638.176 3732
1623.31 638.176 3732
1628.74 636.808 3724
1637.64 636.808 3724
1646.55 636.808 3724
1655.45 636.808 3724
1664.36 636.808 3724
1673.26 636.808 3724
1689.39 639.544 3740
1702.42 641.083 3749
1711.39 641.083 3749
1731.83 645.358 3774
1740.85 645.358 3774
1749.88 645.358 3774
1755.17 643.99 3766
1759.96 642.451 3757
1781.19 646.897 3783
1790.23 646.897 3783
1799.28 646.897 3783
1812.63 648.436 3792
1821.7 648.436 3792
1830.76 648.436 3792
1827.22 643.99 3766
1836.22 643.99 3766
1832.49 639.544 3740
1841.43 639.544 3740
1838.5 635.44 3716
1830.98 629.797 3683
1835.79 628.429 3675
1828.02 622.786 3642
1836.73 622.786 3642
1829.73 617.485 3611
1838.36 617.485 3611
1835.23 613.552 3588
1847.41 614.749 3595
1856.01 614.749 3595
1872.9 617.485 3611
1894.04 621.589 3635
1902.74 621.589 3635
1911.43 621.589 3635
1923.82 622.786 3642
1932.53 622.786 3642
1945.5 624.154 3650
1954.23 624.154 3650
1972.1 627.061 3667
2002.48 633.901 3707
2024.91 638.176 3732
2033.83 638.176 3732
2075.6 648.436 3792
2123.15 660.406 3862
2162.2 669.641 3916
2171.56 669.641 3916
2222.7 682.466 3991
2242.87 685.715 4010
2252.46 685.715 4010
2262.04 685.715 4010
2271.63 685.715 4010
2281.22 685.715 4010
2290.81 685.715 4010
2300.4 685.715 4010
2304.81 684.176 4001
2314.37 684.176 4001
2318.13 682.466 3991
2327.68 682.466 3991
2331.95 680.927 3982
2335.59 679.217 3972
2345.09 679.217 3972
2354.59 679.217 3972
2358.73 677.678 3963
2368.21 677.678 3963
2371.68 675.968 3953
2381.14 675.968 3953
2390.59 675.968 3953
2400.04 675.968 3953
2409.49 675.968 3953
2418.95 675.968 3953
2428.4 675.968 3953
2437.85 675.968 3953
2447.31 675.968 3953
2451.17 674.429 3944
2460.6 674.429 3944
2470.03 674.429 3944
2479.46 674.429 3944
2483.21 672.89 3935
2492.62 672.89 3935
2502.03 672.89 3935
2541.44 680.927 3982
2550.96 680.927 3982
2560.48 680.927 3982
2570 680.927 3982
2585.36 682.466 3991
2601.4 684.176 4001
2610.97 684.176 4001
2620.54 684.176 4001
2630.1 684.176 4001
2645.61 685.715 4010
2655.2 685.715 4010
2664.79 685.715 4010
2661.71 682.466 3991
527.488 126.199 738
529.252 126.199 738
531.017 126.199 738
532.782 126.199 738
533.823 126.028 737
534.858 125.857 736
536.618 125.857 736
538.378 125.857 736
540.138 125.857 736
541.162 125.686 735
542.919 125.686 735
544.677 125.686 735
545.691 125.515 734
547.446 125.515 734
549.202 125.515 734
550.957 125.515 734
552.712 125.515 734
554.467 125.515 734
556.223 125.515 734
557.978 125.515 734
559.733 125.515 734
561.488 125.515 734
-2356.98 545.853 3148
-2349.46 545.853 3148
-2333 543.772 3136
-2325.5 543.772 3136
-2331.31 546.893 3154
-2323.77 546.893 3154
-2316.22 546.893 3154
-2308.68 546.893 3154
-2301.14 546.893 3154
-2297.96 547.933 3160
-2290.4 547.933 3160
-2287.18 548.974 3166
-2296.89 553.135 3190
-2333.76 563.886 3252
-2325.98 563.886 3252
-2345.29 570.475 3290
-2463.89 601.34 3468
-2455.59 601.34 3468
-2493.88 612.784 3534
-2512.15 619.373 3572
-2552.67 631.511 3642
-2543.96 631.511 3642
-2546.39 634.285 3658
-2543.89 635.846 3667
-2562.77 642.781 3707
-2553.91 642.781 3707
-2551.22 644.342 3716
-2542.34 644.342 3716
-2533.45 644.342 3716
-2524.56 644.342 3716
-2509.58 642.781 3707
-2484.53 638.62 3683
-2475.72 638.62 3683
-2456.2 635.846 3667
-2441.42 634.285 3658
-2422.04 631.511 3642
-2413.33 631.511 3642
-2404.62 631.511 3642
-2395.91 631.511 3642
-2372.12 627.523 3619
-2363.47 627.523 3619
-2349.61 626.135 3611
-2335.79 624.748 3603
-2327.17 624.748 3603
-2318.56 624.748 3603
-2309.94 624.748 3603
-2301.32 624.748 3603
-2292.71 624.748 3603
-2284.09 624.748 3603
-2270.42 623.361 3595
-2261.83 623.361 3595
-2243.83 620.76 3580
-2225.9 618.159 3565
-2217.38 618.159 3565
-2223.08 647.116 3732
-2214.16 647.116 3732
-2205.23 647.116 3732
-2196.31 647.116 3732
-1947.16 702.083 4049
-1947.05 705.551 4069
-1937.32 705.551 4069
-1927.59 705.551 4069
-1908.43 702.083 4049
-1898.75 702.083 4049
-1875.53 697.055 4020
-1857.1 693.76 4001
-1799.97 675.9 3898
-1790.65 675.9 3898
-1781.33 675.9 3898
-1788.83 682.316 3935
-1779.42 682.316 3935
-1770.01 682.316 3935
-1756.12 680.582 3925
-1746.74 680.582 3925
-1745.76 683.876 3944
-1736.33 683.876 3944
-1726.9 683.876 3944
-1705.28 679.021 3916
-1695.91 679.021 3916
-1686.55 679.021 3916
-1673.33 677.461 3907
-1663.99 677.461 3907
-1650.83 675.9 3898
-1633.93 672.779 3880
-1624.65 672.779 3880
-1615.37 672.779 3880
-1632.59 683.876 3944
-1634.68 688.732 3972
-1625.18 688.732 3972
-1615.68 688.732 3972
-1602.55 687.171 3963
-1593.07 687.171 3963
-1591.18 690.466 3982
-1581.66 690.466 3982
-1572.14 690.466 3982
-1558.69 688.732 3972
-1549.2 688.732 3972
-1528.84 683.876 3944
-1512.09 680.582 3925
-618.37 292.867 1689
-615.422 293.387 1692
-611.376 293.387 1692
-607.33 293.387 1692
-603.284 293.387 1692
-599.238 293.387 1692
-594.488 293.04 1690
-591.146 293.387 1692
-587.1 293.387 1692
-583.054 293.387 1692
-579.008 293.387 1692
-573.942 292.867 1689
-568.553 292.173 1685
-564.524 292.173 1685
-559.829 291.827 1683
-555.805 291.827 1683
-550.141 290.96 1678
-546.128 290.96 1678
-541.147 290.439 1675
-535.538 289.572 1670
-530.589 289.052 1667
-526.603 289.052 1667
-522.617 289.052 1667
-518.008 288.705 1665
-514.027 288.705 1665
-508.514 287.838 1660
-504.544 287.838 1660
-500.574 287.838 1660
-495.707 287.318 1657
-491.151 286.971 1655
-487.194 286.971 1655
-483.236 286.971 1655
-479.279 286.971 1655
-475.321 286.971 1655
-471.933 287.318 1657
-467.971 287.318 1657
-464.008 287.318 1657
-460.324 287.492 1658
-456.909 287.838 1660
-452.94 287.838 1660
-449.511 288.185 1662
-445.805 288.359 1663
-441.828 288.359 1663
-437.851 288.359 1663
-433.875 288.359 1663
-429.898 288.359 1663
-425.921 288.359 1663
-421.944 288.359 1663
-417.968 288.359 1663
-414.489 288.705 1665
-411 289.052 1667
-407.014 289.052 1667
-403.028 289.052 1667
-399.76 289.572 1670
-396.24 289.919 1672
-392.242 289.919 1672
-388.244 289.919 1672
-384.475 290.093 1673
-381.384 290.786 1677
-377.374 290.786 1677
-373.586 290.96 1678
-369.574 290.96 1678
-365.997 291.306 1680
-361.979 291.306 1680
-357.962 291.306 1680
-354.366 291.653 1682
-351.385 292.52 1687
-347.351 292.52 1687
-343.928 293.04 1690
-340.892 293.907 1695
-337.236 294.254 1697
-333.178 294.254 1697
-330.478 295.468 1704
-327.169 296.161 1708
-324.03 297.028 1713
-319.934 297.028 1713
-317.128 298.242 1720
-313.561 298.762 1723
-311.057 300.323 1732
-306.916 300.323 1732
-304.173 301.71 1740
-302.426 304.138 1754
-299.591 305.525 1762
-295.378 305.525 1762
-292.982 307.432 1773
-289.394 308.126 1777
-285.947 308.993 1782
-281.685 308.993 1782
-278.358 310.033 1788
-274.389 310.38 1790
-270.712 311.074 1794
-266.422 311.074 1794
-262.132 311.074 1794
-257.842 311.074 1794
-253.552 311.074 1794
-249.262 311.074 1794
-244.972 311.074 1794
-240.682 311.074 1794
-236.392 311.074 1794
-232.102 311.074 1794
-227.812 311.074 1794
-223.772 311.42 1796
-219.721 311.767 1798
-215.661 312.114 1800
-211.357 312.114 1800
-207.053 312.114 1800
-202.748 312.114 1800
-198.995 312.981 1805
-194.679 312.981 1805
-190.573 313.328 1807
-186.252 313.328 1807
-182.737 314.715 1815
-178.397 314.715 1815
-174.44 315.409 1819
-170.09 315.409 1819
-166.105 316.102 1823
-161.745 316.102 1823
-157.386 316.102 1823
-322.371 685.437 3953
-312.918 685.437 3953
-303.465 685.437 3953
-292.674 682.316 3935
-280.6 675.9 3898
-270.653 674.34 3889
-261.353 674.34 3889
-250.887 671.219 3871
-241.63 671.219 3871
-232.373 671.219 3871
-224.154 674.34 3889
-215.351 675.9 3898
-206.03 675.9 3898
-196.709 675.9 3898
-186.955 674.34 3889
-177.655 674.34 3889
-167.966 672.779 3880
-161.673 685.437 3953
-152.22 685.437 3953
-143.129 687.171 3963
-133.652 687.171 3963
-125.366 693.76 4001
-116.637 698.789 4030
-107.77 703.817 4059
-98.0642 703.817 4059
-89.0109 709.019 4089
-79.2329 709.019 4089
-69.4549 709.019 4089
85.7385 698.789 4030
95.3755 698.789 4030
105.508 702.083 4049
115.19 702.083 4049
124.872 702.083 4049
133.923 698.789 4030
141.85 690.466 3982
151.372 690.466 3982
160.491 688.732 3972
169.989 688.732 3972
179.487 688.732 3972
186.749 680.582 3925
196.135 680.582 3925
205.521 680.582 3925
214.414 679.021 3916
222.235 674.34 3889
227.784 663.416 3826
236.934 663.416 3826
244.989 660.468 3809
253.497 658.907 3800
261.41 655.96 3783
270.456 655.96 3783
278.246 653.012 3766
285.955 650.064 3749
295.549 651.451 3757
304.534 651.451 3757
313.518 651.451 3757
322.502 651.451 3757
330.78 650.064 3749
339.745 650.064 3749
348.71 650.064 3749
356.053 647.116 3732
364.978 647.116 3732
373.1 645.729 3724
382.006 645.729 3724
389.126 642.781 3707
393.696 635.846 3667
396.319 626.135 3611
404.954 626.135 3611
410.955 622.147 3588
417.664 619.373 3572
423.461 615.385 3549
430.122 612.784 3534
438.573 612.784 3534
443.356 607.755 3505
448.902 603.941 3483
454.343 600.126 3461
462.619 600.126 3461
467.086 595.271 3433
472.388 591.629 3412
478.575 589.202 3398
486.701 589.202 3398
491.768 585.561 3377
497.772 583.133 3363
506.866 584.347 3370
517.064 586.774 3384
527.329 589.202 3398
535.455 589.202 3398
548.059 594.057 3426
560.798 598.912 3454
572.682 602.727 3476
580.994 602.727 3476
590.493 603.941 3483
601.229 606.368 3497
612.206 608.969 3512
620.605 608.969 3512
632.943 612.784 3534
644.116 615.385 3549
652.603 615.385 3549
661.09 615.385 3549
669.577 615.385 3549
681.12 618.159 3565
689.645 618.159 3565
698.17 618.159 3565
708.083 619.373 3572
716.625 619.373 3572
726.79 620.76 3580
735.351 620.76 3580
743.912 620.76 3580
750.792 619.373 3572
759.333 619.373 3572
767.875 619.373 3572
774.895 618.159 3565
781.662 616.772 3557
790.168 616.772 3557
796.878 615.385 3549
803.776 614.171 3542
812.246 614.171 3542
826.045 618.159 3565
834.57 618.159 3565
843.095 618.159 3565
853.292 619.373 3572
861.834 619.373 3572
875.98 623.361 3595
884.577 623.361 3595
893.174 623.361 3595
901.77 623.361 3595
914.419 626.135 3611
923.054 626.135 3611
933.753 627.523 3619
944.49 628.91 3627
955.266 630.297 3635
963.958 630.297 3635
978.805 634.285 3658
992.142 637.233 3675
1005.29 640.007 3691
1014.11 640.007 3691
1025.16 641.394 3699
1036.24 642.781 3707
1045.1 642.781 3707
1053.97 642.781 3707
1062.83 642.781 3707
1071.7 642.781 3707
1080.56 642.781 3707
1089.43 642.781 3707
1098.29 642.781 3707
1107.16 642.781 3707
1118.73 644.342 3716
1130.04 645.729 3724
1138.95 645.729 3724
1147.85 645.729 3724
1156.76 645.729 3724
1165.66 645.729 3724
1174.57 645.729 3724
1183.47 645.729 3724
1192.38 645.729 3724
1201.29 645.729 3724
1210.19 645.729 3724
1219.1 645.729 3724
1222.4 642.781 3707
1231.26 642.781 3707
1240.12 642.781 3707
1243.6 640.007 3691
1252.42 640.007 3691
1261.25 640.007 3691
1267.32 638.62 3683
1276.13 638.62 3683
1284.94 638.62 3683
1293.75 638.62 3683
1302.55 638.62 3683
1308.51 637.233 3675
1314.43 635.846 3667
1323.2 635.846 3667
1334.88 637.233 3675
1343.66 637.233 3675
1352.45 637.233 3675
1361.24 637.233 3675
1370.03 637.233 3675
1378.82 637.233 3675
1390.62 638.62 3683
1399.43 638.62 3683
1408.24 638.62 3683
1417.05 638.62 3683
1425.85 638.62 3683
1440.89 641.394 3699
1449.74 641.394 3699
1458.58 641.394 3699
1470.6 642.781 3707
1486.25 645.729 3724
1495.16 645.729 3724
1504.06 645.729 3724
1512.97 645.729 3724
1521.87 645.729 3724
1530.78 645.729 3724
1539.68 645.729 3724
1548.59 645.729 3724
1554.15 644.342 3716
1563.03 644.342 3716
1571.92 644.342 3716
1580.81 644.342 3716
1593.11 645.729 3724
1602.02 645.729 3724
1610.92 645.729 3724
1616.35 644.342 3716
1625.24 644.342 3716
1634.12 644.342 3716
1643.01 644.342 3716
1651.89 644.342 3716
1656.76 642.781 3707
1665.62 642.781 3707
1674.49 642.781 3707
1694.7 647.116 3732
1703.63 647.116 3732
1716.22 648.504 3740
1725.17 648.504 3740
1734.11 648.504 3740
1743.05 648.504 3740
1756.21 650.064 3749
1768.95 651.451 3757
1782.19 653.012 3766
1791.19 653.012 3766
1808.33 655.96 3783
1817.37 655.96 3783
1826.42 655.96 3783
1827.22 653.012 3766
1827.93 650.064 3749
1828.57 647.116 3732
1837.49 647.116 3732
1838.5 644.342 3716
1830.98 638.62 3683
1835.79 637.233 3675
1828.02 631.511 3642
1836.73 631.511 3642
1829.73 626.135 3611
1838.36 626.135 3611
1835.23 622.147 3588
1847.41 623.361 3595
1856.01 623.361 3595
1872.9 626.135 3611
1894.04 630.297 3635
1902.74 630.297 3635
1911.43 630.297 3635
1923.82 631.511 3642
1932.53 631.511 3642
1945.5 632.898 3650
1954.23 632.898 3650
1972.1 635.846 3667
2002.48 642.781 3707
2024.91 647.116 3732
2033.83 647.116 3732
2065.74 654.399 3774
2108.3 664.976 3835
2142.32 672.779 3880
2151.6 672.779 3880
2201.53 685.437 3953
2232.24 692.026 3991
2241.78 692.026 3991
2251.33 692.026 3991
2260.87 692.026 3991
2270.41 692.026 3991
2279.96 692.026 3991
2289.5 692.026 3991
2299.04 692.026 3991
2308.59 692.026 3991
2312.9 690.466 3982
2322.43 690.466 3982
2326.09 688.732 3972
2335.59 688.732 3972
2345.09 688.732 3972
2354.59 688.732 3972
2358.73 687.171 3963
2368.21 687.171 3963
2371.68 685.437 3953
2381.14 685.437 3953
2390.59 685.437 3953
2400.04 685.437 3953
2409.49 685.437 3953
2418.95 685.437 3953
2428.4 685.437 3953
2437.85 685.437 3953
2447.31 685.437 3953
2451.17 683.876 3944
2460.6 683.876 3944
2470.03 683.876 3944
2479.46 683.876 3944
2483.21 682.316 3935
2492.62 682.316 3935
2502.03 682.316 3935
2541.44 690.466 3982
2550.96 690.466 3982
2560.48 690.466 3982
2570 690.466 3982
2585.36 692.026 3991
2601.4 693.76 4001
2610.97 693.76 4001
2620.54 693.76 4001
2630.1 693.76 4001
2645.61 695.321 4010
2655.2 695.321 4010
2664.79 695.321 4010
2661.71 692.026 3991
528.535 127.793 737
530.298 127.793 737
532.06 127.793 737
533.098 127.62 736
534.858 127.62 736
536.618 127.62 736
538.378 127.62 736
539.404 127.447 735
541.162 127.447 735
542.181 127.273 734
543.936 127.273 734
545.691 127.273 734
547.446 127.273 734
549.202 127.273 734
550.957 127.273 734
552.712 127.273 734
553.712 127.1 733
555.465 127.1 733
557.218 127.1 733
558.97 127.1 733
560.723 127.1 733
-2356.98 553.394 3148
-2349.46 553.394 3148
-2333 551.284 3136
-2325.5 551.284 3136
-2331.31 554.448 3154
-2323.77 554.448 3154
-2316.22 554.448 3154
-2308.68 554.448 3154
-2301.14 554.448 3154
-2297.96 555.503 3160
-2290.4 555.503 3160
-2287.18 556.558 3166
-2296.89 560.777 3190
-2333.76 571.676 3252
-2325.98 571.676 3252
-2345.29 578.356 3290
-2458.91 608.417 3461
-2450.64 608.417 3461
-2484 618.788 3520
-2512.15 627.93 3572
-2552.67 640.235 3642
-2543.96 640.235 3642
-2546.39 643.048 3658
-2543.89 644.63 3667
-2562.77 651.662 3707
-2553.91 651.662 3707
-2551.22 653.244 3716
-2542.34 653.244 3716
-2533.45 653.244 3716
-2524.56 653.244 3716
-2509.58 651.662 3707
-2484.53 647.443 3683
-2475.72 647.443 3683
-2450.17 643.048 3658
-2430.74 640.235 3642
-2422.04 640.235 3642
-2413.33 640.235 3642
-2404.62 640.235 3642
-2395.91 640.235 3642
-2372.12 636.192 3619
-2363.47 636.192 3619
-2349.61 634.786 3611
-2335.79 633.379 3603
-2327.17 633.379 3603
-2318.56 633.379 3603
-2309.94 633.379 3603
-2301.32 633.379 3603
-2292.71 633.379 3603
-2284.09 633.379 3603
-2270.42 631.973 3595
-2261.83 631.973 3595
-2243.83 629.336 3580
-2225.9 626.699 3565
-2217.38 626.699 3565
-2223.08 656.056 3732
-2214.16 656.056 3732
-2205.23 656.056 3732
-2196.31 656.056 3732
-1976.21 711.783 4049
-1966.52 711.783 4049
-1956.84 711.783 4049
-1947.16 711.783 4049
-1947.05 715.298 4069
-1937.32 715.298 4069
-1927.59 715.298 4069
-1908.43 711.783 4049
-1898.75 711.783 4049
-1875.53 706.685 4020
-1857.1 703.344 4001
-1799.97 685.238 3898
-1790.65 685.238 3898
-1781.33 685.238 3898
-1788.83 691.742 3935
-1779.42 691.742 3935
-1770.01 691.742 3935
-1756.12 689.984 3925
-1746.74 689.984 3925
-1745.76 693.324 3944
-1736.33 693.324 3944
-1726.9 693.324 3944
-1705.28 688.402 3916
-1695.91 688.402 3916
-1686.55 688.402 3916
-1673.33 686.82 3907
-1663.99 686.82 3907
-1650.83 685.238 3898
-1633.93 682.074 3880
-1624.65 682.074 3880
-1615.37 682.074 3880
-1636.31 694.906 3953
-1634.68 698.247 3972
-1625.18 698.247 3972
-1615.68 698.247 3972
-1606.18 698.247 3972
-1600.71 700.004 3982
-1610.36 708.442 4030
-1600.73 708.442 4030
-1594.64 710.025 4039
-1588.91 711.783 4049
-1579.23 711.783 4049
-1569.55 711.783 4049
-1556.01 710.025 4039
-618.37 296.913 1689
-616.15 297.792 1694
-612.099 297.792 1694
-608.048 297.792 1694
-603.997 297.792 1694
-600.3 297.968 1695
-596.247 297.968 1695
-592.194 297.968 1695
-588.141 297.968 1695
-584.087 297.968 1695
-580.034 297.968 1695
-574.961 297.44 1692
-569.903 296.913 1689
-565.864 296.913 1689
-561.825 296.913 1689
-557.126 296.561 1687
-551.78 295.858 1683
-547.756 295.858 1683
-542.762 295.331 1680
-537.141 294.452 1675
-532.181 293.924 1672
-528.183 293.924 1672
-524.184 293.924 1672
-518.942 293.221 1668
-514.953 293.221 1668
-510.964 293.221 1668
-506.976 293.221 1668
-502.082 292.694 1665
-498.101 292.694 1665
-492.635 291.815 1660
-488.666 291.815 1660
-484.696 291.815 1660
-480.147 291.463 1658
-476.183 291.463 1658
-472.787 291.815 1660
-468.818 291.815 1660
-464.848 291.815 1660
-461.434 292.167 1662
-457.46 292.167 1662
-453.485 292.167 1662
-449.781 292.342 1663
-446.341 292.694 1665
-442.359 292.694 1665
-438.378 292.694 1665
-434.396 292.694 1665
-430.415 292.694 1665
-426.433 292.694 1665
-422.452 292.694 1665
-418.47 292.694 1665
-414.987 293.046 1667
-411 293.046 1667
-407.014 293.046 1667
-403.269 293.221 1668
-400.238 293.924 1672
-396.24 293.924 1672
-392.242 293.924 1672
-388.244 293.924 1672
-384.475 294.1 1673
-381.612 294.979 1678
-377.599 294.979 1678
-373.586 294.979 1678
-370.014 295.331 1680
-365.997 295.331 1680
-361.979 295.331 1680
-357.962 295.331 1680
-354.366 295.682 1682
-351.802 296.913 1689
-347.763 296.913 1689
-343.928 297.089 1690
-340.892 297.968 1695
-337.236 298.319 1697
-333.178 298.319 1697
-330.478 299.55 1704
-327.744 300.78 1711
-324.598 301.659 1716
-320.494 301.659 1716
-317.497 302.714 1722
-313.561 302.89 1723
-311.776 305.175 1736
-307.625 305.175 1736
-304.697 306.406 1743
-303.115 309.043 1758
-300.102 310.273 1765
-295.881 310.273 1765
-292.982 311.68 1773
-289.72 312.734 1779
-285.947 313.262 1782
-281.685 313.262 1782
-278.358 314.316 1788
-274.696 315.02 1792
-270.712 315.371 1794
-266.422 315.371 1794
-262.132 315.371 1794
-258.13 315.723 1796
-253.835 315.723 1796
-249.54 315.723 1796
-245.245 315.723 1796
-240.951 315.723 1796
-236.392 315.371 1794
-232.102 315.371 1794
-227.812 315.371 1794
-223.772 315.723 1796
-219.721 316.074 1798
-215.661 316.426 1800
-211.357 316.426 1800
-207.053 316.426 1800
-202.748 316.426 1800
-198.995 317.305 1805
-194.679 317.305 1805
-190.573 317.656 1807
-186.252 317.656 1807
-182.737 319.063 1815
-178.397 319.063 1815
-174.44 319.766 1819
-170.09 319.766 1819
-166.105 320.469 1823
-161.745 320.469 1823
-157.386 320.469 1823
-322.371 694.906 3953
-312.918 694.906 3953
-303.465 694.906 3953
-292.674 691.742 3935
-281.248 686.82 3907
-270.653 683.656 3889
-261.353 683.656 3889
-251.47 682.074 3880
-241.63 680.492 3871
-233.454 683.656 3889
-224.673 685.238 3898
-215.351 685.238 3898
-206.03 685.238 3898
-196.709 685.238 3898
-187.387 685.238 3898
-178.066 685.238 3898
-167.966 682.074 3880
-161.673 694.906 3953
-152.22 694.906 3953
-143.129 696.664 3963
-133.652 696.664 3963
-125.366 703.344 4001
-116.637 708.442 4030
-107.77 713.54 4059
-98.0642 713.54 4059
-89.0109 718.814 4089
-79.2329 718.814 4089
-69.4549 718.814 4089
-59.3849 715.298 4069
-49.5327 713.54 4059
-39.8264 713.54 4059
-30.1201 713.54 4059
-20.3132 710.025 4039
-10.5782 704.927 4010
-0.989113 704.927 4010
8.66221 710.025 4039
18.3207 710.025 4039
27.9792 710.025 4039
37.6376 710.025 4039
47.2961 710.025 4039
56.6867 706.685 4020
64.436 686.82 3907
73.7789 686.82 3907
85.7385 708.442 4030
95.3755 708.442 4030
105.012 708.442 4030
114.08 704.927 4010
121.912 694.906 3953
131.364 694.906 3953
139.499 688.402 3916
148.864 688.402 3916
156.773 682.074 3880
166.052 682.074 3880
175.33 682.074 3880
183.323 677.327 3853
191.188 672.581 3826
200.337 672.581 3826
209.048 671.174 3818
218.178 671.174 3818
225.76 666.604 3792
234.828 666.604 3792
241.645 660.451 3757
250.629 660.451 3757
259.06 659.045 3749
268.025 659.045 3749
275.734 656.056 3732
284.048 654.65 3724
293.583 656.056 3732
302.507 656.056 3732
311.431 656.056 3732
320.356 656.056 3732
329.28 656.056 3732
338.204 656.056 3732
347.129 656.056 3732
355.29 654.65 3724
364.195 654.65 3724
372.299 653.244 3716
381.185 653.244 3716
388.287 650.255 3699
393.696 644.63 3667
397.197 636.192 3619
405.851 636.192 3619
410.955 630.742 3588
418.599 629.336 3580
423.461 623.886 3549
430.122 621.25 3534
438.573 621.25 3534
443.356 616.152 3505
448.902 612.284 3483
454.343 608.417 3461
462.619 608.417 3461
467.086 603.495 3433
472.388 599.803 3412
478.575 597.342 3398
486.701 597.342 3398
491.768 593.65 3377
497.772 591.189 3363
506.866 592.42 3370
517.064 594.881 3384
527.329 597.342 3398
535.455 597.342 3398
548.059 602.264 3426
559.662 605.956 3447
571.364 609.647 3468
579.657 609.647 3468
589.307 611.054 3476
598.822 612.284 3483
610.986 616.152 3505
619.368 616.152 3505
629.003 617.382 3512
638.853 618.788 3520
647.271 618.788 3520
655.688 618.788 3520
665.426 620.019 3527
675.198 621.25 3534
683.648 621.25 3534
692.099 621.25 3534
702.136 622.656 3542
710.606 622.656 3542
719.076 622.656 3542
727.546 622.656 3542
736.016 622.656 3542
744.486 622.656 3542
752.956 622.656 3542
761.426 622.656 3542
769.896 622.656 3542
776.608 621.25 3534
785.059 621.25 3534
790.366 618.788 3520
798.784 618.788 3520
808.806 620.019 3527
818.862 621.25 3534
827.313 621.25 3534
835.764 621.25 3534
846.126 622.656 3542
856.285 623.886 3549
868.67 626.699 3565
877.195 626.699 3565
887.459 627.93 3572
898.008 629.336 3580
908.594 630.742 3588
917.174 630.742 3588
929.625 633.379 3603
942.407 636.192 3619
951.061 636.192 3619
959.715 636.192 3619
972.651 639.005 3635
985.393 641.641 3650
1000.93 646.036 3675
1009.72 646.036 3675
1020.72 647.443 3683
1034 650.255 3699
1045.1 651.662 3707
1053.97 651.662 3707
1062.83 651.662 3707
1071.7 651.662 3707
1080.56 651.662 3707
1089.43 651.662 3707
1098.29 651.662 3707
1107.16 651.662 3707
1116.02 651.662 3707
1127.62 653.244 3716
1136.5 653.244 3716
1145.39 653.244 3716
1154.27 653.244 3716
1163.16 653.244 3716
1172.05 653.244 3716
1180.93 653.244 3716
1189.82 653.244 3716
1198.7 653.244 3716
1204.67 651.662 3707
1213.53 651.662 3707
1219.76 650.255 3699
1228.6 650.255 3699
1234.77 648.849 3691
1243.6 648.849 3691
1249.71 647.443 3683
1258.52 647.443 3683
1264.57 646.036 3675
1273.36 646.036 3675
1282.15 646.036 3675
1290.94 646.036 3675
1299.72 646.036 3675
1308.51 646.036 3675
1308.34 641.641 3650
1319.95 643.048 3658
1331.97 644.63 3667
1340.74 644.63 3667
1349.51 644.63 3667
1358.28 644.63 3667
1367.05 644.63 3667
1375.81 644.63 3667
1384.58 644.63 3667
1399.43 647.443 3683
1408.24 647.443 3683
1417.05 647.443 3683
1425.85 647.443 3683
1434.66 647.443 3683
1449.74 650.255 3699
1458.58 650.255 3699
1467.43 650.255 3699
1476.27 650.255 3699
1495.16 654.65 3724
1504.06 654.65 3724
1512.97 654.65 3724
1521.87 654.65 3724
1530.78 654.65 3724
1539.68 654.65 3724
1545.26 653.244 3716
1550.38 651.662 3707
1559.25 651.662 3707
1568.11 651.662 3707
1576.98 651.662 3707
1589.69 653.244 3716
1598.58 653.244 3716
1607.46 653.244 3716
1605.48 648.849 3691
1617.8 650.255 3699
1626.65 650.255 3699
1635.49 650.255 3699
1644.34 650.255 3699
1649.61 648.849 3691
1658.43 648.849 3691
1670.87 650.255 3699
1683.35 651.662 3707
1692.22 651.662 3707
1716.22 657.463 3740
1725.17 657.463 3740
1734.11 657.463 3740
1743.05 657.463 3740
1748.25 656.056 3732
1765.18 659.045 3749
1774.14 659.045 3749
1783.11 659.045 3749
1804.02 663.44 3774
1813.05 663.44 3774
1822.07 663.44 3774
1818.97 659.045 3749
1827.93 659.045 3749
1824.65 654.65 3724
1833.56 654.65 3724
1834.05 651.662 3707
1830.98 647.443 3683
1831.8 644.63 3667
1828.02 640.235 3642
1836.73 640.235 3642
1829.73 634.786 3611
1834.29 633.379 3603
1835.23 630.742 3588
1843.81 630.742 3588
1852.39 630.742 3588
1868.75 633.379 3603
1889.88 637.598 3627
1902.74 639.005 3635
1911.43 639.005 3635
1920.12 639.005 3635
1928.81 639.005 3635
1945.5 641.641 3650
1954.23 641.641 3650
1972.1 644.63 3667
1998.15 650.255 3699
2016.22 653.244 3716
2025.11 653.244 3716
2056.44 660.451 3757
2089.06 668.01 3800
2122.44 675.745 3844
2131.64 675.745 3844
2191.51 691.742 3935
2221.61 698.247 3972
2236.73 700.004 3982
2251.33 701.587 3991
2260.87 701.587 3991
2270.41 701.587 3991
2274.82 700.004 3982
2284.34 700.004 3982
2293.86 700.004 3982
2303.38 700.004 3982
2312.9 700.004 3982
2322.43 700.004 3982
2326.09 698.247 3972
2335.59 698.247 3972
2345.09 698.247 3972
2354.59 698.247 3972
2358.73 696.664 3963
2368.21 696.664 3963
2371.68 694.906 3953
2381.14 694.906 3953
2390.59 694.906 3953
2400.04 694.906 3953
2415.59 696.664 3963
2425.07 696.664 3963
2434.54 696.664 3963
2437.85 694.906 3953
2447.31 694.906 3953
2456.76 694.906 3953
2466.21 694.906 3953
2475.66 694.906 3953
2479.46 693.324 3944
2494.57 694.906 3953
2504.02 694.906 3953
2513.48 694.906 3953
2522.93 694.906 3953
2538.79 696.664 3963
2548.26 696.664 3963
2557.74 696.664 3963
2585.36 701.587 3991
2601.4 703.344 4001
2610.97 703.344 4001
2620.54 703.344 4001
2630.1 703.344 4001
2633.07 701.587 3991
2642.62 701.587 3991
2652.16 701.587 3991
2661.71 701.587 3991
2658.53 698.247 3972
2636.46 689.984 3925
2645.85 689.984 3925
529.578 129.383 736
531.338 129.383 736
533.098 129.383 736
534.131 129.207 735
535.889 129.207 735
537.647 129.207 735
539.404 129.207 735
540.426 129.031 734
541.442 128.856 733
543.195 128.856 733
544.948 128.856 733
546.701 128.856 733
548.453 128.856 733
550.206 128.856 733
551.959 128.856 733
553.712 128.856 733
555.465 128.856 733
556.457 128.68 732
558.208 128.68 732
559.958 128.68 732
-2352.49 559.866 3142
-2344.98 559.866 3142
-2328.54 557.727 3130
-2334.4 560.935 3148
-2335.74 563.073 3160
-2328.19 563.073 3160
-2320.63 563.073 3160
-2313.07 563.073 3160
-2301.14 562.004 3154
-2297.96 563.073 3160
-2290.4 563.073 3160
-2287.18 564.142 3166
-2283.93 565.211 3172
-2306.49 572.695 3214
-2298.8 572.695 3214
-2345.29 586.237 3290
-2337.43 586.237 3290
-2329.56 586.237 3290
-2478.35 625.795 3512
-2512.15 636.486 3572
-2552.67 648.96 3642
-2543.96 648.96 3642
-2546.39 651.811 3658
-2543.89 653.414 3667
-2574.53 663.571 3724
-2565.62 663.571 3724
-2573.88 668.026 3749
-2564.91 668.026 3749
-2555.95 668.026 3749
-2546.98 668.026 3749
-2515.68 662.145 3716
-2506.79 662.145 3716
-2497.91 662.145 3716
-2461.56 654.84 3675
-2441.42 651.811 3658
-2422.04 648.96 3642
-2413.33 648.96 3642
-2404.62 648.96 3642
-2395.91 648.96 3642
-2387.2 648.96 3642
-2378.49 648.96 3642
-2354.81 644.861 3619
-2340.97 643.436 3611
-2332.34 643.436 3611
-2323.7 643.436 3611
-2315.07 643.436 3611
-2306.43 643.436 3611
-2297.8 643.436 3611
-2289.16 643.436 3611
-2275.48 642.01 3603
-2261.83 640.585 3595
-2243.83 637.912 3580
-2225.9 635.239 3565
-2217.38 635.239 3565
-2194.6 631.141 3542
-2223.08 664.996 3732
-2214.16 664.996 3732
-2205.23 664.996 3732
-2196.31 664.996 3732
-1976.21 721.482 4049
-1966.52 721.482 4049
-1956.84 721.482 4049
-1947.16 721.482 4049
-1937.48 721.482 4049
-1927.79 721.482 4049
-1909.11 718.096 4030
-1885.8 712.929 4001
-1876.24 712.929 4001
-1857.81 709.543 3982
-1826.47 701.169 3935
-1770.88 683.35 3835
-1778.25 689.765 3871
-1768.99 689.765 3871
-1763.83 691.368 3880
-1754.55 691.368 3880
-1745.27 691.368 3880
-1735.99 691.368 3880
-1718.7 688.161 3862
-1725.4 694.576 3898
-1716.08 694.576 3898
-1706.76 694.576 3898
-1697.44 694.576 3898
-1688.12 694.576 3898
-1678.8 694.576 3898
-1669.47 694.576 3898
-1660.15 694.576 3898
-1647.02 692.972 3889
-1633.93 691.368 3880
-1624.65 691.368 3880
-1615.37 691.368 3880
-1636.31 704.376 3953
-1634.68 707.761 3972
-1625.18 707.761 3972
-1615.68 707.761 3972
-1606.18 707.761 3972
-1600.71 709.543 3982
-1610.36 718.096 4030
-1600.73 718.096 4030
-1594.64 719.7 4039
-1588.91 721.482 4049
-1579.23 721.482 4049
-1569.55 721.482 4049
-1556.01 719.7 4039
-616.15 301.85 1694
-612.099 301.85 1694
-608.048 301.85 1694
-603.997 301.85 1694
-600.3 302.028 1695
-596.247 302.028 1695
-592.194 302.028 1695
-588.141 302.028 1695
-584.087 302.028 1695
-580.034 302.028 1695
-574.961 301.494 1692
-569.903 300.959 1689
-565.864 300.959 1689
-561.825 300.959 1689
-557.126 300.603 1687
-551.78 299.89 1683
-547.756 299.89 1683
-542.762 299.355 1680
-537.141 298.464 1675
-532.181 297.93 1672
-528.183 297.93 1672
-524.184 297.93 1672
-518.942 297.217 1668
-514.953 297.217 1668
-510.964 297.217 1668
-506.976 297.217 1668
-502.082 296.682 1665
-498.101 296.682 1665
-492.635 295.792 1660
-488.666 295.792 1660
-484.696 295.792 1660
-480.147 295.435 1658
-476.183 295.435 1658
-472.787 295.792 1660
-468.818 295.792 1660
-464.848 295.792 1660
-461.434 296.148 1662
-457.46 296.148 1662
-453.485 296.148 1662
-449.781 296.326 1663
-446.341 296.682 1665
-442.359 296.682 1665
-438.378 296.682 1665
-434.396 296.682 1665
-430.415 296.682 1665
-426.433 296.682 1665
-422.452 296.682 1665
-418.47 296.682 1665
-414.987 297.039 1667
-411 297.039 1667
-407.014 297.039 1667
-403.269 297.217 1668
-400.238 297.93 1672
-396.24 297.93 1672
-392.242 297.93 1672
-388.244 297.93 1672
-384.475 298.108 1673
-381.612 298.999 1678
-377.599 298.999 1678
-373.586 298.999 1678
-370.014 299.355 1680
-365.997 299.355 1680
-361.979 299.355 1680
-357.962 299.355 1680
-354.366 299.712 1682
-351.802 300.959 1689
-347.763 300.959 1689
-343.928 301.137 1690
-340.892 302.028 1695
-337.236 302.384 1697
-333.178 302.384 1697
-330.478 303.632 1704
-327.744 304.879 1711
-324.598 305.77 1716
-320.494 305.77 1716
-317.497 306.839 1722
-313.561 307.017 1723
-311.776 309.334 1736
-307.625 309.334 1736
-304.697 310.581 1743
-303.115 313.254 1758
-300.102 314.501 1765
-295.881 314.501 1765
-292.982 315.927 1773
-289.72 316.996 1779
-285.947 317.53 1782
-281.685 317.53 1782
-278.358 318.6 1788
-274.696 319.312 1792
-270.712 319.669 1794
-266.422 319.669 1794
-262.132 319.669 1794
-258.13 320.025 1796
-253.835 320.025 1796
-249.54 320.025 1796
-245.245 320.025 1796
-240.951 320.025 1796
-236.392 319.669 1794
-232.102 319.669 1794
-227.558 319.312 1792
-223.522 319.669 1794
-219.721 320.381 1798
-215.661 320.738 1800
-211.357 320.738 1800
-207.053 320.738 1800
-202.748 320.738 1800
-198.995 321.629 1805
-194.679 321.629 1805
-190.573 321.985 1807
-186.252 321.985 1807
-182.334 322.698 1811
-178.003 322.698 1811
-174.056 323.411 1815
-170.09 324.123 1819
-165.74 324.123 1819
-161.391 324.123 1819
-321.637 702.772 3944
-312.206 702.772 3944
-302.774 702.772 3944
-292.674 701.169 3935
-281.248 696.179 3907
-270.653 692.972 3889
-261.353 692.972 3889
-251.47 691.368 3880
-241.63 689.765 3871
-233.454 692.972 3889
-224.673 694.576 3898
-215.849 696.179 3907
-206.506 696.179 3907
-197.163 696.179 3907
-187.387 694.576 3898
-178.066 694.576 3898
-167.966 691.368 3880
-161.673 704.376 3953
-152.605 706.158 3963
-143.129 706.158 3963
-133.652 706.158 3963
-125.052 711.147 3991
-116.637 718.096 4030
-107.77 723.264 4059
-98.0642 723.264 4059
-89.0109 728.609 4089
-79.2329 728.609 4089
-69.4549 728.609 4089
-59.3849 725.046 4069
-49.5327 723.264 4059
-39.8264 723.264 4059
-30.1201 723.264 4059
-20.3132 719.7 4039
-10.5782 714.533 4010
-0.989113 714.533 4010
8.66221 719.7 4039
18.3207 719.7 4039
27.9792 719.7 4039
37.6376 719.7 4039
47.2961 719.7 4039
56.6867 716.314 4020
64.436 696.179 3907
73.7789 696.179 3907
85.7385 718.096 4030
95.3755 718.096 4030
105.012 718.096 4030
114.08 714.533 4010
121.912 704.376 3953
131.364 704.376 3953
139.499 697.783 3916
148.864 697.783 3916
156.773 691.368 3880
166.052 691.368 3880
175.33 691.368 3880
183.323 686.557 3853
191.188 681.746 3826
200.337 681.746 3826
209.048 680.321 3818
218.178 680.321 3818
225.76 675.688 3792
234.828 675.688 3792
241.645 669.451 3757
250.629 669.451 3757
259.06 668.026 3749
268.025 668.026 3749
275.734 664.996 3732
284.048 663.571 3724
293.583 664.996 3732
302.507 664.996 3732
311.431 664.996 3732
320.356 664.996 3732
329.28 664.996 3732
338.204 664.996 3732
347.129 664.996 3732
355.29 663.571 3724
364.195 663.571 3724
372.299 662.145 3716
381.185 662.145 3716
388.287 659.116 3699
393.696 653.414 3667
397.197 644.861 3619
405.851 644.861 3619
410.955 639.337 3588
418.599 637.912 3580
423.461 632.388 3549
430.122 629.715 3534
438.573 629.715 3534
443.356 624.548 3505
448.902 620.628 3483
454.343 616.708 3461
462.619 616.708 3461
467.086 611.718 3433
472.388 607.976 3412
478.575 605.482 3398
486.701 605.482 3398
491.768 601.74 3377
497.772 599.245 3363
506.866 600.492 3370
517.064 602.987 3384
527.329 605.482 3398
535.455 605.482 3398
548.059 610.471 3426
559.662 614.213 3447
571.364 617.955 3468
579.657 617.955 3468
589.307 619.38 3476
598.822 620.628 3483
610.986 624.548 3505
619.368 624.548 3505
629.003 625.795 3512
638.853 627.221 3520
647.271 627.221 3520
655.688 627.221 3520
665.426 628.468 3527
675.198 629.715 3534
683.648 629.715 3534
692.099 629.715 3534
702.136 631.141 3542
710.606 631.141 3542
719.076 631.141 3542
727.546 631.141 3542
736.016 631.141 3542
744.486 631.141 3542
752.956 631.141 3542
761.426 631.141 3542
769.896 631.141 3542
776.608 629.715 3534
785.059 629.715 3534
790.366 627.221 3520
798.784 627.221 3520
808.806 628.468 3527
818.862 629.715 3534
827.313 629.715 3534
835.764 629.715 3534
846.126 631.141 3542
856.285 632.388 3549
868.67 635.239 3565
877.195 635.239 3565
887.459 636.486 3572
898.008 637.912 3580
908.594 639.337 3588
917.174 639.337 3588
929.625 642.01 3603
942.407 644.861 3619
951.061 644.861 3619
959.715 644.861 3619
972.651 647.712 3635
985.393 650.385 3650
1000.93 654.84 3675
1009.72 654.84 3675
1020.72 656.265 3683
1034 659.116 3699
1045.1 660.542 3707
1053.97 660.542 3707
1062.83 660.542 3707
1071.7 660.542 3707
1080.56 660.542 3707
1089.43 660.542 3707
1098.29 660.542 3707
1107.16 660.542 3707
1116.02 660.542 3707
1127.62 662.145 3716
1136.5 662.145 3716
1145.39 662.145 3716
1154.27 662.145 3716
1163.16 662.145 3716
1172.05 662.145 3716
1180.93 662.145 3716
1189.82 662.145 3716
1198.7 662.145 3716
1204.67 660.542 3707
1213.53 660.542 3707
1219.76 659.116 3699
1228.6 659.116 3699
1234.77 657.691 3691
1243.6 657.691 3691
1249.71 656.265 3683
1258.52 656.265 3683
1264.57 654.84 3675
1273.36 654.84 3675
1282.15 654.84 3675
1290.94 654.84 3675
1299.72 654.84 3675
1308.51 654.84 3675
1308.34 650.385 3650
1319.95 651.811 3658
1331.97 653.414 3667
1340.74 653.414 3667
1349.51 653.414 3667
1358.28 653.414 3667
1367.05 653.414 3667
1375.81 653.414 3667
1384.58 653.414 3667
1399.43 656.265 3683
1408.24 656.265 3683
1417.05 656.265 3683
1425.85 656.265 3683
1434.66 656.265 3683
1449.74 659.116 3699
1458.58 659.116 3699
1467.43 659.116 3699
1476.27 659.116 3699
1495.16 663.571 3724
1504.06 663.571 3724
1512.97 663.571 3724
1521.87 663.571 3724
1530.78 663.571 3724
1539.68 663.571 3724
1545.26 662.145 3716
1550.38 660.542 3707
1559.25 660.542 3707
1568.11 660.542 3707
1576.98 660.542 3707
1589.69 662.145 3716
1598.58 662.145 3716
1607.46 662.145 3716
1605.48 657.691 3691
1617.8 659.116 3699
1626.65 659.116 3699
1635.49 659.116 3699
1644.34 659.116 3699
1649.61 657.691 3691
1658.43 657.691 3691
1670.87 659.116 3699
1683.35 660.542 3707
1692.22 660.542 3707
1716.22 666.422 3740
1725.17 666.422 3740
1734.11 666.422 3740
1743.05 666.422 3740
1748.25 664.996 3732
1765.18 668.026 3749
1774.14 668.026 3749
1783.11 668.026 3749
1804.02 672.48 3774
1813.05 672.48 3774
1822.07 672.48 3774
1818.97 668.026 3749
1827.93 668.026 3749
1824.65 663.571 3724
1833.56 663.571 3724
1834.05 660.542 3707
1830.98 656.265 3683
1831.8 653.414 3667
1828.02 648.96 3642
1836.73 648.96 3642
1829.73 643.436 3611
1834.29 642.01 3603
1835.23 639.337 3588
1843.81 639.337 3588
1852.39 639.337 3588
1868.75 642.01 3603
1889.88 646.287 3627
1902.74 647.712 3635
1911.43 647.712 3635
1920.12 647.712 3635
1928.81 647.712 3635
1949.76 651.811 3658
1958.51 651.811 3658
1972.1 653.414 3667
2002.48 660.542 3707
2024.91 664.996 3732
2033.83 664.996 3732
2070.67 674.084 3783
2098.96 680.321 3818
2127.41 686.557 3853
2136.63 686.557 3853
2196.52 702.772 3944
2221.61 707.761 3972
2241.78 711.147 3991
2251.33 711.147 3991
2260.87 711.147 3991
2270.41 711.147 3991
2279.96 711.147 3991
2289.5 711.147 3991
2299.04 711.147 3991
2303.38 709.543 3982
2312.9 709.543 3982
2322.43 709.543 3982
2331.95 709.543 3982
2341.47 709.543 3982
2350.99 709.543 3982
2360.52 709.543 3982
2358.73 706.158 3963
2368.21 706.158 3963
2371.68 704.376 3953
2387.16 706.158 3963
2396.64 706.158 3963
2406.11 706.158 3963
2415.59 706.158 3963
2425.07 706.158 3963
2440.07 707.761 3972
2449.57 707.761 3972
2459.07 707.761 3972
2462.97 706.158 3963
2472.45 706.158 3963
2481.93 706.158 3963
2491.4 706.158 3963
2494.57 704.376 3953
2504.02 704.376 3953
2513.48 704.376 3953
2522.93 704.376 3953
2532.38 704.376 3953
2541.83 704.376 3953
2557.74 706.158 3963
2567.22 706.158 3963
2589.05 709.543 3982
2598.57 709.543 3982
2608.09 709.543 3982
2617.61 709.543 3982
2627.14 709.543 3982
2636.66 709.543 3982
2646.18 709.543 3982
2655.7 709.543 3982
2658.53 707.761 3972
2643.18 701.169 3935
2652.59 701.169 3935
2662 701.169 3935
528.139 130.79 734
529.894 130.79 734
531.65 130.79 734
533.405 130.79 734
535.16 130.79 734
536.915 130.79 734
538.67 130.79 734
539.689 130.612 733
540.703 130.433 732
542.454 130.433 732
543.461 130.255 731
544.463 130.077 730
546.209 130.077 730
548.705 130.255 731
550.453 130.255 731
552.201 130.255 731
553.949 130.255 731
555.697 130.255 731
557.445 130.255 731
559.193 130.255 731
-2352.49 567.392 3142
-2344.98 567.392 3142
-2328.54 565.225 3130
-2334.4 568.476 3148
-2335.74 570.643 3160
-2328.19 570.643 3160
-2320.63 570.643 3160
-2313.07 570.643 3160
-2301.14 569.559 3154
-2293.6 569.559 3154
-2286.06 569.559 3154
-2287.18 571.726 3166
-2279.61 571.726 3166
-2297.88 578.227 3202
