-540.577 517.539 1751
-536.39 517.539 1751
-532.203 517.539 1751
-528.016 517.539 1751
-523.828 517.539 1751
-519.641 517.539 1751
-515.454 517.539 1751
-511.559 517.834 1752
-507.369 517.834 1752
-503.18 517.834 1752
-498.99 517.834 1752
-494.801 517.834 1752
-490.331 517.539 1751
-486.144 517.539 1751
-481.957 517.539 1751
-478.588 518.426 1754
-474.394 518.426 1754
-470.736 519.017 1756
-466.536 519.017 1756
-462.864 519.608 1758
-459.964 521.086 1763
-455.749 521.086 1763
-451.533 521.086 1763
-449.347 523.45 1771
-446.117 524.633 1775
-441.872 524.633 1775
-437.628 524.633 1775
-433.383 524.633 1775
-429.139 524.633 1775
-424.894 524.633 1775
-419.702 523.45 1771
-414.997 522.859 1769
-409.142 520.79 1762
-403.549 519.017 1756
-399.35 519.017 1756
-394.026 517.539 1751
-389.394 516.948 1749
-383.229 514.288 1740
-379.068 514.288 1740
-373.184 511.923 1732
-367.55 509.854 1725
-362.793 508.967 1722
-358.675 508.967 1722
-353.734 507.785 1718
-348.608 506.307 1713
-343.707 505.125 1709
-339.621 505.125 1709
-334.945 504.238 1706
-330.478 503.647 1704
-326.02 503.056 1702
-322.706 504.238 1706
-318.627 504.238 1706
-314.547 504.238 1706
-310.832 504.829 1708
-306.927 505.125 1709
-302.84 505.125 1709
-298.753 505.125 1709
-295.701 506.898 1715
-291.77 507.194 1716
-288.672 508.967 1722
-284.555 508.967 1722
-280.6 509.263 1723
-277.121 510.445 1727
-273.624 511.628 1731
-269.484 511.628 1731
-265.805 512.514 1734
-261.96 513.105 1736
-258.403 514.288 1740
-254.242 514.288 1740
-250.512 515.174 1743
-246.627 515.766 1745
-243.01 516.948 1749
-238.828 516.948 1749
-235.048 517.834 1752
-231.385 519.017 1756
-227.704 520.199 1760
-223.495 520.199 1760
-219.535 520.79 1762
-215.689 521.677 1765
-211.947 522.859 1769
-207.717 522.859 1769
-203.947 524.041 1773
-199.932 524.633 1775
-195.688 524.633 1775
-191.443 524.633 1775
-187.41 525.224 1777
-183.366 525.815 1779
-179.817 527.884 1786
-175.546 527.884 1786
-171.851 529.657 1792
-168.313 532.022 1800
-164.374 533.204 1804
-160.06 533.204 1804
-156.005 534.091 1807
-152.019 535.273 1811
-148.178 537.046 1817
-143.833 537.046 1817
-139.488 537.046 1817
-135.143 537.046 1817
-130.798 537.046 1817
-215.105 1103.06 3732
-206.18 1103.06 3732
-197.256 1103.06 3732
-188.735 1105.42 3740
-181.426 1115.47 3774
-172.402 1115.47 3774
-163.377 1115.47 3774
-154.352 1115.47 3774
-145.327 1115.47 3774
-136.303 1115.47 3774
-126.704 1110.45 3757
-117.72 1110.45 3757
-108.244 1105.42 3740
-99.3007 1105.42 3740
-89.7774 1098.33 3716
-80.5213 1093.3 3699
-71.5208 1090.94 3691
-62.6945 1090.94 3691
-53.7515 1088.58 3683
-44.7491 1083.85 3667
-35.8133 1078.82 3650
-27.0851 1078.82 3650
-18.3166 1076.46 3642
-9.54679 1069.66 3619
-0.892668 1069.66 3619
7.76146 1069.66 3619
16.4156 1069.66 3619
25.0697 1069.66 3619
33.6493 1067.29 3611
42.1906 1064.93 3603
50.8065 1064.93 3603
59.2904 1062.57 3595
67.7549 1060.5 3588
76.1647 1058.13 3580
84.7256 1058.13 3580
93.078 1055.77 3572
101.421 1053.7 3565
109.946 1053.7 3565
118.471 1053.7 3565
126.711 1051.33 3557
135.216 1051.33 3557
144.046 1053.7 3565
152.571 1053.7 3565
161.096 1053.7 3565
169.24 1051.33 3557
177.746 1051.33 3557
186.252 1051.33 3557
194.319 1048.97 3549
202.806 1048.97 3549
211.293 1048.97 3549
219.346 1046.9 3542
227.816 1046.9 3542
235.753 1044.54 3534
244.203 1044.54 3534
252.654 1044.54 3534
261.105 1044.54 3534
269.556 1044.54 3534
279.187 1048.97 3549
287.674 1048.97 3549
296.828 1051.33 3557
305.334 1051.33 3557
313.84 1051.33 3557
322.345 1051.33 3557
330.851 1051.33 3557
339.357 1051.33 3557
347.863 1051.33 3557
356.369 1051.33 3557
364.875 1051.33 3557
373.381 1051.33 3557
380.276 1046.9 3542
386.332 1040.4 3520
394.749 1040.4 3520
398.127 1027.39 3476
403.867 1020.89 3454
409.62 1014.68 3433
415.274 1008.48 3412
423.433 1008.48 3412
431.592 1008.48 3412
437.947 1004.34 3398
443.316 998.132 3377
451.391 998.132 3377
456.745 992.22 3357
462.004 986.309 3337
468.012 982.171 3323
475.958 982.171 3323
483.905 982.171 3323
490.963 980.398 3317
497.842 978.329 3310
505.757 978.329 3310
513.672 978.329 3310
521.588 978.329 3310
529.503 978.329 3310
538.555 980.398 3317
546.487 980.398 3317
554.419 980.398 3317
562.35 980.398 3317
570.282 980.398 3317
578.214 980.398 3317
584.909 978.329 3310
592.825 978.329 3310
600.74 978.329 3310
608.655 978.329 3310
616.57 978.329 3310
624.485 978.329 3310
632.401 978.329 3310
641.67 980.398 3317
649.602 980.398 3317
658.723 982.171 3323
668.074 984.24 3330
676.037 984.24 3330
684 984.24 3330
691.963 984.24 3330
701.397 986.309 3337
709.377 986.309 3337
717.357 986.309 3337
725.337 986.309 3337
733.317 986.309 3337
741.296 986.309 3337
750.623 988.083 3343
758.617 988.083 3343
766.612 988.083 3343
774.606 988.083 3343
782.6 988.083 3343
790.594 988.083 3343
798.588 988.083 3343
809.96 992.22 3357
817.988 992.22 3357
826.015 992.22 3357
834.043 992.22 3357
842.07 992.22 3357
850.098 992.22 3357
858.126 992.22 3357
871.314 998.132 3377
879.389 998.132 3377
887.464 998.132 3377
895.54 998.132 3377
918.6 1014.68 3433
932.478 1020.89 3454
940.738 1020.89 3454
948.998 1020.89 3454
963.354 1027.39 3476
977.537 1033.6 3497
996.33 1044.54 3534
1004.78 1044.54 3534
1017.53 1048.97 3549
1030.65 1053.7 3565
1043.54 1058.13 3580
1058.86 1064.93 3603
1067.48 1064.93 3603
1083.26 1072.02 3627
1108.79 1088.58 3683
1117.6 1088.58 3683
1126.41 1088.58 3683
1135.22 1088.58 3683
1144.02 1088.58 3683
1152.83 1088.58 3683
1161.64 1088.58 3683
1167.9 1086.21 3675
1176.69 1086.21 3675
1185.48 1086.21 3675
1194.27 1086.21 3675
1203.05 1086.21 3675
1211.84 1086.21 3675
1220.63 1086.21 3675
1226.74 1083.85 3667
1235.51 1083.85 3667
1244.28 1083.85 3667
1253.05 1083.85 3667
1261.82 1083.85 3667
1270.59 1083.85 3667
1279.36 1083.85 3667
1288.12 1083.85 3667
1293.71 1081.19 3658
1302.46 1081.19 3658
1314.43 1083.85 3667
1323.2 1083.85 3667
1331.97 1083.85 3667
1340.74 1083.85 3667
1349.51 1083.85 3667
1358.28 1083.85 3667
1370.03 1086.21 3675
1378.82 1086.21 3675
1387.6 1086.21 3675
1393.35 1083.85 3667
1402.12 1083.85 3667
1401.27 1076.46 3642
1407.27 1074.39 3635
1409.73 1069.66 3619
1418.38 1069.66 3619
1417.57 1062.57 3595
1420.22 1058.13 3580
1422.79 1053.7 3565
1431.32 1053.7 3565
1439.84 1053.7 3565
1445.12 1051.33 3557
1441.37 1042.47 3527
1446.92 1040.4 3520
1455.34 1040.4 3520
1457.52 1035.96 3505
1462.56 1033.6 3497
1467.97 1031.53 3490
1476.32 1031.53 3490
1484.66 1031.53 3490
1496 1033.6 3497
1507.81 1035.96 3505
1516.19 1035.96 3505
1524.57 1035.96 3505
1539.51 1040.4 3520
1560.68 1048.97 3549
1582.88 1058.13 3580
1612.33 1072.02 3627
1621 1072.02 3627
1636.42 1076.46 3642
1656.42 1083.85 3667
1668.82 1086.21 3675
1677.61 1086.21 3675
1686.4 1086.21 3675
1743.95 1046.9 3542
1752.42 1046.9 3542
1760.89 1046.9 3542
1765.36 1044.54 3534
1737.17 1022.96 3461
1745.45 1022.96 3461
1739.53 1014.68 3433
1747.74 1014.68 3433
1741.63 1006.41 3405
1749.77 1006.41 3405
1757.92 1006.41 3405
1744.27 993.994 3363
1752.32 993.994 3363
1760.36 993.994 3363
1768.4 993.994 3363
1776.44 993.994 3363
1784.48 993.994 3363
1774.94 984.24 3330
1782.9 984.24 3330
1790.86 984.24 3330
1813.41 992.22 3357
1821.44 992.22 3357
1829.47 992.22 3357
1837.49 992.22 3357
2283.93 1157.44 3916
2293.3 1157.44 3916
2302.66 1157.44 3916
2317.34 1160.1 3925
2326.73 1160.1 3925
2336.11 1160.1 3925
2351.47 1163.06 3935
2360.88 1163.06 3935
2370.29 1163.06 3935
2341 1144.14 3871
2350.26 1144.14 3871
2316.24 1123.16 3800
2346.74 1133.5 3835
2355.91 1133.5 3835
2365.08 1133.5 3835
543.719 210.74 713
545.424 210.74 713
-2392.92 952.29 3196
-2385.28 952.29 3196
-2359.78 945.139 3172
-2352.2 945.139 3172
-2335.74 941.563 3160
-2328.19 941.563 3160
-2320.63 941.563 3160
-2313.07 941.563 3160
-2305.52 941.563 3160
-2306.69 945.139 3172
-2299.1 945.139 3172
-2304.52 950.502 3190
-2301.21 952.29 3196
-2302.18 955.866 3208
-2294.51 955.866 3208
-2296.11 959.739 3221
-2323.93 974.637 3271
-2325.31 978.511 3284
-2317.46 978.511 3284
-2318.75 982.384 3297
-2333.99 992.217 3330
-2358.86 1006.22 3377
-2350.78 1006.22 3377
-2366.99 1016.65 3412
-2368.51 1020.82 3426
-2360.32 1020.82 3426
-2352.12 1020.82 3426
-2343.93 1020.82 3426
-2335.74 1020.82 3426
-2327.54 1020.82 3426
-2314.61 1018.74 3419
-2296.99 1014.56 3405
-2274.73 1008.31 3384
-2266.64 1008.31 3384
-2244.53 1002.05 3363
-2259.77 1012.48 3398
-2260.92 1016.65 3412
-2252.76 1016.65 3412
-2244.6 1016.65 3412
-2236.44 1016.65 3412
-2232.85 1018.74 3419
-2252.01 1031.25 3461
-2243.73 1031.25 3461
-2249.66 1037.81 3483
-2250.34 1041.98 3497
-2247.11 1044.36 3505
-2238.73 1044.36 3505
-2230.35 1044.36 3505
-2221.97 1044.36 3505
-2213.59 1044.36 3505
-2205.2 1044.36 3505
-2210.61 1050.92 3527
-2211.54 1055.39 3542
-2217.38 1062.24 3565
-2208.85 1062.24 3565
-2214.52 1069.09 3588
-2210.25 1071.18 3595
-2201.65 1071.18 3595
-2193.05 1071.18 3595
-2184.46 1071.18 3595
-2180.7 1073.56 3603
-2172.09 1073.56 3603
-2163.47 1073.56 3603
-2154.85 1073.56 3603
-2141.47 1071.18 3595
-2132.88 1071.18 3595
-2120.14 1069.09 3588
-2106.86 1066.71 3580
-2093.61 1064.32 3572
-2085.06 1064.32 3572
-2076.52 1064.32 3572
-2067.98 1064.32 3572
-2059.44 1064.32 3572
-2050.9 1064.32 3572
-2038.35 1062.24 3565
-2029.83 1062.24 3565
-2021.3 1062.24 3565
-2012.78 1062.24 3565
-1995.26 1057.47 3549
-1982.85 1055.39 3542
-1969.92 1053 3534
-1961.47 1053 3534
-1945.28 1048.83 3520
-1940.72 1050.92 3527
-1936.12 1053 3534
-1927.67 1053 3534
-1919.22 1053 3534
-1915.09 1055.39 3542
-1914.7 1059.85 3557
-1906.19 1059.85 3557
-1897.69 1059.85 3557
-1897.15 1064.32 3572
-1888.6 1064.32 3572
-1884.27 1066.71 3580
-1875.71 1066.71 3580
-1871.32 1069.09 3588
-1870.53 1073.56 3603
-1870.18 1078.33 3619
-1861.53 1078.33 3619
-1861.07 1083.1 3635
-1868.68 1092.63 3667
-1859.91 1092.63 3667
-1851.14 1092.63 3667
-1842.38 1092.63 3667
-1833.61 1092.63 3667
-1824.84 1092.63 3667
-1816.07 1092.63 3667
-1802.86 1089.95 3658
-1778.91 1080.71 3627
-1770.24 1080.71 3627
-1761.57 1080.71 3627
-1741.29 1073.56 3603
-1725.46 1069.09 3588
-1716.88 1069.09 3588
-1700.69 1064.32 3572
-1688.83 1062.24 3565
-1669.46 1055.39 3542
-1650.68 1048.83 3520
-1642.26 1048.83 3520
-1633.84 1048.83 3520
-1614.8 1041.98 3497
-1606.44 1041.98 3497
-1598.08 1041.98 3497
-1580.17 1035.72 3476
-1575.02 1037.81 3483
-1566.69 1037.81 3483
-1558.36 1037.81 3483
-1550.04 1037.81 3483
-1535.07 1033.34 3468
-1523.69 1031.25 3461
-1515.42 1031.25 3461
-1504.09 1029.16 3454
-1489.77 1024.99 3440
-1481.54 1024.99 3440
-1473.32 1024.99 3440
-1459.13 1020.82 3426
-1456.87 1024.99 3440
-1454.53 1029.16 3454
-1449.21 1031.25 3461
-1440.93 1031.25 3461
-1435.55 1033.34 3468
-1430.55 1035.72 3476
-1425.1 1037.81 3483
-1416.77 1037.81 3483
-1411.28 1039.89 3490
-1402.93 1039.89 3490
-1394.58 1039.89 3490
-1386.24 1039.89 3490
-1377.89 1039.89 3490
-1369.55 1039.89 3490
-1363.93 1041.98 3497
-1355.57 1041.98 3497
-1356.07 1048.83 3520
-1350.33 1050.92 3527
-1344.56 1053 3534
-1336.11 1053 3534
-1327.66 1053 3534
-1319.21 1053 3534
-1310.76 1053 3534
-1302.3 1053 3534
-1293.85 1053 3534
-1282.86 1050.92 3527
-1269 1046.45 3512
-1260.6 1046.45 3512
-1249.71 1044.36 3505
-1228.23 1033.34 3468
-1217.47 1031.25 3461
-1209.19 1031.25 3461
-1198.49 1029.16 3454
-1182.99 1022.91 3433
-1174.78 1022.91 3433
-1166.57 1022.91 3433
-1156 1020.82 3426
-1138.43 1012.48 3398
-1118.66 1002.05 3363
-1110.62 1002.05 3363
-1094.05 994.303 3337
-1083.79 992.217 3330
-1078.09 994.303 3337
-1087.43 1010.39 3391
-1079.32 1010.39 3391
-1071.21 1010.39 3391
-548.324 521.138 1749
-544.764 521.733 1751
-540.577 521.733 1751
-536.39 521.733 1751
-532.203 521.733 1751
-528.016 521.733 1751
-523.828 521.733 1751
-519.641 521.733 1751
-515.454 521.733 1751
-511.267 521.733 1751
-507.08 521.733 1751
-503.18 522.031 1752
-498.99 522.031 1752
-494.801 522.031 1752
-490.611 522.031 1752
-486.421 522.031 1752
-481.957 521.733 1751
-478.042 522.031 1752
-474.394 522.627 1754
-470.199 522.627 1754
-466.005 522.627 1754
-462.864 523.819 1758
-459.704 525.011 1762
-455.749 525.309 1763
-451.533 525.309 1763
-448.839 527.097 1769
-445.614 528.289 1773
-441.872 528.885 1775
-437.628 528.885 1775
-433.383 528.885 1775
-429.139 528.885 1775
-424.894 528.885 1775
-419.702 527.693 1771
-414.997 527.097 1769
-408.677 524.415 1760
-403.549 523.223 1756
-399.35 523.223 1756
-393.576 521.138 1749
-388.948 520.542 1747
-383.229 518.456 1740
-379.068 518.456 1740
-373.184 516.072 1732
-367.55 513.986 1725
-362.372 512.497 1720
-358.259 512.497 1720
-353.734 511.901 1718
-348.608 510.411 1713
-343.707 509.219 1709
-339.621 509.219 1709
-334.945 508.325 1706
-330.478 507.729 1704
-326.02 507.133 1702
-322.706 508.325 1706
-318.627 508.325 1706
-314.547 508.325 1706
-310.832 508.921 1708
-306.927 509.219 1709
-302.84 509.219 1709
-298.753 509.219 1709
-295.701 511.007 1715
-291.77 511.305 1716
-288.672 513.092 1722
-284.555 513.092 1722
-280.6 513.39 1723
-277.121 514.582 1727
-273.624 515.774 1731
-269.484 515.774 1731
-265.805 516.668 1734
-261.96 517.264 1736
-258.403 518.456 1740
-254.242 518.456 1740
-250.512 519.35 1743
-246.627 519.946 1745
-243.01 521.138 1749
-238.828 521.138 1749
-235.048 522.031 1752
-231.385 523.223 1756
-227.704 524.415 1760
-223.495 524.415 1760
-219.535 525.011 1762
-215.689 525.905 1765
-211.947 527.097 1769
-207.717 527.097 1769
-203.947 528.289 1773
-199.932 528.885 1775
-195.688 528.885 1775
-191.443 528.885 1775
-187.41 529.48 1777
-183.366 530.076 1779
-179.817 532.162 1786
-175.546 532.162 1786
-171.851 533.95 1792
-168.313 536.334 1800
-164.374 537.525 1804
-160.06 537.525 1804
-156.005 538.419 1807
-152.019 539.611 1811
-148.178 541.399 1817
-143.833 541.399 1817
-139.488 541.399 1817
-135.143 541.399 1817
-130.798 541.399 1817
-206.18 1112 3732
-197.256 1112 3732
-188.735 1114.38 3740
-179.792 1114.38 3740
-170.849 1114.38 3740
-161.905 1114.38 3740
-152.962 1114.38 3740
-144.018 1114.38 3740
-135.075 1114.38 3740
-126.131 1114.38 3740
-117.188 1114.38 3740
-107.55 1107.23 3716
-98.6635 1107.23 3716
-89.3667 1102.17 3699
-80.3471 1099.78 3691
-71.3658 1097.4 3683
-62.5586 1097.4 3683
-53.518 1092.63 3667
-44.6392 1089.95 3658
-35.8133 1087.57 3650
-27.0851 1087.57 3650
-18.2814 1083.1 3635
-9.54679 1078.33 3619
-0.892668 1078.33 3619
7.76146 1078.33 3619
16.4156 1078.33 3619
25.0697 1078.33 3619
33.6493 1075.94 3611
42.1906 1073.56 3603
50.8065 1073.56 3603
59.2904 1071.18 3595
67.7549 1069.09 3588
76.1647 1066.71 3580
84.7256 1066.71 3580
93.078 1064.32 3572
101.421 1062.24 3565
109.946 1062.24 3565
118.471 1062.24 3565
126.711 1059.85 3557
135.216 1059.85 3557
144.046 1062.24 3565
152.571 1062.24 3565
161.096 1062.24 3565
169.24 1059.85 3557
177.746 1059.85 3557
186.252 1059.85 3557
194.319 1057.47 3549
202.806 1057.47 3549
211.293 1057.47 3549
219.346 1055.39 3542
227.816 1055.39 3542
235.753 1053 3534
244.203 1053 3534
252.654 1053 3534
261.105 1053 3534
269.556 1053 3534
279.187 1057.47 3549
287.674 1057.47 3549
296.16 1057.47 3549
304.647 1057.47 3549
313.134 1057.47 3549
321.621 1057.47 3549
330.851 1059.85 3557
339.357 1059.85 3557
347.863 1059.85 3557
356.369 1059.85 3557
364.875 1059.85 3557
373.381 1059.85 3557
380.276 1055.39 3542
386.332 1048.83 3520
394.749 1048.83 3520
396.409 1031.25 3461
401.411 1022.91 3433
407.115 1016.65 3412
415.274 1016.65 3412
423.433 1016.65 3412
430.707 1014.56 3405
437.045 1010.39 3391
442.397 1004.14 3370
450.455 1004.14 3370
455.793 998.176 3350
462.004 994.303 3337
468.012 990.131 3323
475.958 990.131 3323
483.031 988.344 3317
490.963 988.344 3317
497.842 986.258 3310
505.757 986.258 3310
513.672 986.258 3310
521.588 986.258 3310
529.503 986.258 3310
538.555 988.344 3317
546.487 988.344 3317
554.419 988.344 3317
562.35 988.344 3317
570.282 988.344 3317
578.214 988.344 3317
584.909 986.258 3310
592.825 986.258 3310
600.74 986.258 3310
609.942 988.344 3317
617.874 988.344 3317
625.806 988.344 3317
633.738 988.344 3317
642.831 990.131 3323
650.777 990.131 3323
658.723 990.131 3323
668.074 992.217 3330
676.037 992.217 3330
684 992.217 3330
693.418 994.303 3337
702.659 996.091 3343
710.653 996.091 3343
718.647 996.091 3343
726.641 996.091 3343
733.317 994.303 3337
741.296 994.303 3337
750.623 996.091 3343
758.617 996.091 3343
768.217 998.176 3350
776.228 998.176 3350
784.238 998.176 3350
792.249 998.176 3350
800.26 998.176 3350
809.96 1000.26 3357
817.988 1000.26 3357
826.015 1000.26 3357
834.043 1000.26 3357
842.07 1000.26 3357
850.098 1000.26 3357
858.126 1000.26 3357
871.314 1006.22 3377
879.389 1006.22 3377
887.464 1006.22 3377
895.54 1006.22 3377
918.6 1022.91 3433
932.478 1029.16 3454
940.738 1029.16 3454
948.998 1029.16 3454
963.354 1035.72 3476
977.537 1041.98 3497
996.33 1053 3534
1004.78 1053 3534
1017.53 1057.47 3549
1030.65 1062.24 3565
1043.54 1066.71 3580
1058.86 1073.56 3603
1067.48 1073.56 3603
1083.26 1080.71 3627
1108.79 1097.4 3683
1117.6 1097.4 3683
1126.41 1097.4 3683
1135.22 1097.4 3683
1144.02 1097.4 3683
1152.83 1097.4 3683
1161.64 1097.4 3683
1167.9 1095.01 3675
1176.69 1095.01 3675
1185.48 1095.01 3675
1194.27 1095.01 3675
1203.05 1095.01 3675
1211.84 1095.01 3675
1220.63 1095.01 3675
1226.74 1092.63 3667
1235.51 1092.63 3667
1244.28 1092.63 3667
1253.05 1092.63 3667
1261.82 1092.63 3667
1270.59 1092.63 3667
1279.36 1092.63 3667
1288.12 1092.63 3667
1293.71 1089.95 3658
1302.46 1089.95 3658
1314.43 1092.63 3667
1323.2 1092.63 3667
1331.97 1092.63 3667
1340.74 1092.63 3667
1349.51 1092.63 3667
1361.24 1095.01 3675
1370.03 1095.01 3675
1378.82 1095.01 3675
1387.6 1095.01 3675
1393.35 1092.63 3667
1402.12 1092.63 3667
1407.43 1089.95 3658
1407.27 1083.1 3635
1409.73 1078.33 3619
1418.38 1078.33 3619
1420.73 1073.56 3603
1420.22 1066.71 3580
1425.59 1064.32 3572
1431.32 1062.24 3565
1439.84 1062.24 3565
1445.12 1059.85 3557
1444.23 1053 3534
1446.92 1048.83 3520
1455.34 1048.83 3520
1457.52 1044.36 3505
1462.56 1041.98 3497
1467.97 1039.89 3490
1476.32 1039.89 3490
1484.66 1039.89 3490
1496 1041.98 3497
1507.81 1044.36 3505
1516.19 1044.36 3505
1524.57 1044.36 3505
1539.51 1048.83 3520
1560.68 1057.47 3549
1582.88 1066.71 3580
1612.33 1080.71 3627
1621 1080.71 3627
1636.42 1085.18 3642
1656.42 1092.63 3667
1668.82 1095.01 3675
1677.61 1095.01 3675
1686.4 1095.01 3675
1743.95 1055.39 3542
1752.42 1055.39 3542
1760.89 1055.39 3542
1765.36 1053 3534
1740.68 1033.34 3468
1748.98 1033.34 3468
1746.63 1027.08 3447
1754.87 1027.08 3447
1755.95 1022.91 3433
1764.16 1022.91 3433
1768.76 1020.82 3426
1766.06 1014.56 3405
1752.32 1002.05 3363
1760.36 1002.05 3363
1768.4 1002.05 3363
1776.44 1002.05 3363
1781.3 1000.26 3357
1771.21 990.131 3323
1779.15 990.131 3323
1780.11 986.258 3310
1791.8 988.344 3317
1799.73 988.344 3317
1807.67 988.344 3317
1811.77 986.258 3310
2317.34 1169.51 3925
2326.73 1169.51 3925
2336.11 1169.51 3925
2345.5 1169.51 3925
-2392.92 959.946 3196
-2385.28 959.946 3196
-2359.78 952.738 3172
-2352.2 952.738 3172
-2340.18 950.935 3166
-2332.61 950.935 3166
-2325.04 950.935 3166
-2317.47 950.935 3166
-2309.9 950.935 3166
-2306.69 952.738 3172
-2299.1 952.738 3172
-2304.52 958.144 3190
-2301.21 959.946 3196
-2302.18 963.55 3208
-2294.51 963.55 3208
-2296.11 967.455 3221
-2323.93 982.473 3271
-2325.31 986.378 3284
-2317.46 986.378 3284
-2318.75 990.282 3297
-2333.99 1000.19 3330
-2358.86 1014.31 3377
-2350.78 1014.31 3377
-2366.99 1024.82 3412
-2368.51 1029.03 3426
-2360.32 1029.03 3426
-2352.12 1029.03 3426
-2343.93 1029.03 3426
-2335.74 1029.03 3426
-2327.54 1029.03 3426
-2319.35 1029.03 3426
-2296.99 1022.72 3405
-2274.73 1016.41 3384
-2266.64 1016.41 3384
-2244.53 1010.11 3363
-2259.77 1020.62 3398
-2260.92 1024.82 3412
-2252.76 1024.82 3412
-2244.6 1024.82 3412
-2241.03 1026.93 3419
-2232.85 1026.93 3419
-2252.01 1039.54 3461
-2243.73 1039.54 3461
-2258.71 1050.35 3497
-2250.34 1050.35 3497
-2247.11 1052.76 3505
-2238.73 1052.76 3505
-2230.35 1052.76 3505
-2221.97 1052.76 3505
-2213.59 1052.76 3505
-2205.2 1052.76 3505
-2210.61 1059.36 3527
-2211.54 1063.87 3542
-2207.43 1065.97 3549
-2198.94 1065.97 3549
-2209.59 1075.28 3580
-2205.94 1077.69 3588
-2197.36 1077.69 3588
-2188.78 1077.69 3588
-2180.2 1077.69 3588
-2171.62 1077.69 3588
-2163.04 1077.69 3588
-2154.46 1077.69 3588
-2145.88 1077.69 3588
-2137.3 1077.69 3588
-2128.72 1077.69 3588
-2115.42 1075.28 3580
-2102.15 1072.88 3572
-2080.13 1065.97 3549
-2071.64 1065.97 3549
-2063.15 1065.97 3549
-2063.93 1070.78 3565
-2055.4 1070.78 3565
-2046.88 1070.78 3565
-2033.78 1068.38 3557
-2020.72 1065.97 3549
-2012.23 1065.97 3549
-2003.74 1065.97 3549
-1986.82 1061.47 3534
-1974.46 1059.36 3527
-1957.66 1054.86 3512
-1949.26 1054.86 3512
-1936.99 1052.76 3505
-1936.87 1057.26 3520
-1932.28 1059.36 3527
-1923.85 1059.36 3527
-1915.42 1059.36 3527
-1910.77 1061.47 3534
-1910.39 1065.97 3549
-1906.19 1068.38 3557
-1897.69 1068.38 3557
-1897.15 1072.88 3572
-1888.6 1072.88 3572
-1884.27 1075.28 3580
-1875.71 1075.28 3580
-1871.32 1077.69 3588
-1870.53 1082.19 3603
-1870.18 1087 3619
-1861.53 1087 3619
-1861.07 1091.8 3635
-1872.76 1103.82 3675
-1863.97 1103.82 3675
-1855.18 1103.82 3675
-1846.39 1103.82 3675
-1833.61 1101.42 3667
-1824.84 1101.42 3667
-1816.07 1101.42 3667
-1802.86 1098.71 3658
-1778.91 1089.4 3627
-1770.24 1089.4 3627
-1761.57 1089.4 3627
-1741.29 1082.19 3603
-1725.46 1077.69 3588
-1716.88 1077.69 3588
-1700.69 1072.88 3572
-1688.83 1070.78 3565
-1669.46 1063.87 3542
-1650.68 1057.26 3520
-1642.26 1057.26 3520
-1630.13 1054.86 3512
-1614.8 1050.35 3497
-1603.23 1048.25 3490
-1594.88 1048.25 3490
-1573.35 1039.54 3461
-1568.24 1041.64 3468
-1559.95 1041.64 3468
-1551.65 1041.64 3468
-1543.36 1041.64 3468
-1531.97 1039.54 3461
-1514.45 1033.23 3440
-1506.22 1033.23 3440
-1494.95 1031.13 3433
-1486.74 1031.13 3433
-1478.53 1031.13 3433
-1470.32 1031.13 3433
-1462.11 1031.13 3433
-1453.9 1031.13 3433
-1454.53 1037.44 3454
-1449.21 1039.54 3461
-1440.93 1039.54 3461
-1435.55 1041.64 3468
-1430.55 1044.05 3476
-1422.24 1044.05 3476
-1413.93 1044.05 3476
-1411.28 1048.25 3490
-1402.93 1048.25 3490
-1394.58 1048.25 3490
-1383.46 1046.15 3483
-1377.89 1048.25 3490
-1369.55 1048.25 3490
-1363.93 1050.35 3497
-1355.57 1050.35 3497
-1356.07 1057.26 3520
-1350.33 1059.36 3527
-1344.56 1061.47 3534
-1336.11 1061.47 3534
-1327.66 1061.47 3534
-1319.21 1061.47 3534
-1310.76 1061.47 3534
-1302.3 1061.47 3534
-1291.29 1059.36 3527
-1280.31 1057.26 3520
-1269 1054.86 3512
-1260.6 1054.86 3512
-1244.36 1048.25 3490
-1228.23 1041.64 3468
-1217.47 1039.54 3461
-1209.19 1039.54 3461
-1198.49 1037.44 3454
-1182.99 1031.13 3433
-1172.39 1029.03 3426
-1164.19 1029.03 3426
-1153.64 1026.93 3419
-1133.74 1016.41 3384
-1118.66 1010.11 3363
-1110.62 1010.11 3363
-1094.05 1002.3 3337
-1086.07 1002.3 3337
-1082.29 1006.2 3350
-1074.28 1006.2 3350
-1066.27 1006.2 3350
-1058.26 1006.2 3350
-549.265 526.228 1752
-545.075 526.228 1752
-540.577 525.928 1751
-537.309 526.829 1754
-533.115 526.829 1754
-528.92 526.829 1754
-524.726 526.829 1754
-520.531 526.829 1754
-515.748 526.228 1752
-511.267 525.928 1751
-507.369 526.228 1752
-503.18 526.228 1752
-498.99 526.228 1752
-494.801 526.228 1752
-490.611 526.228 1752
-486.421 526.228 1752
-481.957 525.928 1751
-478.042 526.228 1752
-473.853 526.228 1752
-470.199 526.829 1754
-466.005 526.829 1754
-462.337 527.43 1756
-459.704 529.232 1762
-455.749 529.532 1763
-451.533 529.532 1763
-448.839 531.334 1769
-444.609 531.334 1769
-441.374 532.536 1773
-437.135 532.536 1773
-432.895 532.536 1773
-428.172 531.935 1771
-423.937 531.935 1771
-419.228 531.334 1769
-414.059 530.133 1765
-408.213 528.03 1758
-402.63 526.228 1752
-398.441 526.228 1752
-393.126 524.727 1747
-388.058 523.525 1743
-382.348 521.423 1736
-378.197 521.423 1736
-373.184 520.221 1732
-367.55 518.119 1725
-362.372 516.617 1720
-358.259 516.617 1720
-353.322 515.415 1716
-348.608 514.514 1713
-343.707 513.313 1709
-339.621 513.313 1709
-334.945 512.412 1706
-330.478 511.811 1704
-326.02 511.21 1702
-322.328 511.811 1704
-318.627 512.412 1706
-314.547 512.412 1706
-310.832 513.013 1708
-306.927 513.313 1709
-302.84 513.313 1709
-298.753 513.313 1709
-295.356 514.514 1713
-291.77 515.415 1716
-288.337 516.617 1720
-284.224 516.617 1720
-280.6 517.518 1723
-277.121 518.719 1727
-273.624 519.921 1731
-269.484 519.921 1731
-265.805 520.822 1734
-261.96 521.423 1736
-258.403 522.624 1740
-254.242 522.624 1740
-250.512 523.525 1743
-246.91 524.727 1747
-243.01 525.327 1749
-238.828 525.327 1749
-235.048 526.228 1752
-231.649 528.03 1758
-227.962 529.232 1762
-223.749 529.232 1762
-219.909 530.133 1765
-216.177 531.334 1769
-212.426 532.536 1773
-208.187 532.536 1773
-204.407 533.737 1777
-200.495 534.638 1780
-196.459 535.239 1782
-192.198 535.239 1782
-187.937 535.239 1782
-184.088 536.44 1786
-180.22 537.642 1790
-175.939 537.642 1790
-172.618 540.646 1800
-168.688 541.847 1804
-165.011 543.949 1811
-160.681 543.949 1811
-156.523 544.55 1813
-152.523 545.752 1817
-148.667 547.554 1823
-144.308 547.554 1823
-139.949 547.554 1823
-135.589 547.554 1823
-131.23 547.554 1823
-188.332 1120.94 3732
-179.792 1123.34 3740
-170.849 1123.34 3740
-161.905 1123.34 3740
-152.962 1123.34 3740
-143.71 1120.94 3732
-134.786 1120.94 3732
-125.018 1113.43 3707
-116.154 1113.43 3707
-106.826 1108.62 3691
-97.9997 1108.62 3691
-88.7869 1103.82 3675
-79.8247 1101.42 3667
-70.8814 1098.71 3658
-62.134 1098.71 3658
-53.2699 1096.31 3650
-44.5416 1096.31 3650
-35.7348 1093.91 3642
-27.0257 1093.91 3642
-18.2412 1089.4 3627
-9.52569 1084.59 3611
-0.890695 1084.59 3611
7.7443 1084.59 3611
16.3793 1084.59 3611
25.0143 1084.59 3611
33.6493 1084.59 3611
42.1906 1082.19 3603
50.8065 1082.19 3603
59.4223 1082.19 3603
67.8871 1079.79 3595
76.3349 1077.69 3588
84.9149 1077.69 3588
93.2865 1075.28 3580
101.62 1072.88 3572
110.161 1072.88 3572
118.703 1072.88 3572
127.245 1072.88 3572
135.787 1072.88 3572
144.328 1072.88 3572
152.87 1072.88 3572
161.412 1072.88 3572
169.621 1070.78 3565
178.146 1070.78 3565
186.671 1070.78 3565
195.196 1070.78 3565
203.263 1068.38 3557
211.769 1068.38 3557
220.275 1068.38 3557
228.781 1068.38 3557
236.286 1063.87 3542
244.756 1063.87 3542
252.654 1061.47 3534
261.105 1061.47 3534
269.556 1061.47 3534
278.636 1063.87 3542
287.674 1065.97 3549
296.16 1065.97 3549
304.647 1065.97 3549
313.134 1065.97 3549
320.261 1061.47 3534
328.712 1061.47 3534
337.163 1061.47 3534
347.863 1068.38 3557
356.369 1068.38 3557
364.875 1068.38 3557
371.806 1063.87 3542
379.417 1061.47 3534
385.454 1054.86 3512
393.852 1054.86 3512
396.409 1039.54 3461
399.774 1026.93 3419
406.279 1022.72 3405
414.422 1022.72 3405
422.564 1022.72 3405
428.936 1018.52 3391
437.045 1018.52 3391
442.397 1012.21 3370
450.455 1012.21 3370
455.793 1006.2 3350
462.004 1002.3 3337
468.012 998.092 3323
475.958 998.092 3323
483.031 996.29 3317
490.963 996.29 3317
497.842 994.187 3310
505.757 994.187 3310
513.672 994.187 3310
520.485 992.085 3303
528.383 992.085 3303
536.281 992.085 3303
546.487 996.29 3317
554.419 996.29 3317
562.35 996.29 3317
570.282 996.29 3317
578.214 996.29 3317
584.909 994.187 3310
591.571 992.085 3303
600.74 994.187 3310
609.942 996.29 3317
617.874 996.29 3317
625.806 996.29 3317
633.738 996.29 3317
642.831 998.092 3323
650.777 998.092 3323
658.723 998.092 3323
668.074 1000.19 3330
676.037 1000.19 3330
684 1000.19 3330
693.418 1002.3 3337
702.659 1004.1 3343
710.653 1004.1 3343
718.647 1004.1 3343
726.641 1004.1 3343
733.317 1002.3 3337
741.296 1002.3 3337
750.623 1004.1 3343
758.617 1004.1 3343
768.217 1006.2 3350
776.228 1006.2 3350
784.238 1006.2 3350
792.249 1006.2 3350
800.26 1006.2 3350
809.96 1008.3 3357
817.988 1008.3 3357
826.015 1008.3 3357
834.043 1008.3 3357
842.07 1008.3 3357
850.098 1008.3 3357
858.126 1008.3 3357
869.507 1012.21 3370
879.389 1014.31 3377
887.464 1014.31 3377
895.54 1014.31 3377
918.6 1031.13 3433
932.478 1037.44 3454
940.738 1037.44 3454
948.998 1037.44 3454
963.354 1044.05 3476
977.537 1050.35 3497
994.357 1059.36 3527
1002.79 1059.36 3527
1015.53 1063.87 3542
1028.33 1068.38 3557
1043.54 1075.28 3580
1058.86 1082.19 3603
1067.48 1082.19 3603
1083.26 1089.4 3627
1108.79 1106.22 3683
1117.6 1106.22 3683
1126.41 1106.22 3683
1135.22 1106.22 3683
1144.02 1106.22 3683
1152.83 1106.22 3683
1159.11 1103.82 3675
1165.36 1101.42 3667
1174.13 1101.42 3667
1182.9 1101.42 3667
1188.74 1098.71 3658
1197.49 1098.71 3658
1206.24 1098.71 3658
1214.98 1098.71 3658
1223.73 1098.71 3658
1232.48 1098.71 3658
1244.28 1101.42 3667
1253.05 1101.42 3667
1261.82 1101.42 3667
1270.59 1101.42 3667
1279.36 1101.42 3667
1288.12 1101.42 3667
1293.71 1098.71 3658
1302.46 1098.71 3658
1314.43 1101.42 3667
1323.2 1101.42 3667
1331.97 1101.42 3667
1340.74 1101.42 3667
1349.51 1101.42 3667
1361.24 1103.82 3675
1370.03 1103.82 3675
1378.82 1103.82 3675
1387.6 1103.82 3675
1393.35 1101.42 3667
1402.12 1101.42 3667
1407.43 1098.71 3658
1407.27 1091.8 3635
1409.73 1087 3619
1418.38 1087 3619
1420.73 1082.19 3603
1420.22 1075.28 3580
1425.59 1072.88 3572
1431.32 1070.78 3565
1439.84 1070.78 3565
1445.12 1068.38 3557
1444.23 1061.47 3534
1446.92 1057.26 3520
1455.34 1057.26 3520
1454.19 1050.35 3497
1459.63 1048.25 3490
1467.97 1048.25 3490
1476.32 1048.25 3490
1484.66 1048.25 3490
1493.01 1048.25 3490
1504.37 1050.35 3497
1512.73 1050.35 3497
1521.09 1050.35 3497
1532.95 1052.76 3505
1544.41 1054.86 3512
1569.17 1065.97 3549
1591.44 1075.28 3580
1600 1075.28 3580
1629.68 1089.4 3627
1638.35 1089.4 3627
1647.02 1089.4 3627
1743.95 1063.87 3542
1752.42 1063.87 3542
1760.89 1063.87 3542
1758.37 1057.26 3520
1740.68 1041.64 3468
1748.98 1041.64 3468
1753.72 1039.54 3461
1758.43 1037.44 3454
1759.53 1033.23 3440
1767.76 1033.23 3440
1772.37 1031.13 3433
1769.69 1024.82 3412
1752.32 1010.11 3363
1760.36 1010.11 3363
1768.4 1010.11 3363
1776.44 1010.11 3363
1781.3 1008.3 3357
1771.21 998.092 3323
1779.15 998.092 3323
1780.11 994.187 3310
1791.8 996.29 3317
1799.73 996.29 3317
1807.67 996.29 3317
1811.77 994.187 3310
2317.34 1178.91 3925
2326.73 1178.91 3925
2336.11 1178.91 3925
2345.5 1178.91 3925
-2392.92 967.602 3196
-2385.28 967.602 3196
-2359.78 960.336 3172
-2352.2 960.336 3172
-2340.18 958.52 3166
-2332.61 958.52 3166
-2325.04 958.52 3166
-2317.47 958.52 3166
-2309.9 958.52 3166
-2306.69 960.336 3172
-2299.1 960.336 3172
-2304.52 965.786 3190
-2301.21 967.602 3196
-2302.18 971.235 3208
-2294.51 971.235 3208
-2296.11 975.171 3221
-2323.93 990.309 3271
-2325.31 994.245 3284
-2317.46 994.245 3284
-2318.75 998.18 3297
-2329.09 1006.05 3323
-2358.86 1022.4 3377
-2350.78 1022.4 3377
-2366.99 1033 3412
-2363.67 1035.12 3419
-2355.49 1035.12 3419
-2352.12 1037.24 3426
-2343.93 1037.24 3426
-2335.74 1037.24 3426
-2327.54 1037.24 3426
-2319.35 1037.24 3426
-2296.99 1030.88 3405
-2274.73 1024.52 3384
-2266.64 1024.52 3384
-2249.21 1020.28 3370
-2259.77 1028.76 3398
-2260.92 1033 3412
-2252.76 1033 3412
-2244.6 1033 3412
-2241.03 1035.12 3419
-2232.85 1035.12 3419
-2252.01 1047.83 3461
-2243.73 1047.83 3461
-2258.71 1058.73 3497
-2250.34 1058.73 3497
-2247.11 1061.15 3505
-2238.73 1061.15 3505
-2230.35 1061.15 3505
-2221.97 1061.15 3505
-2213.59 1061.15 3505
-2205.2 1061.15 3505
-2210.61 1067.81 3527
-2211.54 1072.36 3542
-2207.43 1074.47 3549
-2198.94 1074.47 3549
-2209.59 1083.86 3580
-2205.94 1086.28 3588
-2197.36 1086.28 3588
-2188.78 1086.28 3588
-2180.2 1086.28 3588
-2171.62 1086.28 3588
-2163.04 1086.28 3588
-2154.46 1086.28 3588
-2145.88 1086.28 3588
-2137.3 1086.28 3588
-2128.72 1086.28 3588
-2115.42 1083.86 3580
-2102.15 1081.44 3572
-2080.13 1074.47 3549
-2071.64 1074.47 3549
-2063.15 1074.47 3549
-2063.93 1079.32 3565
-2055.4 1079.32 3565
-2046.88 1079.32 3565
-2033.78 1076.9 3557
-2020.72 1074.47 3549
-2012.23 1074.47 3549
-2003.74 1074.47 3549
-1986.82 1069.93 3534
-1974.46 1067.81 3527
-1957.66 1063.27 3512
-1949.26 1063.27 3512
-1936.99 1061.15 3505
-1936.87 1065.69 3520
-1932.28 1067.81 3527
-1923.85 1067.81 3527
-1915.42 1067.81 3527
-1910.77 1069.93 3534
-1910.39 1074.47 3549
-1906.19 1076.9 3557
-1897.69 1076.9 3557
-1897.15 1081.44 3572
-1888.6 1081.44 3572
-1884.27 1083.86 3580
-1875.71 1083.86 3580
-1871.32 1086.28 3588
-1870.53 1090.82 3603
-1870.18 1095.67 3619
-1861.53 1095.67 3619
-1861.07 1100.51 3635
-1872.76 1112.62 3675
-1863.97 1112.62 3675
-1855.18 1112.62 3675
-1846.39 1112.62 3675
-1833.61 1110.2 3667
-1824.84 1110.2 3667
-1816.07 1110.2 3667
-1802.86 1107.47 3658
-1778.91 1098.09 3627
-1770.24 1098.09 3627
-1761.57 1098.09 3627
-1741.29 1090.82 3603
-1725.46 1086.28 3588
-1716.88 1086.28 3588
-1700.69 1081.44 3572
-1688.83 1079.32 3565
-1669.46 1072.36 3542
-1650.68 1065.69 3520
-1642.26 1065.69 3520
-1630.13 1063.27 3512
-1614.8 1058.73 3497
-1603.23 1056.61 3490
-1594.88 1056.61 3490
-1573.35 1047.83 3461
-1568.24 1049.95 3468
-1559.95 1049.95 3468
-1551.65 1049.95 3468
-1543.36 1049.95 3468
-1531.97 1047.83 3461
-1514.45 1041.47 3440
-1506.22 1041.47 3440
-1494.95 1039.35 3433
-1486.74 1039.35 3433
-1478.53 1039.35 3433
-1470.32 1039.35 3433
-1462.11 1039.35 3433
-1459.83 1043.59 3447
-1457.48 1047.83 3461
-1449.21 1047.83 3461
-1440.93 1047.83 3461
-1435.55 1049.95 3468
-1430.55 1052.37 3476
-1422.24 1052.37 3476
-1413.93 1052.37 3476
-1411.28 1056.61 3490
-1402.93 1056.61 3490
-1394.58 1056.61 3490
-1383.46 1054.49 3483
-1377.89 1056.61 3490
-1369.55 1056.61 3490
-1363.93 1058.73 3497
-1355.57 1058.73 3497
-1356.07 1065.69 3520
-1350.33 1067.81 3527
-1344.56 1069.93 3534
-1336.11 1069.93 3534
-1327.66 1069.93 3534
-1319.21 1069.93 3534
-1310.76 1069.93 3534
-1302.3 1069.93 3534
-1291.29 1067.81 3527
-1280.31 1065.69 3520
-1269 1063.27 3512
-1260.6 1063.27 3512
-1244.36 1056.61 3490
-1228.23 1049.95 3468
-1217.47 1047.83 3461
-1209.19 1047.83 3461
-1198.49 1045.71 3454
-1182.99 1039.35 3433
-1172.39 1037.24 3426
-1164.19 1037.24 3426
-1153.64 1035.12 3419
-1133.74 1024.52 3384
-1120.99 1020.28 3370
-1112.93 1020.28 3370
-1096.02 1012.11 3343
-1090.3 1014.23 3350
-1082.29 1014.23 3350
-1074.28 1014.23 3350
-1066.27 1014.23 3350
-1058.26 1014.23 3350
-549.265 530.425 1752
-545.075 530.425 1752
-540.886 530.425 1752
-537.309 531.031 1754
-533.115 531.031 1754
-528.92 531.031 1754
-524.726 531.031 1754
-520.531 531.031 1754
-515.748 530.425 1752
-511.267 530.122 1751
-507.369 530.425 1752
-503.18 530.425 1752
-498.99 530.425 1752
-494.801 530.425 1752
-490.611 530.425 1752
-486.421 530.425 1752
-481.957 530.122 1751
-478.042 530.425 1752
-473.853 530.425 1752
-470.199 531.031 1754
-466.005 531.031 1754
-462.337 531.636 1756
-459.704 533.453 1762
-455.749 533.756 1763
-451.533 533.756 1763
-448.839 535.572 1769
-444.609 535.572 1769
-440.877 536.178 1771
-436.642 536.178 1771
-432.407 536.178 1771
-428.172 536.178 1771
-423.937 536.178 1771
-418.754 534.967 1767
-413.59 533.756 1763
-407.749 531.636 1756
-402.63 530.425 1752
-398.441 530.425 1752
-392.226 527.7 1743
-387.612 527.095 1741
-381.467 524.37 1732
-377.325 524.37 1732
-372.106 522.856 1727
-366.911 521.343 1722
-361.951 520.132 1718
-357.842 520.132 1718
-353.116 519.223 1715
-347.794 517.407 1709
-343.506 517.104 1708
-339.422 517.104 1708
-334.945 516.499 1706
-330.478 515.893 1704
-326.02 515.288 1702
-322.328 515.893 1704
-318.253 515.893 1704
-314.178 515.893 1704
-310.468 516.499 1706
-306.747 517.104 1708
-302.84 517.407 1709
-298.753 517.407 1709
-295.356 518.618 1713
-291.77 519.526 1716
-288.337 520.737 1720
-284.224 520.737 1720
-280.6 521.645 1723
-276.8 522.251 1725
-273.308 523.462 1729
-269.173 523.462 1729
-265.805 524.976 1734
-261.96 525.581 1736
-258.403 526.792 1740
-254.242 526.792 1740
-250.512 527.7 1743
-246.91 528.911 1747
-243.01 529.517 1749
-238.828 529.517 1749
-235.048 530.425 1752
-231.912 532.847 1760
-228.092 533.756 1763
-223.876 533.756 1763
-220.408 535.572 1769
-216.422 536.178 1771
-212.906 537.994 1777
-208.656 537.994 1777
-204.752 538.902 1780
-200.946 540.113 1784
-196.68 540.113 1784
-192.414 540.113 1784
-188.148 540.113 1784
-184.294 541.324 1788
-180.824 543.746 1796
-176.529 543.746 1796
-172.618 544.957 1800
-169.155 547.682 1809
-165.194 548.893 1813
-160.858 548.893 1813
-156.695 549.499 1815
-152.523 550.104 1817
-148.667 551.921 1823
-144.308 551.921 1823
-139.949 551.921 1823
-135.589 551.921 1823
-131.23 551.921 1823
-178.206 1122.31 3707
-169.341 1122.31 3707
-160.476 1122.31 3707
-151.612 1122.31 3707
-133.305 1117.47 3691
-124.479 1117.47 3691
-115.652 1117.47 3691
-106.363 1112.62 3675
-97.5749 1112.62 3675
-88.5936 1110.2 3667
-79.4546 1105.05 3650
-70.5714 1102.63 3642
-61.8622 1102.63 3642
-53.1531 1102.63 3642
-44.444 1102.63 3642
-35.6662 1100.51 3635
-26.9738 1100.51 3635
-18.2412 1098.09 3627
-9.52569 1093.25 3611
-0.890695 1093.25 3611
7.7443 1093.25 3611
16.3793 1093.25 3611
25.0143 1093.25 3611
33.6493 1093.25 3611
42.1906 1090.82 3603
50.8065 1090.82 3603
59.4223 1090.82 3603
68.0382 1090.82 3603
76.4839 1088.4 3595
85.0806 1088.4 3595
93.4949 1086.28 3588
101.847 1083.86 3580
110.408 1083.86 3580
118.969 1083.86 3580
127.245 1081.44 3572
135.787 1081.44 3572
144.328 1081.44 3572
152.87 1081.44 3572
161.412 1081.44 3572
169.954 1081.44 3572
178.495 1081.44 3572
187.037 1081.44 3572
195.579 1081.44 3572
203.721 1079.32 3565
211.769 1076.9 3557
220.275 1076.9 3557
228.781 1076.9 3557
236.753 1074.47 3549
244.756 1072.36 3542
253.226 1072.36 3542
261.696 1072.36 3542
269.022 1067.81 3527
278.007 1069.93 3534
286.458 1069.93 3534
294.909 1069.93 3534
303.359 1069.93 3534
311.81 1069.93 3534
319.627 1067.81 3527
328.061 1067.81 3527
336.495 1067.81 3527
345.614 1069.93 3534
354.065 1069.93 3534
362.516 1069.93 3534
370.966 1069.93 3534
377.055 1063.27 3512
383.807 1058.73 3497
392.17 1058.73 3497
393.202 1039.35 3433
398.956 1033 3412
404.609 1026.64 3391
412.718 1026.64 3391
420.827 1026.64 3391
428.05 1024.52 3384
434.338 1020.28 3370
440.69 1016.35 3357
448.718 1016.35 3357
454.841 1012.11 3343
460.066 1006.05 3323
467.167 1004.24 3317
475.099 1004.24 3317
483.031 1004.24 3317
490.963 1004.24 3317
497.842 1002.12 3310
505.757 1002.12 3310
513.672 1002.12 3310
520.485 999.997 3303
528.383 999.997 3303
537.418 1002.12 3310
546.487 1004.24 3317
554.419 1004.24 3317
562.35 1004.24 3317
570.282 1004.24 3317
578.214 1004.24 3317
584.909 1002.12 3310
591.571 999.997 3303
600.74 1002.12 3310
609.942 1004.24 3317
617.874 1004.24 3317
625.806 1004.24 3317
633.738 1004.24 3317
642.831 1006.05 3323
650.777 1006.05 3323
658.723 1006.05 3323
669.478 1010.29 3337
677.458 1010.29 3337
685.438 1010.29 3337
693.418 1010.29 3337
702.659 1012.11 3343
710.653 1012.11 3343
718.647 1012.11 3343
726.641 1012.11 3343
733.317 1010.29 3337
741.296 1010.29 3337
752.195 1014.23 3350
760.206 1014.23 3350
769.822 1016.35 3357
777.85 1016.35 3357
785.877 1016.35 3357
793.905 1016.35 3357
800.26 1014.23 3350
811.408 1018.16 3363
819.45 1018.16 3363
827.492 1018.16 3363
835.534 1018.16 3363
843.575 1018.16 3363
851.617 1018.16 3363
859.659 1018.16 3363
869.507 1020.28 3370
879.389 1022.4 3377
889.304 1024.52 3384
897.396 1024.52 3384
918.6 1039.35 3433
932.478 1045.71 3454
940.738 1045.71 3454
948.998 1045.71 3454
961.137 1049.95 3468
975.58 1056.61 3490
994.357 1067.81 3527
1002.79 1067.81 3527
1015.53 1072.36 3542
1026.02 1074.47 3549
1041.21 1081.44 3572
1056.51 1088.4 3595
1065.11 1088.4 3595
1083.26 1098.09 3627
1106.39 1112.62 3675
1115.17 1112.62 3675
1123.96 1112.62 3675
1132.75 1112.62 3675
1141.54 1112.62 3675
1150.33 1112.62 3675
1156.59 1110.2 3667
1162.5 1107.47 3658
1171.25 1107.47 3658
1179.99 1107.47 3658
1188.74 1107.47 3658
1197.49 1107.47 3658
1206.24 1107.47 3658
1214.98 1107.47 3658
1223.73 1107.47 3658
1232.48 1107.47 3658
1241.23 1107.47 3658
1249.97 1107.47 3658
1258.72 1107.47 3658
1267.47 1107.47 3658
1273.43 1105.05 3650
1282.15 1105.05 3650
1290.88 1105.05 3650
1299.61 1105.05 3650
1311.21 1107.47 3658
1319.95 1107.47 3658
1328.7 1107.47 3658
1337.45 1107.47 3658
1349.51 1110.2 3667
1361.24 1112.62 3675
1370.03 1112.62 3675
1378.82 1112.62 3675
1387.6 1112.62 3675
1396.39 1112.62 3675
1405.18 1112.62 3675
1410.89 1110.2 3667
1407.27 1100.51 3635
1409.73 1095.67 3619
1418.38 1095.67 3619
1420.73 1090.82 3603
1420.22 1083.86 3580
1425.59 1081.44 3572
1434.13 1081.44 3572
1442.67 1081.44 3572
1445.12 1076.9 3557
1444.23 1069.93 3534
1443.63 1063.27 3512
1452.03 1063.27 3512
1451.28 1056.61 3490
1459.63 1056.61 3490
1467.97 1056.61 3490
1476.32 1056.61 3490
1484.66 1056.61 3490
1490.02 1054.49 3483
1498.34 1054.49 3483
1506.67 1054.49 3483
1515 1054.49 3483
1523.33 1054.49 3483
1531.66 1054.49 3483
1552.81 1063.27 3512
1561.21 1063.27 3512
1569.61 1063.27 3512
1578.01 1063.27 3512
1743.95 1072.36 3542
1752.42 1072.36 3542
1760.89 1072.36 3542
1758.37 1065.69 3520
1740.68 1049.95 3468
1748.98 1049.95 3468
1753.72 1047.83 3461
1758.43 1045.71 3454
1759.53 1041.47 3440
1767.76 1041.47 3440
1772.37 1039.35 3433
1769.69 1033 3412
1752.32 1018.16 3363
1760.36 1018.16 3363
1765.24 1016.35 3357
1773.27 1016.35 3357
1773.87 1012.11 3343
1764.28 1002.12 3310
1772.19 1002.12 3310
1776.34 999.997 3303
1777.22 996.061 3290
1785.09 996.061 3290
1792.95 996.061 3290
1794.25 992.428 3278
-2392.92 975.258 3196
-2385.28 975.258 3196
-2359.78 967.935 3172
-2352.2 967.935 3172
-2340.18 966.104 3166
-2332.61 966.104 3166
-2325.04 966.104 3166
-2321.86 967.935 3172
-2314.27 967.935 3172
-2306.69 967.935 3172
-2299.1 967.935 3172
-2300.19 971.596 3184
-2301.21 975.258 3196
-2297.88 977.089 3202
-2290.22 977.089 3202
-2296.11 982.887 3221
-2323.93 998.145 3271
-2325.31 1002.11 3284
-2317.46 1002.11 3284
-2318.75 1006.08 3297
-2329.09 1014.01 3323
-2363.75 1032.63 3384
-2355.66 1032.63 3384
-2371.84 1043.31 3419
-2373.35 1047.58 3433
-2365.14 1047.58 3433
-2356.93 1047.58 3433
-2348.72 1047.58 3433
-2340.51 1047.58 3433
-2327.54 1045.44 3426
-2319.35 1045.44 3426
-2296.99 1039.03 3405
-2274.73 1032.63 3384
-2266.64 1032.63 3384
-2249.21 1028.35 3370
-2259.77 1036.9 3398
-2260.92 1041.17 3412
-2252.76 1041.17 3412
-2244.6 1041.17 3412
-2241.03 1043.31 3419
-2232.85 1043.31 3419
-2252.01 1056.12 3461
-2243.73 1056.12 3461
-2258.71 1067.11 3497
-2250.34 1067.11 3497
-2241.98 1067.11 3497
-2233.62 1067.11 3497
-2225.26 1067.11 3497
-2221.97 1069.55 3505
-2213.59 1069.55 3505
-2205.2 1069.55 3505
-2206.22 1074.13 3520
-2206.55 1078.4 3534
-2207.43 1082.98 3549
-2198.94 1082.98 3549
-2204.65 1089.99 3572
-2196.11 1089.99 3572
-2187.57 1089.99 3572
-2179.02 1089.99 3572
-2175.34 1092.44 3580
-2166.78 1092.44 3580
-2158.22 1092.44 3580
-2149.66 1092.44 3580
-2141.1 1092.44 3580
-2132.54 1092.44 3580
-2123.98 1092.44 3580
-2110.69 1089.99 3572
-2088.61 1082.98 3549
-2076.02 1080.84 3542
-2067.55 1080.84 3542
-2059.08 1080.84 3542
-2054.67 1082.98 3549
-2046.18 1082.98 3549
-2037.69 1082.98 3549
-2025.2 1080.84 3542
-2016.73 1080.84 3542
-1999.76 1076.26 3527
-1991.32 1076.26 3527
-1982.89 1076.26 3527
-1966.06 1071.69 3512
-1945.4 1064.97 3490
-1940.94 1067.11 3497
-1932.57 1067.11 3497
-1928.61 1069.55 3505
-1924.07 1071.69 3512
-1915.67 1071.69 3512
-1907.27 1071.69 3512
-1906.98 1076.26 3527
-1902.32 1078.4 3534
-1901.9 1082.98 3549
-1893.42 1082.98 3549
-1897.15 1089.99 3572
-1888.6 1089.99 3572
-1884.27 1092.44 3580
-1875.71 1092.44 3580
-1867.15 1092.44 3580
-1866.38 1097.01 3595
-1870.18 1104.34 3619
-1861.53 1104.34 3619
-1861.07 1109.22 3635
-1872.76 1121.42 3675
-1863.97 1121.42 3675
-1855.18 1121.42 3675
-1846.39 1121.42 3675
-1833.61 1118.98 3667
-1824.84 1118.98 3667
-1811.61 1116.24 3658
-1802.86 1116.24 3658
-1778.91 1106.78 3627
-1770.24 1106.78 3627
-1757.68 1104.34 3619
-1741.29 1099.45 3603
-1725.46 1094.88 3588
-1716.88 1094.88 3588
-1700.69 1089.99 3572
-1688.83 1087.86 3565
-1669.46 1080.84 3542
-1650.68 1074.13 3520
-1642.26 1074.13 3520
-1626.88 1069.55 3505
-1611.57 1064.97 3490
-1589.9 1056.12 3461
-1581.63 1056.12 3461
-1566.99 1051.85 3447
-1558.74 1051.85 3447
-1556.8 1056.12 3461
-1548.52 1056.12 3461
-1540.25 1056.12 3461
-1525.77 1051.85 3447
-1505.2 1043.31 3419
-1500.09 1045.44 3426
-1491.9 1045.44 3426
-1486.74 1047.58 3433
-1478.53 1047.58 3433
-1470.32 1047.58 3433
-1462.11 1047.58 3433
-1459.83 1051.85 3447
-1457.48 1056.12 3461
-1449.21 1056.12 3461
-1440.93 1056.12 3461
-1435.55 1058.26 3468
-1430.55 1060.7 3476
-1422.24 1060.7 3476
-1413.93 1060.7 3476
-1411.28 1064.97 3490
-1402.93 1064.97 3490
-1394.58 1064.97 3490
-1383.46 1062.84 3483
-1375.13 1062.84 3483
-1369.55 1064.97 3490
-1363.93 1067.11 3497
-1355.57 1067.11 3497
-1356.07 1074.13 3520
-1350.33 1076.26 3527
-1344.56 1078.4 3534
-1336.11 1078.4 3534
-1327.66 1078.4 3534
-1319.21 1078.4 3534
-1310.76 1078.4 3534
-1299.73 1076.26 3527
-1288.73 1074.13 3520
-1277.4 1071.69 3512
-1263.58 1067.11 3497
-1255.22 1067.11 3497
-1244.36 1064.97 3490
-1225.75 1056.12 3461
-1215.01 1053.99 3454
-1206.75 1053.99 3454
-1193.63 1049.71 3440
-1178.17 1043.31 3419
-1169.99 1043.31 3419
-1161.82 1043.31 3419
-1153.64 1043.31 3419
-1129.05 1028.35 3370
-1120.99 1028.35 3370
-1112.93 1028.35 3370
-1096.02 1020.12 3343
-1090.3 1022.25 3350
-1082.29 1022.25 3350
-1074.28 1022.25 3350
-1066.27 1022.25 3350
-1058.26 1022.25 3350
-549.265 534.622 1752
-545.075 534.622 1752
-540.886 534.622 1752
-537.309 535.232 1754
-533.115 535.232 1754
-528.92 535.232 1754
-524.726 535.232 1754
-520.531 535.232 1754
-515.748 534.622 1752
-511.559 534.622 1752
-507.369 534.622 1752
-503.18 534.622 1752
-498.99 534.622 1752
-494.801 534.622 1752
-490.611 534.622 1752
-486.421 534.622 1752
-482.232 534.622 1752
-478.042 534.622 1752
-473.853 534.622 1752
-470.736 535.843 1756
-466.536 535.843 1756
-462.337 535.843 1756
-459.704 537.674 1762
-455.49 537.674 1762
-451.277 537.674 1762
-448.839 539.81 1769
-444.609 539.81 1769
-440.877 540.42 1771
-436.642 540.42 1771
-432.407 540.42 1771
-428.172 540.42 1771
-423.937 540.42 1771
-418.754 539.199 1767
-413.59 537.979 1763
-407.749 535.843 1756
-402.63 534.622 1752
-398.441 534.622 1752
-392.226 531.876 1743
-387.612 531.266 1741
-381.908 529.13 1734
-377.761 529.13 1734
-372.106 526.993 1727
-367.124 525.773 1723
-361.951 524.247 1718
-357.842 524.247 1718
-353.322 523.637 1716
-347.794 521.501 1709
-343.506 521.196 1708
-339.422 521.196 1708
-334.945 520.585 1706
-330.478 519.975 1704
-326.02 519.365 1702
-322.328 519.975 1704
-318.253 519.975 1704
-314.178 519.975 1704
-310.468 520.585 1706
-306.747 521.196 1708
-302.84 521.501 1709
-298.753 521.501 1709
-295.356 522.721 1713
-291.77 523.637 1716
-288.337 524.857 1720
-284.224 524.857 1720
-280.6 525.773 1723
-276.8 526.383 1725
-273.308 527.604 1729
-269.173 527.604 1729
-265.805 529.13 1734
-261.96 529.74 1736
-258.403 530.96 1740
-254.242 530.96 1740
-250.512 531.876 1743
-246.91 533.096 1747
-243.01 533.707 1749
-238.828 533.707 1749
-235.048 534.622 1752
-231.912 537.063 1760
-228.092 537.979 1763
-223.876 537.979 1763
-220.657 540.42 1771
-216.666 541.03 1773
-212.906 542.251 1777
-208.656 542.251 1777
-205.212 544.387 1784
-200.946 544.387 1784
-196.68 544.387 1784
-192.414 544.387 1784
-188.148 544.387 1784
-184.294 545.608 1788
-180.824 548.049 1796
-176.529 548.049 1796
-172.618 549.269 1800
-169.155 552.016 1809
-165.194 553.236 1813
-160.858 553.236 1813
-156.695 553.847 1815
-152.523 554.457 1817
-148.667 556.288 1823
-144.308 556.288 1823
-139.949 556.288 1823
-135.589 556.288 1823
-131.23 556.288 1823
-178.206 1131.19 3707
-169.341 1131.19 3707
-160.476 1131.19 3707
-151.612 1131.19 3707
-133.305 1126.31 3691
-124.479 1126.31 3691
-115.652 1126.31 3691
-106.363 1121.42 3675
-97.5749 1121.42 3675
-88.5936 1118.98 3667
-79.4546 1113.8 3650
-70.5714 1111.35 3642
-61.8622 1111.35 3642
-53.1531 1111.35 3642
-44.444 1111.35 3642
-35.6662 1109.22 3635
-26.9738 1109.22 3635
-18.2412 1106.78 3627
-9.52569 1101.9 3611
-0.890695 1101.9 3611
7.7443 1101.9 3611
16.3793 1101.9 3611
25.0143 1101.9 3611
33.6493 1101.9 3611
42.1906 1099.45 3603
50.8065 1099.45 3603
59.4223 1099.45 3603
68.0382 1099.45 3603
76.4839 1097.01 3595
85.0806 1097.01 3595
93.4949 1094.88 3588
102.075 1094.88 3588
110.408 1092.44 3580
118.969 1092.44 3580
127.53 1092.44 3580
136.091 1092.44 3580
144.652 1092.44 3580
153.213 1092.44 3580
