-515.35 357.744 1709
-511.264 357.744 1709
-507.77 358.162 1711
-503.679 358.162 1711
-499.587 358.162 1711
-495.496 358.162 1711
-491.404 358.162 1711
-487.313 358.162 1711
-483.221 358.162 1711
-479.13 358.162 1711
-475.038 358.162 1711
-470.396 357.744 1709
-466.31 357.744 1709
-462.764 358.162 1711
-459.208 358.581 1713
-455.112 358.581 1713
-451.016 358.581 1713
-446.919 358.581 1713
-442.823 358.581 1713
-438.727 358.581 1713
-434.631 358.581 1713
-431.037 359 1715
-427.185 359.209 1716
-423.081 359.209 1716
-418.978 359.209 1716
-414.874 359.209 1716
-411.25 359.628 1718
-407.141 359.628 1718
-403.033 359.628 1718
-399.389 360.046 1720
-395.736 360.465 1722
-391.845 360.674 1723
-387.725 360.674 1723
-384.05 361.093 1725
-380.366 361.512 1727
-376.236 361.512 1727
-372.106 361.512 1727
-367.976 361.512 1727
-363.847 361.512 1727
-360.133 361.93 1729
-355.999 361.93 1729
-351.864 361.93 1729
-347.73 361.93 1729
-343.595 361.93 1729
-339.461 361.93 1729
-335.326 361.93 1729
-331.575 362.349 1731
-327.435 362.349 1731
-323.296 362.349 1731
-319.157 362.349 1731
-314.653 361.93 1729
-310.519 361.93 1729
-306.384 361.93 1729
-302.25 361.93 1729
-298.115 361.93 1729
-293.98 361.93 1729
-289.846 361.93 1729
-285.711 361.93 1729
-281.577 361.93 1729
-277.442 361.93 1729
-273.308 361.93 1729
-269.173 361.93 1729
-265.039 361.93 1729
-260.904 361.93 1729
-256.769 361.93 1729
-252.635 361.93 1729
-248.931 362.558 1732
-244.79 362.558 1732
-240.648 362.558 1732
-236.506 362.558 1732
-232.364 362.558 1732
-228.486 362.977 1734
-224.599 363.396 1736
-220.447 363.396 1736
-216.545 363.814 1738
-212.389 363.814 1738
-208.233 363.814 1738
-204.077 363.814 1738
-200.151 364.233 1740
-196.103 364.442 1741
-192.16 364.861 1743
-187.992 364.861 1743
-184.035 365.28 1745
-180.068 365.698 1747
-176.394 366.745 1752
-172.204 366.745 1752
-168.206 367.164 1754
-164.573 368.42 1760
-160.547 368.838 1762
-156.333 368.838 1762
-152.379 369.466 1765
-148.326 369.885 1767
-144.101 369.885 1767
-139.875 369.885 1767
-135.803 370.304 1769
-131.573 370.304 1769
-128.063 372.397 1779
-124.157 373.443 1784
-120.159 374.281 1788
-116.532 376.374 1798
-112.482 377.211 1802
-108.293 377.63 1804
-103.979 377.63 1804
-99.9412 378.677 1809
-95.8267 379.514 1813
-91.4913 379.514 1813
-181.859 791.893 3783
-172.813 791.893 3783
-163.767 791.893 3783
-154.72 791.893 3783
-149.756 814.082 3889
-146.596 849.668 4059
-136.889 849.668 4059
-127.183 849.668 4059
-116.637 843.597 4030
-107.001 843.597 4030
-92.6524 802.778 3835
-81.9798 788.334 3766
-72.1603 779.542 3724
-63.2551 779.542 3724
-53.8682 772.634 3691
-45.0419 772.634 3691
-36.1371 770.96 3683
-27.33 770.96 3683
-18.3568 764.052 3650
-9.50459 754.213 3603
-0.885022 751.073 3588
7.66066 747.724 3572
16.2024 747.724 3572
24.6956 746.259 3565
33.1461 744.584 3557
41.652 744.584 3557
50.1578 744.584 3557
58.5317 742.91 3549
67.0185 742.91 3549
75.5052 742.91 3549
83.9919 742.91 3549
92.4787 742.91 3549
100.965 742.91 3549
109.452 742.91 3549
117.939 742.91 3549
126.176 741.444 3542
134.646 741.444 3542
143.116 741.444 3542
151.586 741.444 3542
159.695 739.77 3534
168.146 739.77 3534
176.596 739.77 3534
185.047 739.77 3534
193.498 739.77 3534
201.549 738.304 3527
210.4 739.77 3534
219.78 742.91 3549
228.266 742.91 3549
236.753 742.91 3549
245.24 742.91 3549
253.727 742.91 3549
262.804 744.584 3557
271.31 744.584 3557
280.445 746.259 3565
289.538 747.724 3572
298.08 747.724 3572
306.621 747.724 3572
316.575 751.073 3588
325.155 751.073 3588
333.735 751.073 3588
342.315 751.073 3588
350.895 751.073 3588
359.475 751.073 3588
368.055 751.073 3588
374.955 747.724 3572
382.745 746.259 3565
389.514 742.91 3549
398.001 742.91 3549
404.77 739.77 3534
412.402 738.304 3527
418.211 733.699 3505
423.915 729.094 3483
432.244 729.094 3483
436.905 723.023 3454
443.36 720.093 3440
449.748 717.162 3426
457.941 717.162 3426
461.371 709.836 3391
464.773 702.718 3357
470.829 699.788 3343
478.823 699.788 3343
483.905 695.601 3323
491.851 695.601 3323
499.797 695.601 3323
507.744 695.601 3323
515.69 695.601 3323
523.636 695.601 3323
531.582 695.601 3323
539.529 695.601 3323
548.628 697.067 3330
556.591 697.067 3330
565.741 698.532 3337
574.753 699.788 3343
582.747 699.788 3343
590.741 699.788 3343
598.735 699.788 3343
606.729 699.788 3343
614.723 699.788 3343
621.6 698.532 3337
629.579 698.532 3337
638.706 699.788 3343
646.7 699.788 3343
654.694 699.788 3343
664.076 701.253 3350
672.086 701.253 3350
680.097 701.253 3350
688.108 701.253 3350
696.119 701.253 3350
705.601 702.718 3357
714.904 703.974 3363
722.946 703.974 3363
730.988 703.974 3363
739.03 703.974 3363
745.739 702.718 3357
753.767 702.718 3357
761.794 702.718 3357
768.217 701.253 3350
777.85 702.718 3357
787.282 703.974 3363
795.324 703.974 3363
803.366 703.974 3363
811.408 703.974 3363
819.45 703.974 3363
826.015 702.718 3357
834.043 702.718 3357
845.331 705.44 3370
855.163 706.905 3377
863.238 706.905 3377
874.926 709.836 3391
886.68 712.766 3405
898.502 715.697 3419
906.678 715.697 3419
920.473 720.093 3440
932.478 723.023 3454
946.73 727.629 3476
955.042 727.629 3476
973.331 735.164 3512
987.88 739.77 3534
998.586 741.444 3542
1007.06 741.444 3542
1022.12 746.259 3565
1034.98 749.399 3580
1050.25 754.213 3603
1061.21 755.888 3611
1069.85 755.888 3611
1083.26 759.237 3627
1094.34 760.912 3635
1110.02 765.727 3658
1118.76 765.727 3658
1130.28 767.611 3667
1139.05 767.611 3667
1147.82 767.611 3667
1156.59 767.611 3667
1167.9 769.285 3675
1176.69 769.285 3675
1185.48 769.285 3675
1191.67 767.611 3667
1200.44 767.611 3667
1209.2 767.611 3667
1217.97 767.611 3667
1226.74 767.611 3667
1235.51 767.611 3667
1244.28 767.611 3667
1253.05 767.611 3667
1258.72 765.727 3658
1267.47 765.727 3658
1276.22 765.727 3658
1284.96 765.727 3658
1293.71 765.727 3658
1302.46 765.727 3658
1308.34 764.052 3650
1311.65 760.912 3635
1320.35 760.912 3635
1326.11 759.237 3627
1334.79 759.237 3627
1340.5 757.563 3619
1349.15 757.563 3619
1357.81 757.563 3619
1366.46 757.563 3619
1375.11 757.563 3619
1383.77 757.563 3619
1392.42 757.563 3619
1397.98 755.888 3611
1403.5 754.213 3603
1412.11 754.213 3603
1417.57 752.539 3595
1423.39 751.073 3588
1431.97 751.073 3588
1437.34 749.399 3580
1445.9 749.399 3580
1451.21 747.724 3572
1459.76 747.724 3572
1465.42 746.259 3565
1473.94 746.259 3565
1475.82 742.91 3549
1484.3 742.91 3549
1492.79 742.91 3549
1501.28 742.91 3549
1509.76 742.91 3549
1518.25 742.91 3549
1530.18 744.584 3557
1538.68 744.584 3557
1547.19 744.584 3557
1569.25 751.073 3588
1584.43 754.213 3603
1596.58 755.888 3611
1615.89 760.912 3635
1631.28 764.052 3650
1662.03 774.309 3699
1682.17 779.542 3724
1710.14 788.334 3766
1719.15 788.334 3766
1740.09 793.777 3792
1773.14 804.662 3844
1782.33 804.662 3844
1791.52 804.662 3844
1821.8 814.082 3889
1835.33 815.966 3898
1844.66 815.966 3898
1853.98 815.966 3898
1859 814.082 3889
1855.33 808.43 3862
1864.56 808.43 3862
1856.33 800.894 3826
1861.58 799.219 3818
1857.97 793.777 3792
1867.04 793.777 3792
1858.79 786.45 3757
1847.39 777.868 3716
1847.78 774.309 3699
1856.63 774.309 3699
1853.37 769.285 3675
1837.84 759.237 3627
1838.36 755.888 3611
1838.81 752.539 3595
1847.41 752.539 3595
1848.26 749.399 3580
1868.75 754.213 3603
1877.37 754.213 3603
1885.99 754.213 3603
1894.6 754.213 3603
1907.44 755.888 3611
1928.81 760.912 3635
1954.56 767.611 3667
1963.33 767.611 3667
1989.31 774.309 3699
2011.66 779.542 3724
2029.25 782.892 3740
2038.19 782.892 3740
2065.74 790.009 3774
2089.06 795.451 3800
2132.38 808.43 3862
2156.59 814.082 3889
2165.89 814.082 3889
2190.29 819.734 3916
2210.33 823.711 3935
2219.74 823.711 3935
2229.15 823.711 3935
2243.68 825.595 3944
2253.11 825.595 3944
2262.54 825.595 3944
2266.79 823.711 3935
2281.4 825.595 3944
2296.06 827.479 3953
2311.35 829.572 3963
2320.82 829.572 3963
2335.59 831.456 3972
2350.99 833.549 3982
2360.52 833.549 3982
2370.04 833.549 3982
2379.56 833.549 3982
2400.48 837.526 4001
2421.49 841.504 4020
2431.11 841.504 4020
2446.79 843.597 4030
2456.43 843.597 4030
2477.69 847.574 4049
2487.37 847.574 4049
2497.06 847.574 4049
2506.74 847.574 4049
2516.42 847.574 4049
2532.34 849.668 4059
2542.05 849.668 4059
2551.76 849.668 4059
2555.15 847.574 4049
2564.83 847.574 4049
2574.52 847.574 4049
2572.07 843.597 4030
2575.3 841.504 4020
2584.92 841.504 4020
2588.07 839.41 4010
2579.53 833.549 3982
2570.19 827.479 3953
2561.37 821.617 3925
2570.76 821.617 3925
2544.65 810.314 3871
2536.09 804.662 3844
2510.85 793.777 3792
2519.92 793.777 3792
2500.31 784.776 3749
2470.45 772.634 3691
2479.28 772.634 3691
2488.11 772.634 3691
2486.11 769.285 3675
2494.9 769.285 3675
530.785 152.392 728
532.526 152.392 728
534.267 152.392 728
535.272 152.182 727
534.794 151.554 724
536.526 151.554 724
536.026 150.926 721
537.005 150.717 720
538.726 150.717 720
540.448 150.717 720
542.923 150.926 721
544.647 150.926 721
546.371 150.926 721
548.095 150.926 721
549.819 150.926 721
550.779 150.717 720
-2356.98 666.51 3148
-2349.46 666.51 3148
-2337.47 665.239 3142
-2329.95 665.239 3142
-2326.87 666.51 3148
-2319.35 666.51 3148
-2311.82 666.51 3148
-2299.9 665.239 3142
-2283.63 662.699 3130
-2289.23 666.51 3148
-2281.71 666.51 3148
-2291.52 671.591 3172
-2305.53 677.943 3202
-2311.51 681.966 3221
-2303.81 681.966 3221
-2318.2 688.529 3252
-2328.9 694.034 3278
-2377 710.76 3357
-2368.97 710.76 3357
-2394.7 720.923 3405
-2456.65 742.095 3505
-2448.27 742.095 3505
-2455.2 746.753 3527
-2462.03 751.411 3549
-2464.6 754.799 3565
-2456.08 754.799 3565
-2463.34 759.669 3588
-2465.03 762.844 3603
-2461.86 764.538 3611
-2453.23 764.538 3611
-2444.59 764.538 3611
-2430.56 762.844 3603
-2421.95 762.844 3603
-2403.28 759.669 3588
-2394.7 759.669 3588
-2390.78 761.151 3595
-2387.48 762.844 3603
-2378.87 762.844 3603
-2375.51 764.538 3611
-2366.88 764.538 3611
-2358.24 764.538 3611
-2349.61 764.538 3611
-2340.97 764.538 3611
-2332.34 764.538 3611
-2323.7 764.538 3611
-2315.07 764.538 3611
-2311.54 766.232 3619
-2307.98 767.926 3627
-2299.31 767.926 3627
-2290.63 767.926 3627
-2286.99 769.62 3635
-2278.3 769.62 3635
-2269.61 769.62 3635
-2265.27 771.102 3642
-2256.56 771.102 3642
-2247.85 771.102 3642
-2244.06 772.796 3650
-2240.23 774.489 3658
-2231.49 774.489 3658
-2222.74 774.489 3658
-2213.99 774.489 3658
-2210.67 776.395 3667
-2201.9 776.395 3667
-2193.13 776.395 3667
-2189.13 778.089 3675
-2185.09 779.782 3683
-2176.28 779.782 3683
-2167.47 779.782 3683
-2158.67 779.782 3683
-2149.86 779.782 3683
-2141.05 779.782 3683
-2146.14 784.864 3707
-2147.07 788.463 3724
-2138.17 788.463 3724
-2129.26 788.463 3724
-2110.68 784.864 3707
-2092.74 781.476 3691
-2083.92 781.476 3691
-2070.59 779.782 3683
-2061.79 779.782 3683
-2057.44 781.476 3691
-2062.49 786.769 3716
-2053.6 786.769 3716
-2044.72 786.769 3716
-2022.13 781.476 3691
-2013.31 781.476 3691
-1986.56 774.489 3658
-1977.81 774.489 3658
-1982.52 779.782 3683
-1973.71 779.782 3683
-1964.91 779.782 3683
-1960.35 781.476 3691
-1951.52 781.476 3691
-1942.7 781.476 3691
-1921.3 776.395 3667
-1907.83 774.489 3658
-1890.78 771.102 3642
-1894.99 776.395 3667
-1886.22 776.395 3667
-1881.55 778.089 3675
-1872.76 778.089 3675
-1863.97 778.089 3675
-1855.18 778.089 3675
-1842.38 776.395 3667
-1817.61 769.62 3635
-1808.91 769.62 3635
-1796.26 767.926 3627
-1783.64 766.232 3619
-1767.14 762.844 3603
-1758.53 762.844 3603
-1742.62 759.669 3588
-1734.04 759.669 3588
-1728.83 761.151 3595
-1724.06 762.844 3603
-1719.25 764.538 3611
-1710.62 764.538 3611
-1701.98 764.538 3611
-1697.1 766.232 3619
-1692.18 767.926 3627
-1683.51 767.926 3627
-1674.83 767.926 3627
-1666.16 767.926 3627
-1657.49 767.926 3627
-1648.81 767.926 3627
-1640.14 767.926 3627
-1631.47 767.926 3627
-1622.79 767.926 3627
-1614.12 767.926 3627
-1612.09 771.102 3642
-1603.38 771.102 3642
-1601.67 774.489 3658
-1592.93 774.489 3658
-1584.18 774.489 3658
-1575.43 774.489 3658
-1566.68 774.489 3658
-1554.53 772.796 3650
-1536.06 767.926 3627
-1524.02 766.232 3619
-1515.36 766.232 3619
-1506.71 766.232 3619
-1498.06 766.232 3619
-1479.53 761.151 3595
-1470.93 761.151 3595
-1456.23 757.975 3580
-1447.67 757.975 3580
-1439.11 757.975 3580
-1433.74 759.669 3588
-1425.16 759.669 3588
-1416.58 759.669 3588
-1404.86 757.975 3580
-1396.3 757.975 3580
-1387.74 757.975 3580
-1370.32 753.105 3557
-640.466 367.978 1738
-636.31 367.978 1738
-632.154 367.978 1738
-627.275 367.554 1736
-623.124 367.554 1736
-618.259 367.131 1734
-614.113 367.131 1734
-609.966 367.131 1734
-605.82 367.131 1734
-601.673 367.131 1734
-597.527 367.131 1734
-592.353 366.496 1731
-587.534 366.072 1729
-582.725 365.649 1727
-578.595 365.649 1727
-573.135 364.802 1723
-568.024 364.167 1720
-563.911 364.167 1720
-559.798 364.167 1720
-555.685 364.167 1720
-550.93 363.743 1718
-545.867 363.108 1715
-541.766 363.108 1715
-537.665 363.108 1715
-532.942 362.685 1713
-528.846 362.685 1713
-524.749 362.685 1713
-520.045 362.261 1711
-515.953 362.261 1711
-511.862 362.261 1711
-508.364 362.685 1713
-504.268 362.685 1713
-500.171 362.685 1713
-496.075 362.685 1713
-491.979 362.685 1713
-487.883 362.685 1713
-483.786 362.685 1713
-479.69 362.685 1713
-475.594 362.685 1713
-471.497 362.685 1713
-466.855 362.261 1711
-463.305 362.685 1713
-459.745 363.108 1715
-455.643 363.108 1715
-451.542 363.108 1715
-447.441 363.108 1715
-443.34 363.108 1715
-439.239 363.108 1715
-435.138 363.108 1715
-431.791 363.743 1718
-427.683 363.743 1718
-423.574 363.743 1718
-419.466 363.743 1718
-415.841 364.167 1720
-412.207 364.59 1722
-408.089 364.59 1722
-403.971 364.59 1722
-400.55 365.225 1725
-396.885 365.649 1727
-392.755 365.649 1727
-388.625 365.649 1727
-385.386 366.496 1731
-381.467 366.707 1732
-377.325 366.707 1732
-373.184 366.707 1732
-368.829 366.496 1731
-364.689 366.496 1731
-360.758 366.707 1732
-356.617 366.707 1732
-352.475 366.707 1732
-348.333 366.707 1732
-344.191 366.707 1732
-340.05 366.707 1732
-335.908 366.707 1732
-331.766 366.707 1732
-327.624 366.707 1732
-323.483 366.707 1732
-319.341 366.707 1732
-315.017 366.496 1731
-310.878 366.496 1731
-306.739 366.496 1731
-302.25 366.072 1729
-298.115 366.072 1729
-293.98 366.072 1729
-289.846 366.072 1729
-285.711 366.072 1729
-281.577 366.072 1729
-277.442 366.072 1729
-273.308 366.072 1729
-269.173 366.072 1729
-265.039 366.072 1729
-260.904 366.072 1729
-256.769 366.072 1729
-252.635 366.072 1729
-248.931 366.707 1732
-244.79 366.707 1732
-240.648 366.707 1732
-236.506 366.707 1732
-232.364 366.707 1732
-228.486 367.131 1734
-224.599 367.554 1736
-220.447 367.554 1736
-216.296 367.554 1736
-212.145 367.554 1736
-208.233 367.978 1738
-204.077 367.978 1738
-200.151 368.401 1740
-196.103 368.613 1741
-192.16 369.036 1743
-187.992 369.036 1743
-184.246 369.883 1747
-180.068 369.883 1747
-176.595 371.365 1754
-172.401 371.365 1754
-168.398 371.789 1756
-164.76 373.059 1762
-160.547 373.059 1762
-156.333 373.059 1762
-152.551 374.118 1767
-148.494 374.541 1769
-144.264 374.541 1769
-140.033 374.541 1769
-135.957 374.965 1771
-131.722 374.965 1771
-128.135 376.87 1780
-123.878 376.87 1780
-120.159 378.564 1788
-116.791 381.528 1802
-112.607 381.952 1804
-108.353 382.163 1805
-104.036 382.163 1805
-100.494 385.127 1819
-96.1438 385.127 1819
-91.7941 385.127 1819
-181.859 800.955 3783
-174.001 806.46 3809
-164.892 806.46 3809
-157.215 813.87 3844
-149.409 821.492 3880
-140.131 821.492 3880
-130.853 821.492 3880
-120.446 813.87 3844
-110.994 811.965 3835
-101.823 811.965 3835
-92.6524 811.965 3835
-81.9798 797.356 3766
-72.1603 788.463 3724
-63.2551 788.463 3724
-53.8682 781.476 3691
-44.7491 776.395 3667
-35.6662 769.62 3635
-26.9738 769.62 3635
-18.1205 762.844 3603
-9.46502 759.669 3588
-0.881075 756.281 3572
7.62849 753.105 3557
16.1344 753.105 3557
24.6402 753.105 3557
33.0715 751.411 3549
41.4763 749.929 3542
49.9463 749.929 3542
58.4163 749.929 3542
66.8863 749.929 3542
75.3563 749.929 3542
83.8263 749.929 3542
92.2963 749.929 3542
100.766 749.929 3542
108.99 748.235 3534
117.44 748.235 3534
125.891 748.235 3534
134.342 748.235 3534
142.51 746.753 3527
150.944 746.753 3527
159.378 746.753 3527
167.813 746.753 3527
176.247 746.753 3527
184.314 745.271 3520
192.732 745.271 3520
201.149 745.271 3520
209.983 746.753 3527
218.851 748.235 3534
227.816 749.929 3542
236.286 749.929 3542
245.24 751.411 3549
253.727 751.411 3549
262.213 751.411 3549
270.7 751.411 3549
279.816 753.105 3557
289.538 756.281 3572
298.08 756.281 3572
306.621 756.281 3572
315.163 756.281 3572
324.43 757.975 3580
333.735 759.669 3588
342.315 759.669 3588
350.895 759.669 3588
358.673 757.975 3580
367.234 757.975 3580
374.955 756.281 3572
382.745 754.799 3565
389.514 751.411 3549
398.001 751.411 3549
404.77 748.235 3534
411.584 745.271 3520
418.211 742.095 3505
423.915 737.438 3483
432.244 737.438 3483
436.905 731.297 3454
443.36 728.333 3440
449.748 725.369 3426
457.941 725.369 3426
461.371 717.959 3391
464.773 710.76 3357
470.829 707.796 3343
478.823 707.796 3343
483.905 703.562 3323
490.963 702.291 3317
498.895 702.291 3317
506.827 702.291 3317
514.759 702.291 3317
522.691 702.291 3317
530.623 702.291 3317
538.555 702.291 3317
548.628 705.044 3330
556.591 705.044 3330
564.554 705.044 3330
573.721 706.526 3337
581.701 706.526 3337
589.68 706.526 3337
597.66 706.526 3337
605.64 706.526 3337
613.62 706.526 3337
618.992 703.562 3323
628.259 705.044 3330
637.559 706.526 3337
645.539 706.526 3337
653.519 706.526 3337
661.498 706.526 3337
669.478 706.526 3337
678.676 707.796 3343
686.67 707.796 3343
696.119 709.278 3350
704.13 709.278 3350
712.141 709.278 3350
720.152 709.278 3350
728.162 709.278 3350
736.173 709.278 3350
744.184 709.278 3350
752.195 709.278 3350
760.206 709.278 3350
768.217 709.278 3350
776.228 709.278 3350
785.877 710.76 3357
793.905 710.76 3357
801.932 710.76 3357
809.96 710.76 3357
817.988 710.76 3357
826.015 710.76 3357
834.043 710.76 3357
843.575 712.031 3363
851.617 712.031 3363
859.659 712.031 3363
873.12 716.477 3384
883.035 717.959 3391
896.662 722.405 3412
904.821 722.405 3412
916.727 725.369 3426
932.478 731.297 3454
946.73 735.955 3476
955.042 735.955 3476
969.174 740.402 3497
983.966 745.271 3520
996.33 748.235 3534
1007.06 749.929 3542
1015.53 749.929 3542
1032.67 756.281 3572
1047.91 761.151 3595
1061.21 764.538 3611
1069.85 764.538 3611
1080.87 766.232 3619
1091.94 767.926 3627
1110.02 774.489 3658
1118.76 774.489 3658
1127.51 774.489 3658
1139.05 776.395 3667
1147.82 776.395 3667
1156.59 776.395 3667
1167.9 778.089 3675
1176.69 778.089 3675
1185.48 778.089 3675
1191.67 776.395 3667
1200.44 776.395 3667
1209.2 776.395 3667
1217.97 776.395 3667
1226.74 776.395 3667
1235.51 776.395 3667
1244.28 776.395 3667
1253.05 776.395 3667
1258.72 774.489 3658
1267.47 774.489 3658
1276.22 774.489 3658
1284.96 774.489 3658
1293.71 774.489 3658
1302.46 774.489 3658
1308.34 772.796 3650
1311.65 769.62 3635
1320.35 769.62 3635
1326.11 767.926 3627
1334.79 767.926 3627
1340.5 766.232 3619
1349.15 766.232 3619
1357.81 766.232 3619
1366.46 766.232 3619
1375.11 766.232 3619
1383.77 766.232 3619
1392.42 766.232 3619
1397.98 764.538 3611
1403.5 762.844 3603
1412.11 762.844 3603
1417.57 761.151 3595
1423.39 759.669 3588
1431.97 759.669 3588
1437.34 757.975 3580
1445.9 757.975 3580
1451.21 756.281 3572
1459.76 756.281 3572
1465.42 754.799 3565
1473.94 754.799 3565
1475.82 751.411 3549
1484.3 751.411 3549
1492.79 751.411 3549
1501.28 751.411 3549
1509.76 751.411 3549
1518.25 751.411 3549
1526.74 751.411 3549
1538.68 753.105 3557
1547.19 753.105 3557
1569.25 759.669 3588
1584.43 762.844 3603
1596.58 764.538 3611
1615.89 769.62 3635
1631.28 772.796 3650
1662.03 783.17 3699
1682.17 788.463 3724
1710.14 797.356 3766
1719.15 797.356 3766
1740.09 802.86 3792
1773.14 813.87 3844
1782.33 813.87 3844
1791.52 813.87 3844
1821.8 823.398 3889
1835.33 825.303 3898
1844.66 825.303 3898
1853.98 825.303 3898
1859 823.398 3889
1855.33 817.681 3862
1864.56 817.681 3862
1856.33 810.059 3826
1861.58 808.365 3818
1857.97 802.86 3792
1867.04 802.86 3792
1858.79 795.45 3757
1842.91 784.864 3707
1839.79 779.782 3683
1836.05 774.489 3658
1844.8 774.489 3658
1829.73 764.538 3611
1834.29 762.844 3603
1827.05 756.281 3572
1835.59 756.281 3572
1844.13 756.281 3572
1856.82 757.975 3580
1869.55 759.669 3588
1878.13 759.669 3588
1886.71 759.669 3588
1907.44 764.538 3611
1916.08 764.538 3611
1945.5 772.796 3650
1954.23 772.796 3650
1980.7 779.782 3683
2007.34 786.769 3716
2029.25 791.851 3740
2038.19 791.851 3740
2061.36 797.356 3766
2089.06 804.554 3800
2132.38 817.681 3862
2156.59 823.398 3889
2165.89 823.398 3889
2190.29 829.114 3916
2210.33 833.137 3935
2219.74 833.137 3935
2229.15 833.137 3935
2238.56 833.137 3935
2247.97 833.137 3935
2257.38 833.137 3935
2266.79 833.137 3935
2281.4 835.043 3944
2290.83 835.043 3944
2305.51 836.948 3953
2314.97 836.948 3953
2335.59 840.971 3972
2350.99 843.088 3982
2360.52 843.088 3982
2370.04 843.088 3982
2379.56 843.088 3982
2400.48 847.111 4001
2421.49 851.134 4020
2431.11 851.134 4020
2446.79 853.251 4030
2456.43 853.251 4030
2477.69 857.274 4049
2487.37 857.274 4049
2497.06 857.274 4049
2506.74 857.274 4049
2516.42 857.274 4049
2532.34 859.391 4059
2542.05 859.391 4059
2551.76 859.391 4059
2555.15 857.274 4049
2564.83 857.274 4049
2574.52 857.274 4049
2572.07 853.251 4030
2575.3 851.134 4020
2584.92 851.134 4020
2588.07 849.016 4010
2579.53 843.088 3982
2570.19 836.948 3953
2532.01 821.492 3880
2541.29 821.492 3880
2532.81 815.776 3853
2489.91 799.049 3774
2487.68 795.45 3757
2496.66 795.45 3757
2461.63 781.476 3691
2465.1 779.782 3683
530.056 153.924 727
531.795 153.924 727
533.533 153.924 727
534.535 153.712 726
534.794 153.289 724
536.526 153.289 724
536.026 152.654 721
537.005 152.442 720
538.726 152.442 720
540.448 152.442 720
542.17 152.442 720
543.892 152.442 720
545.613 152.442 720
547.335 152.442 720
549.057 152.442 720
550.779 152.442 720
-2352.49 672.766 3142
-2344.98 672.766 3142
-2337.47 672.766 3142
-2329.95 672.766 3142
-2322.44 672.766 3142
-2314.93 672.766 3142
-2307.41 672.766 3142
-2291.11 670.197 3130
-2279.25 668.912 3124
-2293.6 675.335 3154
-2286.06 675.335 3154
-2291.52 679.19 3172
-2305.53 685.613 3202
-2311.51 689.682 3221
-2303.81 689.682 3221
-2318.2 696.319 3252
-2333.16 703.171 3284
-2377 718.802 3357
-2368.97 718.802 3357
-2409.47 733.576 3426
-2456.65 750.492 3505
-2448.27 750.492 3505
-2455.2 755.202 3527
-2462.03 759.913 3549
-2464.6 763.339 3565
-2456.08 763.339 3565
-2463.34 768.264 3588
-2465.03 771.475 3603
-2461.86 773.188 3611
-2453.23 773.188 3611
-2444.59 773.188 3611
-2430.56 771.475 3603
-2421.95 771.475 3603
-2403.28 768.264 3588
-2394.7 768.264 3588
-2390.78 769.763 3595
-2387.48 771.475 3603
-2378.87 771.475 3603
-2375.51 773.188 3611
-2366.88 773.188 3611
-2358.24 773.188 3611
-2349.61 773.188 3611
-2340.97 773.188 3611
-2332.34 773.188 3611
-2323.7 773.188 3611
-2315.07 773.188 3611
-2311.54 774.901 3619
-2307.98 776.614 3627
-2299.31 776.614 3627
-2290.63 776.614 3627
-2286.99 778.327 3635
-2278.3 778.327 3635
-2269.61 778.327 3635
-2265.27 779.826 3642
-2256.56 779.826 3642
-2247.85 779.826 3642
-2244.06 781.539 3650
-2240.23 783.252 3658
-2231.49 783.252 3658
-2222.74 783.252 3658
-2213.99 783.252 3658
-2210.67 785.179 3667
-2201.9 785.179 3667
-2197.92 786.892 3675
-2189.13 786.892 3675
-2185.09 788.605 3683
-2176.28 788.605 3683
-2167.47 788.605 3683
-2158.67 788.605 3683
-2149.86 788.605 3683
-2141.05 788.605 3683
-2146.14 793.744 3707
-2147.07 797.384 3724
-2138.17 797.384 3724
-2129.26 797.384 3724
-2110.68 793.744 3707
-2092.74 790.318 3691
-2083.92 790.318 3691
-2070.59 788.605 3683
-2061.79 788.605 3683
-2057.44 790.318 3691
-2062.49 795.671 3716
-2053.6 795.671 3716
-2044.72 795.671 3716
-2022.13 790.318 3691
-2013.31 790.318 3691
-1986.56 783.252 3658
-1977.81 783.252 3658
-1982.52 788.605 3683
-1973.71 788.605 3683
-1964.91 788.605 3683
-1960.35 790.318 3691
-1951.52 790.318 3691
-1942.7 790.318 3691
-1921.3 785.179 3667
-1907.83 783.252 3658
-1890.78 779.826 3642
-1894.99 785.179 3667
-1886.22 785.179 3667
-1881.55 786.892 3675
-1872.76 786.892 3675
-1863.97 786.892 3675
-1855.18 786.892 3675
-1842.38 785.179 3667
-1817.61 778.327 3635
-1808.91 778.327 3635
-1796.26 776.614 3627
-1783.64 774.901 3619
-1767.14 771.475 3603
-1758.53 771.475 3603
-1742.62 768.264 3588
-1734.04 768.264 3588
-1728.83 769.763 3595
-1724.06 771.475 3603
-1719.25 773.188 3611
-1710.62 773.188 3611
-1701.98 773.188 3611
-1697.1 774.901 3619
-1692.18 776.614 3627
-1683.51 776.614 3627
-1674.83 776.614 3627
-1666.16 776.614 3627
-1657.49 776.614 3627
-1648.81 776.614 3627
-1640.14 776.614 3627
-1631.47 776.614 3627
-1622.79 776.614 3627
-1614.12 776.614 3627
-1612.09 779.826 3642
-1603.38 779.826 3642
-1601.67 783.252 3658
-1592.93 783.252 3658
-1584.18 783.252 3658
-1575.43 783.252 3658
-1566.68 783.252 3658
-1554.53 781.539 3650
-1536.06 776.614 3627
-1524.02 774.901 3619
-1515.36 774.901 3619
-1506.71 774.901 3619
-1498.06 774.901 3619
-1479.53 769.763 3595
-1470.93 769.763 3595
-1456.23 766.551 3580
-1447.67 766.551 3580
-1439.11 766.551 3580
-1433.74 768.264 3588
-1425.16 768.264 3588
-1416.58 768.264 3588
-1404.86 766.551 3580
-1396.3 766.551 3580
-1387.74 766.551 3580
-1379.18 766.551 3580
-1370.62 766.551 3580
-1362.06 766.551 3580
-640.466 372.141 1738
-636.31 372.141 1738
-632.154 372.141 1738
-627.275 371.713 1736
-623.124 371.713 1736
-618.259 371.285 1734
-614.113 371.285 1734
-609.966 371.285 1734
-605.82 371.285 1734
-601.673 371.285 1734
-597.527 371.285 1734
-592.353 370.642 1731
-587.534 370.214 1729
-582.725 369.786 1727
-578.595 369.786 1727
-573.135 368.929 1723
-568.024 368.287 1720
-563.911 368.287 1720
-559.798 368.287 1720
-555.685 368.287 1720
-550.93 367.859 1718
-545.867 367.216 1715
-541.766 367.216 1715
-537.665 367.216 1715
-533.564 367.216 1715
-528.846 366.788 1713
-524.749 366.788 1713
-520.653 366.788 1713
-516.557 366.788 1713
-513.059 367.216 1715
-508.958 367.216 1715
-504.856 367.216 1715
-500.755 367.216 1715
-496.654 367.216 1715
-492.84 367.43 1716
-488.737 367.43 1716
-484.633 367.43 1716
-480.53 367.43 1716
-476.427 367.43 1716
-472.323 367.43 1716
-467.947 367.216 1715
-463.846 367.216 1715
-460.549 367.859 1718
-456.44 367.859 1718
-452.332 367.859 1718
-448.224 367.859 1718
-444.116 367.859 1718
-440.007 367.859 1718
-435.899 367.859 1718
-432.294 368.287 1720
-428.678 368.715 1722
-424.807 368.929 1723
-420.687 368.929 1723
-417.05 369.358 1725
-413.404 369.786 1727
-409.274 369.786 1727
-405.144 369.786 1727
-401.479 370.214 1729
-397.804 370.642 1731
-394.347 371.285 1734
-390.201 371.285 1734
-386.054 371.285 1734
-382.348 371.713 1736
-378.197 371.713 1736
-374.045 371.713 1736
-369.468 371.285 1734
-365.321 371.285 1734
-361.175 371.285 1734
-357.028 371.285 1734
-353.289 371.713 1736
-349.138 371.713 1736
-344.986 371.713 1736
-340.835 371.713 1736
-336.684 371.713 1736
-332.149 371.285 1734
-328.003 371.285 1734
-323.856 371.285 1734
-319.71 371.285 1734
-315.199 370.856 1732
-311.057 370.856 1732
-306.916 370.856 1732
-302.599 370.642 1731
-298.46 370.642 1731
-294.321 370.642 1731
-290.181 370.642 1731
-286.042 370.642 1731
-281.902 370.642 1731
-277.763 370.642 1731
-273.624 370.642 1731
-269.484 370.642 1731
-265.345 370.642 1731
-260.904 370.214 1729
-256.769 370.214 1729
-252.635 370.214 1729
-248.788 370.642 1731
-244.648 370.642 1731
-240.509 370.642 1731
-236.37 370.642 1731
-232.364 370.856 1732
-228.223 370.856 1732
-224.34 371.285 1734
-220.193 371.285 1734
-216.296 371.713 1736
-212.145 371.713 1736
-208.233 372.141 1738
-204.077 372.141 1738
-200.151 372.569 1740
-196.103 372.783 1741
-192.38 373.64 1745
-188.208 373.64 1745
-184.246 374.068 1747
-180.274 374.496 1749
-176.595 375.567 1754
-172.401 375.567 1754
-168.398 375.995 1756
-164.76 377.28 1762
-160.547 377.28 1762
-156.333 377.28 1762
-152.551 378.351 1767
-148.494 378.779 1769
-144.264 378.779 1769
-140.033 378.779 1769
-135.957 379.207 1771
-132.019 380.064 1775
-128.135 381.134 1780
-123.878 381.134 1780
-120.294 383.275 1790
-116.791 385.845 1802
-112.607 386.273 1804
-108.353 386.487 1805
-104.152 386.915 1807
-100.494 389.485 1819
-96.1438 389.485 1819
-192.217 815.584 3809
-183.109 815.584 3809
-174.001 815.584 3809
-164.892 815.584 3809
-157.215 823.078 3844
-148.023 823.078 3844
-138.831 823.078 3844
-129.639 823.078 3844
-120.164 821.151 3835
-110.502 817.511 3818
-101.372 817.511 3818
-91.1787 808.09 3774
-81.4138 800.81 3740
-72.0052 795.671 3716
-63.1192 795.671 3716
-53.7515 788.605 3683
-44.444 779.826 3642
-35.6662 778.327 3635
-26.9738 778.327 3635
-18.1205 771.475 3603
-9.44391 766.551 3580
-0.881075 764.838 3572
7.62849 761.626 3557
16.1344 761.626 3557
24.5848 759.913 3549
33.0063 758.414 3542
41.4763 758.414 3542
49.9463 758.414 3542
58.1689 755.202 3527
66.7352 756.701 3534
75.1861 756.701 3534
83.6369 756.701 3534
92.0878 756.701 3534
100.539 756.701 3534
108.99 756.701 3534
117.44 756.701 3534
125.642 755.202 3527
134.076 755.202 3527
142.227 753.703 3520
150.645 753.703 3520
159.062 753.703 3520
167.479 753.703 3520
175.897 753.703 3520
183.895 751.991 3512
192.294 751.991 3512
200.692 751.991 3512
209.566 753.703 3520
218.417 755.202 3527
227.302 756.701 3534
235.753 756.701 3534
244.756 758.414 3542
253.226 758.414 3542
262.213 759.913 3549
270.7 759.913 3549
279.816 761.626 3557
289.538 764.838 3572
298.08 764.838 3572
306.621 764.838 3572
315.163 764.838 3572
324.43 766.551 3580
332.991 766.551 3580
341.552 766.551 3580
350.112 766.551 3580
358.673 766.551 3580
367.234 766.551 3580
374.955 764.838 3572
382.745 763.339 3565
389.514 759.913 3549
398.001 759.913 3549
404.77 756.701 3534
411.584 753.703 3520
418.211 750.492 3505
423.915 745.781 3483
432.244 745.781 3483
436.905 739.572 3454
443.36 736.574 3440
448.829 732.077 3419
457.005 732.077 3419
460.419 724.583 3384
463.804 717.303 3350
469.984 714.519 3337
477.964 714.519 3337
483.905 711.522 3323
490.963 710.237 3317
498.895 710.237 3317
506.827 710.237 3317
513.672 708.738 3310
521.588 708.738 3310
529.503 708.738 3310
537.418 708.738 3310
547.475 711.522 3323
555.421 711.522 3323
564.554 713.021 3330
572.517 713.021 3330
580.48 713.021 3330
588.444 713.021 3330
596.407 713.021 3330
603.099 711.522 3323
611.045 711.522 3323
618.992 711.522 3323
629.579 714.519 3337
637.559 714.519 3337
645.539 714.519 3337
653.519 714.519 3337
661.498 714.519 3337
669.478 714.519 3337
677.458 714.519 3337
685.438 714.519 3337
694.664 715.804 3343
704.13 717.303 3350
712.141 717.303 3350
720.152 717.303 3350
728.162 717.303 3350
734.635 715.804 3343
742.629 715.804 3343
750.623 715.804 3343
758.617 715.804 3343
766.612 715.804 3343
774.606 715.804 3343
784.238 717.303 3350
792.249 717.303 3350
800.26 717.303 3350
808.271 717.303 3350
816.282 717.303 3350
824.293 717.303 3350
832.304 717.303 3350
840.315 717.303 3350
850.098 718.802 3357
858.126 718.802 3357
871.314 723.084 3377
883.035 726.082 3391
896.662 730.578 3412
904.821 730.578 3412
914.854 732.077 3419
932.478 739.572 3454
946.73 744.282 3476
955.042 744.282 3476
969.174 748.779 3497
983.966 753.703 3520
996.33 756.701 3534
1007.06 758.414 3542
1015.53 758.414 3542
1032.67 764.838 3572
1045.87 768.264 3588
1058.86 771.475 3603
1067.48 771.475 3603
1080.87 774.901 3619
1091.94 776.614 3627
1107.59 781.539 3650
1116.32 781.539 3650
1127.51 783.252 3658
1139.05 785.179 3667
1150.33 786.892 3675
1159.11 786.892 3675
1167.9 786.892 3675
1176.69 786.892 3675
1185.48 786.892 3675
1194.27 786.892 3675
1203.05 786.892 3675
1209.2 785.179 3667
1217.97 785.179 3667
1226.74 785.179 3667
1235.51 785.179 3667
1244.28 785.179 3667
1253.05 785.179 3667
1261.82 785.179 3667
1270.59 785.179 3667
1279.36 785.179 3667
1288.12 785.179 3667
1296.89 785.179 3667
1302.46 783.252 3658
1311.21 783.252 3658
1314.18 779.826 3642
1322.89 779.826 3642
1329.04 778.327 3635
1334.79 776.614 3627
1340.5 774.901 3619
1349.15 774.901 3619
1357.81 774.901 3619
1366.46 774.901 3619
1375.11 774.901 3619
1383.77 774.901 3619
1392.42 774.901 3619
1397.98 773.188 3611
1403.5 771.475 3603
1412.11 771.475 3603
1417.57 769.763 3595
1423.39 768.264 3588
1431.97 768.264 3588
1437.34 766.551 3580
1445.9 766.551 3580
1451.21 764.838 3572
1456.89 763.339 3565
1458.84 759.913 3549
1467.33 759.913 3549
1475.82 759.913 3549
1484.3 759.913 3549
1492.79 759.913 3549
1501.28 759.913 3549
1509.76 759.913 3549
1518.25 759.913 3549
1526.74 759.913 3549
1538.68 761.626 3557
1547.19 761.626 3557
1569.25 768.264 3588
1587.95 773.188 3611
1603.66 776.614 3627
1612.33 776.614 3627
1631.28 781.539 3650
1662.03 792.031 3699
1693.46 802.737 3749
1713.78 808.09 3774
1722.8 808.09 3774
1759.82 821.151 3835
1777.29 825.006 3853
1794.85 828.86 3871
1804.11 828.86 3871
1826.01 834.641 3898
1839.57 836.568 3907
1848.91 836.568 3907
1858.26 836.568 3907
1867.6 836.568 3907
1863.97 830.787 3880
1873.25 830.787 3880
1865.06 823.078 3844
1861.58 817.511 3818
1857.97 811.944 3792
1867.04 811.944 3792
1858.79 804.45 3757
1842.91 793.744 3707
1839.79 788.605 3683
1848.6 788.605 3683
1844.8 783.252 3658
1833.78 774.901 3619
1838.36 773.188 3611
1831.14 766.551 3580
1839.7 766.551 3580
1848.26 766.551 3580
1864.6 769.763 3595
1877.37 771.475 3603
1890.17 773.188 3611
1898.81 773.188 3611
1907.44 773.188 3611
1932.53 779.826 3642
1958.83 786.892 3675
1967.61 786.892 3675
1993.61 793.744 3707
2011.66 797.384 3724
2038.47 804.45 3757
2047.45 804.45 3757
2070.67 810.017 3783
2094.01 815.584 3809
2137.35 828.86 3871
2161.58 834.641 3898
2170.9 834.641 3898
2190.29 838.495 3916
2210.33 842.563 3935
2219.74 842.563 3935
2229.15 842.563 3935
2238.56 842.563 3935
2247.97 842.563 3935
2257.38 842.563 3935
2266.79 842.563 3935
2281.4 844.491 3944
2290.83 844.491 3944
2305.51 846.418 3953
2314.97 846.418 3953
2335.59 850.486 3972
2345.09 850.486 3972
2360.52 852.627 3982
2370.04 852.627 3982
2379.56 852.627 3982
2400.48 856.695 4001
2421.49 860.764 4020
2431.11 860.764 4020
2446.79 862.905 4030
2456.43 862.905 4030
2477.69 866.973 4049
2487.37 866.973 4049
2497.06 866.973 4049
2506.74 866.973 4049
2516.42 866.973 4049
2532.34 869.114 4059
2542.05 869.114 4059
2551.76 869.114 4059
2555.15 866.973 4049
2564.83 866.973 4049
2574.52 866.973 4049
2577.82 864.832 4039
2581.71 862.905 4030
2591.35 862.905 4030
2588.07 858.622 4010
2585.36 854.554 3991
2570.19 846.418 3953
2555.5 838.495 3916
2564.86 838.495 3916
2538.73 826.933 3862
2507.06 813.657 3800
2498.93 808.09 3774
2507.96 808.09 3774
2483.64 797.384 3724
2465.1 788.605 3683
2468.53 786.892 3675
2477.32 786.892 3675
529.6 155.023 724
531.332 155.023 724
533.063 155.023 724
534.056 154.809 723
535.784 154.809 723
535.283 154.167 720
537.005 154.167 720
538.726 154.167 720
540.448 154.167 720
542.17 154.167 720
543.892 154.167 720
545.613 154.167 720
547.335 154.167 720
549.057 154.167 720
550.779 154.167 720
-2352.49 680.293 3142
-2344.98 680.293 3142
-2333 678.994 3136
-2329.95 680.293 3142
-2322.44 680.293 3142
-2314.93 680.293 3142
-2307.41 680.293 3142
-2291.11 677.695 3130
-2279.25 676.395 3124
-2293.6 682.891 3154
-2286.06 682.891 3154
-2291.52 686.788 3172
-2305.53 693.284 3202
-2311.51 697.397 3221
-2303.81 697.397 3221
-2318.2 704.109 3252
-2333.16 711.038 3284
-2377 726.844 3357
-2368.97 726.844 3357
-2409.47 741.783 3426
-2456.65 758.888 3505
-2448.27 758.888 3505
-2450.33 762.136 3520
-2446.77 763.651 3527
-2464.6 771.879 3565
-2456.08 771.879 3565
-2457.85 775.127 3580
-2454.76 776.859 3588
-2450.96 778.374 3595
-2442.36 778.374 3595
-2433.76 778.374 3595
-2425.17 778.374 3595
-2416.57 778.374 3595
-2397.93 775.127 3580
-2389.36 775.127 3580
-2380.8 775.127 3580
-2387.48 780.107 3603
-2378.87 780.107 3603
-2370.25 780.107 3603
-2366.88 781.839 3611
-2358.24 781.839 3611
-2349.61 781.839 3611
-2340.97 781.839 3611
-2332.34 781.839 3611
-2323.7 781.839 3611
-2315.07 781.839 3611
-2311.54 783.571 3619
-2302.89 783.571 3619
-2299.31 785.303 3627
-2290.63 785.303 3627
-2286.99 787.035 3635
-2278.3 787.035 3635
-2269.61 787.035 3635
-2265.27 788.551 3642
-2256.56 788.551 3642
-2247.85 788.551 3642
-2244.06 790.283 3650
-2240.23 792.015 3658
-2231.49 792.015 3658
-2222.74 792.015 3658
-2213.99 792.015 3658
-2210.67 793.964 3667
-2201.9 793.964 3667
-2197.92 795.696 3675
-2189.13 795.696 3675
-2185.09 797.428 3683
-2176.28 797.428 3683
-2167.47 797.428 3683
-2158.67 797.428 3683
-2149.86 797.428 3683
-2141.05 797.428 3683
-2141.51 800.892 3699
-2132.66 800.892 3699
-2123.82 800.892 3699
-2114.97 800.892 3699
-2101.57 799.16 3691
-2088.21 797.428 3683
-2079.4 797.428 3683
-2061.6 793.964 3667
-2047.79 792.015 3658
-2039.04 792.015 3658
-2039.73 795.696 3675
-2030.94 795.696 3675
-2022.16 795.696 3675
-2004.05 792.015 3658
-1995.31 792.015 3658
-1974.07 787.035 3635
-1969.16 788.551 3642
-1964.76 790.283 3650
-1956.03 790.283 3650
-1947.3 790.283 3650
-1942.82 792.015 3658
-1934.07 792.015 3658
-1925.33 792.015 3658
-1904.53 787.035 3635
-1887.49 783.571 3619
-1882.99 785.303 3627
-1882.07 788.551 3642
-1873.36 788.551 3642
-1868.75 790.283 3650
-1868.68 793.964 3667
-1859.91 793.964 3667
-1851.14 793.964 3667
-1833.83 790.283 3650
-1817.61 787.035 3635
-1808.91 787.035 3635
-1792.3 783.571 3619
-1775.76 780.107 3603
-1763.22 778.374 3595
-1754.62 778.374 3595
-1742.62 776.859 3588
-1734.04 776.859 3588
-1728.83 778.374 3595
-1720.23 778.374 3595
-1711.64 778.374 3595
-1703.04 778.374 3595
-1694.44 778.374 3595
-1693.35 781.839 3611
-1684.71 781.839 3611
-1676.08 781.839 3611
-1667.44 781.839 3611
-1655.13 780.107 3603
-1646.52 780.107 3603
-1637.9 780.107 3603
-1632.9 781.839 3611
-1624.27 781.839 3611
-1615.63 781.839 3611
-1607 781.839 3611
-1601.91 783.571 3619
-1593.25 783.571 3619
-1591.6 787.035 3635
-1582.91 787.035 3635
-1574.22 787.035 3635
-1565.53 787.035 3635
-1556.83 787.035 3635
-1544.73 785.303 3627
-1529.28 781.839 3611
-1517.28 780.107 3603
-1508.67 780.107 3603
-1500.05 780.107 3603
-1485.22 776.859 3588
-1473.35 775.127 3580
-1464.79 775.127 3580
-1450.13 771.879 3565
-1441.6 771.879 3565
-1433.08 771.879 3565
-1424.55 771.879 3565
-1416.03 771.879 3565
-1404.35 770.147 3557
-1395.84 770.147 3557
-1387.33 770.147 3557
-1378.83 770.147 3557
-1379.18 775.127 3580
-1370.62 775.127 3580
-1362.06 775.127 3580
-635.577 375.871 1736
-631.426 375.871 1736
-627.275 375.871 1736
-623.124 375.871 1736
-617.546 375.005 1732
-613.404 375.005 1732
-609.263 375.005 1732
-605.121 375.005 1732
-600.632 374.789 1731
-596.493 374.789 1731
-592.353 374.789 1731
-587.534 374.356 1729
-581.375 373.057 1723
-577.255 373.057 1723
-573.135 373.057 1723
-568.024 372.407 1720
-563.911 372.407 1720
-559.798 372.407 1720
-555.685 372.407 1720
-550.93 371.974 1718
-545.867 371.325 1715
-541.766 371.325 1715
-537.665 371.325 1715
-533.564 371.325 1715
-528.846 370.892 1713
-524.749 370.892 1713
-520.653 370.892 1713
-516.557 370.892 1713
-513.059 371.325 1715
-508.958 371.325 1715
-504.856 371.325 1715
-500.755 371.325 1715
-496.654 371.325 1715
-492.84 371.541 1716
-488.737 371.541 1716
-484.633 371.541 1716
-480.53 371.541 1716
-476.427 371.541 1716
-472.323 371.541 1716
-467.947 371.325 1715
-463.846 371.325 1715
-461.621 372.84 1722
-457.503 372.84 1722
-453.385 372.84 1722
-449.268 372.84 1722
-445.15 372.84 1722
-441.288 373.057 1723
-437.168 373.057 1723
-433.55 373.49 1725
-429.425 373.49 1725
-425.793 373.923 1727
-421.664 373.923 1727
-417.534 373.923 1727
-414.362 374.789 1731
-410.459 375.005 1732
-406.317 375.005 1732
-403.105 375.871 1736
-398.953 375.871 1736
-395.712 376.738 1740
-391.551 376.738 1740
-387.39 376.738 1740
-383.229 376.738 1740
-379.068 376.738 1740
-374.907 376.738 1740
-370.746 376.738 1740
-366.586 376.738 1740
-362.425 376.738 1740
-358.264 376.738 1740
-354.306 376.954 1741
-350.143 376.954 1741
-345.98 376.954 1741
-341.817 376.954 1741
-337.459 376.738 1740
-333.299 376.738 1740
-329.138 376.738 1740
-324.977 376.738 1740
-320.447 376.305 1738
-316.291 376.305 1738
-312.135 376.305 1738
-307.625 375.871 1736
-302.774 375.005 1732
-298.632 375.005 1732
-294.491 375.005 1732
-290.181 374.789 1731
-286.042 374.789 1731
-281.902 374.789 1731
-277.763 374.789 1731
-273.624 374.789 1731
-269.484 374.789 1731
-265.345 374.789 1731
-261.206 374.789 1731
-257.066 374.789 1731
-252.927 374.789 1731
-248.788 374.789 1731
-244.648 374.789 1731
-240.509 374.789 1731
-236.37 374.789 1731
-232.364 375.005 1732
-228.223 375.005 1732
-224.34 375.438 1734
-220.193 375.438 1734
-216.296 375.871 1736
-212.389 376.305 1738
-208.473 376.738 1740
-204.312 376.738 1740
-200.266 376.954 1741
-196.553 377.82 1745
-192.601 378.253 1747
-188.423 378.253 1747
-184.246 378.253 1747
-180.48 379.119 1751
-176.797 380.202 1756
-172.597 380.202 1756
-168.59 380.635 1758
-164.76 381.501 1762
-160.638 381.717 1763
-156.422 381.717 1763
-152.551 382.583 1767
-148.494 383.016 1769
-144.427 383.45 1771
-140.192 383.45 1771
-135.957 383.45 1771
-132.168 384.749 1777
-128.279 385.831 1782
-124.017 385.831 1782
-120.294 387.563 1790
-116.791 390.161 1802
-112.607 390.595 1804
-108.353 390.811 1805
-104.152 391.244 1807
-212.865 834.235 3853
-203.652 834.235 3853
-194.438 834.235 3853
-185.224 834.235 3853
-176.011 834.235 3853
-164.892 824.709 3809
-157.215 832.287 3844
-148.023 832.287 3844
-138.831 832.287 3844
-129.639 832.287 3844
-120.164 830.338 3835
-110.502 826.657 3818
-101.372 826.657 3818
-91.1787 817.131 3774
-81.4138 809.769 3740
-72.0052 804.573 3716
-63.1192 804.573 3716
-53.7515 797.428 3683
-44.444 788.551 3642
-35.6662 787.035 3635
-26.9738 787.035 3635
-18.1205 780.107 3603
-9.44391 775.127 3580
-0.881075 773.395 3572
7.62849 770.147 3557
16.1344 770.147 3557
24.5848 768.415 3549
33.0063 766.899 3542
41.4763 766.899 3542
49.9463 766.899 3542
58.1689 763.651 3527
66.7352 765.167 3534
75.1861 765.167 3534
83.6369 765.167 3534
92.0878 765.167 3534
100.539 765.167 3534
108.99 765.167 3534
117.44 765.167 3534
125.642 763.651 3527
134.076 763.651 3527
142.227 762.136 3520
150.645 762.136 3520
159.062 762.136 3520
167.479 762.136 3520
175.897 762.136 3520
183.895 760.404 3512
192.294 760.404 3512
200.692 760.404 3512
209.566 762.136 3520
218.417 763.651 3527
227.302 765.167 3534
235.753 765.167 3534
244.756 766.899 3542
253.226 766.899 3542
262.213 768.415 3549
270.7 768.415 3549
279.816 770.147 3557
289.538 773.395 3572
298.08 773.395 3572
306.621 773.395 3572
315.869 775.127 3580
324.43 775.127 3580
332.991 775.127 3580
341.552 775.127 3580
350.112 775.127 3580
358.673 775.127 3580
367.234 775.127 3580
375.795 775.127 3580
382.745 771.879 3565
389.514 768.415 3549
398.001 768.415 3549
404.77 765.167 3534
411.584 762.136 3520
418.211 758.888 3505
423.915 754.125 3483
432.244 754.125 3483
436.905 747.846 3454
443.36 744.814 3440
448.829 740.268 3419
457.005 740.268 3419
460.419 732.69 3384
463.804 725.328 3350
469.984 722.513 3337
477.964 722.513 3337
483.905 719.482 3323
490.963 718.183 3317
498.895 718.183 3317
506.827 718.183 3317
513.672 716.667 3310
521.588 716.667 3310
529.503 716.667 3310
537.418 716.667 3310
547.475 719.482 3323
555.421 719.482 3323
564.554 720.998 3330
572.517 720.998 3330
580.48 720.998 3330
588.444 720.998 3330
596.407 720.998 3330
604.37 720.998 3330
612.333 720.998 3330
620.296 720.998 3330
629.579 722.513 3337
637.559 722.513 3337
645.539 722.513 3337
653.519 722.513 3337
661.498 722.513 3337
669.478 722.513 3337
677.458 722.513 3337
685.438 722.513 3337
694.664 723.812 3343
704.13 725.328 3350
712.141 725.328 3350
720.152 725.328 3350
728.162 725.328 3350
734.635 723.812 3343
742.629 723.812 3343
750.623 723.812 3343
758.617 723.812 3343
766.612 723.812 3343
774.606 723.812 3343
782.6 723.812 3343
789.175 722.513 3337
798.588 723.812 3343
806.582 723.812 3343
814.576 723.812 3343
822.57 723.812 3343
830.565 723.812 3343
838.559 723.812 3343
848.325 725.328 3350
856.336 725.328 3350
869.507 729.658 3370
881.212 732.69 3384
894.823 737.236 3405
902.965 737.236 3405
914.854 740.268 3419
932.478 747.846 3454
944.551 750.877 3468
952.844 750.877 3468
969.174 757.156 3497
983.966 762.136 3520
996.33 765.167 3534
1007.06 766.899 3542
1015.53 766.899 3542
1032.67 773.395 3572
1045.87 776.859 3588
1058.86 780.107 3603
1067.48 780.107 3603
1080.87 783.571 3619
1094.34 787.035 3635
1110.02 792.015 3658
1118.76 792.015 3658
1127.51 792.015 3658
1141.54 795.696 3675
1150.33 795.696 3675
1159.11 795.696 3675
1170.45 797.428 3683
1179.25 797.428 3683
1188.06 797.428 3683
1194.27 795.696 3675
1203.05 795.696 3675
1209.2 793.964 3667
1217.97 793.964 3667
1226.74 793.964 3667
1238.21 795.696 3675
1246.99 795.696 3675
1255.78 795.696 3675
1264.57 795.696 3675
1273.36 795.696 3675
1282.15 795.696 3675
1290.94 795.696 3675
1299.72 795.696 3675
1305.66 793.964 3667
1311.21 792.015 3658
1317.07 790.283 3650
1325.79 790.283 3650
1331.6 788.551 3642
1337.73 787.035 3635
1343.46 785.303 3627
1352.13 785.303 3627
1357.81 783.571 3619
1366.46 783.571 3619
1375.11 783.571 3619
1383.77 783.571 3619
1392.42 783.571 3619
1397.98 781.839 3611
1403.5 780.107 3603
1412.11 780.107 3603
1417.57 778.374 3595
1423.39 776.859 3588
1428.78 775.127 3580
1434.13 773.395 3572
1442.67 773.395 3572
1448.37 771.879 3565
1450.36 768.415 3549
1458.84 768.415 3549
1467.33 768.415 3549
1469.58 765.167 3534
1475.1 763.651 3527
1483.54 763.651 3527
1491.97 763.651 3527
1497.43 762.136 3520
1508.84 763.651 3527
1526.74 768.415 3549
1538.68 770.147 3557
1547.19 770.147 3557
1569.25 776.859 3588
1587.95 781.839 3611
1603.66 785.303 3627
1612.33 785.303 3627
1631.28 790.283 3650
1662.03 800.892 3699
1701.14 815.399 3766
1713.78 817.131 3774
1731.02 821.028 3792
1763.95 832.287 3844
1781.44 836.184 3862
1807.37 843.979 3898
1816.69 843.979 3898
1830.23 845.927 3907
1843.81 847.876 3916
1853.17 847.876 3916
1862.54 847.876 3916
1871.9 847.876 3916
1868.3 842.03 3889
1877.6 842.03 3889
1869.43 834.235 3853
1865.48 828.39 3826
1866.3 824.709 3809
1875.41 824.709 3809
1863.24 815.399 3766
1842.91 802.624 3707
1843.79 799.16 3691
1852.61 799.16 3691
1844.8 792.015 3658
1845.44 788.551 3642
1842.44 783.571 3619
1838.81 778.374 3595
1847.41 778.374 3595
1856.01 778.374 3595
1872.9 781.839 3611
1885.71 783.571 3619
1894.36 783.571 3619
1903.02 783.571 3619
1911.67 783.571 3619
1932.53 788.551 3642
1967.35 799.16 3691
1976.18 799.16 3691
1998.45 804.573 3716
2015.98 808.037 3732
2038.47 813.45 3757
2047.45 813.45 3757
2070.67 819.079 3783
2094.01 824.709 3809
2142.32 840.081 3880
2161.58 843.979 3898
2170.9 843.979 3898
2190.29 847.876 3916
2210.33 851.99 3935
2219.74 851.99 3935
2229.15 851.99 3935
2238.56 851.99 3935
2247.97 851.99 3935
2257.38 851.99 3935
2266.79 851.99 3935
2276.2 851.99 3935
2290.83 853.938 3944
2305.51 855.887 3953
2314.97 855.887 3953
2335.59 860.001 3972
2345.09 860.001 3972
2360.52 862.166 3982
2370.04 862.166 3982
2384.94 864.115 3991
2400.48 866.28 4001
2427.52 872.559 4030
2437.15 872.559 4030
2446.79 872.559 4030
2461.91 874.507 4039
2477.69 876.673 4049
2487.37 876.673 4049
2497.06 876.673 4049
2506.74 876.673 4049
2516.42 876.673 4049
2532.34 878.838 4059
2542.05 878.838 4059
2551.76 878.838 4059
2561.46 878.838 4059
2571.17 878.838 4059
2574.52 876.673 4049
2577.82 874.507 4039
2581.71 872.559 4030
2591.35 872.559 4030
2600.98 872.559 4030
2591.83 866.28 4001
2589.05 862.166 3982
2598.57 862.166 3982
2583.2 853.938 3944
2550.56 840.081 3880
2547.97 836.184 3862
2516.15 822.76 3800
2525.24 822.76 3800
2516.98 817.131 3774
2475.81 800.892 3699
2473.91 797.428 3683
2482.71 797.428 3683
2486.11 795.696 3675
528.396 155.891 720
530.118 155.891 720
531.84 155.891 720
533.561 155.891 720
535.283 155.891 720
537.005 155.891 720
537.978 155.675 719
539.698 155.675 719
542.17 155.891 720
543.892 155.891 720
545.613 155.891 720
547.335 155.891 720
549.057 155.891 720
550.779 155.891 720
-2348 686.506 3136
-2340.5 686.506 3136
-2333 686.506 3136
-2325.5 686.506 3136
-2318 686.506 3136
-2310.5 686.506 3136
-2303.01 686.506 3136
-2291.11 685.192 3130
-2279.25 683.879 3124
-2293.6 690.446 3154
-2286.06 690.446 3154
-2291.52 694.387 3172
-2305.53 700.954 3202
-2311.51 705.113 3221
