-30.4725 -428.104 1794
-26.2409 -429.058 1798
-21.9413 -429.058 1798
-17.6417 -429.058 1798
241.656 -968.603 4059
251.363 -968.603 4059
261.069 -968.603 4059
269.441 -963.83 4039
278.478 -961.682 4030
288.115 -961.682 4030
297.013 -959.296 4020
306.626 -959.296 4020
314.744 -954.762 4001
324.312 -954.762 4001
332.294 -950.228 3982
338.554 -941.16 3944
344.721 -932.331 3907
350.801 -923.74 3871
360.058 -923.74 3871
365.88 -915.149 3835
375.051 -915.149 3835
385.123 -917.297 3844
395.238 -919.445 3853
404.452 -919.445 3853
413.666 -919.445 3853
423.867 -921.592 3862
437.14 -930.183 3898
446.461 -930.183 3898
457.887 -934.478 3916
467.251 -934.478 3916
476.616 -934.478 3916
483.746 -930.183 3898
494.206 -932.331 3907
507.157 -939.012 3935
518.93 -943.308 3953
528.383 -943.308 3953
537.836 -943.308 3953
547.289 -943.308 3953
556.741 -943.308 3953
1741.83 -966.216 4049
1760.16 -970.989 4069
1769.9 -970.989 4069
1779.63 -970.989 4069
1789.36 -970.989 4069
1799.09 -970.989 4069
1804.37 -968.603 4059
1801.12 -961.682 4030
1810.75 -961.682 4030
1820.39 -961.682 4030
1790.97 -941.16 3944
1754.76 -917.297 3844
1763.95 -917.297 3844
1757 -908.945 3809
1766.1 -908.945 3809
1771.02 -906.797 3800
1780.11 -906.797 3800
1781.19 -902.741 3783
1790.23 -902.741 3783
1786.91 -896.536 3757
3100.81 -973.375 4079
3110.56 -973.375 4079
3120.31 -973.375 4079
-2441.36 -854.936 3619
-2432.7 -854.936 3619
-2424.05 -854.936 3619
-2415.39 -854.936 3619
-2406.74 -854.936 3619
-2392.78 -853.046 3611
-2384.15 -853.046 3611
-2370.25 -851.156 3603
-2361.64 -851.156 3603
-2358.24 -853.046 3611
-2360.02 -856.826 3627
-2351.35 -856.826 3627
-2342.67 -856.826 3627
-2334 -856.826 3627
-2325.33 -856.826 3627
-2316.65 -856.826 3627
-2307.98 -856.826 3627
-2294.24 -854.936 3619
-2285.58 -854.936 3619
-672.08 -439.398 1860
-667.632 -439.398 1860
-663.185 -439.398 1860
-658.737 -439.398 1860
-654.289 -439.398 1860
-647.046 -437.508 1852
-642.617 -437.508 1852
-634.398 -434.909 1841
-628.627 -433.964 1837
-622.195 -432.547 1831
-617.817 -432.547 1831
-612.768 -432.074 1829
-607.064 -431.13 1825
-601.379 -430.185 1821
-597.024 -430.185 1821
-592.019 -429.712 1819
-586.377 -428.767 1815
-578.83 -426.405 1805
-572.285 -424.751 1798
-567.986 -424.751 1798
-561.805 -423.334 1792
-554.409 -420.971 1782
-547.369 -418.845 1773
-543.129 -418.845 1773
-534.938 -415.774 1760
-528.317 -413.884 1752
-522.033 -412.231 1745
-517.861 -412.231 1745
-511.627 -410.577 1738
-506.303 -409.632 1734
-500.129 -407.978 1727
-496 -407.978 1727
-490.731 -407.034 1723
-485.763 -406.325 1720
-481.09 -405.852 1718
-476.149 -405.144 1715
-472.048 -405.144 1715
-466.855 -404.199 1711
-462.223 -403.726 1709
-457.868 -403.49 1708
-453.784 -403.49 1708
-449.699 -403.49 1708
-445.615 -403.49 1708
-441.531 -403.49 1708
-437.446 -403.49 1708
-433.362 -403.49 1708
-429.278 -403.49 1708
-425.193 -403.49 1708
-421.109 -403.49 1708
-417.025 -403.49 1708
-412.94 -403.49 1708
-408.856 -403.49 1708
-404.772 -403.49 1708
-400.218 -403.017 1706
-396.138 -403.017 1706
-392.059 -403.017 1706
-387.979 -403.017 1706
-383.9 -403.017 1706
-379.82 -403.017 1706
-375.3 -402.545 1704
-371.225 -402.545 1704
-367.151 -402.545 1704
-363.076 -402.545 1704
-359.001 -402.545 1704
-354.926 -402.545 1704
-350.44 -402.073 1702
-346.37 -402.073 1702
-342.099 -401.836 1701
-337.236 -400.891 1697
-333.178 -400.891 1697
-329.12 -400.891 1697
-324.487 -400.183 1694
-320.058 -399.71 1692
-316.012 -399.71 1692
-311.966 -399.71 1692
-307.92 -399.71 1692
-303.515 -399.238 1690
-299.473 -399.238 1690
-295.432 -399.238 1690
-291.391 -399.238 1690
-287.349 -399.238 1690
-283.308 -399.238 1690
-279.267 -399.238 1690
-275.551 -399.71 1692
-271.505 -399.71 1692
-267.459 -399.71 1692
-263.413 -399.71 1692
-259.673 -400.183 1694
-255.773 -400.419 1695
-252.017 -400.891 1697
-247.959 -400.891 1697
-244.189 -401.364 1699
-240.832 -402.545 1704
-237.035 -403.017 1706
-232.956 -403.017 1706
-229.547 -404.199 1711
-225.719 -404.671 1713
-222.011 -405.38 1716
-217.908 -405.38 1716
-214.302 -406.325 1720
-210.434 -406.797 1722
-206.675 -407.506 1725
-202.55 -407.506 1725
-198.655 -407.978 1727
-194.751 -408.451 1729
-190.947 -409.16 1732
-186.805 -409.16 1732
-182.664 -409.16 1732
-178.728 -409.632 1734
-174.984 -410.577 1738
-171.025 -411.049 1740
-166.864 -411.049 1740
-162.703 -411.049 1740
-158.633 -411.286 1741
-154.825 -412.231 1745
-150.652 -412.231 1745
-146.479 -412.231 1745
-142.47 -412.703 1747
-138.45 -413.176 1749
-134.268 -413.176 1749
-130.234 -413.648 1751
-126.047 -413.648 1751
-121.929 -413.884 1752
-117.74 -413.884 1752
-113.68 -414.357 1754
-109.735 -415.302 1758
-105.531 -415.302 1758
-101.327 -415.302 1758
-97.3998 -416.483 1763
-93.2897 -416.955 1765
-89.069 -416.955 1765
-84.8484 -416.955 1765
-80.9018 -418.373 1771
-76.84 -419.318 1775
-72.6772 -419.79 1777
-68.4278 -419.79 1777
-64.1785 -419.79 1777
-59.9292 -419.79 1777
-55.7425 -420.263 1779
-51.4883 -420.263 1779
-47.3139 -420.971 1782
-43.1009 -421.444 1784
-38.8783 -421.916 1786
-34.6075 -421.916 1786
-30.4725 -423.806 1794
-26.2409 -424.751 1798
-21.9413 -424.751 1798
-17.6417 -424.751 1798
241.656 -958.879 4059
251.363 -958.879 4059
261.069 -958.879 4059
269.441 -954.155 4039
278.478 -952.028 4030
288.115 -952.028 4030
297.013 -949.666 4020
306.626 -949.666 4020
313.957 -942.815 3991
323.501 -942.815 3991
332.294 -940.689 3982
335.378 -922.971 3907
343.133 -918.719 3889
349.17 -910.215 3853
358.384 -910.215 3853
365.88 -905.963 3835
371.628 -897.694 3800
380.715 -897.694 3800
390.725 -899.82 3809
399.833 -899.82 3809
408.942 -899.82 3809
420.904 -905.963 3835
433.102 -912.341 3862
442.338 -912.341 3862
454.73 -918.719 3889
464.03 -918.719 3889
473.329 -918.719 3889
482.629 -918.719 3889
493.067 -920.845 3898
505.869 -927.224 3925
518.93 -933.838 3953
528.383 -933.838 3953
537.836 -933.838 3953
1750.43 -961.242 4069
1764.49 -963.604 4079
1774.24 -963.604 4079
1784 -963.604 4079
1793.75 -963.604 4079
1803.51 -963.604 4079
1808.82 -961.242 4069
1809.61 -956.517 4049
1810.75 -952.028 4030
1820.39 -952.028 4030
1795.06 -933.838 3953
1791.73 -927.224 3925
1780.47 -916.593 3880
1789.75 -916.593 3880
1794.85 -914.467 3871
1791.52 -908.089 3844
1800.72 -908.089 3844
1801.43 -903.836 3826
1810.58 -903.836 3826
1815.93 -901.947 3818
3110.56 -963.604 4079
3120.31 -963.604 4079
-2435.96 -844.396 3611
-2427.32 -844.396 3611
-2418.69 -844.396 3611
-2404.72 -842.525 3603
-2396.1 -842.525 3603
-2382.18 -840.654 3595
-2373.59 -840.654 3595
-2364.99 -840.654 3595
-2361.64 -842.525 3603
-2358.24 -844.396 3611
-2360.02 -848.137 3627
-2351.35 -848.137 3627
-2342.67 -848.137 3627
-2334 -848.137 3627
-2325.33 -848.137 3627
-2316.65 -848.137 3627
-2307.98 -848.137 3627
-2294.24 -846.266 3619
-2285.58 -846.266 3619
-672.08 -434.942 1860
-667.632 -434.942 1860
-663.185 -434.942 1860
-658.737 -434.942 1860
-652.882 -434.007 1856
-646.347 -432.604 1850
-641.923 -432.604 1850
-633.709 -430.031 1839
-627.258 -428.628 1833
-621.516 -427.693 1829
-617.142 -427.693 1829
-612.098 -427.225 1827
-607.064 -426.758 1825
-601.379 -425.822 1821
-597.024 -425.822 1821
-591.368 -424.887 1817
-585.731 -423.952 1813
-578.509 -421.847 1804
-571.012 -419.509 1794
-566.722 -419.509 1794
-560.551 -418.106 1788
-553.475 -416.001 1779
-546.752 -414.13 1771
-542.517 -414.13 1771
-534.33 -411.09 1758
-528.016 -409.454 1751
-520.837 -407.115 1741
-516.674 -407.115 1741
-511.038 -405.946 1736
-505.427 -404.777 1731
-498.971 -402.906 1723
-494.851 -402.906 1723
-490.446 -402.672 1722
-485.198 -401.737 1718
-480.25 -401.035 1715
-475.594 -400.568 1713
-471.497 -400.568 1713
-466.855 -400.1 1711
-461.952 -399.398 1708
-457.868 -399.398 1708
-453.784 -399.398 1708
-449.173 -398.931 1706
-445.093 -398.931 1706
-441.014 -398.931 1706
-436.934 -398.931 1706
-432.854 -398.931 1706
-429.278 -399.398 1708
-425.193 -399.398 1708
-421.109 -399.398 1708
-416.536 -398.931 1706
-412.457 -398.931 1706
-408.377 -398.931 1706
-404.298 -398.931 1706
-400.218 -398.931 1706
-396.138 -398.931 1706
-391.599 -398.463 1704
-387.524 -398.463 1704
-383.45 -398.463 1704
-379.375 -398.463 1704
-374.86 -397.995 1702
-370.79 -397.995 1702
-366.72 -397.995 1702
-362.65 -397.995 1702
-358.58 -397.995 1702
-354.51 -397.995 1702
-350.234 -397.762 1701
-346.166 -397.762 1701
-341.696 -397.294 1699
-337.236 -396.826 1697
-333.178 -396.826 1697
-328.732 -396.359 1695
-324.487 -396.125 1694
-320.058 -395.657 1692
-316.012 -395.657 1692
-311.966 -395.657 1692
-307.556 -395.189 1690
-303.515 -395.189 1690
-299.473 -395.189 1690
-295.432 -395.189 1690
-291.391 -395.189 1690
-287.349 -395.189 1690
-283.308 -395.189 1690
-279.267 -395.189 1690
-275.225 -395.189 1690
-271.505 -395.657 1692
-267.459 -395.657 1692
-263.413 -395.657 1692
-259.673 -396.125 1694
-255.773 -396.359 1695
-252.017 -396.826 1697
-247.959 -396.826 1697
-244.189 -397.294 1699
-240.832 -398.463 1704
-237.035 -398.931 1706
-232.956 -398.931 1706
-229.547 -400.1 1711
-225.719 -400.568 1713
-222.011 -401.269 1716
-217.908 -401.269 1716
-214.302 -402.205 1720
-210.434 -402.672 1722
-206.436 -402.906 1723
-202.316 -402.906 1723
-198.655 -403.841 1727
-194.751 -404.309 1729
-190.837 -404.777 1731
-186.805 -405.011 1732
-182.664 -405.011 1732
-178.728 -405.478 1734
-174.984 -406.414 1738
-171.025 -406.881 1740
-166.864 -406.881 1740
-162.703 -406.881 1740
-158.633 -407.115 1741
-154.825 -408.051 1745
-150.652 -408.051 1745
-146.479 -408.051 1745
-142.47 -408.518 1747
-138.45 -408.986 1749
-134.268 -408.986 1749
-130.234 -409.454 1751
-126.047 -409.454 1751
-121.929 -409.687 1752
-117.74 -409.687 1752
-113.68 -410.155 1754
-109.735 -411.09 1758
-105.531 -411.09 1758
-101.327 -411.09 1758
-97.3998 -412.26 1763
-93.1839 -412.26 1763
-89.069 -412.727 1765
-84.8484 -412.727 1765
-80.9018 -414.13 1771
-76.7534 -414.598 1773
-72.5954 -415.066 1775
-68.3508 -415.066 1775
-64.1063 -415.066 1775
-59.8617 -415.066 1775
-55.6798 -415.533 1777
-51.4305 -415.533 1777
-47.3139 -416.703 1782
-43.1009 -417.17 1784
-38.8783 -417.638 1786
-34.6075 -417.638 1786
-30.5404 -420.444 1798
-26.2701 -420.912 1800
-21.9657 -420.912 1800
-17.6614 -420.912 1800
-13.357 -420.912 1800
242.252 -951.494 4069
251.982 -951.494 4069
261.712 -951.494 4069
270.775 -949.156 4059
279.099 -944.479 4039
288.758 -944.479 4039
297.751 -942.375 4030
306.626 -940.036 4020
313.957 -933.255 3991
323.501 -933.255 3991
326.786 -915.717 3916
333.833 -909.403 3889
339.956 -900.985 3853
347.539 -896.776 3835
356.709 -896.776 3835
363.399 -890.696 3809
369.965 -884.616 3783
378.11 -882.512 3774
387.135 -882.512 3774
396.159 -882.512 3774
407.117 -886.721 3792
418.05 -890.696 3809
430.074 -896.776 3835
439.245 -896.776 3835
452.625 -905.194 3871
461.882 -905.194 3871
471.139 -905.194 3871
480.395 -905.194 3871
488.514 -903.089 3862
501.229 -909.403 3889
511.71 -911.508 3898
521.031 -911.508 3898
530.353 -911.508 3898
1750.43 -951.494 4069
1764.49 -953.833 4079
1774.24 -953.833 4079
1784 -953.833 4079
1793.75 -953.833 4079
1803.51 -953.833 4079
1808.82 -951.494 4069
1809.61 -946.818 4049
1814.8 -944.479 4039
1824.46 -944.479 4039
1795.06 -924.369 3953
1800.41 -922.264 3944
1780.47 -907.299 3880
1789.75 -907.299 3880
1799.02 -907.299 3880
1808.3 -907.299 3880
1817.58 -907.299 3880
1814.15 -900.985 3853
1823.36 -900.985 3853
1819.73 -894.671 3826
1825.06 -892.8 3818
3110.56 -953.833 4079
3120.31 -953.833 4079
-2399.53 -823.247 3557
-2396.4 -825.099 3565
-2387.88 -825.099 3565
-2379.35 -825.099 3565
-2370.83 -825.099 3565
-2362.3 -825.099 3565
-2368.96 -830.422 3588
-2360.38 -830.422 3588
-2361.64 -833.894 3603
-2358.24 -835.745 3611
-2360.02 -839.449 3627
-2351.35 -839.449 3627
-2342.67 -839.449 3627
-2339.15 -841.3 3635
-2330.46 -841.3 3635
-2321.76 -841.3 3635
-2307.98 -839.449 3627
-2294.24 -837.597 3619
-2285.58 -837.597 3619
-666.914 -430.024 1858
-662.471 -430.024 1858
-658.028 -430.024 1858
-652.882 -429.561 1856
-647.046 -428.635 1852
-642.617 -428.635 1852
-633.02 -425.163 1837
-627.258 -424.237 1833
-620.836 -422.849 1827
-616.467 -422.849 1827
-611.428 -422.386 1825
-607.064 -422.386 1825
-600.058 -420.534 1817
-595.713 -420.534 1817
-590.066 -419.609 1813
-585.084 -419.146 1811
-577.226 -416.6 1800
-569.102 -413.822 1788
-564.827 -413.822 1788
-559.297 -412.897 1784
-551.609 -410.351 1773
-545.517 -408.962 1767
-541.291 -408.962 1767
-532.507 -405.49 1752
-526.809 -404.333 1747
-520.538 -402.713 1740
-516.377 -402.713 1740
-509.861 -400.862 1732
-504.843 -400.167 1729
-498.681 -398.547 1722
-494.564 -398.547 1722
-489.876 -398.084 1720
-484.633 -397.158 1716
-479.69 -396.464 1713
-475.038 -396.001 1711
-470.947 -396.001 1711
-466.31 -395.538 1709
-461.952 -395.307 1708
-457.332 -394.844 1706
-453.252 -394.844 1706
-449.173 -394.844 1706
-445.093 -394.844 1706
-441.014 -394.844 1706
-436.934 -394.844 1706
-432.854 -394.844 1706
-428.775 -394.844 1706
-424.695 -394.844 1706
-420.616 -394.844 1706
-416.048 -394.381 1704
-411.973 -394.381 1704
-407.898 -394.381 1704
-403.824 -394.381 1704
-399.749 -394.381 1704
-395.674 -394.381 1704
-391.599 -394.381 1704
-387.524 -394.381 1704
-383 -393.918 1702
-378.93 -393.918 1702
-374.86 -393.918 1702
-370.79 -393.918 1702
-366.72 -393.918 1702
-362.65 -393.918 1702
-358.369 -393.687 1701
-354.301 -393.687 1701
-349.822 -393.224 1699
-345.759 -393.224 1699
-341.294 -392.761 1697
-336.839 -392.298 1695
-332.785 -392.298 1695
-328.732 -392.298 1695
-324.487 -392.067 1694
-320.058 -391.604 1692
-316.012 -391.604 1692
-311.597 -391.141 1690
-307.556 -391.141 1690
-303.515 -391.141 1690
-299.473 -391.141 1690
-295.432 -391.141 1690
-291.218 -390.909 1689
-287.179 -390.909 1689
-283.14 -390.909 1689
-279.101 -390.909 1689
-275.225 -391.141 1690
-271.184 -391.141 1690
-267.459 -391.604 1692
-263.413 -391.604 1692
-259.367 -391.604 1692
-255.622 -392.067 1694
-251.72 -392.298 1695
-247.667 -392.298 1695
-243.901 -392.761 1697
-240.832 -394.381 1704
-237.035 -394.844 1706
-232.956 -394.844 1706
-229.547 -396.001 1711
-225.719 -396.464 1713
-222.011 -397.158 1716
-217.908 -397.158 1716
-214.302 -398.084 1720
-210.434 -398.547 1722
-206.436 -398.779 1723
-202.316 -398.779 1723
-198.655 -399.704 1727
-194.751 -400.167 1729
-190.947 -400.862 1732
-186.805 -400.862 1732
-182.664 -400.862 1732
-178.728 -401.324 1734
-174.984 -402.25 1738
-171.025 -402.713 1740
-166.864 -402.713 1740
-162.703 -402.713 1740
-158.633 -402.945 1741
-154.647 -403.407 1743
-150.479 -403.407 1743
-146.479 -403.87 1745
-142.306 -403.87 1745
-138.45 -404.796 1749
-134.268 -404.796 1749
-130.234 -405.259 1751
-126.119 -405.49 1752
-121.929 -405.49 1752
-117.74 -405.49 1752
-113.68 -405.953 1754
-109.61 -406.416 1756
-105.531 -406.879 1758
-101.327 -406.879 1758
-97.3446 -407.805 1762
-93.1839 -408.036 1763
-89.069 -408.499 1765
-84.8484 -408.499 1765
-80.7191 -408.962 1767
-76.6668 -409.888 1771
-72.5136 -410.351 1773
-68.2738 -410.351 1773
-64.034 -410.351 1773
-59.7943 -410.351 1773
-55.6171 -410.814 1775
-51.3726 -410.814 1775
-47.2342 -411.739 1779
-43.0526 -412.434 1782
-38.8783 -413.36 1786
-34.6075 -413.36 1786
-30.5404 -416.137 1798
-26.2701 -416.6 1800
-21.9657 -416.6 1800
-17.6614 -416.6 1800
-13.3719 -417.063 1802
-9.06274 -417.063 1802
-4.75361 -417.063 1802
242.252 -941.747 4069
251.982 -941.747 4069
261.712 -941.747 4069
271.442 -941.747 4069
280.481 -939.433 4059
290.188 -939.433 4059
299.894 -939.433 4059
307.388 -932.721 4030
313.957 -923.694 3991
323.501 -923.694 3991
326.786 -906.336 3916
332.288 -895.921 3871
338.368 -887.589 3835
345.182 -881.571 3809
354.291 -881.571 3809
361.778 -877.637 3792
369.085 -873.471 3774
377.308 -871.619 3766
387.135 -873.471 3774
396.159 -873.471 3774
406.15 -875.554 3783
419.038 -883.654 3818
430.074 -887.589 3835
439.245 -887.589 3835
452.625 -895.921 3871
461.882 -895.921 3871
471.139 -895.921 3871
480.395 -895.921 3871
490.791 -898.004 3880
501.229 -900.087 3889
511.71 -902.17 3898
521.031 -902.17 3898
530.353 -902.17 3898
1754.74 -944.061 4079
1764.49 -944.061 4079
1774.24 -944.061 4079
1788.37 -946.376 4089
1798.15 -946.376 4089
1807.93 -946.376 4089
1817.71 -946.376 4089
1818.55 -941.747 4069
1819.29 -937.118 4049
1828.97 -937.118 4049
1795.06 -914.899 3953
1800.41 -912.816 3944
1784.6 -900.087 3889
1793.9 -900.087 3889
1799.02 -898.004 3880
1808.3 -898.004 3880
1817.58 -898.004 3880
1822.62 -895.921 3871
1831.88 -895.921 3871
1832.57 -891.755 3853
1825.06 -883.654 3818
2988.66 -930.406 4020
3034.82 -941.747 4069
3044.55 -941.747 4069
3054.28 -941.747 4069
3100.81 -944.061 4079
3110.56 -944.061 4079
3120.31 -944.061 4079
-2399.53 -814.727 3557
-2396.4 -816.559 3565
-2387.88 -816.559 3565
-2379.35 -816.559 3565
-2370.83 -816.559 3565
-2362.3 -816.559 3565
-2358.4 -818.162 3572
-2349.86 -818.162 3572
-2361.64 -825.263 3603
-2358.24 -827.095 3611
-2360.02 -830.76 3627
-2351.35 -830.76 3627
-2342.67 -830.76 3627
-2339.15 -832.592 3635
-2330.46 -832.592 3635
-2321.76 -832.592 3635
-2302.89 -828.928 3619
-666.914 -425.573 1858
-662.471 -425.573 1858
-658.028 -425.573 1858
-652.882 -425.115 1856
-647.046 -424.198 1852
-642.617 -424.198 1852
-633.02 -420.763 1837
-627.258 -419.846 1833
-620.836 -418.472 1827
-616.467 -418.472 1827
-611.428 -418.014 1825
-607.064 -418.014 1825
-600.058 -416.182 1817
-595.713 -416.182 1817
-590.066 -415.266 1813
-585.084 -414.807 1811
-577.226 -412.288 1800
-569.102 -409.539 1788
-564.827 -409.539 1788
-559.297 -408.623 1784
-551.609 -406.104 1773
-545.517 -404.729 1767
-541.291 -404.729 1767
-532.507 -401.294 1752
-526.809 -400.148 1747
-520.538 -398.545 1740
-516.377 -398.545 1740
-509.861 -396.713 1732
-504.843 -396.025 1729
-498.681 -394.422 1722
-494.564 -394.422 1722
-489.876 -393.964 1720
-484.633 -393.048 1716
-479.69 -392.361 1713
-475.038 -391.903 1711
-470.947 -391.903 1711
-466.31 -391.444 1709
-461.952 -391.215 1708
-457.332 -390.757 1706
-453.252 -390.757 1706
-449.173 -390.757 1706
-445.093 -390.757 1706
-441.014 -390.757 1706
-436.934 -390.757 1706
-432.854 -390.757 1706
-428.775 -390.757 1706
-424.695 -390.757 1706
-420.616 -390.757 1706
-416.048 -390.299 1704
-411.973 -390.299 1704
-407.898 -390.299 1704
-403.824 -390.299 1704
-399.749 -390.299 1704
-395.674 -390.299 1704
-391.599 -390.299 1704
-387.524 -390.299 1704
-383 -389.841 1702
-378.93 -389.841 1702
-374.86 -389.841 1702
-370.79 -389.841 1702
-366.72 -389.841 1702
-362.65 -389.841 1702
-358.369 -389.612 1701
-354.301 -389.612 1701
-349.822 -389.154 1699
-345.759 -389.154 1699
-341.294 -388.696 1697
-336.839 -388.238 1695
-332.785 -388.238 1695
-328.732 -388.238 1695
-324.487 -388.009 1694
-320.058 -387.551 1692
-316.012 -387.551 1692
-311.597 -387.092 1690
-307.556 -387.092 1690
-303.515 -387.092 1690
-299.473 -387.092 1690
-295.432 -387.092 1690
-291.218 -386.863 1689
-287.179 -386.863 1689
-283.14 -386.863 1689
-279.101 -386.863 1689
-275.225 -387.092 1690
-271.184 -387.092 1690
-267.459 -387.551 1692
-263.413 -387.551 1692
-259.367 -387.551 1692
-255.622 -388.009 1694
-251.72 -388.238 1695
-247.667 -388.238 1695
-243.901 -388.696 1697
-240.832 -390.299 1704
-237.035 -390.757 1706
-232.956 -390.757 1706
-229.547 -391.903 1711
-225.719 -392.361 1713
-222.011 -393.048 1716
-217.908 -393.048 1716
-214.302 -393.964 1720
-210.434 -394.422 1722
-206.436 -394.651 1723
-202.316 -394.651 1723
-198.655 -395.567 1727
-194.751 -396.025 1729
-190.947 -396.713 1732
-186.805 -396.713 1732
-182.664 -396.713 1732
-178.728 -397.171 1734
-174.984 -398.087 1738
-171.025 -398.545 1740
-166.864 -398.545 1740
-162.703 -398.545 1740
-158.633 -398.774 1741
-154.647 -399.232 1743
-150.479 -399.232 1743
-146.479 -399.69 1745
-142.306 -399.69 1745
-138.45 -400.606 1749
-134.268 -400.606 1749
-130.234 -401.064 1751
-126.119 -401.294 1752
-121.929 -401.294 1752
-117.74 -401.294 1752
-113.68 -401.752 1754
-109.735 -402.668 1758
-105.531 -402.668 1758
-101.327 -402.668 1758
-97.3446 -403.584 1762
-93.1839 -403.813 1763
-89.1699 -404.729 1767
-84.9445 -404.729 1767
-80.8104 -405.187 1769
-76.7534 -406.104 1773
-72.5136 -406.104 1773
-68.2738 -406.104 1773
-64.034 -406.104 1773
-59.7943 -406.104 1773
-55.6171 -406.562 1775
-51.3726 -406.562 1775
-47.2342 -407.478 1779
-43.0526 -408.165 1782
-38.8783 -409.081 1786
-34.6075 -409.081 1786
-30.5404 -411.83 1798
-26.2701 -412.288 1800
-21.9657 -412.288 1800
-17.6614 -412.288 1800
-13.3719 -412.746 1802
-9.06274 -412.746 1802
-4.75361 -412.746 1802
-0.443497 -411.83 1798
242.252 -932 4069
251.982 -932 4069
261.712 -932 4069
271.442 -932 4069
281.172 -932 4069
290.903 -932 4069
299.894 -929.709 4059
308.075 -925.128 4039
313.957 -914.134 3991
323.501 -914.134 3991
328.372 -901.307 3935
333.06 -888.709 3880
338.368 -878.402 3835
345.182 -872.447 3809
354.291 -872.447 3809
361.778 -868.553 3792
369.085 -864.43 3774
378.11 -864.43 3774
388.981 -868.553 3792
398.049 -868.553 3792
407.117 -868.553 3792
419.038 -874.508 3818
434.112 -886.648 3871
443.368 -886.648 3871
452.625 -886.648 3871
462.956 -888.709 3880
472.234 -888.709 3880
481.512 -888.709 3880
490.791 -888.709 3880
501.229 -890.771 3889
511.71 -892.832 3898
521.031 -892.832 3898
530.353 -892.832 3898
1754.74 -934.29 4079
1764.49 -934.29 4079
1774.24 -934.29 4079
1788.37 -936.581 4089
1798.15 -936.581 4089
1807.93 -936.581 4089
1817.71 -936.581 4089
1818.55 -932 4069
1819.29 -927.419 4049
1828.97 -927.419 4049
1795.06 -905.43 3953
1800.41 -903.369 3944
1784.6 -890.771 3889
1793.9 -890.771 3889
1799.02 -888.709 3880
1808.3 -888.709 3880
1817.58 -888.709 3880
1822.62 -886.648 3871
1831.88 -886.648 3871
1832.57 -882.525 3853
1825.06 -874.508 3818
2988.66 -920.776 4020
3034.82 -932 4069
3044.55 -932 4069
3054.28 -932 4069
3100.81 -934.29 4079
3110.56 -934.29 4079
3120.31 -934.29 4079
-2420.44 -813.232 3588
-2411.86 -813.232 3588
-2403.28 -813.232 3588
-2379.35 -808.019 3565
-2370.83 -808.019 3565
-2366.94 -809.606 3572
-2368.96 -813.232 3588
-2360.38 -813.232 3588
-2361.64 -816.632 3603
-2363.47 -820.258 3619
-2365.23 -823.885 3635
-2356.53 -823.885 3635
-2347.84 -823.885 3635
-2339.15 -823.885 3635
-2330.46 -823.885 3635
-2321.76 -823.885 3635
-2302.89 -820.258 3619
-662.966 -418.629 1847
-661.045 -420.215 1854
-656.612 -420.215 1854
-652.178 -420.215 1854
-647.046 -419.762 1852
-642.617 -419.762 1852
-633.02 -416.362 1837
-627.258 -415.456 1833
-620.836 -414.096 1827
-616.467 -414.096 1827
-611.428 -413.642 1825
-606.399 -413.189 1823
-600.058 -411.829 1817
-595.713 -411.829 1817
-589.415 -410.469 1811
-584.438 -410.016 1809
-576.585 -407.523 1798
-568.466 -404.803 1786
-564.195 -404.803 1786
-558.043 -403.443 1780
-550.364 -400.95 1769
-543.973 -399.363 1762
-539.76 -399.363 1762
-531.595 -396.417 1749
-526.206 -395.51 1745
-519.939 -393.923 1738
-515.783 -393.923 1738
-509.861 -392.564 1732
-504.843 -391.884 1729
-498.681 -390.297 1722
-494.564 -390.297 1722
-489.876 -389.844 1720
-484.633 -388.937 1716
-479.69 -388.257 1713
-475.038 -387.804 1711
-470.947 -387.804 1711
-466.31 -387.35 1709
-461.952 -387.124 1708
-457.332 -386.671 1706
-453.252 -386.671 1706
-449.173 -386.671 1706
-445.093 -386.671 1706
-441.014 -386.671 1706
-436.934 -386.671 1706
-432.854 -386.671 1706
-428.775 -386.671 1706
-424.197 -386.217 1704
-420.123 -386.217 1704
-416.048 -386.217 1704
-411.973 -386.217 1704
-407.898 -386.217 1704
-403.824 -386.217 1704
-399.28 -385.764 1702
-395.21 -385.764 1702
-391.14 -385.764 1702
-387.07 -385.764 1702
-383 -385.764 1702
-378.93 -385.764 1702
-374.86 -385.764 1702
-370.79 -385.764 1702
-366.72 -385.764 1702
-362.65 -385.764 1702
-358.369 -385.537 1701
-354.301 -385.537 1701
-349.822 -385.084 1699
-345.759 -385.084 1699
-341.294 -384.631 1697
-336.839 -384.177 1695
-332.785 -384.177 1695
-328.538 -383.951 1694
-324.104 -383.497 1692
-320.058 -383.497 1692
-316.012 -383.497 1692
-311.597 -383.044 1690
-307.556 -383.044 1690
-303.515 -383.044 1690
-299.473 -383.044 1690
-295.432 -383.044 1690
-291.218 -382.817 1689
-286.839 -382.364 1687
-282.805 -382.364 1687
-278.771 -382.364 1687
-275.063 -382.817 1689
-271.184 -383.044 1690
-267.143 -383.044 1690
-263.102 -383.044 1690
-259.367 -383.497 1692
-255.321 -383.497 1692
-251.72 -384.177 1695
-247.667 -384.177 1695
-243.901 -384.631 1697
-240.55 -385.764 1702
-237.035 -386.671 1706
-232.956 -386.671 1706
-229.279 -387.35 1709
-225.719 -388.257 1713
-221.882 -388.71 1715
-217.781 -388.71 1715
-214.053 -389.39 1718
-210.434 -390.297 1722
-206.436 -390.524 1723
-202.316 -390.524 1723
-198.655 -391.43 1727
-194.751 -391.884 1729
-190.947 -392.564 1732
-186.805 -392.564 1732
-182.664 -392.564 1732
-178.728 -393.017 1734
-174.984 -393.923 1738
-171.025 -394.377 1740
-166.864 -394.377 1740
-162.703 -394.377 1740
-158.633 -394.603 1741
-154.647 -395.057 1743
-150.479 -395.057 1743
-146.479 -395.51 1745
-142.306 -395.51 1745
-138.45 -396.417 1749
-134.268 -396.417 1749
-130.234 -396.87 1751
-126.119 -397.097 1752
-121.929 -397.097 1752
-117.74 -397.097 1752
-113.68 -397.55 1754
-109.735 -398.457 1758
-105.531 -398.457 1758
-101.327 -398.457 1758
-97.2341 -398.91 1760
-93.1839 -399.59 1763
-89.1699 -400.496 1767
-84.9445 -400.496 1767
-80.8104 -400.95 1769
-76.7534 -401.856 1773
-72.5136 -401.856 1773
-68.2738 -401.856 1773
-64.034 -401.856 1773
-59.7268 -401.403 1771
-55.5545 -401.856 1773
-51.3147 -401.856 1773
-47.2342 -403.216 1779
-42.9801 -403.216 1779
-38.7913 -403.896 1782
-34.53 -403.896 1782
-30.5404 -407.523 1798
-26.2409 -407.523 1798
-21.9657 -407.976 1800
-17.6614 -407.976 1800
-13.3719 -408.429 1802
-9.06274 -408.429 1802
-4.75361 -408.429 1802
-0.443497 -407.523 1798
242.252 -922.252 4069
251.982 -922.252 4069
261.712 -922.252 4069
271.442 -922.252 4069
281.172 -922.252 4069
290.903 -922.252 4069
299.894 -919.986 4059
308.075 -915.453 4039
313.957 -904.573 3991
323.501 -904.573 3991
328.372 -891.881 3935
333.06 -879.415 3880
338.368 -869.215 3835
345.182 -863.322 3809
354.291 -863.322 3809
361.778 -859.469 3792
369.085 -855.39 3774
378.11 -855.39 3774
388.981 -859.469 3792
398.049 -859.469 3792
407.117 -859.469 3792
419.038 -865.362 3818
434.112 -877.375 3871
443.368 -877.375 3871
452.625 -877.375 3871
462.956 -879.415 3880
472.234 -879.415 3880
481.512 -879.415 3880
490.791 -879.415 3880
501.229 -881.455 3889
511.71 -883.495 3898
521.031 -883.495 3898
530.353 -883.495 3898
1754.74 -924.519 4079
1764.49 -924.519 4079
1774.24 -924.519 4079
1788.37 -926.785 4089
1798.15 -926.785 4089
1807.93 -926.785 4089
1817.71 -926.785 4089
1827.48 -926.785 4089
1823.78 -919.986 4059
1833.49 -919.986 4059
1795.06 -895.961 3953
1800.41 -893.921 3944
1788.73 -883.495 3898
1798.05 -883.495 3898
1799.02 -879.415 3880
1808.3 -879.415 3880
1817.58 -879.415 3880
1822.62 -877.375 3871
1831.88 -877.375 3871
1832.57 -873.295 3853
1825.06 -865.362 3818
2988.66 -911.146 4020
3034.82 -922.252 4069
3044.55 -922.252 4069
3054.28 -922.252 4069
3064.01 -922.252 4069
3073.74 -922.252 4069
3100.81 -924.519 4079
3110.56 -924.519 4079
3120.31 -924.519 4079
-2420.44 -804.637 3588
-2411.86 -804.637 3588
-2403.28 -804.637 3588
-2379.35 -799.479 3565
-2370.83 -799.479 3565
-2366.94 -801.049 3572
-2368.96 -804.637 3588
-2360.38 -804.637 3588
-2361.64 -808.001 3603
-2363.47 -811.589 3619
-2365.23 -815.177 3635
-2356.53 -815.177 3635
-2347.84 -815.177 3635
-2339.15 -815.177 3635
-2330.46 -815.177 3635
-2316.65 -813.383 3627
-2302.89 -811.589 3619
-662.966 -414.204 1847
-660.332 -415.325 1852
-655.903 -415.325 1852
-651.475 -415.325 1852
-645.299 -414.204 1847
-640.882 -414.204 1847
-633.02 -411.962 1837
-626.574 -410.616 1831
-620.156 -409.27 1825
-615.792 -409.27 1825
-610.758 -408.822 1823
-605.068 -407.925 1819
-598.737 -406.579 1813
-594.401 -406.579 1813
-588.764 -405.682 1809
-583.792 -405.234 1807
-575.944 -402.767 1796
-567.829 -400.076 1784
-563.563 -400.076 1784
-557.73 -398.955 1779
-549.742 -396.264 1767
-543.356 -394.694 1760
-539.147 -394.694 1760
-530.987 -391.778 1747
-526.206 -391.33 1745
-519.341 -389.312 1736
-515.19 -389.312 1736
-509.566 -388.19 1731
-504.843 -387.742 1729
-498.681 -386.172 1722
-494.564 -386.172 1722
-489.307 -385.275 1718
-484.633 -384.826 1716
-479.69 -384.154 1713
-475.038 -383.705 1711
-470.947 -383.705 1711
-466.31 -383.257 1709
-461.952 -383.032 1708
-457.332 -382.584 1706
-453.252 -382.584 1706
-449.173 -382.584 1706
-445.093 -382.584 1706
-441.014 -382.584 1706
-436.934 -382.584 1706
-432.854 -382.584 1706
-428.272 -382.135 1704
-424.197 -382.135 1704
-420.123 -382.135 1704
-416.048 -382.135 1704
-411.49 -381.687 1702
-407.42 -381.687 1702
-403.35 -381.687 1702
-399.28 -381.687 1702
-394.977 -381.463 1701
-390.91 -381.463 1701
-387.07 -381.687 1702
-383 -381.687 1702
-378.93 -381.687 1702
-374.86 -381.687 1702
-370.79 -381.687 1702
-366.72 -381.687 1702
-362.437 -381.463 1701
-358.369 -381.463 1701
-354.301 -381.463 1701
-349.822 -381.014 1699
-345.759 -381.014 1699
-341.294 -380.565 1697
-336.839 -380.117 1695
-332.785 -380.117 1695
-328.538 -379.893 1694
-324.104 -379.444 1692
-320.058 -379.444 1692
-316.012 -379.444 1692
-311.597 -378.996 1690
-307.556 -378.996 1690
-303.515 -378.996 1690
-299.473 -378.996 1690
-295.432 -378.996 1690
-291.218 -378.771 1689
-286.839 -378.323 1687
-282.805 -378.323 1687
-278.771 -378.323 1687
-275.063 -378.771 1689
-271.024 -378.771 1689
-267.143 -378.996 1690
-263.102 -378.996 1690
-259.367 -379.444 1692
-255.321 -379.444 1692
-251.72 -380.117 1695
-247.667 -380.117 1695
-243.901 -380.565 1697
-240.55 -381.687 1702
-237.035 -382.584 1706
-232.956 -382.584 1706
-229.279 -383.257 1709
-225.719 -384.154 1713
-221.882 -384.602 1715
-217.781 -384.602 1715
-214.053 -385.275 1718
-210.434 -386.172 1722
-206.436 -386.396 1723
-202.316 -386.396 1723
-198.655 -387.293 1727
-194.751 -387.742 1729
-190.947 -388.415 1732
-186.805 -388.415 1732
-182.664 -388.415 1732
-178.728 -388.863 1734
-174.984 -389.76 1738
-171.025 -390.209 1740
-166.864 -390.209 1740
-162.703 -390.209 1740
-158.633 -390.433 1741
-154.647 -390.881 1743
-150.479 -390.881 1743
-146.479 -391.33 1745
-142.47 -391.778 1747
-138.45 -392.227 1749
-134.268 -392.227 1749
-130.309 -392.9 1752
-126.119 -392.9 1752
-121.929 -392.9 1752
-117.74 -392.9 1752
-113.68 -393.348 1754
-109.735 -394.245 1758
-105.651 -394.694 1760
-101.443 -394.694 1760
-97.3446 -395.142 1762
-93.2897 -395.815 1765
-89.1699 -396.264 1767
-84.9445 -396.264 1767
-80.8104 -396.712 1769
-76.7534 -397.609 1773
-72.5136 -397.609 1773
-68.2738 -397.609 1773
-64.034 -397.609 1773
-59.7268 -397.161 1771
-55.5545 -397.609 1773
-51.3147 -397.609 1773
-47.1811 -398.506 1777
-42.9801 -398.955 1779
-38.726 -398.955 1779
-34.4718 -398.955 1779
-30.4385 -401.87 1792
-26.2117 -402.767 1796
-21.9413 -403.216 1798
-17.6417 -403.216 1798
-13.3422 -403.216 1798
-9.04262 -403.216 1798
-4.74306 -403.216 1798
-0.443497 -403.216 1798
253.22 -916.99 4089
262.998 -916.99 4089
272.776 -916.99 4089
281.172 -912.505 4069
290.903 -912.505 4069
300.633 -912.505 4069
308.838 -908.02 4049
314.744 -897.255 4001
324.312 -897.255 4001
328.372 -882.454 3935
333.833 -872.139 3889
338.368 -860.029 3835
346.723 -858.01 3826
355.872 -858.01 3826
362.541 -852.18 3800
369.085 -846.349 3774
378.11 -846.349 3774
388.981 -850.386 3792
398.049 -850.386 3792
407.117 -850.386 3792
419.038 -856.216 3818
434.112 -868.102 3871
443.368 -868.102 3871
454.73 -872.139 3889
464.03 -872.139 3889
473.329 -872.139 3889
482.629 -872.139 3889
489.652 -868.102 3871
500.069 -870.12 3880
511.71 -874.157 3898
521.031 -874.157 3898
530.353 -874.157 3898
1807.93 -916.99 4089
1817.71 -916.99 4089
1827.48 -916.99 4089
1832.77 -914.748 4079
1842.52 -914.748 4079
1808.23 -892.995 3982
1804.51 -886.491 3953
1792.86 -876.175 3907
1802.2 -876.175 3907
1807.37 -874.157 3898
1808.3 -870.12 3880
1817.58 -870.12 3880
1822.62 -868.102 3871
1831.88 -868.102 3871
1832.57 -864.065 3853
2988.66 -901.516 4020
3005.73 -903.759 4030
3015.37 -903.759 4030
3054.28 -912.505 4069
3064.01 -912.505 4069
3073.74 -912.505 4069
3083.47 -912.505 4069
3093.2 -912.505 4069
3080.06 -905.777 4039
3089.72 -905.777 4039
-2420.44 -796.042 3588
-2411.86 -796.042 3588
-2403.28 -796.042 3588
-2389.36 -794.267 3580
-2380.8 -794.267 3580
-2372.24 -794.267 3580
-2368.96 -796.042 3588
-2360.38 -796.042 3588
-2372.12 -802.92 3619
-2368.69 -804.695 3627
-2365.23 -806.469 3635
-2356.53 -806.469 3635
-2347.84 -806.469 3635
-2339.15 -806.469 3635
-2330.46 -806.469 3635
-2316.65 -804.695 3627
-2302.89 -802.92 3619
-2279.02 -797.595 3595
-2270.42 -797.595 3595
-662.248 -409.336 1845
-657.836 -409.336 1845
-653.424 -409.336 1845
-648.309 -408.892 1843
-643.902 -408.892 1843
-639.495 -408.892 1843
-630.952 -406.23 1831
-624.521 -404.899 1825
-619.477 -404.455 1823
-615.117 -404.455 1823
-610.088 -404.011 1821
-604.403 -403.124 1817
-597.416 -401.349 1809
-593.09 -401.349 1809
-588.764 -401.349 1809
-582.823 -400.24 1804
-575.302 -398.021 1794
-566.556 -394.915 1780
-562.3 -394.915 1780
-556.476 -393.806 1775
-548.498 -391.143 1763
-542.738 -390.034 1758
-538.534 -390.034 1758
-530.379 -387.15 1745
-525.603 -386.706 1743
-519.341 -385.153 1736
-515.19 -385.153 1736
-509.566 -384.044 1731
-504.843 -383.6 1729
-498.681 -382.047 1722
-494.564 -382.047 1722
-489.307 -381.159 1718
-484.633 -380.716 1716
-479.69 -380.05 1713
-475.038 -379.606 1711
-470.947 -379.606 1711
-466.31 -379.163 1709
-461.952 -378.941 1708
-457.332 -378.497 1706
-453.252 -378.497 1706
-449.173 -378.497 1706
-445.093 -378.497 1706
-441.014 -378.497 1706
-436.934 -378.497 1706
-432.347 -378.053 1704
-428.272 -378.053 1704
-424.197 -378.053 1704
-420.123 -378.053 1704
-415.56 -377.61 1702
-411.49 -377.61 1702
-407.18 -377.388 1701
-403.113 -377.388 1701
-399.045 -377.388 1701
-394.977 -377.388 1701
-390.91 -377.388 1701
-386.842 -377.388 1701
-382.775 -377.388 1701
-378.707 -377.388 1701
-374.639 -377.388 1701
-370.572 -377.388 1701
-366.504 -377.388 1701
-362.01 -376.944 1699
-357.948 -376.944 1699
-353.885 -376.944 1699
-349.41 -376.5 1697
-345.352 -376.5 1697
-340.892 -376.057 1695
-336.64 -375.835 1694
-332.589 -375.835 1694
-328.538 -375.835 1694
-324.104 -375.391 1692
-319.68 -374.947 1690
-315.638 -374.947 1690
-311.597 -374.947 1690
-307.556 -374.947 1690
-303.515 -374.947 1690
-299.473 -374.947 1690
-295.257 -374.725 1689
-291.218 -374.725 1689
-286.839 -374.282 1687
-282.805 -374.282 1687
-278.771 -374.282 1687
-275.063 -374.725 1689
-271.024 -374.725 1689
-267.143 -374.947 1690
-263.102 -374.947 1690
-259.06 -374.947 1690
-255.321 -375.391 1692
-251.72 -376.057 1695
-247.667 -376.057 1695
-243.901 -376.5 1697
-240.55 -377.61 1702
-237.035 -378.497 1706
-232.956 -378.497 1706
-229.279 -379.163 1709
-225.719 -380.05 1713
-221.882 -380.494 1715
-217.781 -380.494 1715
-214.053 -381.159 1718
-210.434 -382.047 1722
-206.436 -382.269 1723
-202.316 -382.269 1723
-198.655 -383.156 1727
-194.751 -383.6 1729
-190.947 -384.266 1732
-186.805 -384.266 1732
-182.664 -384.266 1732
-178.728 -384.709 1734
-174.984 -385.597 1738
-171.025 -386.04 1740
-166.864 -386.04 1740
-162.797 -386.262 1741
-158.816 -386.706 1743
-154.825 -387.15 1745
-150.652 -387.15 1745
-146.479 -387.15 1745
-142.47 -387.593 1747
-138.45 -388.037 1749
-134.268 -388.037 1749
-130.309 -388.703 1752
-126.119 -388.703 1752
-122.069 -389.146 1754
-117.874 -389.146 1754
-113.81 -389.59 1756
-109.86 -390.478 1760
-105.651 -390.478 1760
-101.443 -390.478 1760
-97.3446 -390.921 1762
-93.3954 -392.031 1767
-89.2709 -392.474 1769
-85.0406 -392.474 1769
-80.9018 -392.918 1771
-76.84 -393.806 1775
-72.5954 -393.806 1775
-68.3508 -393.806 1775
-64.1063 -393.806 1775
-59.7943 -393.362 1773
-55.5545 -393.362 1773
-51.3147 -393.362 1773
-47.1811 -394.249 1777
-42.9318 -394.249 1777
-38.7477 -394.915 1780
-34.4912 -394.915 1780
-30.4385 -397.577 1792
-26.1533 -397.577 1792
-21.8681 -397.577 1792
-17.5829 -397.577 1792
-13.2977 -397.577 1792
-9.00239 -397.134 1790
-4.72196 -397.134 1790
-0.441524 -397.134 1790
241.656 -900.539 4059
253.22 -907.195 4089
262.998 -907.195 4089
272.776 -907.195 4089
281.172 -902.758 4069
290.903 -902.758 4069
300.633 -902.758 4069
308.838 -898.32 4049
314.744 -887.671 4001
324.312 -887.671 4001
328.372 -873.028 3935
333.833 -862.822 3889
338.368 -850.842 3835
346.723 -848.845 3826
355.872 -848.845 3826
362.541 -843.077 3800
369.965 -839.305 3783
378.11 -837.308 3774
388.981 -841.302 3792
398.049 -841.302 3792
407.117 -841.302 3792
419.038 -847.07 3818
434.112 -858.829 3871
443.368 -858.829 3871
454.73 -862.822 3889
464.03 -862.822 3889
473.329 -862.822 3889
482.629 -862.822 3889
487.375 -854.835 3853
497.749 -856.832 3862
506.984 -856.832 3862
516.219 -856.832 3862
525.455 -856.832 3862
1807.93 -907.195 4089
1817.71 -907.195 4089
1827.48 -907.195 4089
1832.77 -904.976 4079
1842.52 -904.976 4079
1816.86 -887.671 4001
1809.08 -879.24 3963
1813.97 -877.022 3953
1823.42 -877.022 3953
1807.37 -864.819 3898
1816.69 -864.819 3898
1826.01 -864.819 3898
1822.62 -858.829 3871
1831.88 -858.829 3871
1832.57 -854.835 3853
2988.66 -891.886 4020
3005.73 -894.105 4030
3015.37 -894.105 4030
3054.28 -902.758 4069
3064.01 -902.758 4069
3073.74 -902.758 4069
3083.47 -902.758 4069
3093.2 -902.758 4069
3080.06 -896.102 4039
3089.72 -896.102 4039
-2399.53 -780.643 3557
-2406.49 -785.691 3580
-2397.93 -785.691 3580
-2389.36 -785.691 3580
-2380.8 -785.691 3580
-2372.24 -785.691 3580
-2368.96 -787.447 3588
-2360.38 -787.447 3588
-2377.37 -796.006 3627
-2373.92 -797.762 3635
-2365.23 -797.762 3635
-2356.53 -797.762 3635
-2347.84 -797.762 3635
-2339.15 -797.762 3635
-2330.46 -797.762 3635
-2316.65 -796.006 3627
-2302.89 -794.25 3619
-2279.02 -788.983 3595
-2270.42 -788.983 3595
-662.248 -404.916 1845
-657.836 -404.916 1845
-653.424 -404.916 1845
-648.309 -404.477 1843
-643.902 -404.477 1843
-639.495 -404.477 1843
-630.952 -401.844 1831
-624.521 -400.527 1825
-619.477 -400.088 1823
-615.117 -400.088 1823
-610.088 -399.649 1821
-604.403 -398.771 1817
-597.416 -397.015 1809
-593.09 -397.015 1809
-588.764 -397.015 1809
-582.823 -395.918 1804
-575.302 -393.723 1794
-566.556 -390.651 1780
-562.3 -390.651 1780
-556.476 -389.554 1775
-548.498 -386.92 1763
-542.738 -385.823 1758
-538.534 -385.823 1758
-530.379 -382.97 1745
-525.603 -382.531 1743
-519.341 -380.994 1736
-515.19 -380.994 1736
-509.566 -379.897 1731
-504.843 -379.458 1729
-498.681 -377.922 1722
-494.564 -377.922 1722
-489.307 -377.044 1718
-485.198 -377.044 1718
-479.69 -375.947 1713
-475.038 -375.508 1711
-470.947 -375.508 1711
-466.31 -375.069 1709
-461.952 -374.849 1708
-457.332 -374.41 1706
-453.252 -374.41 1706
-449.173 -374.41 1706
-445.093 -374.41 1706
-441.014 -374.41 1706
-436.934 -374.41 1706
-432.854 -374.41 1706
-428.272 -373.971 1704
-424.197 -373.971 1704
-420.123 -373.971 1704
-415.56 -373.532 1702
-411.49 -373.532 1702
-407.18 -373.313 1701
-403.113 -373.313 1701
-399.045 -373.313 1701
-394.977 -373.313 1701
-390.91 -373.313 1701
-386.842 -373.313 1701
-382.775 -373.313 1701
-378.707 -373.313 1701
-374.639 -373.313 1701
-370.572 -373.313 1701
-366.504 -373.313 1701
-362.01 -372.874 1699
-357.948 -372.874 1699
-353.885 -372.874 1699
-349.41 -372.435 1697
-345.352 -372.435 1697
-340.892 -371.996 1695
-336.64 -371.777 1694
-332.589 -371.777 1694
-328.538 -371.777 1694
-324.104 -371.338 1692
-319.68 -370.899 1690
-315.638 -370.899 1690
-311.597 -370.899 1690
-307.556 -370.899 1690
-303.515 -370.899 1690
-299.473 -370.899 1690
-295.257 -370.679 1689
-291.218 -370.679 1689
-286.839 -370.24 1687
-282.805 -370.24 1687
-278.771 -370.24 1687
-275.063 -370.679 1689
-271.024 -370.679 1689
-267.143 -370.899 1690
-263.102 -370.899 1690
-259.06 -370.899 1690
-255.321 -371.338 1692
-251.72 -371.996 1695
-247.667 -371.996 1695
-243.901 -372.435 1697
-240.55 -373.532 1702
-237.313 -374.849 1708
-233.229 -374.849 1708
-229.279 -375.069 1709
-225.719 -375.947 1713
-221.882 -376.386 1715
-217.781 -376.386 1715
-214.053 -377.044 1718
-210.434 -377.922 1722
-206.436 -378.141 1723
-202.316 -378.141 1723
-198.655 -379.019 1727
-194.751 -379.458 1729
-190.947 -380.116 1732
-186.805 -380.116 1732
-182.664 -380.116 1732
-178.728 -380.555 1734
-175.186 -381.872 1740
-171.025 -381.872 1740
-166.864 -381.872 1740
-162.797 -382.092 1741
-158.816 -382.531 1743
-154.825 -382.97 1745
-150.652 -382.97 1745
-146.647 -383.408 1747
-142.47 -383.408 1747
-138.609 -384.286 1751
-134.421 -384.286 1751
-130.309 -384.506 1752
-126.263 -384.945 1754
-122.069 -384.945 1754
-117.874 -384.945 1754
-113.81 -385.384 1756
-109.86 -386.262 1760
-105.651 -386.262 1760
-101.443 -386.262 1760
-97.3446 -386.7 1762
-93.3954 -387.798 1767
-89.2709 -388.237 1769
-85.0406 -388.237 1769
-80.9932 -389.115 1773
-76.84 -389.554 1775
-72.5954 -389.554 1775
-68.3508 -389.554 1775
-64.1063 -389.554 1775
-59.7943 -389.115 1773
-55.6171 -389.554 1775
-51.3726 -389.554 1775
-47.1811 -389.992 1777
-42.9801 -390.431 1779
-38.7477 -390.651 1780
-34.4912 -390.651 1780
-30.4385 -393.284 1792
-26.1533 -393.284 1792
-21.8681 -393.284 1792
-17.5829 -393.284 1792
-13.2977 -393.284 1792
-9.00239 -392.846 1790
-4.72196 -392.846 1790
-0.441524 -392.846 1790
241.656 -890.816 4059
253.22 -897.4 4089
262.998 -897.4 4089
272.776 -897.4 4089
281.172 -893.01 4069
290.903 -893.01 4069
300.633 -893.01 4069
308.838 -888.621 4049
314.744 -878.087 4001
324.312 -878.087 4001
328.372 -863.602 3935
333.833 -853.506 3889
338.368 -841.655 3835
346.723 -839.68 3826
355.872 -839.68 3826
364.258 -837.924 3818
370.845 -832.218 3792
378.11 -828.268 3774
388.981 -832.218 3792
398.049 -832.218 3792
407.117 -832.218 3792
419.038 -837.924 3818
434.112 -849.556 3871
443.368 -849.556 3871
454.73 -853.506 3889
464.03 -853.506 3889
473.329 -853.506 3889
482.629 -853.506 3889
487.375 -845.606 3853
497.749 -847.581 3862
506.984 -847.581 3862
516.219 -847.581 3862
525.455 -847.581 3862
1827.48 -897.4 4089
1837.26 -897.4 4089
1847.04 -897.4 4089
1847.74 -893.01 4069
1826.43 -878.087 4001
1831.4 -875.892 3991
1840.95 -875.892 3991
1832.87 -867.552 3953
1820.89 -857.457 3907
1865.36 -873.917 3982
1874.89 -873.917 3982
1884.41 -873.917 3982
2967.1 -875.892 3991
3005.73 -884.451 4030
3015.37 -884.451 4030
3031.76 -886.426 4039
3064.01 -893.01 4069
3073.74 -893.01 4069
3083.47 -893.01 4069
3093.2 -893.01 4069
3065.57 -882.256 4020
3075.18 -882.256 4020
-2399.53 -772.122 3557
-2406.49 -777.115 3580
-2397.93 -777.115 3580
-2389.36 -777.115 3580
-2380.8 -777.115 3580
-2372.24 -777.115 3580
-2389.43 -785.581 3619
-2380.78 -785.581 3619
-2382.61 -789.054 3635
-2378.49 -790.574 3642
-2369.78 -790.574 3642
-2361.07 -790.574 3642
-2352.36 -790.574 3642
-2343.65 -790.574 3642
-2334.94 -790.574 3642
-2316.65 -787.318 3627
-2302.89 -785.581 3619
-2279.02 -780.371 3595
-2270.42 -780.371 3595
-660.812 -399.628 1841
-657.123 -400.062 1843
-652.716 -400.062 1843
-648.309 -400.062 1843
-643.902 -400.062 1843
-639.495 -400.062 1843
-630.952 -397.458 1831
-623.836 -395.721 1823
-619.477 -395.721 1823
-615.117 -395.721 1823
-609.418 -394.853 1819
-604.403 -394.419 1817
-597.416 -392.682 1809
-592.434 -392.248 1807
-588.113 -392.248 1807
-582.177 -391.162 1802
-574.661 -388.992 1792
-566.556 -386.387 1780
-562.3 -386.387 1780
-554.595 -383.999 1769
-547.564 -382.045 1760
-541.503 -380.743 1754
-537.309 -380.743 1754
-529.771 -378.355 1743
-525 -377.921 1741
-518.743 -376.402 1734
-514.596 -376.402 1734
-509.566 -375.75 1731
-504.259 -374.882 1727
-498.681 -373.797 1722
-494.564 -373.797 1722
-489.307 -372.928 1718
-485.198 -372.928 1718
-479.69 -371.843 1713
-475.038 -371.409 1711
-470.947 -371.409 1711
-466.31 -370.975 1709
-461.952 -370.758 1708
-457.332 -370.324 1706
-453.252 -370.324 1706
-449.173 -370.324 1706
-445.093 -370.324 1706
-441.014 -370.324 1706
-436.934 -370.324 1706
-432.854 -370.324 1706
-428.272 -369.889 1704
-423.7 -369.455 1702
-419.63 -369.455 1702
-415.56 -369.455 1702
-411.248 -369.238 1701
-407.18 -369.238 1701
-403.113 -369.238 1701
-399.045 -369.238 1701
-394.977 -369.238 1701
-390.91 -369.238 1701
-386.842 -369.238 1701
-382.325 -368.804 1699
-378.262 -368.804 1699
-374.199 -368.804 1699
-370.136 -368.804 1699
-366.073 -368.804 1699
-361.584 -368.37 1697
-357.526 -368.37 1697
-353.468 -368.37 1697
-349.41 -368.37 1697
-345.352 -368.37 1697
-340.691 -367.719 1694
-336.64 -367.719 1694
-332.589 -367.719 1694
-328.15 -367.285 1692
-324.104 -367.285 1692
-319.68 -366.85 1690
-315.638 -366.85 1690
-311.597 -366.85 1690
-307.374 -366.633 1689
-303.335 -366.633 1689
-299.296 -366.633 1689
-295.257 -366.633 1689
-290.873 -366.199 1687
-286.839 -366.199 1687
-282.805 -366.199 1687
-278.771 -366.199 1687
-275.063 -366.633 1689
-271.024 -366.633 1689
-267.143 -366.85 1690
-263.102 -366.85 1690
-259.06 -366.85 1690
-255.321 -367.285 1692
-251.72 -367.936 1695
-247.667 -367.936 1695
-243.901 -368.37 1697
-240.55 -369.455 1702
-237.313 -370.758 1708
-233.229 -370.758 1708
-229.279 -370.975 1709
-225.719 -371.843 1713
-221.882 -372.277 1715
-217.781 -372.277 1715
-214.053 -372.928 1718
-210.434 -373.797 1722
-206.436 -374.014 1723
-202.316 -374.014 1723
-198.425 -374.448 1725
-194.751 -375.316 1729
-190.837 -375.75 1731
-186.805 -375.967 1732
-182.664 -375.967 1732
-178.728 -376.402 1734
-175.186 -377.704 1740
-171.025 -377.704 1740
-166.864 -377.704 1740
-162.797 -377.921 1741
-158.816 -378.355 1743
-154.825 -378.789 1745
-150.652 -378.789 1745
-146.647 -379.224 1747
-142.47 -379.224 1747
-138.609 -380.092 1751
-134.421 -380.092 1751
-130.309 -380.309 1752
-126.263 -380.743 1754
-122.069 -380.743 1754
-117.874 -380.743 1754
-113.81 -381.177 1756
-109.86 -382.045 1760
-105.651 -382.045 1760
-101.443 -382.045 1760
-97.3446 -382.48 1762
-93.3954 -383.565 1767
-89.2709 -383.999 1769
-85.0406 -383.999 1769
-80.9932 -384.867 1773
-76.84 -385.302 1775
-72.5954 -385.302 1775
-68.3508 -385.302 1775
-64.1063 -385.302 1775
-59.7943 -384.867 1773
-55.6171 -385.302 1775
-51.3726 -385.302 1775
-47.1811 -385.736 1777
-42.9801 -386.17 1779
-38.7477 -386.387 1780
-34.4912 -386.387 1780
-30.4046 -388.558 1790
-26.1241 -388.558 1790
-21.8437 -388.558 1790
-17.5633 -388.558 1790
-13.2828 -388.558 1790
-9.00239 -388.558 1790
-4.72196 -388.558 1790
-0.441524 -388.558 1790
241.656 -881.092 4059
253.22 -887.604 4089
262.998 -887.604 4089
272.776 -887.604 4089
280.481 -881.092 4059
290.188 -881.092 4059
299.155 -878.922 4049
307.388 -874.797 4030
313.249 -864.378 3982
322.772 -864.378 3982
327.537 -852.005 3925
333.06 -842.237 3880
337.574 -830.515 3826
345.998 -828.778 3818
355.128 -828.778 3818
364.258 -828.778 3818
370.845 -823.134 3792
377.308 -817.49 3766
387.135 -819.227 3774
396.159 -819.227 3774
407.117 -823.134 3792
417.062 -824.871 3800
430.074 -832.468 3835
439.245 -832.468 3835
452.625 -840.283 3871
461.882 -840.283 3871
471.139 -840.283 3871
478.162 -836.376 3853
486.237 -834.422 3844
494.269 -832.468 3835
503.44 -832.468 3835
512.61 -832.468 3835
521.781 -832.468 3835
1827.48 -887.604 4089
1837.26 -887.604 4089
1847.04 -887.604 4089
1847.74 -883.263 4069
1826.43 -868.502 4001
1831.4 -866.331 3991
1840.95 -866.331 3991
1832.87 -858.083 3953
1820.89 -848.097 3907
1865.36 -864.378 3982
1874.89 -864.378 3982
1884.41 -864.378 3982
2967.1 -866.331 3991
3005.73 -874.797 4030
3015.37 -874.797 4030
3031.76 -876.751 4039
3041.42 -876.751 4039
3051.08 -876.751 4039
3053.92 -874.797 4030
3063.56 -874.797 4030
3028.96 -862.207 3972
3038.46 -862.207 3972
-2384.02 -758.664 3534
-2401.11 -766.822 3572
-2397.93 -768.539 3580
-2389.36 -768.539 3580
-2380.8 -768.539 3580
-2372.24 -768.539 3580
-2389.43 -776.912 3619
-2380.78 -776.912 3619
-2382.61 -780.346 3635
-2378.49 -781.849 3642
-2369.78 -781.849 3642
-2361.07 -781.849 3642
-2352.36 -781.849 3642
-2343.65 -781.849 3642
-2334.94 -781.849 3642
-2316.65 -778.629 3627
-2302.89 -776.912 3619
-2279.02 -771.759 3595
-2270.42 -771.759 3595
-660.095 -394.789 1839
-655.697 -394.789 1839
-651.299 -394.789 1839
-646.902 -394.789 1839
-642.504 -394.789 1839
-638.107 -394.789 1839
-630.263 -392.642 1829
-623.836 -391.354 1823
-618.117 -390.495 1819
-613.768 -390.495 1819
-608.748 -390.066 1817
-603.738 -389.637 1815
-597.416 -388.348 1809
-591.779 -387.49 1805
-587.462 -387.49 1805
