607.882 135.014 3440
616.108 135.014 3440
624.334 135.014 3440
632.56 135.014 3440
640.786 135.014 3440
650.333 135.288 3447
659.913 135.563 3454
669.527 135.838 3461
677.803 135.838 3461
689.053 136.427 3476
698.769 136.701 3483
707.098 136.701 3483
715.427 136.701 3483
723.756 136.701 3483
732.085 136.701 3483
740.414 136.701 3483
748.743 136.701 3483
757.072 136.701 3483
763.862 136.427 3476
772.174 136.427 3476
780.487 136.427 3476
788.799 136.427 3476
797.111 136.427 3476
812.143 137.565 3505
824.036 138.154 3520
832.453 138.154 3520
844.215 138.703 3534
852.666 138.703 3534
861.117 138.703 3534
869.567 138.703 3534
874.54 138.154 3520
882.957 138.154 3520
894.92 138.703 3534
903.371 138.703 3534
913.886 139.017 3542
924.179 139.292 3549
934.768 139.606 3557
943.274 139.606 3557
951.78 139.606 3557
960.285 139.606 3557
968.791 139.606 3557
977.297 139.606 3557
985.803 139.606 3557
996.545 139.92 3565
1005.07 139.92 3565
1013.6 139.92 3565
1022.12 139.92 3565
1028.33 139.606 3557
1034.51 139.292 3549
1042.99 139.292 3549
1051.48 139.292 3549
1069.23 140.508 3580
1080.19 140.822 3588
1090.9 141.097 3595
1099.5 141.097 3595
1108.09 141.097 3595
1116.69 141.097 3595
1125.29 141.097 3595
1133.88 141.097 3595
1142.48 141.097 3595
1151.08 141.097 3595
1162.25 141.411 3603
1170.87 141.411 3603
1184.72 142.039 3619
1193.38 142.039 3619
1202.03 142.039 3619
1210.68 142.039 3619
1216.64 141.725 3611
1233.42 142.667 3635
1242.11 142.667 3635
1250.81 142.667 3635
1259.5 142.667 3635
1268.19 142.667 3635
1276.88 142.667 3635
1285.58 142.667 3635
1294.27 142.667 3635
1300.09 142.353 3627
1305.88 142.039 3619
1314.53 142.039 3619
1323.19 142.039 3619
1331.84 142.039 3619
1340.5 142.039 3619
1349.15 142.039 3619
1357.81 142.039 3619
1369.48 142.353 3627
1378.15 142.353 3627
1386.83 142.353 3627
1392.42 142.039 3619
1401.08 142.039 3619
1406.61 141.725 3611
1415.25 141.725 3611
1423.88 141.725 3611
1429.34 141.411 3603
1437.96 141.411 3603
1443.36 141.097 3595
1451.96 141.097 3595
1448.37 139.92 3565
1450.36 139.292 3549
1458.84 139.292 3549
1470.64 139.606 3557
1479.14 139.606 3557
1487.65 139.606 3557
1492.79 139.292 3549
1501.28 139.292 3549
1503.38 138.703 3534
1508.84 138.428 3527
1514.26 138.154 3520
1522.68 138.154 3520
1531.1 138.154 3520
1539.51 138.154 3520
1551.01 138.428 3527
1559.44 138.428 3527
1567.88 138.428 3527
1576.31 138.428 3527
1587.89 138.703 3534
1596.34 138.703 3534
1608.43 139.017 3542
1616.9 139.017 3542
1625.37 139.017 3542
1626.92 138.428 3527
1635.35 138.428 3527
1643.78 138.428 3527
1655.5 138.703 3534
1667.72 139.017 3542
1676.19 139.017 3542
1684.66 139.017 3542
1693.13 139.017 3542
1694.39 138.428 3527
1702.82 138.428 3527
1711.26 138.428 3527
1712.38 137.84 3512
1720.78 137.84 3512
1729.17 137.84 3512
1737.57 137.84 3512
1745.97 137.84 3512
1754.37 137.84 3512
1751.73 136.976 3490
1760.07 136.976 3490
1757.27 136.113 3468
1762 135.838 3461
1773.85 136.113 3468
1786.26 136.427 3476
1794.57 136.427 3476
1802.88 136.427 3476
1807.03 136.113 3468
1815.32 136.113 3468
1827.82 136.427 3476
1836.13 136.427 3476
1855.59 137.251 3497
1868.21 137.565 3505
1880.34 137.84 3512
1888.74 137.84 3512
1901.46 138.154 3520
1913.68 138.428 3527
1930.29 139.017 3542
1938.76 139.017 3542
1955.47 139.606 3557
1984.96 141.097 3595
1993.56 141.097 3595
2002.15 141.097 3595
2015.22 141.411 3603
2028.33 141.725 3611
2050.51 142.667 3635
2059.2 142.667 3635
2086.1 143.923 3667
2094.86 143.923 3667
2103.63 143.923 3667
2112.4 143.923 3667
2125.8 144.237 3675
2134.59 144.237 3675
2143.38 144.237 3675
2142.21 143.57 3658
2150.95 143.57 3658
2159.7 143.57 3658
2173.78 143.923 3667
2182.55 143.923 3667
2191.32 143.923 3667
2194.69 143.57 3658
2203.44 143.57 3658
2212.19 143.57 3658
2220.93 143.57 3658
2229.68 143.57 3658
2243.94 143.923 3667
2252.71 143.923 3667
2261.47 143.923 3667
2259.72 143.256 3650
2263.47 142.942 3642
2272.18 142.942 3642
2285.9 143.256 3650
2294.63 143.256 3650
2303.36 143.256 3650
2312.09 143.256 3650
2336.71 144.237 3675
2345.5 144.237 3675
2354.29 144.237 3675
2363.08 144.237 3675
2371.86 144.237 3675
2380.65 144.237 3675
2389.44 144.237 3675
2398.23 144.237 3675
2407.02 144.237 3675
2415.8 144.237 3675
2424.59 144.237 3675
2422.12 143.57 3658
2430.87 143.57 3658
2439.62 143.57 3658
2454.39 143.923 3667
2463.16 143.923 3667
2471.93 143.923 3667
2480.7 143.923 3667
2477.92 143.256 3650
2476.43 142.667 3635
2474.19 142.039 3619
2482.84 142.039 3619
2480.48 141.411 3603
2462.84 139.92 3565
2029.13 114.487 2917
2036.11 114.487 2917
2043.08 114.487 2917
2021.24 112.878 2876
2007.67 111.74 2847
2010.94 111.543 2842
2017.74 111.543 2842
2020.97 111.347 2837
2017.75 110.798 2823
2017.33 110.405 2813
2024.05 110.405 2813
2027.89 110.248 2809
2030.99 110.052 2804
2034.06 109.856 2799
2040.75 109.856 2799
2054.76 110.248 2809
2061.48 110.248 2809
2078.5 110.798 2823
2088.95 110.994 2828
2098.67 111.151 2832
2105.45 111.151 2832
2115.95 111.347 2837
2122.73 111.347 2837
2129.52 111.347 2837
2136.3 111.347 2837
2143.08 111.347 2837
2157.45 111.74 2847
2164.25 111.74 2847
2171.06 111.74 2847
2177.87 111.74 2847
-2370.46 131.844 3166
-2362.89 131.844 3166
-2355.32 131.844 3166
-2352.2 132.094 3172
-2344.61 132.094 3172
-2341.45 132.344 3178
-2333.85 132.344 3178
-2330.64 132.593 3184
-2323.03 132.593 3184
-2319.78 132.843 3190
-2312.15 132.843 3190
-2304.52 132.843 3190
-2296.89 132.843 3190
-2289.26 132.843 3190
-2281.64 132.843 3190
-2269.73 132.593 3184
-2262.12 132.593 3184
-2254.5 132.593 3184
-2246.89 132.593 3184
-2239.27 132.593 3184
-2227.46 132.344 3178
-2219.86 132.344 3178
-2212.26 132.344 3178
-2204.66 132.344 3178
-2201.21 132.593 3184
-2193.59 132.593 3184
-2185.98 132.593 3184
-2182.47 132.843 3190
-2178.93 133.093 3196
-2171.29 133.093 3196
-2163.65 133.093 3196
-2156 133.093 3196
-2156.43 133.593 3208
-2152.77 133.843 3214
-2145.09 133.843 3214
-2142.06 134.134 3221
-2134.36 134.134 3221
-2126.65 134.134 3221
-2114.35 133.843 3214
-2106.66 133.843 3214
-2091.14 133.343 3202
-2087.39 133.593 3208
-2079.71 133.593 3208
-2072.04 133.593 3208
-2064.37 133.593 3208
-2056.7 133.593 3208
-2049.03 133.593 3208
-2041.36 133.593 3208
-2033.69 133.593 3208
-2026.01 133.593 3208
-2014.57 133.343 3202
-2006.91 133.343 3202
-2003 133.593 3208
-1995.33 133.593 3208
-1987.66 133.593 3208
-1979.99 133.593 3208
-1972.32 133.593 3208
-1964.64 133.593 3208
-1956.97 133.593 3208
-1976.04 135.425 3252
-1971.89 135.675 3258
-1976.16 136.508 3278
-1968.32 136.508 3278
-1960.48 136.508 3278
-1959.79 137.008 3290
-1956.08 137.299 3297
-1948.19 137.299 3297
-1940.31 137.299 3297
-1932.42 137.299 3297
-1924.54 137.299 3297
-1916.66 137.299 3297
-1908.77 137.299 3297
-1896.85 137.008 3290
-1888.98 137.008 3290
-1881.12 137.008 3290
-1869.83 136.758 3284
-1840.43 135.175 3246
-1828.72 134.884 3239
-1820.98 134.884 3239
-1809.87 134.634 3233
-1802.14 134.634 3233
-1791.08 134.384 3227
-1783.36 134.384 3227
-1768.49 133.843 3214
-1757.52 133.593 3208
-1749.85 133.593 3208
-1742.18 133.593 3208
-1734.51 133.593 3208
-1723.6 133.343 3202
-1715.95 133.343 3202
-1708.29 133.343 3202
-1700.63 133.343 3202
-1689.8 133.093 3196
-1682.16 133.093 3196
-1674.52 133.093 3196
-1666.88 133.093 3196
-1665.46 133.593 3208
-1657.79 133.593 3208
-1650.12 133.593 3208
-1642.45 133.593 3208
-1634.78 133.593 3208
-1633.7 134.134 3221
-1629.03 134.384 3227
-1621.31 134.384 3227
-1613.59 134.384 3227
-1605.88 134.384 3227
-1601.13 134.634 3233
-1593.4 134.634 3233
-1585.67 134.634 3233
-1575.01 134.384 3227
-1567.29 134.384 3227
-1559.58 134.384 3227
-1557.63 134.884 3239
-1553.23 135.175 3246
-1545.47 135.175 3246
-1537.71 135.175 3246
-1529.95 135.175 3246
-1525 135.425 3252
-1517.22 135.425 3252
-1509.45 135.425 3252
-1501.67 135.425 3252
-1499.87 135.967 3265
-1494.8 136.216 3271
-1486.98 136.216 3271
-1479.16 136.216 3271
-1477.18 136.758 3284
-1475.14 137.299 3297
-1467.26 137.299 3297
-1462.03 137.549 3303
-1460.3 138.132 3317
-1454.99 138.382 3323
-1447.05 138.382 3323
-1442.13 138.673 3330
-1434.17 138.673 3330
-1426.21 138.673 3330
-1412.71 138.132 3317
-1398.84 137.549 3303
-1390.95 137.549 3303
-1383.05 137.549 3303
-1375.15 137.549 3303
-1367.25 137.549 3303
-1365.11 138.132 3317
-1357.18 138.132 3317
-1349.25 138.132 3317
-1341.32 138.132 3317
-1330.57 137.841 3310
-1319.86 137.549 3303
-1311.96 137.549 3303
-1298.93 137.008 3290
-1291.06 137.008 3290
-1285.93 137.299 3297
-1278.04 137.299 3297
-1270.16 137.299 3297
-1259.59 137.008 3290
-1247.16 136.508 3278
-1239.32 136.508 3278
-1231.48 136.508 3278
-1223.64 136.508 3278
-1215.81 136.508 3278
-1207.97 136.508 3278
-1197.57 136.216 3271
-1187.56 135.967 3265
-1181.92 136.216 3271
-1176.61 136.508 3278
-1168.77 136.508 3278
-1160.93 136.508 3278
-1148.52 135.967 3265
-1140.72 135.967 3265
-1132.91 135.967 3265
-1120.62 135.425 3252
-1110.79 135.175 3246
-1103.03 135.175 3246
-590.148 72.8348 1749
-585.966 72.8348 1749
-581.118 72.7515 1747
-571.657 72.0852 1731
-563.255 71.5438 1718
-559.147 71.5438 1718
-553.423 71.3356 1713
-548.686 71.2523 1711
-543.958 71.169 1709
-539.871 71.169 1709
-534.217 70.9608 1704
-529.208 70.8359 1701
-524.523 70.7526 1699
-520.461 70.7526 1699
-515.182 70.586 1695
-510.224 70.4611 1692
-505.28 70.3362 1689
-501.242 70.3362 1689
-496.614 70.2529 1687
-489.66 69.8364 1677
-484.491 69.6699 1673
-477.331 69.2118 1662
-473.357 69.2118 1662
-465.994 68.7121 1650
-459.808 68.3789 1642
-453.66 68.0458 1634
-449.753 68.0458 1634
-443.663 67.7126 1626
-437.611 67.3795 1618
-432.133 67.1296 1612
-428.278 67.1296 1612
-423.897 67.0463 1610
-418.221 66.7548 1603
-413.353 66.5882 1599
-408.761 66.4633 1596
-404.945 66.4633 1596
-400.374 66.3384 1593
-395.818 66.2134 1590
-391.276 66.0885 1587
-387.481 66.0885 1587
-382.961 65.9636 1584
-378.934 65.9219 1583
-374.437 65.797 1580
-370.659 65.797 1580
-366.416 65.7137 1578
-362.413 65.6721 1577
-358.187 65.5888 1575
-354.421 65.5888 1575
-350.432 65.5471 1574
-346.668 65.5471 1574
-342.904 65.5471 1574
-339.356 65.5888 1575
-335.589 65.5888 1575
-331.823 65.5888 1575
-328.473 65.6721 1577
-324.908 65.7137 1578
-321.135 65.7137 1578
-317.361 65.7137 1578
-313.588 65.7137 1578
-310.403 65.8387 1581
-306.623 65.8387 1581
-303.225 65.9219 1583
-300.007 66.0469 1586
-296.401 66.0885 1587
-293.528 66.2967 1592
-289.721 66.2967 1592
-286.633 66.4633 1596
-283.702 66.6715 1601
-280.748 66.8797 1606
-276.907 66.8797 1606
-273.747 67.0463 1610
-270.4 67.1712 1613
-267.369 67.3795 1618
-263.5 67.3795 1618
-260.112 67.5044 1621
-256.71 67.6293 1624
-254.072 67.9625 1632
-250.169 67.9625 1632
-246.569 68.0458 1634
-243.552 68.2956 1640
-240.361 68.5039 1645
-236.427 68.5039 1645
-233.2 68.7121 1650
-229.672 68.837 1653
-226.948 69.2118 1662
-222.973 69.2118 1662
-219.658 69.42 1667
-215.801 69.4617 1668
-212.701 69.7532 1675
-208.696 69.7532 1675
-204.935 69.8364 1677
-201.284 69.9614 1680
-197.619 70.0863 1683
-193.594 70.0863 1683
-190.245 70.3362 1689
-186.317 70.3778 1690
-183.462 70.8359 1701
-179.394 70.8359 1701
-176.048 71.1274 1708
-172.669 71.4189 1715
-169.256 71.7104 1722
-165.138 71.7104 1722
-161.487 71.9186 1727
-157.813 72.1269 1732
-154.204 72.3767 1738
-150.048 72.3767 1738
-146.311 72.5849 1743
-143.203 73.1263 1756
-139.875 73.5844 1767
-135.65 73.5844 1767
-131.722 73.751 1771
-127.631 73.8342 1773
-123.391 73.8342 1773
-119.151 73.8342 1773
-114.911 73.8342 1773
-198.275 143.254 3440
-190.048 143.254 3440
-181.822 143.254 3440
-172.536 142.38 3419
-163.688 141.797 3405
-155.545 141.797 3405
-147.403 141.797 3405
-139.26 141.797 3405
-131.388 142.088 3412
-123.229 142.088 3412
-115.305 142.38 3419
-107.13 142.38 3419
-99.3589 142.963 3433
-91.1496 142.963 3433
-83.4476 143.837 3454
-75.188 143.837 3454
-66.9285 143.837 3454
-58.4311 143.254 3440
-50.205 143.254 3440
-41.9789 143.254 3440
-33.7528 143.254 3440
-25.6826 144.129 3461
-17.4063 144.129 3461
-9.13 144.129 3461
-0.855422 144.42 3468
7.45477 144.753 3476
15.7987 145.045 3483
24.1276 145.045 3483
32.5217 145.336 3490
40.8674 145.336 3490
49.213 145.336 3490
57.4432 145.045 3483
65.64 144.753 3476
73.9521 144.753 3476
82.2643 144.753 3476
90.1856 144.129 3461
98.4619 144.129 3461
105.875 142.963 3433
114.084 142.963 3433
121.795 142.38 3419
129.704 142.088 3412
137.864 142.088 3412
146.023 142.088 3412
154.182 142.088 3412
162.341 142.088 3412
170.15 141.797 3405
178.293 141.797 3405
186.435 141.797 3405
194.577 141.797 3405
202.72 141.797 3405
210.862 141.797 3405
219.005 141.797 3405
227.147 141.797 3405
235.289 141.797 3405
245.434 142.963 3433
254.677 143.546 3447
262.92 143.546 3447
271.163 143.546 3447
280.54 144.129 3461
288.817 144.129 3461
297.093 144.129 3461
306.693 144.753 3476
315.005 144.753 3476
323.317 144.753 3476
331.629 144.753 3476
339.942 144.753 3476
348.254 144.753 3476
356.566 144.753 3476
364.878 144.753 3476
372.331 144.42 3468
379.088 143.837 3454
385.777 143.254 3440
394.003 143.254 3440
401.411 142.963 3433
407.95 142.38 3419
416.126 142.38 3419
424.302 142.38 3419
432.478 142.38 3419
437.947 141.505 3398
444.235 140.922 3384
452.327 140.922 3384
459.467 140.631 3377
469.48 141.214 3391
477.589 141.214 3391
485.698 141.214 3391
491.768 140.631 3377
496.883 139.798 3357
502.805 139.215 3343
510.799 139.215 3343
518.794 139.215 3343
526.788 139.215 3343
535.902 139.506 3350
545.049 139.798 3357
558.678 141.214 3391
566.787 141.214 3391
580.83 142.671 3426
589.022 142.671 3426
599.656 143.254 3440
607.882 143.254 3440
616.108 143.254 3440
624.334 143.254 3440
632.56 143.254 3440
640.786 143.254 3440
650.333 143.546 3447
659.913 143.837 3454
669.527 144.129 3461
677.803 144.129 3461
689.053 144.753 3476
698.769 145.045 3483
707.098 145.045 3483
715.427 145.045 3483
723.756 145.045 3483
732.085 145.045 3483
740.414 145.045 3483
748.743 145.045 3483
757.072 145.045 3483
763.862 144.753 3476
772.174 144.753 3476
780.487 144.753 3476
788.799 144.753 3476
797.111 144.753 3476
812.143 145.961 3505
824.036 146.586 3520
832.453 146.586 3520
844.215 147.169 3534
852.666 147.169 3534
861.117 147.169 3534
869.567 147.169 3534
874.54 146.586 3520
882.957 146.586 3520
894.92 147.169 3534
903.371 147.169 3534
913.886 147.502 3542
924.179 147.793 3549
934.768 148.127 3557
943.274 148.127 3557
951.78 148.127 3557
960.285 148.127 3557
968.791 148.127 3557
977.297 148.127 3557
985.803 148.127 3557
996.545 148.46 3565
1005.07 148.46 3565
1013.6 148.46 3565
1022.12 148.46 3565
1028.33 148.127 3557
1034.51 147.793 3549
1042.99 147.793 3549
1051.48 147.793 3549
1069.23 149.084 3580
1080.19 149.418 3588
1090.9 149.709 3595
1099.5 149.709 3595
1108.09 149.709 3595
1116.69 149.709 3595
1125.29 149.709 3595
1133.88 149.709 3595
1142.48 149.709 3595
1151.08 149.709 3595
1162.25 150.042 3603
1170.87 150.042 3603
1184.72 150.708 3619
1193.38 150.708 3619
1202.03 150.708 3619
1210.68 150.708 3619
1216.64 150.375 3611
1233.42 151.375 3635
1242.11 151.375 3635
1250.81 151.375 3635
1259.5 151.375 3635
1268.19 151.375 3635
1276.88 151.375 3635
1285.58 151.375 3635
1294.27 151.375 3635
1300.09 151.042 3627
1305.88 150.708 3619
1314.53 150.708 3619
1323.19 150.708 3619
1331.84 150.708 3619
1340.5 150.708 3619
1349.15 150.708 3619
1357.81 150.708 3619
1369.48 151.042 3627
1378.15 151.042 3627
1386.83 151.042 3627
1392.42 150.708 3619
1397.98 150.375 3611
1406.61 150.375 3611
1415.25 150.375 3611
1423.88 150.375 3611
1429.34 150.042 3603
1437.96 150.042 3603
1440.55 149.418 3588
1449.13 149.418 3588
1448.37 148.46 3565
1450.36 147.793 3549
1458.84 147.793 3549
1470.64 148.127 3557
1479.14 148.127 3557
1487.65 148.127 3557
1492.79 147.793 3549
1501.28 147.793 3549
1503.38 147.169 3534
1508.84 146.877 3527
1514.26 146.586 3520
1522.68 146.586 3520
1531.1 146.586 3520
1539.51 146.586 3520
1551.01 146.877 3527
1559.44 146.877 3527
1567.88 146.877 3527
1576.31 146.877 3527
1587.89 147.169 3534
1596.34 147.169 3534
1608.43 147.502 3542
1616.9 147.502 3542
1625.37 147.502 3542
1626.92 146.877 3527
1635.35 146.877 3527
1643.78 146.877 3527
1655.5 147.169 3534
1667.72 147.502 3542
1676.19 147.502 3542
1684.66 147.502 3542
1693.13 147.502 3542
1694.39 146.877 3527
1702.82 146.877 3527
1711.26 146.877 3527
1701.65 145.336 3490
1713.43 145.628 3497
1721.79 145.628 3497
1730.15 145.628 3497
1738.51 145.628 3497
1746.88 145.628 3497
1744.7 144.753 3476
1753.01 144.753 3476
1750.17 143.837 3454
1751.31 143.254 3440
1766.69 143.837 3454
1778.55 144.129 3461
1786.83 144.129 3461
1795.1 144.129 3461
1796.08 143.546 3447
1804.33 143.546 3447
1823.61 144.42 3468
1831.91 144.42 3468
1851.87 145.336 3490
1868.21 145.961 3505
1880.34 146.253 3512
1888.74 146.253 3512
1901.46 146.586 3520
1913.68 146.877 3527
1930.29 147.502 3542
1938.76 147.502 3542
1955.47 148.127 3557
1984.96 149.709 3595
1993.56 149.709 3595
2002.15 149.709 3595
2015.22 150.042 3603
2028.33 150.375 3611
2050.51 151.375 3635
2059.2 151.375 3635
2086.1 152.707 3667
2094.86 152.707 3667
2103.63 152.707 3667
2112.4 152.707 3667
2125.8 153.041 3675
2134.59 153.041 3675
2143.38 153.041 3675
2142.21 152.333 3658
2150.95 152.333 3658
2159.7 152.333 3658
2173.78 152.707 3667
2182.55 152.707 3667
2191.32 152.707 3667
2194.69 152.333 3658
2203.44 152.333 3658
2212.19 152.333 3658
2220.93 152.333 3658
2229.68 152.333 3658
2243.94 152.707 3667
2252.71 152.707 3667
2261.47 152.707 3667
2259.72 151.999 3650
2263.47 151.666 3642
2272.18 151.666 3642
2285.9 151.999 3650
2294.63 151.999 3650
2303.36 151.999 3650
2312.09 151.999 3650
2336.71 153.041 3675
2345.5 153.041 3675
2354.29 153.041 3675
2363.08 153.041 3675
2371.86 153.041 3675
2380.65 153.041 3675
2389.44 153.041 3675
2398.23 153.041 3675
2407.02 153.041 3675
2415.8 153.041 3675
2424.59 153.041 3675
2422.12 152.333 3658
2430.87 152.333 3658
2439.62 152.333 3658
2454.39 152.707 3667
2463.16 152.707 3667
2471.93 152.707 3667
2480.7 152.707 3667
2477.92 151.999 3650
2476.43 151.375 3635
2474.19 150.708 3619
2482.84 150.708 3619
2480.48 150.042 3603
2462.84 148.46 3565
2018 120.808 2901
2024.94 120.808 2901
2031.88 120.808 2901
2021.24 119.767 2876
2000.62 118.143 2837
1997.5 117.56 2823
2004.25 117.56 2823
2011 117.56 2823
2010.6 117.144 2813
2010.87 116.769 2804
2017.58 116.769 2804
2014.18 116.186 2790
2017.23 115.978 2785
2023.89 115.978 2785
2040.75 116.561 2799
2047.45 116.561 2799
2054.14 116.561 2799
2068.2 116.977 2809
2085.25 117.56 2823
2095.71 117.768 2828
2102.47 117.768 2828
2112.22 117.935 2832
2122.73 118.143 2837
2129.52 118.143 2837
2136.3 118.143 2837
2143.08 118.143 2837
2157.45 118.56 2847
2164.25 118.56 2847
2171.06 118.56 2847
2177.87 118.56 2847
-2370.46 139.428 3166
-2362.89 139.428 3166
-2355.32 139.428 3166
-2347.75 139.428 3166
-2340.18 139.428 3166
-2337.03 139.692 3172
-2329.44 139.692 3172
-2321.86 139.692 3172
-2314.27 139.692 3172
-2315.41 140.221 3184
-2307.8 140.221 3184
-2300.19 140.221 3184
-2292.57 140.221 3184
-2284.96 140.221 3184
-2273.05 139.957 3178
-2265.45 139.957 3178
-2253.59 139.692 3172
-2246.01 139.692 3172
-2238.42 139.692 3172
-2230.84 139.692 3172
-2223.25 139.692 3172
-2215.66 139.692 3172
-2208.08 139.692 3172
-2200.49 139.692 3172
-2201.21 140.221 3184
-2193.59 140.221 3184
-2185.98 140.221 3184
-2182.47 140.485 3190
-2174.84 140.485 3190
-2171.29 140.749 3196
-2163.65 140.749 3196
-2156 140.749 3196
-2156.43 141.278 3208
-2152.77 141.542 3214
-2145.09 141.542 3214
-2137.4 141.542 3214
-2129.72 141.542 3214
-2122.03 141.542 3214
-2114.35 141.542 3214
-2102.73 141.278 3208
-2091.14 141.013 3202
-2087.39 141.278 3208
-2079.71 141.278 3208
-2080.44 141.85 3221
-2072.74 141.85 3221
-2065.03 141.85 3221
-2057.33 141.85 3221
-2045.18 141.542 3214
-2037.49 141.542 3214
-2029.8 141.542 3214
-2022.12 141.542 3214
-2010.67 141.278 3208
-2006.75 141.542 3214
-1999.06 141.542 3214
-1991.38 141.542 3214
-1983.69 141.542 3214
-1972.32 141.278 3208
-1964.64 141.278 3208
-1956.97 141.278 3208
-1976.04 143.215 3252
-1976.13 143.788 3265
-1976.16 144.36 3278
-1968.32 144.36 3278
-1960.48 144.36 3278
-1963.96 145.197 3297
-1956.08 145.197 3297
-1948.19 145.197 3297
-1943.84 145.461 3303
-1935.94 145.461 3303
-1928.04 145.461 3303
-1916.66 145.197 3297
-1908.77 145.197 3297
-1896.85 144.889 3290
-1888.98 144.889 3290
-1881.12 144.889 3290
-1869.83 144.625 3284
-1840.43 142.951 3246
-1828.72 142.643 3239
-1820.98 142.643 3239
-1813.23 142.643 3239
-1805.48 142.643 3239
-1794.41 142.379 3233
-1786.68 142.379 3233
-1778.95 142.379 3233
-1771.22 142.379 3233
-1763.48 142.379 3233
-1755.75 142.379 3233
-1748.02 142.379 3233
-1737.06 142.114 3227
-1729.34 142.114 3227
-1721.63 142.114 3227
-1707.01 141.542 3214
-1696.15 141.278 3208
-1695.32 141.85 3221
-1687.62 141.85 3221
-1679.91 141.85 3221
-1675.33 142.114 3227
-1667.61 142.114 3227
-1662.98 142.379 3233
-1655.25 142.379 3233
-1647.52 142.379 3233
-1649.42 143.215 3252
-1641.65 143.215 3252
-1633.87 143.215 3252
-1626.09 143.215 3252
-1618.32 143.215 3252
-1610.54 143.215 3252
-1602.76 143.215 3252
-1594.99 143.215 3252
-1587.21 143.215 3252
-1579.44 143.215 3252
-1571.66 143.215 3252
-1561 142.951 3246
-1553.23 142.951 3246
-1548.33 143.215 3252
-1540.55 143.215 3252
-1532.78 143.215 3252
-1525 143.215 3252
-1517.22 143.215 3252
-1509.45 143.215 3252
-1507.67 143.788 3265
-1505.84 144.36 3278
-1500.74 144.625 3284
-1492.89 144.625 3284
-1485.03 144.625 3284
-1483.03 145.197 3297
-1477.83 145.461 3303
-1469.93 145.461 3303
-1468.23 146.078 3317
-1462.94 146.342 3323
-1458.06 146.65 3330
-1450.09 146.65 3330
-1447.76 147.223 3343
-1439.77 147.223 3343
-1431.77 147.223 3343
-1423.78 147.223 3343
-1410.28 146.65 3330
-1399.37 146.342 3323
-1391.42 146.342 3323
-1383.48 146.342 3323
-1375.53 146.342 3323
-1375.81 147.223 3343
-1367.82 147.223 3343
-1359.83 147.223 3343
-1351.83 147.223 3343
-1338.61 146.65 3330
-1327.85 146.342 3323
-1319.91 146.342 3323
-1306.83 145.77 3310
-1298.91 145.77 3310
-1291 145.77 3310
-1283.08 145.77 3310
-1275.17 145.77 3310
-1264.57 145.461 3303
-1254.39 145.197 3297
-1246.51 145.197 3297
-1235.99 144.889 3290
-1228.12 144.889 3290
-1220.26 144.889 3290
-1212.39 144.889 3290
-1204.52 144.889 3290
-1192.29 144.36 3278
-1186.62 144.625 3284
-1178.77 144.625 3284
-1170.91 144.625 3284
-1163.06 144.625 3284
-1155.21 144.625 3284
-1147.35 144.625 3284
-1137.42 144.36 3278
-1125.1 143.788 3265
-599.197 77.1126 1751
-595.01 77.1126 1751
-590.148 77.0245 1749
-585.966 77.0245 1749
-581.118 76.9365 1747
-571.657 76.2318 1731
-563.255 75.6593 1718
-559.147 75.6593 1718
-553.423 75.4391 1713
-548.686 75.3511 1711
-543.958 75.263 1709
-539.871 75.263 1709
-534.217 75.0428 1704
-528.586 74.8226 1699
-523.906 74.7345 1697
-519.848 74.7345 1697
-514.878 74.6024 1694
-509.621 74.4262 1690
-505.28 74.3822 1689
-501.242 74.3822 1689
-495.436 74.118 1683
-488.492 73.6776 1673
-483.623 73.5454 1670
-476.183 73.017 1658
-472.218 73.017 1658
-465.994 72.6647 1650
-458.408 72.0921 1637
-453.105 71.872 1632
-449.202 71.872 1632
-443.117 71.5196 1624
-437.611 71.2554 1618
-432.401 71.0352 1613
-428.544 71.0352 1613
-423.897 70.9031 1610
-418.482 70.6389 1604
-413.87 70.5067 1601
-409.274 70.3746 1598
-405.452 70.3746 1598
-400.877 70.2425 1595
-396.316 70.1104 1592
-391.769 69.9783 1589
-387.97 69.9783 1589
-383.686 69.8902 1587
-378.934 69.714 1583
-374.674 69.626 1581
-370.894 69.626 1581
-366.881 69.5819 1580
-362.643 69.4938 1578
-358.187 69.3617 1575
-354.421 69.3617 1575
-350.432 69.3177 1574
-346.668 69.3177 1574
-343.122 69.3617 1575
-339.787 69.4498 1577
-336.016 69.4498 1577
-332.244 69.4498 1577
-328.682 69.4938 1578
-324.908 69.4938 1578
-321.135 69.4938 1578
-317.965 69.626 1581
-314.184 69.626 1581
-310.992 69.7581 1584
-307.204 69.7581 1584
-303.991 69.8902 1587
-300.196 69.8902 1587
-297.335 70.1104 1592
-293.528 70.1104 1592
-290.267 70.2425 1595
-286.992 70.3746 1598
-284.234 70.6389 1604
-280.748 70.7269 1606
-277.597 70.9031 1610
-274.087 70.9912 1612
-270.735 71.1233 1615
-267.865 71.3875 1621
-263.988 71.3875 1621
-260.433 71.4756 1623
-257.026 71.6077 1626
-254.072 71.872 1632
-250.169 71.872 1632
-246.87 72.0481 1636
-243.849 72.3123 1642
-240.361 72.4445 1645
-236.427 72.4445 1645
-233.2 72.6647 1650
-229.672 72.7968 1653
-226.948 73.1931 1662
-222.973 73.1931 1662
-219.658 73.4133 1667
-215.801 73.4574 1668
-212.447 73.6776 1673
-208.446 73.6776 1673
-204.935 73.8537 1677
-201.284 73.9858 1680
-197.619 74.118 1683
-193.594 74.118 1683
-190.245 74.3822 1689
-186.537 74.5143 1692
-183.462 74.9107 1701
-179.394 74.9107 1701
-175.842 75.1309 1706
-172.467 75.4391 1713
-168.862 75.6593 1718
-164.754 75.6593 1718
-161.113 75.8795 1723
-157.54 76.1438 1729
-154.026 76.452 1736
-149.875 76.452 1736
-146.143 76.6722 1741
-142.796 77.1126 1751
-139.558 77.6411 1763
-135.343 77.6411 1763
-131.573 77.9053 1769
-127.343 77.9053 1769
-123.113 77.9053 1769
-118.882 77.9053 1769
-198.275 151.495 3440
-190.048 151.495 3440
-181.822 151.495 3440
-172.536 150.57 3419
-164.361 150.57 3419
-156.505 150.878 3426
-148.312 150.878 3426
-140.692 151.495 3440
-132.466 151.495 3440
-124.493 151.803 3447
-116.25 151.803 3447
-108.007 151.803 3447
-100.169 152.42 3461
-91.893 152.42 3461
-83.9791 153.08 3476
-75.6669 153.08 3476
-67.3548 153.08 3476
-58.7878 152.42 3461
-50.5115 152.42 3461
-42.2352 152.42 3461
-33.9589 152.42 3461
-25.7345 152.728 3468
-17.4817 153.08 3476
-9.16957 153.08 3476
-0.857395 153.08 3476
7.49981 154.005 3497
15.8622 154.005 3497
24.2246 154.005 3497
32.5217 153.697 3490
40.8674 153.697 3490
49.213 153.697 3490
57.4432 153.388 3483
65.7721 153.388 3483
73.9521 153.08 3476
82.2643 153.08 3476
90.1856 152.42 3461
98.4619 152.42 3461
105.875 151.187 3433
114.084 151.187 3433
122.293 151.187 3433
130.237 150.878 3426
138.429 150.878 3426
146.622 150.878 3426
154.814 150.878 3426
162.341 150.262 3412
170.5 150.262 3412
178.293 149.953 3405
186.435 149.953 3405
194.577 149.953 3405
203.137 150.262 3412
211.296 150.262 3412
219.455 150.262 3412
227.614 150.262 3412
235.289 149.953 3405
245.434 151.187 3433
254.677 151.803 3447
262.92 151.803 3447
271.163 151.803 3447
280.54 152.42 3461
288.817 152.42 3461
297.093 152.42 3461
306.693 153.08 3476
315.005 153.08 3476
323.317 153.08 3476
330.866 152.728 3468
339.159 152.728 3468
347.452 152.728 3468
355.745 152.728 3468
363.303 152.42 3461
370.828 152.111 3454
377.551 151.495 3440
384.992 151.187 3433
393.202 151.187 3433
398.956 150.262 3412
405.444 149.645 3398
413.57 149.645 3398
421.696 149.645 3398
429.821 149.645 3398
436.142 149.029 3384
441.478 148.104 3363
449.52 148.104 3363
455.793 147.531 3350
467.542 148.72 3377
475.617 148.72 3377
483.693 148.72 3377
488.856 147.84 3357
495.847 147.531 3350
500.85 146.65 3330
508.813 146.65 3330
517.862 146.959 3337
525.842 146.959 3337
535.902 147.531 3350
545.049 147.84 3357
560.985 149.953 3405
569.127 149.953 3405
583.203 151.495 3440
591.429 151.495 3440
599.656 151.495 3440
607.882 151.495 3440
616.108 151.495 3440
625.604 151.803 3447
635.134 152.111 3454
643.394 152.111 3454
651.653 152.111 3454
661.25 152.42 3461
670.881 152.728 3468
679.174 152.728 3468
690.44 153.388 3483
698.769 153.388 3483
709.94 154.005 3497
718.303 154.005 3497
726.665 154.005 3497
733.556 153.697 3490
741.902 153.697 3490
750.247 153.697 3490
757.072 153.388 3483
765.4 153.388 3483
773.729 153.388 3483
783.63 153.697 3490
791.976 153.697 3490
803.761 154.357 3505
815.618 155.018 3520
827.313 155.634 3534
835.764 155.634 3534
847.798 156.295 3549
856.285 156.295 3549
864.772 156.295 3549
873.258 156.295 3549
880.006 155.987 3542
888.476 155.987 3542
896.946 155.987 3542
905.416 155.987 3542
915.692 156.295 3549
928.345 157 3565
936.87 157 3565
945.395 157 3565
953.92 157 3565
962.445 157 3565
970.97 157 3565
979.495 157 3565
985.803 156.647 3557
996.545 157 3565
1005.07 157 3565
1013.6 157 3565
1022.12 157 3565
1030.65 157 3565
1036.84 156.647 3557
1045.34 156.647 3557
1053.85 156.647 3557
1069.23 157.66 3580
1082.3 158.321 3595
1090.9 158.321 3595
1099.5 158.321 3595
1108.09 158.321 3595
1116.69 158.321 3595
1127.79 158.673 3603
1136.41 158.673 3603
1145.02 158.673 3603
1153.64 158.673 3603
1167.41 159.378 3619
1176.07 159.378 3619
1187.34 159.73 3627
1196.01 159.73 3627
1204.69 159.73 3627
1213.36 159.73 3627
1224.73 160.082 3635
1235.8 160.391 3642
1244.51 160.391 3642
1253.22 160.391 3642
1261.92 160.391 3642
1270.63 160.391 3642
1279.34 160.391 3642
1288.05 160.391 3642
1294.27 160.082 3635
1300.09 159.73 3627
1305.88 159.378 3619
1314.53 159.378 3619
1323.19 159.378 3619
1331.84 159.378 3619
1340.5 159.378 3619
1349.15 159.378 3619
1354.8 159.025 3611
1363.44 159.025 3611
1369.03 158.673 3603
1380.71 159.025 3611
1389.34 159.025 3611
1397.98 159.025 3611
1403.5 158.673 3603
1412.11 158.673 3603
1417.57 158.321 3595
1426.17 158.321 3595
1431.97 158.013 3588
1434.13 157.308 3572
1442.67 157.308 3572
1448.37 157 3565
1447.5 155.987 3542
1465.42 157 3565
1473.94 157 3565
1482.47 157 3565
1490.99 157 3565
1492.79 156.295 3549
1501.28 156.295 3549
1503.38 155.634 3534
1508.84 155.326 3527
1514.26 155.018 3520
1525.71 155.326 3527
1534.14 155.326 3527
1542.58 155.326 3527
1554.09 155.634 3534
1566.08 155.987 3542
1577.66 156.295 3549
1586.14 156.295 3549
1598.23 156.647 3557
1606.73 156.647 3557
1618.87 157 3565
1627.39 157 3565
1635.92 157 3565
1637.06 156.295 3549
1645.55 156.295 3549
1654.04 156.295 3549
1687.82 158.673 3603
1696.44 158.673 3603
1705.05 158.673 3603
1713.67 158.673 3603
1711.29 157.66 3580
1712.64 157 3565
1721.17 157 3565
1729.69 157 3565
1730.42 156.295 3549
1713.43 154.005 3497
1721.79 154.005 3497
1730.15 154.005 3497
1738.51 154.005 3497
1743.38 153.697 3490
1740.68 152.728 3468
1748.98 152.728 3468
1743.08 151.495 3440
1751.31 151.495 3440
1759.53 151.495 3440
1771.36 151.803 3447
1779.6 151.803 3447
1787.84 151.803 3447
1792.44 151.495 3440
1800.66 151.495 3440
1812.57 151.803 3447
1820.81 151.803 3447
1851.87 153.697 3490
1868.21 154.357 3505
1880.34 154.666 3512
1888.74 154.666 3512
1905.24 155.326 3527
1913.68 155.326 3527
1934.1 156.295 3549
1942.59 156.295 3549
1963.72 157.308 3572
1984.96 158.321 3595
1993.56 158.321 3595
2002.15 158.321 3595
2015.22 158.673 3603
2028.33 159.025 3611
2063.48 161.095 3658
2072.23 161.095 3658
2090.65 161.844 3675
2099.43 161.844 3675
2108.22 161.844 3675
2117.01 161.844 3675
2125.8 161.844 3675
2134.59 161.844 3675
2143.38 161.844 3675
2152.16 161.844 3675
2160.95 161.844 3675
2165.02 161.492 3667
2173.78 161.492 3667
2182.55 161.492 3667
2191.32 161.492 3667
2200.09 161.492 3667
2208.86 161.492 3667
2217.63 161.492 3667
2220.93 161.095 3658
2235.17 161.492 3667
2248.83 161.844 3675
2257.62 161.844 3675
2266.41 161.844 3675
2275.2 161.844 3675
2279.01 161.492 3667
2287.78 161.492 3667
2290.91 161.095 3658
2299.66 161.095 3658
2308.41 161.095 3658
2327.92 161.844 3675
2341.8 162.196 3683
2350.61 162.196 3683
2359.41 162.196 3683
2368.22 162.196 3683
2377.03 162.196 3683
2385.83 162.196 3683
2394.64 162.196 3683
2403.45 162.196 3683
2412.26 162.196 3683
2421.06 162.196 3683
2429.87 162.196 3683
2428.08 161.492 3667
2436.85 161.492 3667
2445.62 161.492 3667
2459.74 161.844 3675
2468.53 161.844 3675
2477.32 161.844 3675
2486.11 161.844 3675
2489.47 161.492 3667
2486.65 160.743 3650
2489.91 160.391 3642
2498.62 160.391 3642
2497 159.73 3627
2489.1 158.673 3603
2011.04 127.317 2891
2017.96 127.317 2891
2024.87 127.317 2891
2000.86 125.38 2847
1997.09 124.719 2832
1997.5 124.323 2823
2004.25 124.323 2823
2011 124.323 2823
2010.6 123.882 2813
2000.83 122.869 2790
2007.5 122.869 2790
2010.57 122.649 2785
2010.71 122.253 2776
2017.35 122.253 2776
2026.9 122.429 2780
2047.45 123.266 2799
2054.14 123.266 2799
2068.2 123.706 2809
2081.56 124.102 2818
2092 124.323 2823
2098.76 124.323 2823
2112.22 124.719 2832
2118.99 124.719 2832
2125.76 124.719 2832
2132.54 124.719 2832
2143.08 124.939 2837
2153.66 125.159 2842
2164.25 125.38 2847
2171.06 125.38 2847
2177.87 125.38 2847
-2370.46 147.012 3166
-2362.89 147.012 3166
-2355.32 147.012 3166
-2347.75 147.012 3166
-2340.18 147.012 3166
-2337.03 147.291 3172
-2329.44 147.291 3172
-2321.86 147.291 3172
-2314.27 147.291 3172
-2315.41 147.848 3184
-2307.8 147.848 3184
-2300.19 147.848 3184
-2292.57 147.848 3184
-2284.96 147.848 3184
-2273.05 147.569 3178
-2265.45 147.569 3178
-2257.85 147.569 3178
-2250.25 147.569 3178
-2238.42 147.291 3172
-2230.84 147.291 3172
-2227.46 147.569 3178
-2224.05 147.848 3184
-2216.43 147.848 3184
-2208.82 147.848 3184
-2205.35 148.127 3190
-2197.72 148.127 3190
-2190.1 148.127 3190
-2182.47 148.127 3190
-2174.84 148.127 3190
-2171.29 148.405 3196
-2163.65 148.405 3196
-2156 148.405 3196
-2156.43 148.963 3208
-2152.77 149.241 3214
-2145.09 149.241 3214
-2146.05 149.845 3227
-2138.33 149.845 3227
-2130.61 149.845 3227
-2118.95 149.566 3221
-2106.66 149.241 3214
-2095.06 148.963 3208
-2095.84 149.566 3221
-2088.14 149.566 3221
-2080.44 149.566 3221
-2072.74 149.566 3221
-2065.03 149.566 3221
-2057.33 149.566 3221
-2049.63 149.566 3221
-2049.53 150.123 3233
-2041.8 150.123 3233
-2034.07 150.123 3233
-2022.58 149.845 3227
-2014.86 149.845 3227
-2007.15 149.845 3227
-1999.43 149.845 3227
-1991.71 149.845 3227
-1976 149.241 3214
-1968.32 149.241 3214
-1956.97 148.963 3208
-1976.04 151.006 3252
-1976.13 151.609 3265
-1976.16 152.213 3278
-1968.32 152.213 3278
-1967.66 152.77 3290
-1967.53 153.374 3303
-1959.64 153.374 3303
-1951.74 153.374 3303
-1952.08 154.024 3317
-1944.15 154.024 3317
-1936.21 154.024 3317
-1920.14 153.374 3303
-1912.25 153.374 3303
-1900.89 153.095 3297
-1893 153.095 3297
-1881.12 152.77 3290
-1869.83 152.492 3284
-1843.84 151.006 3252
-1832.67 150.727 3246
-1824.91 150.727 3246
-1817.15 150.727 3246
-1809.39 150.727 3246
-1804.95 151.006 3252
-1797.18 151.006 3252
-1789.4 151.006 3252
-1778.34 150.727 3246
-1770.58 150.727 3246
-1762.81 150.727 3246
-1755.05 150.727 3246
-1743.52 150.402 3239
-1735.78 150.402 3239
-1728.03 150.402 3239
-1713.91 149.845 3227
-1703.02 149.566 3221
-1701.64 150.123 3233
-1693.9 150.123 3233
-1686.17 150.123 3233
-1685.19 150.727 3246
-1680.53 151.006 3252
-1675.84 151.284 3258
-1668.05 151.284 3258
-1660.26 151.284 3258
-1662.61 152.213 3278
-1657.8 152.492 3284
-1649.95 152.492 3284
-1642.1 152.492 3284
-1631.26 152.213 3278
-1623.42 152.213 3278
-1612.13 151.888 3271
-1604.31 151.888 3271
-1596.49 151.888 3271
-1588.66 151.888 3271
-1574.56 151.284 3258
-1570.13 151.609 3265
-1568.55 152.213 3278
-1560.71 152.213 3278
-1552.87 152.213 3278
-1547.86 152.492 3284
-1540.01 152.492 3284
-1532.15 152.492 3284
-1524.3 152.492 3284
-1513.68 152.213 3278
-1514.57 153.095 3297
-1506.68 153.095 3297
-1498.8 153.095 3297
-1490.91 153.095 3297
-1485.73 153.374 3303
-1484.09 154.024 3317
-1476.16 154.024 3317
-1470.89 154.302 3323
-1469.1 154.953 3337
-1466.81 155.556 3350
-1458.8 155.556 3350
-1450.79 155.556 3350
-1442.78 155.556 3350
-1434.77 155.556 3350
-1426.76 155.556 3350
-1418.75 155.556 3350
-1407.79 155.231 3343
-1399.8 155.231 3343
-1391.8 155.231 3343
-1389.6 155.881 3357
-1392.69 157.135 3384
-1387.46 157.46 3391
-1379.35 157.46 3391
-1371.24 157.46 3391
-1351.88 156.16 3363
-1341.44 155.881 3357
-1338.57 156.485 3370
-1330.52 156.485 3370
-1322.46 156.485 3370
-1314.4 156.485 3370
-1306.34 156.485 3370
-1298.28 156.485 3370
-1287.54 156.16 3363
-1274.55 155.556 3350
-1266.54 155.556 3350
-1255.9 155.231 3343
-1247.91 155.231 3343
-1239.91 155.231 3343
-1231.92 155.231 3343
-1214.41 154.024 3317
-1206.47 154.024 3317
-1198.54 154.024 3317
-1190.61 154.024 3317
-1182.68 154.024 3317
-1174.75 154.024 3317
-1164.35 153.699 3310
-1156.44 153.699 3310
-1144.01 153.095 3297
-1136.13 153.095 3297
-599.197 81.3072 1751
-595.01 81.3072 1751
-590.148 81.2143 1749
-585.966 81.2143 1749
-581.118 81.1214 1747
-571.657 80.3785 1731
-563.255 79.7748 1718
-559.147 79.7748 1718
-553.423 79.5426 1713
-548.686 79.4498 1711
-543.958 79.3569 1709
-539.871 79.3569 1709
-534.217 79.1247 1704
-528.586 78.8925 1699
-523.906 78.7997 1697
-519.848 78.7997 1697
-514.878 78.6604 1694
-509.621 78.4746 1690
-505.28 78.4282 1689
-501.242 78.4282 1689
-495.436 78.1496 1683
-488.492 77.6852 1673
-483.623 77.5459 1670
-476.183 76.9887 1658
-472.218 76.9887 1658
-465.994 76.6172 1650
-458.408 76.0136 1637
-453.105 75.7814 1632
-449.202 75.7814 1632
-443.117 75.4099 1624
-437.611 75.1313 1618
-432.401 74.8992 1613
-428.544 74.8992 1613
-424.423 74.8527 1612
-419.264 74.6206 1607
-414.387 74.4348 1603
-409.53 74.2491 1599
-405.706 74.2491 1599
-401.631 74.2026 1598
-396.565 73.9705 1593
-392.509 73.924 1592
-388.702 73.924 1592
-383.686 73.6919 1587
-378.934 73.5061 1583
-374.674 73.4133 1581
-370.894 73.4133 1581
-366.881 73.3668 1580
-362.643 73.2739 1578
-358.642 73.2275 1577
-354.871 73.2275 1577
-350.655 73.1346 1575
-347.329 73.2275 1577
-343.558 73.2275 1577
-340.002 73.2739 1578
-336.229 73.2739 1578
-332.455 73.2739 1578
-329.307 73.4133 1581
-325.526 73.4133 1581
-321.745 73.4133 1581
-318.568 73.5526 1584
-315.178 73.6454 1586
-311.581 73.6919 1587
-307.786 73.6919 1587
-304.566 73.8312 1590
-301.142 73.924 1592
-297.895 74.0633 1595
-294.081 74.0633 1595
-290.813 74.2026 1598
-287.89 74.4348 1603
-284.765 74.6206 1607
-280.923 74.6206 1607
-277.942 74.8527 1612
-274.597 74.992 1615
-271.238 75.1313 1618
-267.865 75.2706 1621
-264.314 75.3635 1623
-260.914 75.5028 1626
-257.342 75.5957 1628
-254.383 75.8743 1634
-250.476 75.8743 1634
-247.021 76.0136 1637
-243.849 76.2458 1642
-240.799 76.5244 1648
-236.859 76.5244 1648
-233.483 76.7101 1652
-229.949 76.8494 1655
-227.084 77.2209 1663
-223.107 77.2209 1663
-219.658 77.4066 1667
-215.801 77.4531 1668
-212.447 77.6852 1673
-208.446 77.6852 1673
-204.935 77.871 1677
-201.284 78.0103 1680
-197.619 78.1496 1683
-193.594 78.1496 1683
-190.245 78.4282 1689
-186.537 78.5675 1692
-183.462 78.9854 1701
-179.394 78.9854 1701
-175.842 79.2176 1706
-172.467 79.5426 1713
-168.862 79.7748 1718
-164.754 79.7748 1718
-161.113 80.007 1723
-157.722 80.3785 1731
-154.204 80.7035 1738
-150.048 80.7035 1738
-146.479 81.0285 1745
-143.04 81.4465 1754
-139.558 81.8644 1763
-135.343 81.8644 1763
-131.871 82.3287 1773
-127.631 82.3287 1773
-123.391 82.3287 1773
-119.017 82.2358 1771
-198.275 159.735 3440
-190.048 159.735 3440
-181.822 159.735 3440
-173.596 159.735 3440
-165.37 159.735 3440
-157.464 160.06 3447
-149.221 160.06 3447
-142.164 161.407 3476
-133.852 161.407 3476
-125.54 161.407 3476
-117.228 161.407 3476
-108.665 161.036 3468
-100.806 161.732 3483
-92.4771 161.732 3483
-84.3173 162.057 3490
-75.9717 162.057 3490
-67.626 162.057 3490
-59.1615 161.732 3483
-50.8326 161.732 3483
-42.4182 161.407 3476
-34.1061 161.407 3476
-25.8978 162.057 3490
-17.5521 162.057 3490
-9.2065 162.057 3490
-0.862575 162.382 3497
7.53198 163.079 3512
15.9302 163.079 3512
24.3285 163.079 3512
32.7267 163.079 3512
41.125 163.079 3512
49.5233 163.079 3512
57.5587 162.057 3490
65.9043 162.057 3490
74.1011 161.732 3483
82.43 161.732 3483
90.368 161.036 3468
98.661 161.036 3468
106.522 160.385 3454
114.782 160.385 3454
122.543 159.735 3440
130.769 159.735 3440
138.995 159.735 3440
147.221 159.735 3440
155.447 159.735 3440
163.007 159.085 3426
170.85 158.76 3419
178.659 158.435 3412
186.818 158.435 3412
194.977 158.435 3412
203.137 158.435 3412
211.296 158.435 3412
219.455 158.435 3412
227.614 158.435 3412
235.289 158.11 3405
245.434 159.41 3433
254.677 160.06 3447
262.92 160.06 3447
271.163 160.06 3447
280.54 160.71 3461
288.817 160.71 3461
297.093 160.71 3461
305.987 161.036 3468
314.28 161.036 3468
322.573 161.036 3468
330.866 161.036 3468
339.159 161.036 3468
346.751 160.71 3461
355.027 160.71 3461
362.569 160.385 3454
369.325 159.735 3440
376.783 159.41 3433
384.207 159.085 3426
392.4 159.085 3426
397.319 157.785 3398
402.939 156.81 3377
411.014 156.81 3377
419.089 156.81 3377
427.165 156.81 3377
434.338 156.485 3370
439.771 155.556 3350
447.782 155.556 3350
454.024 154.953 3337
463.804 155.556 3350
471.815 155.556 3350
479.826 155.556 3350
487.836 155.556 3350
491.851 154.302 3323
498.895 154.024 3317
507.744 154.302 3323
516.776 154.628 3330
524.739 154.628 3330
533.822 154.953 3337
545.049 155.881 3357
560.985 158.11 3405
569.127 158.11 3405
583.203 159.735 3440
591.429 159.735 3440
600.876 160.06 3447
609.119 160.06 3447
618.615 160.385 3454
626.875 160.385 3454
636.421 160.71 3461
644.698 160.71 3461
652.974 160.71 3461
662.588 161.036 3468
673.782 161.732 3483
682.111 161.732 3483
693.216 162.382 3497
703.183 162.754 3505
711.564 162.754 3505
719.946 162.754 3505
728.327 162.754 3505
736.709 162.754 3505
745.091 162.754 3505
753.472 162.754 3505
761.854 162.754 3505
770.235 162.754 3505
778.617 162.754 3505
786.998 162.754 3505
795.38 162.754 3505
807.201 163.45 3520
818.862 164.1 3534
830.825 164.797 3549
839.311 164.797 3549
847.798 164.797 3549
858.215 165.168 3557
866.721 165.168 3557
875.227 165.168 3557
881.745 164.797 3549
888.476 164.472 3542
898.718 164.797 3549
907.205 164.797 3549
919.82 165.54 3565
928.345 165.54 3565
936.87 165.54 3565
945.395 165.54 3565
953.92 165.54 3565
962.445 165.54 3565
970.97 165.54 3565
979.495 165.54 3565
985.803 165.168 3557
996.545 165.54 3565
1005.07 165.54 3565
1013.6 165.54 3565
1022.12 165.54 3565
1030.65 165.54 3565
1036.84 165.168 3557
1047.7 165.54 3565
1056.22 165.54 3565
1069.23 166.236 3580
1082.3 166.933 3595
1090.9 166.933 3595
1099.5 166.933 3595
1108.09 166.933 3595
1116.69 166.933 3595
1127.79 167.304 3603
1136.41 167.304 3603
1145.02 167.304 3603
1153.64 167.304 3603
1167.41 168.047 3619
1176.07 168.047 3619
1187.34 168.419 3627
1198.65 168.79 3635
1207.35 168.79 3635
1216.04 168.79 3635
1227.09 169.115 3642
1238.51 169.487 3650
1249.97 169.858 3658
1258.72 169.858 3658
1267.47 169.858 3658
1276.22 169.858 3658
1284.96 169.858 3658
1293.71 169.858 3658
1302.46 169.858 3658
1308.34 169.487 3650
1311.65 168.79 3635
1320.35 168.79 3635
1329.04 168.79 3635
1334.79 168.419 3627
1343.46 168.419 3627
1352.13 168.419 3627
1357.81 168.047 3619
1363.44 167.676 3611
1372.07 167.676 3611
1380.71 167.676 3611
1389.34 167.676 3611
1397.98 167.676 3611
1406.61 167.676 3611
1415.25 167.676 3611
1417.57 166.933 3595
1423.39 166.608 3588
1425.59 165.865 3572
1434.13 165.865 3572
1442.67 165.865 3572
1448.37 165.54 3565
1447.5 164.472 3542
1465.42 165.54 3565
1473.94 165.54 3565
1482.47 165.54 3565
1490.99 165.54 3565
1492.79 164.797 3549
1501.28 164.797 3549
1503.38 164.1 3534
1508.84 163.775 3527
1514.26 163.45 3520
1525.71 163.775 3527
1534.14 163.775 3527
1542.58 163.775 3527
1557.61 164.472 3542
1572.71 165.168 3557
1581.21 165.168 3557
1642.46 170.648 3675
1662.03 171.762 3699
1670.87 171.762 3699
1679.72 171.762 3699
1688.56 171.762 3699
1690.07 171.019 3683
1698.88 171.019 3683
1707.68 171.019 3683
1712.76 170.648 3675
1721.55 170.648 3675
1726.57 170.276 3667
1735.34 170.276 3667
1732.22 169.115 3642
1733.76 168.419 3627
1723.69 166.608 3588
1732.27 166.608 3588
1740.85 166.608 3588
1738.22 165.54 3565
1731.56 164.1 3534
1729.17 163.079 3512
1737.57 163.079 3512
1745.97 163.079 3512
1750.87 162.754 3505
1748.21 161.732 3483
1756.54 161.732 3483
1753.72 160.71 3461
1751.31 159.735 3440
1759.53 159.735 3440
1767.76 159.735 3440
1775.99 159.735 3440
1784.21 159.735 3440
1792.44 159.735 3440
1800.66 159.735 3440
1819.93 160.71 3461
1828.21 160.71 3461
1859.83 162.754 3505
1871.94 163.079 3512
1888.37 163.775 3527
1896.81 163.775 3527
1905.24 163.775 3527
1921.82 164.472 3542
1934.1 164.797 3549
1942.59 164.797 3549
1963.72 165.865 3572
1981.09 166.608 3588
1993.56 166.933 3595
2002.15 166.933 3595
2015.22 167.304 3603
2028.33 167.676 3611
2068.56 170.276 3667
2077.33 170.276 3667
2090.65 170.648 3675
2099.43 170.648 3675
2108.22 170.648 3675
2117.01 170.648 3675
2125.8 170.648 3675
2134.59 170.648 3675
2143.38 170.648 3675
2152.16 170.648 3675
2160.95 170.648 3675
2169.74 170.648 3675
2178.53 170.648 3675
2187.32 170.648 3675
2196.1 170.648 3675
2204.89 170.648 3675
2213.68 170.648 3675
2222.47 170.648 3675
2231.26 170.648 3675
2244.92 171.019 3683
2253.73 171.019 3683
2262.53 171.019 3683
2271.34 171.019 3683
2275.2 170.648 3675
2283.98 170.648 3675
2292.77 170.648 3675
2296.55 170.276 3667
2315.38 171.019 3683
2324.18 171.019 3683
2332.99 171.019 3683
2346.89 171.39 3691
2355.71 171.39 3691
2364.54 171.39 3691
2373.36 171.39 3691
2382.19 171.39 3691
2391.02 171.39 3691
2399.84 171.39 3691
2408.67 171.39 3691
2417.5 171.39 3691
2426.32 171.39 3691
2429.87 171.019 3683
2433.38 170.648 3675
2442.17 170.648 3675
2450.96 170.648 3675
2459.74 170.648 3675
2468.53 170.648 3675
2477.32 170.648 3675
2486.11 170.648 3675
2489.47 170.276 3667
2498.23 170.276 3667
2495.38 169.487 3650
2504.11 169.487 3650
2507.33 169.115 3642
2505.68 168.419 3627
1987.25 132.2 2847
1994.05 132.2 2847
2000.86 132.2 2847
1997.09 131.503 2832
1997.5 131.085 2823
2004.25 131.085 2823
2011 131.085 2823
2010.6 130.621 2813
1997.25 129.321 2785
2003.91 129.321 2785
2006.96 129.088 2780
2007.09 128.671 2771
2017.35 128.903 2776
2023.98 128.903 2776
2043.79 129.739 2794
2050.47 129.739 2794
2060.83 129.971 2799
2074.91 130.435 2809
2092 131.085 2823
2098.76 131.085 2823
2109.24 131.317 2828
2118.99 131.503 2832
2125.76 131.503 2832
2132.54 131.503 2832
2143.08 131.735 2837
2153.66 131.967 2842
2164.25 132.2 2847
2171.06 132.2 2847
2177.87 132.2 2847
-2356.98 153.717 3148
-2349.46 153.717 3148
-2341.93 153.717 3148
-2334.4 153.717 3148
-2331.31 154.01 3154
-2328.19 154.303 3160
-2320.63 154.303 3160
-2313.07 154.303 3160
-2309.9 154.596 3166
-2306.69 154.889 3172
-2299.1 154.889 3172
-2295.85 155.182 3178
-2288.25 155.182 3178
-2280.65 155.182 3178
-2273.05 155.182 3178
-2265.45 155.182 3178
-2257.85 155.182 3178
-2250.25 155.182 3178
-2238.42 154.889 3172
-2230.84 154.889 3172
-2227.46 155.182 3178
-2224.05 155.475 3184
-2216.43 155.475 3184
-2208.82 155.475 3184
-2205.35 155.768 3190
-2197.72 155.768 3190
-2190.1 155.768 3190
-2182.47 155.768 3190
-2174.84 155.768 3190
-2171.29 156.061 3196
-2163.65 156.061 3196
-2156 156.061 3196
-2156.43 156.647 3208
-2152.77 156.94 3214
-2145.09 156.94 3214
-2146.05 157.575 3227
-2138.33 157.575 3227
-2130.61 157.575 3227
-2118.95 157.282 3221
-2106.66 156.94 3214
-2095.06 156.647 3208
-2095.84 157.282 3221
-2088.14 157.282 3221
-2080.44 157.282 3221
-2072.74 157.282 3221
-2065.03 157.282 3221
-2057.33 157.282 3221
-2049.63 157.282 3221
-2049.53 157.868 3233
-2041.8 157.868 3233
-2034.07 157.868 3233
-2022.58 157.575 3227
-2014.86 157.575 3227
-2007.15 157.575 3227
-1999.43 157.575 3227
-1991.71 157.575 3227
-1976 156.94 3214
-1968.32 156.94 3214
-1956.97 156.647 3208
-1976.04 158.796 3252
-1976.13 159.431 3265
-1976.16 160.065 3278
-1968.32 160.065 3278
-1967.66 160.651 3290
-1967.53 161.286 3303
-1959.64 161.286 3303
-1951.74 161.286 3303
-1952.08 161.97 3317
-1944.15 161.97 3317
-1936.21 161.97 3317
-1920.14 161.286 3303
-1912.25 161.286 3303
-1900.89 160.993 3297
-1893 160.993 3297
-1881.12 160.651 3290
-1866.42 160.065 3278
-1843.84 158.796 3252
-1832.67 158.503 3246
-1824.91 158.503 3246
-1817.15 158.503 3246
-1809.39 158.503 3246
-1804.95 158.796 3252
-1797.18 158.796 3252
-1789.4 158.796 3252
-1778.34 158.503 3246
-1770.58 158.503 3246
-1762.81 158.503 3246
-1755.05 158.503 3246
-1743.52 158.161 3239
-1735.78 158.161 3239
-1728.03 158.161 3239
-1713.91 157.575 3227
-1703.02 157.282 3221
-1701.64 157.868 3233
-1693.9 157.868 3233
-1686.17 157.868 3233
-1685.19 158.503 3246
-1680.53 158.796 3252
-1675.84 159.089 3258
-1668.05 159.089 3258
-1660.26 159.089 3258
-1662.61 160.065 3278
-1657.8 160.358 3284
-1649.95 160.358 3284
-1642.1 160.358 3284
-1631.26 160.065 3278
-1623.42 160.065 3278
-1612.13 159.724 3271
-1604.31 159.724 3271
-1596.49 159.724 3271
-1588.66 159.724 3271
-1574.56 159.089 3258
-1570.13 159.431 3265
-1568.55 160.065 3278
-1560.71 160.065 3278
-1552.87 160.065 3278
-1547.86 160.358 3284
-1540.01 160.358 3284
-1532.15 160.358 3284
-1524.3 160.358 3284
-1513.68 160.065 3278
-1514.57 160.993 3297
-1506.68 160.993 3297
-1498.8 160.993 3297
-1490.91 160.993 3297
-1485.73 161.286 3303
-1484.09 161.97 3317
-1476.16 161.97 3317
