1042.85 650.255 3699
1051.69 650.255 3699
1060.54 650.255 3699
1069.38 650.255 3699
1078.23 650.255 3699
1087.08 650.255 3699
1095.92 650.255 3699
1104.77 650.255 3699
1116.02 651.662 3707
1124.88 651.662 3707
1133.75 651.662 3707
1142.61 651.662 3707
1151.48 651.662 3707
1160.34 651.662 3707
1166.68 650.255 3699
1175.53 650.255 3699
1184.38 650.255 3699
1193.22 650.255 3699
1202.07 650.255 3699
1208.29 648.849 3691
1217.12 648.849 3691
1225.95 648.849 3691
1229.42 646.036 3675
1238.21 646.036 3675
1244.28 644.63 3667
1253.05 644.63 3667
1261.82 644.63 3667
1270.59 644.63 3667
1279.36 644.63 3667
1288.12 644.63 3667
1296.89 644.63 3667
1305.66 644.63 3667
1311.21 643.048 3658
1323.2 644.63 3667
1334.88 646.036 3675
1343.66 646.036 3675
1352.45 646.036 3675
1358.28 644.63 3667
1367.05 644.63 3667
1375.81 644.63 3667
1387.6 646.036 3675
1399.43 647.443 3683
1411.3 648.849 3691
1420.12 648.849 3691
1428.95 648.849 3691
1437.78 648.849 3691
1449.74 650.255 3699
1458.58 650.255 3699
1467.43 650.255 3699
1476.27 650.255 3699
1488.33 651.662 3707
1497.2 651.662 3707
1506.06 651.662 3707
1514.93 651.662 3707
1520.5 650.255 3699
1529.35 650.255 3699
1531.54 647.443 3683
1540.35 647.443 3683
1549.15 647.443 3683
1557.96 647.443 3683
1566.77 647.443 3683
1582.42 650.255 3699
1591.27 650.255 3699
1600.11 650.255 3699
1602 647.443 3683
1610.8 647.443 3683
1623.13 648.849 3691
1631.96 648.849 3691
1640.78 648.849 3691
1649.61 648.849 3691
1658.43 648.849 3691
1667.26 648.849 3691
1676.09 648.849 3691
1684.91 648.849 3691
1708.88 654.65 3724
1717.79 654.65 3724
1730.4 656.056 3732
1739.33 656.056 3732
1752 657.463 3740
1765.18 659.045 3749
1782.19 662.033 3766
1791.19 662.033 3766
1800.2 662.033 3766
1809.21 662.033 3766
1818.21 662.033 3766
1827.22 662.033 3766
1819.65 656.056 3732
1820.73 653.244 3716
1829.62 653.244 3716
1826.13 648.849 3691
1823.03 644.63 3667
1827.3 643.048 3658
1820.49 637.598 3627
1829.16 637.598 3627
1825.67 633.379 3603
1830.22 631.973 3595
1827.05 627.93 3572
1839.7 629.336 3580
1848.26 629.336 3580
1864.6 631.973 3595
1885.71 636.192 3619
1902.74 639.005 3635
1911.43 639.005 3635
1923.82 640.235 3642
1936.77 641.641 3650
1949.76 643.048 3658
1958.51 643.048 3658
1976.4 646.036 3675
1998.15 650.255 3699
2020.56 654.65 3724
2038.19 657.463 3740
2047.13 657.463 3740
2074.77 663.44 3774
2112.5 672.581 3826
2166.57 686.82 3907
2175.91 686.82 3907
2210.99 694.906 3953
2231.11 698.247 3972
2240.61 698.247 3972
2250.11 698.247 3972
2259.61 698.247 3972
2269.1 698.247 3972
2278.6 698.247 3972
2288.1 698.247 3972
2297.6 698.247 3972
2312.9 700.004 3982
2322.43 700.004 3982
2331.95 700.004 3982
2346.76 701.587 3991
2362.21 703.344 4001
2377.11 704.927 4010
2386.7 704.927 4010
2396.29 704.927 4010
2411.88 706.685 4020
2421.49 706.685 4020
2431.11 706.685 4020
2446.79 708.442 4030
2461.91 710.025 4039
2477.69 711.783 4049
2487.37 711.783 4049
2497.06 711.783 4049
2506.74 711.783 4049
2516.42 711.783 4049
2526.1 711.783 4049
2535.79 711.783 4049
2539.18 710.025 4039
2543.16 708.442 4030
2552.8 708.442 4030
2544 703.344 4001
2547.18 701.587 3991
2550.96 700.004 3982
2560.48 700.004 3982
2563.55 698.247 3972
2573.05 698.247 3972
2582.55 698.247 3972
2592.04 698.247 3972
2601.54 698.247 3972
2586.72 691.742 3935
2589.53 689.984 3925
2581.04 685.238 3898
2590.36 685.238 3898
529.578 129.383 736
531.338 129.383 736
533.098 129.383 736
534.858 129.383 736
535.889 129.207 735
537.647 129.207 735
539.404 129.207 735
540.426 129.031 734
542.181 129.031 734
543.936 129.031 734
544.948 128.856 733
546.701 128.856 733
547.705 128.68 732
549.456 128.68 732
551.206 128.68 732
552.957 128.68 732
554.707 128.68 732
555.697 128.504 731
557.445 128.504 731
559.193 128.504 731
-2361.48 562.004 3154
-2353.94 562.004 3154
-2337.47 559.866 3142
-2321.05 557.727 3130
-2309.13 556.658 3124
-2301.66 556.658 3124
-2294.19 556.658 3124
-2286.72 556.658 3124
-2279.25 556.658 3124
-2271.78 556.658 3124
-2264.31 556.658 3124
-2261.18 557.727 3130
-2253.69 557.727 3130
-2267.73 563.073 3160
-2260.18 563.073 3160
-2274.01 568.419 3190
-2306.17 578.397 3246
-2298.4 578.397 3246
-2290.64 578.397 3246
-2542.16 646.287 3627
-2533.49 646.287 3627
-2530.38 647.712 3635
-2537.64 651.811 3658
-2528.9 651.811 3658
-2520.15 651.811 3658
-2511.4 651.811 3658
-2502.65 651.811 3658
-2493.91 651.811 3658
-2485.16 651.811 3658
-2476.41 651.811 3658
-2446.75 646.287 3627
-2438.08 646.287 3627
-2424.05 644.861 3619
-2415.39 644.861 3619
-2417.38 647.712 3635
-2418.63 650.385 3650
-2409.9 650.385 3650
-2406.43 651.811 3658
-2397.69 651.811 3658
-2388.94 651.811 3658
-2374.99 650.385 3650
-2366.26 650.385 3650
-2347.84 647.712 3635
-2339.15 647.712 3635
-2330.46 647.712 3635
-2321.76 647.712 3635
-2297.8 643.436 3611
-2289.16 643.436 3611
-2280.53 643.436 3611
-2271.89 643.436 3611
-2268.27 644.861 3619
-2269.61 647.712 3635
-2270.25 650.385 3650
-2261.52 650.385 3650
-2252.79 650.385 3650
-2244.06 650.385 3650
-2235.33 650.385 3650
-1962.35 712.929 4001
-1966.93 718.096 4030
-1957.3 718.096 4030
-1947.66 718.096 4030
-1938.02 718.096 4030
-1928.38 718.096 4030
-1904.94 712.929 4001
-1895.37 712.929 4001
-1885.8 712.929 4001
-1876.24 712.929 4001
-1857.81 709.543 3982
-1821.83 699.387 3925
-1804.13 696.179 3907
-1807.65 701.169 3935
-1798.24 701.169 3935
-1797.01 704.376 3953
-1787.56 704.376 3953
-1778.11 704.376 3953
-1760.6 701.169 3935
-1738.73 696.179 3907
-1729.39 696.179 3907
-1720.04 696.179 3907
-1710.7 696.179 3907
-1701.36 696.179 3907
-1684.22 692.972 3889
-1674.92 692.972 3889
-1661.76 691.368 3880
-1652.49 691.368 3880
-1643.21 691.368 3880
-1630.14 689.765 3871
-1620.88 689.765 3871
-1604.13 686.557 3853
-1594.92 686.557 3853
-1585.71 686.557 3853
-1576.49 686.557 3853
-1567.28 686.557 3853
-1554.42 684.953 3844
-1520.71 674.084 3783
-1511.67 674.084 3783
-1490.02 672.48 3774
-1480.99 672.48 3774
-1471.97 672.48 3774
-1462.94 672.48 3774
-637.953 304.523 1709
-633.866 304.523 1709
-630.516 304.879 1711
-626.425 304.879 1711
-622.333 304.879 1711
-617.519 304.523 1709
-613.432 304.523 1709
-608.989 304.345 1708
-604.904 304.345 1708
-600.117 303.988 1706
-596.736 304.345 1708
-592.651 304.345 1708
-588.567 304.345 1708
-584.483 304.345 1708
-579.719 303.988 1706
-574.964 303.632 1704
-570.89 303.632 1704
-566.815 303.632 1704
-561.749 303.097 1701
-557.026 302.741 1699
-552.963 302.741 1699
-548.254 302.384 1697
-543.234 301.85 1694
-538.547 301.494 1692
-534.501 301.494 1692
-529.827 301.137 1690
-525.475 300.959 1689
-521.436 300.959 1689
-517.397 300.959 1689
-512.75 300.603 1687
-508.716 300.603 1687
-503.486 299.89 1683
-499.461 299.89 1683
-495.142 299.712 1682
-491.12 299.712 1682
-486.518 299.355 1680
-482.501 299.355 1680
-478.484 299.355 1680
-473.901 298.999 1678
-469.889 298.999 1678
-465.876 298.999 1678
-461.864 298.999 1678
-457.851 298.999 1678
-453.838 298.999 1678
-450.362 299.355 1680
-446.345 299.355 1680
-442.327 299.355 1680
-438.31 299.355 1680
-434.292 299.355 1680
-430.275 299.355 1680
-426.258 299.355 1680
-422.24 299.355 1680
-418.223 299.355 1680
-414.205 299.355 1680
-410.188 299.355 1680
-406.171 299.355 1680
-402.153 299.355 1680
-398.136 299.355 1680
-394.119 299.355 1680
-390.566 299.712 1682
-386.543 299.712 1682
-382.749 299.89 1683
-378.724 299.89 1683
-375.59 300.603 1687
-371.556 300.603 1687
-368.175 301.137 1690
-364.134 301.137 1690
-360.519 301.494 1692
-357.105 302.028 1695
-354.301 303.097 1701
-350.234 303.097 1701
-347.184 303.988 1706
-344.11 304.879 1711
-340.813 305.592 1715
-336.712 305.592 1715
-333.968 306.839 1722
-331.575 308.443 1731
-328.759 309.69 1738
-324.603 309.69 1738
-320.816 310.047 1740
-317.201 310.581 1743
-314.111 311.65 1749
-309.928 311.65 1749
-306.095 312.007 1751
-302.426 312.541 1754
-299.251 313.61 1760
-295.043 313.61 1760
-291.66 314.501 1765
-288.417 315.57 1771
-284.503 315.927 1773
-280.263 315.927 1773
-276.023 315.927 1773
-271.783 315.927 1773
-267.543 315.927 1773
-263.007 315.57 1771
-258.187 314.858 1767
-253.962 314.858 1767
-249.454 314.501 1765
-245.233 314.501 1765
-241.012 314.501 1765
-236.792 314.501 1765
-232.571 314.501 1765
-229.385 315.927 1773
-225.146 315.927 1773
-222.027 317.53 1782
-218.499 318.6 1788
-214.942 319.669 1794
-210.652 319.669 1794
-206.592 320.025 1796
-202.523 320.381 1798
-198.664 321.094 1802
-194.355 321.094 1802
-190.046 321.094 1802
-185.943 321.451 1804
-182.133 322.342 1809
-177.807 322.342 1809
-173.865 323.054 1813
-169.716 323.411 1815
-165.923 324.48 1821
-161.568 324.48 1821
-157.386 324.836 1823
-153.195 325.193 1825
-148.831 325.193 1825
-144.466 325.193 1825
-303.465 704.376 3953
-294.013 704.376 3953
-284.56 704.376 3953
-275.107 704.376 3953
-265.654 704.376 3953
-252.637 694.576 3898
-243.877 696.179 3907
-236.215 701.169 3935
-226.805 701.169 3935
-217.395 701.169 3935
-207.457 699.387 3925
-198.071 699.387 3925
-188.253 697.783 3916
-178.888 697.783 3916
-169.524 697.783 3916
-161.673 704.376 3953
-152.605 706.158 3963
-143.815 709.543 3982
-134.293 709.543 3982
-125.648 714.533 4010
-117.187 721.482 4049
-108.567 728.609 4089
-98.789 728.609 4089
-89.0109 728.609 4089
-78.2641 719.7 4039
-68.6056 719.7 4039
-58.9471 719.7 4039
-48.9347 714.533 4010
-39.3456 714.533 4010
-29.7565 714.533 4010
-20.0718 711.147 3991
-10.4279 704.376 3953
-0.965926 697.783 3916
8.39842 697.783 3916
17.7628 697.783 3916
27.1271 697.783 3916
36.4076 696.179 3907
45.7504 696.179 3907
53.5844 677.113 3800
62.6713 677.113 3800
71.2673 672.48 3774
79.7602 668.026 3749
88.7252 668.026 3749
97.6902 668.026 3749
105.944 663.571 3724
120.771 697.783 3916
130.135 697.783 3916
139.499 697.783 3916
148.864 697.783 3916
156.773 691.368 3880
166.052 691.368 3880
173.703 684.953 3844
182.039 681.746 3826
189.889 677.113 3800
198.976 677.113 3800
207.132 674.084 3783
215.207 671.055 3766
222.188 664.996 3732
231.112 664.996 3732
237.914 659.116 3699
246.76 659.116 3699
255.605 659.116 3699
263.879 657.691 3691
272.705 657.691 3691
280.311 654.84 3675
290.357 657.691 3691
299.832 659.116 3699
308.678 659.116 3699
317.523 659.116 3699
327.074 660.542 3707
335.939 660.542 3707
344.803 660.542 3707
353.668 660.542 3707
362.533 660.542 3707
369.794 657.691 3691
378.62 657.691 3691
386.607 656.265 3683
391.871 650.385 3650
395.441 642.01 3603
404.057 642.01 3603
410.955 639.337 3588
417.664 636.486 3572
423.461 632.388 3549
429.27 628.468 3527
437.705 628.468 3527
442.344 623.122 3497
448 619.38 3476
453.424 615.46 3454
461.683 615.46 3454
466.133 610.471 3426
473.357 609.224 3419
479.561 606.729 3405
487.703 606.729 3405
491.768 601.74 3377
499.844 601.74 3377
510.025 604.234 3391
520.273 606.729 3405
528.415 606.729 3405
539.867 610.471 3426
551.419 614.213 3447
563.071 617.955 3468
573.836 620.628 3483
582.164 620.628 3483
594.223 624.548 3505
603.808 625.795 3512
616.041 629.715 3534
624.492 629.715 3534
632.943 629.715 3534
642.846 631.141 3542
651.316 631.141 3542
659.786 631.141 3542
668.256 631.141 3542
676.726 631.141 3542
685.196 631.141 3542
692.099 629.715 3534
702.136 631.141 3542
710.606 631.141 3542
719.076 631.141 3542
727.546 631.141 3542
734.354 629.715 3534
742.804 629.715 3534
751.255 629.715 3534
759.706 629.715 3534
766.635 628.468 3527
775.07 628.468 3527
783.504 628.468 3527
790.366 627.221 3520
796.968 625.795 3512
805.366 625.795 3512
815.618 627.221 3520
824.036 627.221 3520
832.453 627.221 3520
844.215 629.715 3534
854.596 631.141 3542
866.721 633.814 3557
875.227 633.814 3557
883.733 633.814 3557
896.001 636.486 3572
906.569 637.912 3580
915.13 637.912 3580
929.625 642.01 3603
942.407 644.861 3619
951.061 644.861 3619
959.715 644.861 3619
972.651 647.712 3635
985.393 650.385 3650
998.751 653.414 3667
1007.52 653.414 3667
1020.72 656.265 3683
1034 659.116 3699
1042.85 659.116 3699
1051.69 659.116 3699
1060.54 659.116 3699
1069.38 659.116 3699
1078.23 659.116 3699
1087.08 659.116 3699
1095.92 659.116 3699
1104.77 659.116 3699
1116.02 660.542 3707
1124.88 660.542 3707
1133.75 660.542 3707
1142.61 660.542 3707
1151.48 660.542 3707
1160.34 660.542 3707
1166.68 659.116 3699
1175.53 659.116 3699
1184.38 659.116 3699
1193.22 659.116 3699
1202.07 659.116 3699
1208.29 657.691 3691
1217.12 657.691 3691
1225.95 657.691 3691
1229.42 654.84 3675
1238.21 654.84 3675
1244.28 653.414 3667
1253.05 653.414 3667
1261.82 653.414 3667
1270.59 653.414 3667
1279.36 653.414 3667
1288.12 653.414 3667
1296.89 653.414 3667
1305.66 653.414 3667
1311.21 651.811 3658
1323.2 653.414 3667
1334.88 654.84 3675
1343.66 654.84 3675
1352.45 654.84 3675
1358.28 653.414 3667
1367.05 653.414 3667
1375.81 653.414 3667
1387.6 654.84 3675
1399.43 656.265 3683
1411.3 657.691 3691
1420.12 657.691 3691
1428.95 657.691 3691
1437.78 657.691 3691
1449.74 659.116 3699
1458.58 659.116 3699
1467.43 659.116 3699
1476.27 659.116 3699
1488.33 660.542 3707
1497.2 660.542 3707
1506.06 660.542 3707
1514.93 660.542 3707
1520.5 659.116 3699
1529.35 659.116 3699
1531.54 656.265 3683
1540.35 656.265 3683
1549.15 656.265 3683
1557.96 656.265 3683
1566.77 656.265 3683
1582.42 659.116 3699
1591.27 659.116 3699
1600.11 659.116 3699
1602 656.265 3683
1610.8 656.265 3683
1623.13 657.691 3691
1631.96 657.691 3691
1640.78 657.691 3691
1649.61 657.691 3691
1658.43 657.691 3691
1667.26 657.691 3691
1676.09 657.691 3691
1684.91 657.691 3691
1708.88 663.571 3724
1717.79 663.571 3724
1730.4 664.996 3732
1739.33 664.996 3732
1752 666.422 3740
1765.18 668.026 3749
1782.19 671.055 3766
1791.19 671.055 3766
1804.02 672.48 3774
1813.05 672.48 3774
1822.07 672.48 3774
1827.22 671.055 3766
1819.65 664.996 3732
1820.73 662.145 3716
1829.62 662.145 3716
1826.13 657.691 3691
1823.03 653.414 3667
1827.3 651.811 3658
1820.49 646.287 3627
1829.16 646.287 3627
1825.67 642.01 3603
1830.22 640.585 3595
1827.05 636.486 3572
1839.7 637.912 3580
1848.26 637.912 3580
1864.6 640.585 3595
1885.71 644.861 3619
1902.74 647.712 3635
1911.43 647.712 3635
1923.82 648.96 3642
1936.77 650.385 3650
1949.76 651.811 3658
1958.51 651.811 3658
1976.4 654.84 3675
1998.15 659.116 3699
2020.56 663.571 3724
2038.19 666.422 3740
2056.44 669.451 3757
2079.72 674.084 3783
2112.5 681.746 3826
2166.57 696.179 3907
2180.93 697.783 3916
2210.99 704.376 3953
2226.05 706.158 3963
2240.61 707.761 3972
2250.11 707.761 3972
2259.61 707.761 3972
2269.1 707.761 3972
2278.6 707.761 3972
2288.1 707.761 3972
2292.39 706.158 3963
2301.87 706.158 3963
2316.59 707.761 3972
2326.09 707.761 3972
2346.76 711.147 3991
2362.21 712.929 4001
2377.11 714.533 4010
2386.7 714.533 4010
2396.29 714.533 4010
2405.88 714.533 4010
2421.49 716.314 4020
2431.11 716.314 4020
2446.79 718.096 4030
2461.91 719.7 4039
2477.69 721.482 4049
2487.37 721.482 4049
2497.06 721.482 4049
2506.74 721.482 4049
2516.42 721.482 4049
2526.1 721.482 4049
2535.79 721.482 4049
2539.18 719.7 4039
2543.16 718.096 4030
2552.8 718.096 4030
2544 712.929 4001
2547.18 711.147 3991
2550.96 709.543 3982
2560.48 709.543 3982
2563.55 707.761 3972
2554.91 702.772 3944
2564.34 702.772 3944
2573.77 702.772 3944
2583.2 702.772 3944
2586.72 701.169 3935
2571.72 694.576 3898
2563.16 689.765 3871
2572.42 689.765 3871
528.859 130.968 735
531.338 131.146 736
533.098 131.146 736
534.858 131.146 736
535.889 130.968 735
537.647 130.968 735
538.67 130.79 734
539.689 130.612 733
541.442 130.612 733
543.195 130.612 733
544.204 130.433 732
544.463 130.077 730
546.209 130.077 730
548.705 130.255 731
550.453 130.255 731
552.201 130.255 731
553.949 130.255 731
554.937 130.077 730
556.683 130.077 730
558.428 130.077 730
-2361.48 569.559 3154
-2353.94 569.559 3154
-2333 566.309 3136
-2316.6 564.142 3124
-2309.13 564.142 3124
-2301.66 564.142 3124
-2294.19 564.142 3124
-2286.72 564.142 3124
-2279.25 564.142 3124
-2276.14 565.225 3130
-2268.66 565.225 3130
-2261.18 565.225 3130
-2258.01 566.309 3136
-2263.43 569.559 3154
-2255.89 569.559 3154
-2265.45 573.893 3178
-2279.17 579.311 3208
-2271.5 579.311 3208
-2263.82 579.311 3208
-2542.16 654.975 3627
-2533.49 654.975 3627
-2530.38 656.42 3635
-2537.64 660.573 3658
-2528.9 660.573 3658
-2520.15 660.573 3658
-2511.4 660.573 3658
-2502.65 660.573 3658
-2493.91 660.573 3658
-2485.16 660.573 3658
-2476.41 660.573 3658
-2452.15 656.42 3635
-2443.46 656.42 3635
-2429.41 654.975 3627
-2420.73 654.975 3627
-2427.36 659.129 3650
-2429.89 662.199 3667
-2421.12 662.199 3667
-2422.88 665.088 3683
-2414.07 665.088 3683
-2405.27 665.088 3683
-2391.25 663.643 3675
-2382.47 663.643 3675
-2373.68 663.643 3675
-2364.89 663.643 3675
-2356.1 663.643 3675
-2336.45 660.573 3658
-2307.98 654.975 3627
-2299.31 654.975 3627
-2285.58 653.531 3619
-2276.93 653.531 3619
-2268.27 653.531 3619
-2269.61 656.42 3635
-2270.25 659.129 3650
-2261.52 659.129 3650
-2268.22 663.643 3675
-2259.43 663.643 3675
-2250.64 663.643 3675
-1971.66 725.944 4020
-1966.93 727.75 4030
-1957.3 727.75 4030
-1947.66 727.75 4030
-1938.02 727.75 4030
-1928.38 727.75 4030
-1904.94 722.513 4001
-1895.37 722.513 4001
-1885.8 722.513 4001
-1876.24 722.513 4001
-1857.81 719.082 3982
-1821.83 708.789 3925
-1795.82 702.288 3889
-1807.65 710.595 3935
-1798.24 710.595 3935
-1788.83 710.595 3935
-1779.42 710.595 3935
-1770.01 710.595 3935
-1752.1 707.164 3916
-1722.71 699.038 3871
-1721.42 702.288 3889
-1712.12 702.288 3889
-1702.82 702.288 3889
-1693.52 702.288 3889
-1676.42 699.038 3871
-1667.17 699.038 3871
-1654.06 697.412 3862
-1644.82 697.412 3862
-1635.59 697.412 3862
-1618.77 694.162 3844
-1609.58 694.162 3844
-1600.39 694.162 3844
-1594.92 695.787 3853
-1585.71 695.787 3853
-1576.49 695.787 3853
-1567.28 695.787 3853
-1550.79 692.537 3835
-1520.71 683.146 3783
-1511.67 683.146 3783
-1490.02 681.521 3774
-1480.99 681.521 3774
-1471.97 681.521 3774
-1462.94 681.521 3774
-637.953 308.617 1709
-633.866 308.617 1709
-631.253 309.339 1713
-627.157 309.339 1713
-623.06 309.339 1713
-618.242 308.978 1711
-614.15 308.978 1711
-609.345 308.617 1709
-605.259 308.617 1709
-601.172 308.617 1709
-597.085 308.617 1709
-592.998 308.617 1709
-588.912 308.617 1709
-584.825 308.617 1709
-580.398 308.436 1708
-575.639 308.075 1706
-571.56 308.075 1706
-567.48 308.075 1706
-562.74 307.714 1704
-557.682 307.172 1701
-553.614 307.172 1701
-548.9 306.811 1699
-544.196 306.45 1697
-539.183 305.908 1694
-535.132 305.908 1694
-530.454 305.547 1692
-525.786 305.186 1690
-521.745 305.186 1690
-517.704 305.186 1690
-513.358 305.005 1689
-509.319 305.005 1689
-504.682 304.644 1687
-500.648 304.644 1687
-495.436 303.922 1683
-491.12 303.741 1682
-487.098 303.741 1682
-482.501 303.38 1680
-478.484 303.38 1680
-473.901 303.019 1678
-469.889 303.019 1678
-465.876 303.019 1678
-461.864 303.019 1678
-457.851 303.019 1678
-453.838 303.019 1678
-450.362 303.38 1680
-446.345 303.38 1680
-442.327 303.38 1680
-438.31 303.38 1680
-434.292 303.38 1680
-430.275 303.38 1680
-426.258 303.38 1680
-422.24 303.38 1680
-418.223 303.38 1680
-414.205 303.38 1680
-410.188 303.38 1680
-406.171 303.38 1680
-402.153 303.38 1680
-398.136 303.38 1680
-394.119 303.38 1680
-390.566 303.741 1682
-386.543 303.741 1682
-382.749 303.922 1683
-378.724 303.922 1683
-375.59 304.644 1687
-371.556 304.644 1687
-368.175 305.186 1690
-364.134 305.186 1690
-360.519 305.547 1692
-357.105 306.089 1695
-354.301 307.172 1701
-350.234 307.172 1701
-347.184 308.075 1706
-344.11 308.978 1711
-340.813 309.7 1715
-336.712 309.7 1715
-333.968 310.964 1722
-331.575 312.59 1731
-328.759 313.854 1738
-324.603 313.854 1738
-321.369 314.757 1743
-317.201 314.757 1743
-314.47 316.201 1751
-310.283 316.201 1751
-306.27 316.382 1752
-302.77 317.104 1756
-299.591 318.188 1762
-295.378 318.188 1762
-292.321 319.452 1769
-288.742 320.174 1773
-284.824 320.535 1775
-280.579 320.535 1775
-276.334 320.535 1775
-272.09 320.535 1775
-267.845 320.535 1775
-263.601 320.535 1775
-258.772 319.813 1771
-254.537 319.813 1771
-250.019 319.452 1769
-245.789 319.452 1769
-241.286 319.09 1767
-236.792 318.729 1765
-233.098 319.452 1769
-229.903 320.896 1777
-225.654 320.896 1777
-222.775 322.883 1788
-218.988 323.605 1792
-214.942 323.966 1794
-210.652 323.966 1794
-206.823 324.689 1798
-202.523 324.689 1798
-198.664 325.411 1802
-194.355 325.411 1802
-190.257 325.772 1804
-186.046 325.953 1805
-182.133 326.675 1809
-177.807 326.675 1809
-173.865 327.397 1813
-169.716 327.758 1815
-165.923 328.842 1821
-161.568 328.842 1821
-157.559 329.564 1825
-153.195 329.564 1825
-148.831 329.564 1825
-316.718 722.513 4001
-307.15 722.513 4001
-297.583 722.513 4001
-288.015 722.513 4001
-275.107 713.845 3953
-265.654 713.845 3953
-252.637 703.913 3898
-245.625 710.595 3935
-236.215 710.595 3935
-226.805 710.595 3935
-217.395 710.595 3935
-207.986 710.595 3935
-198.071 708.789 3925
-188.253 707.164 3916
-178.888 707.164 3916
-169.524 707.164 3916
-161.673 713.845 3953
-152.605 715.651 3963
-143.815 719.082 3982
-134.293 719.082 3982
-125.648 724.139 4010
-116.637 727.75 4030
-108.036 734.793 4069
-98.3058 734.793 4069
-88.5756 734.793 4069
-78.2641 729.375 4039
-68.6056 729.375 4039
-58.9471 729.375 4039
-48.9347 724.139 4010
-39.3456 724.139 4010
-29.7565 724.139 4010
-20.0718 720.708 3991
-10.4279 713.845 3953
-0.965926 707.164 3916
8.39842 707.164 3916
17.7628 707.164 3916
27.1271 707.164 3916
36.4076 705.539 3907
45.7504 705.539 3907
53.5844 686.216 3800
62.6713 686.216 3800
71.2673 681.521 3774
79.7602 677.006 3749
88.7252 677.006 3749
97.6902 677.006 3749
105.944 672.492 3724
116.391 681.521 3774
125.416 681.521 3774
134.441 681.521 3774
142.515 677.006 3749
151.117 675.381 3740
160.06 675.381 3740
168.642 673.936 3732
177.566 673.936 3732
186.491 673.936 3732
195.415 673.936 3732
203.463 671.047 3716
211.835 669.422 3707
219.747 666.533 3691
228.573 666.533 3691
235.856 662.199 3667
244.625 662.199 3667
253.394 662.199 3667
262.163 662.199 3667
270.932 662.199 3667
278.404 659.129 3650
288.469 662.199 3667
297.887 663.643 3675
306.675 663.643 3675
315.463 663.643 3675
324.251 663.643 3675
334.489 666.533 3691
343.315 666.533 3691
352.142 666.533 3691
360.968 666.533 3691
368.993 665.088 3683
377.8 665.088 3683
383.983 660.573 3658
391.012 657.684 3642
395.441 650.641 3603
404.057 650.641 3603
410.955 647.932 3588
416.845 643.779 3565
423.461 640.89 3549
429.27 636.917 3527
437.705 636.917 3527
442.344 631.499 3497
446.969 626.263 3468
452.505 622.47 3447
460.748 622.47 3447
466.133 618.678 3426
472.388 616.15 3412
475.617 609.829 3377
483.693 609.829 3377
489.73 607.301 3363
498.808 608.565 3370
508.972 611.094 3384
518.134 612.358 3391
526.243 612.358 3391
536.558 614.886 3405
548.059 618.678 3426
559.662 622.47 3447
571.364 626.263 3468
579.657 626.263 3468
590.493 628.971 3483
601.229 631.499 3497
612.206 634.208 3512
620.605 634.208 3512
629.003 634.208 3512
638.853 635.653 3520
647.271 635.653 3520
655.688 635.653 3520
664.105 635.653 3520
672.523 635.653 3520
680.94 635.653 3520
687.791 634.208 3512
696.189 634.208 3512
704.587 634.208 3512
712.986 634.208 3512
721.384 634.208 3512
728.327 632.944 3505
735.027 631.499 3497
745.091 632.944 3505
753.472 632.944 3505
761.854 632.944 3505
770.235 632.944 3505
778.617 632.944 3505
785.202 631.499 3497
793.564 631.499 3497
801.927 631.499 3497
810.289 631.499 3497
818.651 631.499 3497
827.014 631.499 3497
838.959 634.208 3512
847.358 634.208 3512
859.411 636.917 3527
867.845 636.917 3527
878.018 638.181 3534
890.232 640.89 3549
900.744 642.334 3557
909.25 642.334 3557
923.69 646.488 3580
936.157 649.197 3595
946.856 650.641 3603
955.472 650.641 3603
968.369 653.531 3619
979.183 654.975 3627
994.121 659.129 3650
1002.85 659.129 3650
1016.29 662.199 3667
1029.53 665.088 3683
1038.34 665.088 3683
1047.14 665.088 3683
1058.25 666.533 3691
1067.07 666.533 3691
1078.23 667.977 3699
1087.08 667.977 3699
1095.92 667.977 3699
1104.77 667.977 3699
1113.61 667.977 3699
1122.46 667.977 3699
1131.3 667.977 3699
1140.15 667.977 3699
1148.99 667.977 3699
1157.84 667.977 3699
1164.16 666.533 3691
1172.99 666.533 3691
1184.38 667.977 3699
1193.22 667.977 3699
1202.07 667.977 3699
1208.29 666.533 3691
1214.48 665.088 3683
1223.29 665.088 3683
1229.42 663.643 3675
1238.21 663.643 3675
1244.28 662.199 3667
1253.05 662.199 3667
1261.82 662.199 3667
1270.59 662.199 3667
1279.36 662.199 3667
1288.12 662.199 3667
1296.89 662.199 3667
1305.66 662.199 3667
1311.21 660.573 3658
1319.95 660.573 3658
1334.88 663.643 3675
1343.66 663.643 3675
1352.45 663.643 3675
1358.28 662.199 3667
1367.05 662.199 3667
1375.81 662.199 3667
1387.6 663.643 3675
1396.39 663.643 3675
1405.18 663.643 3675
1413.97 663.643 3675
1422.76 663.643 3675
1434.66 665.088 3683
1443.47 665.088 3683
1452.27 665.088 3683
1464.26 666.533 3691
1473.08 666.533 3691
1481.91 666.533 3691
1487.5 665.088 3683
1496.31 665.088 3683
1505.12 665.088 3683
1510.64 663.643 3675
1519.42 663.643 3675
1528.21 663.643 3675
1533.65 662.199 3667
1542.42 662.199 3667
1551.19 662.199 3667
1559.96 662.199 3667
1568.73 662.199 3667
1577.5 662.199 3667
1586.27 662.199 3667
1595.04 662.199 3667
1603.81 662.199 3667
1612.57 662.199 3667
1621.34 662.199 3667
1630.11 662.199 3667
1638.88 662.199 3667
1647.65 662.199 3667
1660.03 663.643 3675
1672.45 665.088 3683
1681.26 665.088 3683
1708.88 672.492 3724
1717.79 672.492 3724
1730.4 673.936 3732
1739.33 673.936 3732
1752 675.381 3740
1768.95 678.451 3757
1785.98 681.521 3774
1795 681.521 3774
1804.02 681.521 3774
1813.05 681.521 3774
1822.07 681.521 3774
1827.22 680.076 3766
1823.55 675.381 3740
1828.57 673.936 3732
1837.49 673.936 3732
1826.13 666.533 3691
1823.03 662.199 3667
1819.31 657.684 3642
1816.47 653.531 3619
1825.13 653.531 3619
1825.67 650.641 3603
1822.58 646.488 3580
1823.47 643.779 3565
1831.99 643.779 3565
1840.52 643.779 3565
1860.97 647.932 3588
1881.54 652.086 3611
1898.55 654.975 3627
1907.22 654.975 3627
1920.12 656.42 3635
1928.81 656.42 3635
1949.76 660.573 3658
1958.51 660.573 3658
1976.4 663.643 3675
1998.15 667.977 3699
2020.56 672.492 3724
2038.19 675.381 3740
2056.44 678.451 3757
2079.72 683.146 3783
2112.5 690.911 3826
2166.57 705.539 3907
2180.93 707.164 3916
2195.32 708.789 3925
2226.05 715.651 3963
2240.61 717.276 3972
2250.11 717.276 3972
2259.61 717.276 3972
2269.1 717.276 3972
2278.6 717.276 3972
2288.1 717.276 3972
2292.39 715.651 3963
2301.87 715.651 3963
2316.59 717.276 3972
2326.09 717.276 3972
2346.76 720.708 3991
2362.21 722.513 4001
2377.11 724.139 4010
2386.7 724.139 4010
2396.29 724.139 4010
2405.88 724.139 4010
2421.49 725.944 4020
2431.11 725.944 4020
2446.79 727.75 4030
2461.91 729.375 4039
2477.69 731.181 4049
2487.37 731.181 4049
2497.06 731.181 4049
2506.74 731.181 4049
2516.42 731.181 4049
2526.1 731.181 4049
2535.79 731.181 4049
2539.18 729.375 4039
2543.16 727.75 4030
2552.8 727.75 4030
2544 722.513 4001
2547.18 720.708 3991
2550.96 719.082 3982
2560.48 719.082 3982
2563.55 717.276 3972
2554.91 712.22 3944
2564.34 712.22 3944
2573.77 712.22 3944
2583.2 712.22 3944
2586.72 710.595 3935
2571.72 703.913 3898
2563.16 699.038 3871
2572.42 699.038 3871
528.859 132.729 735
531.338 132.909 736
533.098 132.909 736
534.858 132.909 736
535.889 132.729 735
537.647 132.729 735
538.67 132.548 734
539.689 132.367 733
541.442 132.367 733
543.195 132.367 733
544.204 132.187 732
544.463 131.826 730
546.209 131.826 730
548.705 132.006 731
550.453 132.006 731
552.201 132.006 731
553.949 132.006 731
554.937 131.826 730
556.683 131.826 730
558.428 131.826 730
-2361.48 577.115 3154
-2353.94 577.115 3154
-2333 573.821 3136
-2316.6 571.625 3124
-2309.13 571.625 3124
-2301.66 571.625 3124
-2294.19 571.625 3124
-2286.72 571.625 3124
-2279.25 571.625 3124
-2276.14 572.723 3130
-2268.66 572.723 3130
-2265.51 573.821 3136
-2270.97 577.115 3154
-2280.65 581.506 3178
-2273.05 581.506 3178
-2282.56 585.898 3202
-2306.17 593.949 3246
-2298.4 593.949 3246
-2290.64 593.949 3246
-2542.16 663.664 3627
-2533.49 663.664 3627
-2530.38 665.128 3635
-2537.64 669.336 3658
-2528.9 669.336 3658
-2520.15 669.336 3658
-2511.4 669.336 3658
-2502.65 669.336 3658
-2493.91 669.336 3658
-2485.16 669.336 3658
-2476.41 669.336 3658
-2452.15 665.128 3635
-2443.46 665.128 3635
-2429.41 663.664 3627
-2420.73 663.664 3627
-2432.68 669.336 3658
-2429.89 670.983 3667
-2421.12 670.983 3667
-2422.88 673.911 3683
-2414.07 673.911 3683
-2405.27 673.911 3683
-2391.25 672.447 3675
-2382.47 672.447 3675
-2378.84 673.911 3683
-2370.04 673.911 3683
-2361.23 673.911 3683
-2347.31 672.447 3675
-2327.71 669.336 3658
-2318.96 669.336 3658
-2290.63 663.664 3627
-2276.93 662.2 3619
-2273.29 663.664 3627
-2278.98 667.872 3650
-2270.25 667.872 3650
-2281.97 673.911 3683
-2298.46 681.413 3724
-2289.56 681.413 3724
-2280.65 681.413 3724
-2271.75 681.413 3724
-1971.66 735.574 4020
-1962.05 735.574 4020
-1952.44 735.574 4020
-1942.83 735.574 4020
-1924.08 732.098 4001
-1914.51 732.098 4001
-1877.8 721.668 3944
-1895.37 732.098 4001
-1885.8 732.098 4001
-1876.24 732.098 4001
-1840.08 721.668 3944
-1813.47 714.898 3907
-1795.82 711.604 3889
-1807.65 720.021 3935
-1798.24 720.021 3935
-1788.83 720.021 3935
-1779.42 720.021 3935
-1770.01 720.021 3935
-1752.1 716.545 3916
-1722.71 708.311 3871
-1713.45 708.311 3871
-1704.19 708.311 3871
-1694.94 708.311 3871
-1685.68 708.311 3871
-1668.63 705.017 3853
-1659.41 705.017 3853
-1642.49 701.723 3835
-1633.32 701.723 3835
-1624.15 701.723 3835
-1614.98 701.723 3835
-1605.81 701.723 3835
-1596.64 701.723 3835
-1587.47 701.723 3835
-1578.3 701.723 3835
-1569.13 701.723 3835
-1559.96 701.723 3835
-1547.15 700.076 3826
-1531.16 696.966 3809
-1522.05 696.966 3809
-1499.04 690.562 3774
-1490.02 690.562 3774
-1480.99 690.562 3774
-1471.97 690.562 3774
-1462.94 690.562 3774
-631.253 313.443 1713
-627.157 313.443 1713
-623.06 313.443 1713
-618.242 313.077 1711
-614.15 313.077 1711
-609.345 312.711 1709
-605.259 312.711 1709
-601.172 312.711 1709
-597.085 312.711 1709
-592.998 312.711 1709
-588.912 312.711 1709
-584.825 312.711 1709
-580.738 312.711 1709
-576.314 312.528 1708
-572.23 312.528 1708
-567.48 312.162 1706
-563.401 312.162 1706
-558.665 311.796 1704
-554.59 311.796 1704
-549.546 311.247 1701
-544.837 310.881 1699
-539.502 310.149 1695
-535.448 310.149 1695
-531.081 309.966 1694
-526.408 309.6 1692
-522.362 309.6 1692
-518.316 309.6 1692
-513.662 309.234 1690
-509.319 309.051 1689
-504.682 308.685 1687
-500.648 308.685 1687
-496.025 308.319 1685
-491.412 307.953 1683
-487.098 307.77 1682
-483.076 307.77 1682
-479.053 307.77 1682
-473.901 307.038 1678
-469.889 307.038 1678
-465.876 307.038 1678
-461.864 307.038 1678
-457.851 307.038 1678
-453.838 307.038 1678
-450.362 307.404 1680
-446.345 307.404 1680
-442.327 307.404 1680
-438.31 307.404 1680
-434.292 307.404 1680
-430.275 307.404 1680
-426.258 307.404 1680
-422.24 307.404 1680
-418.223 307.404 1680
-414.205 307.404 1680
-410.188 307.404 1680
-406.171 307.404 1680
-402.153 307.404 1680
-398.61 307.77 1682
-394.588 307.77 1682
-390.566 307.77 1682
-386.773 307.953 1683
-382.749 307.953 1683
-378.724 307.953 1683
-375.59 308.685 1687
-371.996 309.051 1689
-368.175 309.234 1690
-364.134 309.234 1690
-360.519 309.6 1692
-357.105 310.149 1695
-354.51 311.43 1702
-350.44 311.43 1702
-347.184 312.162 1706
-344.11 313.077 1711
-340.813 313.808 1715
-336.712 313.808 1715
-333.968 315.089 1722
-331.575 316.736 1731
-328.759 318.017 1738
-324.603 318.017 1738
-321.369 318.932 1743
-317.565 319.298 1745
-314.47 320.396 1751
-310.283 320.396 1751
-306.62 320.945 1754
-303.115 321.677 1758
-299.761 322.591 1763
-295.546 322.591 1763
-292.982 324.421 1773
-289.72 325.519 1779
-285.465 325.519 1779
-281.211 325.519 1779
-277.113 325.702 1780
-272.856 325.702 1780
-268.6 325.702 1780
-264.195 325.519 1779
-259.356 324.787 1775
-255.112 324.787 1775
-250.584 324.421 1773
-246.345 324.421 1773
-241.559 323.689 1769
-237.328 323.689 1769
-233.625 324.421 1773
-230.291 325.702 1780
-226.035 325.702 1780
-222.775 327.166 1788
-219.232 328.264 1794
-215.182 328.63 1796
-210.887 328.63 1796
-206.823 328.996 1798
-202.523 328.996 1798
-198.664 329.728 1802
-194.355 329.728 1802
-190.257 330.094 1804
-186.046 330.277 1805
-182.334 331.374 1811
-178.003 331.374 1811
-173.865 331.74 1813
-169.903 332.472 1817
-166.287 333.936 1825
-161.923 333.936 1825
-157.559 333.936 1825
-153.195 333.936 1825
-148.831 333.936 1825
-316.718 732.098 4001
-307.15 732.098 4001
-297.583 732.098 4001
-288.015 732.098 4001
-275.107 723.315 3953
-265.654 723.315 3953
-253.22 714.898 3907
-245.625 720.021 3935
-236.215 720.021 3935
-226.805 720.021 3935
-217.395 720.021 3935
-207.986 720.021 3935
-198.071 718.191 3925
-188.253 716.545 3916
-178.888 716.545 3916
-169.524 716.545 3916
-161.673 723.315 3953
-152.605 725.145 3963
-143.129 725.145 3963
-133.652 725.145 3963
-124.457 726.791 3972
-116.059 733.745 4010
-107.001 737.404 4030
-97.3636 737.404 4030
-87.9225 739.051 4039
-78.2641 739.051 4039
-68.6056 739.051 4039
-58.9471 739.051 4039
-48.9347 733.745 4010
-39.3456 733.745 4010
-29.7565 733.745 4010
-20.0718 730.268 3991
-10.4279 723.315 3953
-0.965926 716.545 3916
8.39842 716.545 3916
17.7628 716.545 3916
27.1271 716.545 3916
36.4076 714.898 3907
45.7504 714.898 3907
53.5844 695.319 3800
62.6713 695.319 3800
71.2673 690.562 3774
79.7602 685.987 3749
88.7252 685.987 3749
97.6902 685.987 3749
105.944 681.413 3724
114.849 681.413 3724
123.754 681.413 3724
131.769 676.838 3699
140.006 673.911 3683
148.49 672.447 3675
157.278 672.447 3675
166.066 672.447 3675
174.854 672.447 3675
183.642 672.447 3675
192.43 672.447 3675
199.85 667.872 3650
208.578 667.872 3650
217.306 667.872 3650
226.034 667.872 3650
234.248 666.408 3642
242.957 666.408 3642
251.666 666.408 3642
260.375 666.408 3642
269.085 666.408 3642
277.794 666.408 3642
287.132 667.872 3650
295.86 667.872 3650
305.256 669.336 3658
314.004 669.336 3658
323.545 670.983 3667
332.314 670.983 3667
341.083 670.983 3667
349.852 670.983 3667
358.621 670.983 3667
366.488 669.336 3658
375.235 669.336 3658
382.303 666.408 3642
388.543 662.2 3619
394.563 657.808 3595
403.16 657.808 3595
408.32 652.319 3565
414.975 649.391 3549
420.836 645.366 3527
425.619 639.877 3497
433.982 639.877 3497
439.688 636.034 3476
445.164 632.008 3454
449.748 626.885 3426
457.941 626.885 3426
463.276 623.042 3405
470.449 621.762 3398
473.646 615.357 3363
481.688 615.357 3363
488.856 614.26 3357
494.811 611.698 3343
505.813 615.357 3363
514.925 616.638 3370
526.243 620.481 3391
534.352 620.481 3391
544.7 623.042 3405
556.252 626.885 3426
567.904 630.728 3447
576.147 630.728 3447
586.764 633.289 3461
596.243 634.57 3468
607.151 637.315 3483
615.48 637.315 3483
626.316 639.877 3497
634.679 639.877 3497
644.512 641.34 3505
652.894 641.34 3505
661.275 641.34 3505
668.128 639.877 3497
676.491 639.877 3497
684.853 639.877 3497
693.216 639.877 3497
701.578 639.877 3497
709.94 639.877 3497
718.303 639.877 3497
723.756 637.315 3483
730.614 636.034 3476
740.414 637.315 3483
748.743 637.315 3483
757.072 637.315 3483
765.4 637.315 3483
773.729 637.315 3483
780.487 636.034 3476
786.983 634.57 3468
795.276 634.57 3468
803.569 634.57 3468
813.735 636.034 3476
822.047 636.034 3476
833.704 638.596 3490
842.05 638.596 3490
855.756 642.621 3512
864.154 642.621 3512
874.54 644.085 3520
886.469 646.647 3534
896.946 648.111 3542
905.416 648.111 3542
919.82 652.319 3565
932.251 655.064 3580
944.754 657.808 3595
953.351 657.808 3595
964.088 659.272 3603
977.024 662.2 3619
987.857 663.664 3627
996.53 663.664 3627
1013.79 669.336 3658
1025.06 670.983 3667
1036.08 672.447 3675
1044.87 672.447 3675
1055.95 673.911 3683
1064.76 673.911 3683
1073.57 673.911 3683
1082.37 673.911 3683
1091.18 673.911 3683
1099.99 673.911 3683
1111.2 675.374 3691
1120.03 675.374 3691
1128.86 675.374 3691
1137.68 675.374 3691
1146.51 675.374 3691
1155.33 675.374 3691
1164.16 675.374 3691
1172.99 675.374 3691
1179.25 673.911 3683
1188.06 673.911 3683
1196.87 673.911 3683
1205.67 673.911 3683
1214.48 673.911 3683
1223.29 673.911 3683
1229.42 672.447 3675
1235.51 670.983 3667
1244.28 670.983 3667
1253.05 670.983 3667
1261.82 670.983 3667
1270.59 670.983 3667
1279.36 670.983 3667
1288.12 670.983 3667
1296.89 670.983 3667
1305.66 670.983 3667
1311.21 669.336 3658
1317.07 667.872 3650
1325.79 667.872 3650
1334.52 667.872 3650
1343.25 667.872 3650
1351.98 667.872 3650
1363.69 669.336 3658
1372.44 669.336 3658
1384.58 670.983 3667
1393.35 670.983 3667
1402.12 670.983 3667
1410.89 670.983 3667
1419.66 670.983 3667
1428.43 670.983 3667
1437.2 670.983 3667
1445.97 670.983 3667
1454.73 670.983 3667
1463.5 670.983 3667
1472.27 670.983 3667
1481.04 670.983 3667
1489.81 670.983 3667
1494.9 669.336 3658
1503.65 669.336 3658
1512.4 669.336 3658
1521.14 669.336 3658
1529.89 669.336 3658
1535.27 667.872 3650
1544 667.872 3650
1552.73 667.872 3650
1561.46 667.872 3650
1570.19 667.872 3650
1578.91 667.872 3650
1587.64 667.872 3650
1596.37 667.872 3650
1608.62 669.336 3658
1617.36 669.336 3658
1626.11 669.336 3658
1634.86 669.336 3658
1647.65 670.983 3667
1656.42 670.983 3667
1668.82 672.447 3675
1677.61 672.447 3675
1708.88 681.413 3724
1721.48 682.877 3732
1734.11 684.34 3740
1743.05 684.34 3740
1756.21 685.987 3749
1768.95 687.451 3757
1785.98 690.562 3774
1795 690.562 3774
1804.02 690.562 3774
1813.05 690.562 3774
1822.07 690.562 3774
1827.22 689.098 3766
1823.55 684.34 3740
1828.57 682.877 3732
1837.49 682.877 3732
1826.13 675.374 3691
1814.58 667.872 3650
1819.31 666.408 3642
1816.47 662.2 3619
1825.13 662.2 3619
1821.62 657.808 3595
1822.58 655.064 3580
1823.47 652.319 3565
1831.99 652.319 3565
1840.52 652.319 3565
1856.82 655.064 3580
1881.54 660.736 3611
1898.55 663.664 3627
1907.22 663.664 3627
1915.9 663.664 3627
1928.81 665.128 3635
1949.76 669.336 3658
1958.51 669.336 3658
1976.4 672.447 3675
1998.15 676.838 3699
2020.56 681.413 3724
2029.47 681.413 3724
2056.44 687.451 3757
2079.72 692.208 3783
2112.5 700.076 3826
2166.57 714.898 3907
2180.93 716.545 3916
2195.32 718.191 3925
2226.05 725.145 3963
2240.61 726.791 3972
2250.11 726.791 3972
2259.61 726.791 3972
2269.1 726.791 3972
2278.6 726.791 3972
2288.1 726.791 3972
2292.39 725.145 3963
2301.87 725.145 3963
2316.59 726.791 3972
2326.09 726.791 3972
2346.76 730.268 3991
2362.21 732.098 4001
2371.78 732.098 4001
2381.35 732.098 4001
2390.91 732.098 4001
2405.88 733.745 4010
2415.47 733.745 4010
2431.11 735.574 4020
2440.72 735.574 4020
2456.43 737.404 4030
2471.57 739.051 4039
2487.37 740.881 4049
2497.06 740.881 4049
2506.74 740.881 4049
2516.42 740.881 4049
2526.1 740.881 4049
2535.79 740.881 4049
2539.18 739.051 4039
2543.16 737.404 4030
2552.8 737.404 4030
2544 732.098 4001
2547.18 730.268 3991
2550.96 728.621 3982
2560.48 728.621 3982
2563.55 726.791 3972
2554.91 721.668 3944
2564.34 721.668 3944
2573.77 721.668 3944
2583.2 721.668 3944
2562.4 713.251 3898
2559.84 709.957 3880
2522.11 696.966 3809
2531.22 696.966 3809
530.616 134.489 735
532.374 134.489 735
534.131 134.489 735
535.889 134.489 735
537.647 134.489 735
538.67 134.306 734
539.689 134.123 733
540.703 133.94 732
542.454 133.94 732
542.717 133.574 730
543.717 133.391 729
545.461 133.391 729
547.954 133.574 730
549.7 133.574 730
551.446 133.574 730
553.191 133.574 730
554.937 133.574 730
556.683 133.574 730
557.663 133.391 729
-2348 581.333 3136
-2340.5 581.333 3136
-2328.54 580.221 3130
-2316.6 579.109 3124
-2309.13 579.109 3124
-2301.66 579.109 3124
-2294.19 579.109 3124
-2286.72 579.109 3124
-2279.25 579.109 3124
-2276.14 580.221 3130
-2268.66 580.221 3130
-2265.51 581.333 3136
-2270.97 584.67 3154
-2280.65 589.119 3178
-2273.05 589.119 3178
-2282.56 593.568 3202
-2306.17 601.725 3246
-2298.4 601.725 3246
-2290.64 601.725 3246
-2542.16 672.352 3627
-2533.49 672.352 3627
-2530.38 673.835 3635
-2537.64 678.099 3658
-2528.9 678.099 3658
-2520.15 678.099 3658
-2511.4 678.099 3658
-2502.65 678.099 3658
-2493.91 678.099 3658
-2485.16 678.099 3658
-2465.58 675.133 3642
-2452.15 673.835 3635
-2443.46 673.835 3635
-2429.41 672.352 3627
-2420.73 672.352 3627
-2432.68 678.099 3658
-2429.89 679.767 3667
-2421.12 679.767 3667
-2422.88 682.733 3683
-2414.07 682.733 3683
-2405.27 682.733 3683
-2391.25 681.25 3675
-2382.47 681.25 3675
-2378.84 682.733 3683
-2370.04 682.733 3683
-2361.23 682.733 3683
-2347.31 681.25 3675
-2327.71 678.099 3658
-2318.96 678.099 3658
-2295.69 673.835 3635
-2281.96 672.352 3627
-2278.3 673.835 3635
-2278.98 676.616 3650
-2270.25 676.616 3650
-2281.97 682.733 3683
-2298.46 690.334 3724
-2299.4 693.3 3740
-2290.45 693.3 3740
-2281.51 693.3 3740
-1971.66 745.204 4020
-1962.05 745.204 4020
-1952.44 745.204 4020
-1942.83 745.204 4020
-1924.08 741.682 4001
-1914.51 741.682 4001
-1877.8 731.116 3944
-1895.37 741.682 4001
-1885.8 741.682 4001
-1876.24 741.682 4001
-1840.08 731.116 3944
-1813.47 724.257 3907
-1795.82 720.92 3889
-1807.65 729.448 3935
-1798.24 729.448 3935
-1788.83 729.448 3935
-1779.42 729.448 3935
-1770.01 729.448 3935
-1752.1 725.925 3916
-1722.71 717.584 3871
-1713.45 717.584 3871
-1704.19 717.584 3871
-1694.94 717.584 3871
-1685.68 717.584 3871
-1668.63 714.247 3853
-1659.41 714.247 3853
-1642.49 710.91 3835
-1633.32 710.91 3835
-1624.15 710.91 3835
-1614.98 710.91 3835
-1605.81 710.91 3835
-1596.64 710.91 3835
-1587.47 710.91 3835
-1582 712.578 3844
-1572.81 712.578 3844
-1563.62 712.578 3844
-1554.42 712.578 3844
-1534.78 707.759 3818
-1525.65 707.759 3818
-1512.95 706.09 3809
-1490.02 699.602 3774
-1480.99 699.602 3774
-1471.97 699.602 3774
-1462.94 699.602 3774
-631.253 317.546 1713
-627.157 317.546 1713
-623.06 317.546 1713
-618.242 317.175 1711
-614.15 317.175 1711
-609.345 316.805 1709
-605.259 316.805 1709
-601.172 316.805 1709
-597.784 317.175 1711
-593.692 317.175 1711
-589.601 317.175 1711
-585.509 317.175 1711
-580.738 316.805 1709
-576.314 316.619 1708
-572.23 316.619 1708
-568.145 316.619 1708
-563.401 316.248 1706
-558.665 315.878 1704
-554.59 315.878 1704
-549.87 315.507 1702
-544.837 314.951 1699
-539.502 314.209 1695
-535.448 314.209 1695
-531.395 314.209 1695
-527.031 314.024 1694
-522.98 314.024 1694
-518.929 314.024 1694
-514.27 313.653 1692
-509.621 313.282 1690
-505.28 313.097 1689
-501.242 313.097 1689
-496.025 312.356 1685
-491.412 311.985 1683
-487.387 311.985 1683
-483.076 311.799 1682
-479.053 311.799 1682
-473.901 311.058 1678
-469.889 311.058 1678
-465.876 311.058 1678
-461.864 311.058 1678
-457.851 311.058 1678
-453.838 311.058 1678
-450.362 311.429 1680
-446.345 311.429 1680
-442.327 311.429 1680
-438.31 311.429 1680
-434.292 311.429 1680
-430.275 311.429 1680
-426.258 311.429 1680
-422.24 311.429 1680
-418.721 311.799 1682
-414.699 311.799 1682
-410.676 311.799 1682
-406.654 311.799 1682
-402.632 311.799 1682
-398.61 311.799 1682
-394.588 311.799 1682
-390.798 311.985 1683
-386.773 311.985 1683
-383.203 312.356 1685
-379.174 312.356 1685
-376.035 313.097 1689
-371.996 313.097 1689
-368.175 313.282 1690
-364.134 313.282 1690
-360.519 313.653 1692
-357.105 314.209 1695
-354.51 315.507 1702
-350.44 315.507 1702
-347.184 316.248 1706
-344.512 317.546 1713
-341.409 318.473 1718
-337.301 318.473 1718
-334.55 319.771 1725
-332.149 321.439 1734
-329.327 322.737 1741
-325.164 322.737 1741
-321.369 323.107 1743
-317.929 323.849 1747
-314.649 324.776 1752
-310.46 324.776 1752
-307.319 325.888 1758
-303.805 326.629 1762
-300.782 327.927 1769
-296.551 327.927 1769
-293.974 329.781 1779
-289.882 329.966 1780
-285.947 330.337 1782
-281.685 330.337 1782
-277.424 330.337 1782
-273.163 330.337 1782
-268.902 330.337 1782
-264.343 329.966 1780
-259.648 329.41 1777
-255.112 329.039 1775
-250.867 329.039 1775
-246.622 329.039 1775
-242.105 328.668 1773
-237.865 328.668 1773
-233.625 328.668 1773
-230.55 330.337 1782
-226.289 330.337 1782
-222.775 331.449 1788
-219.232 332.561 1794
-215.182 332.932 1796
-210.887 332.932 1796
-206.823 333.303 1798
-202.523 333.303 1798
-198.664 334.044 1802
-194.355 334.044 1802
-190.257 334.415 1804
-186.046 334.6 1805
-182.334 335.713 1811
-178.003 335.713 1811
-173.865 336.083 1813
-169.903 336.825 1817
-166.287 338.308 1825
-161.923 338.308 1825
-157.559 338.308 1825
-153.195 338.308 1825
-148.831 338.308 1825
-316.718 741.682 4001
-307.15 741.682 4001
-297.583 741.682 4001
-288.015 741.682 4001
-275.107 732.784 3953
-265.654 732.784 3953
-253.22 724.257 3907
-245.625 729.448 3935
-236.215 729.448 3935
-226.805 729.448 3935
-217.395 729.448 3935
-207.986 729.448 3935
-198.071 727.594 3925
-188.253 725.925 3916
-178.888 725.925 3916
-169.524 725.925 3916
-160.937 729.448 3935
-152.22 732.784 3953
-143.129 734.638 3963
-133.652 734.638 3963
-124.175 734.638 3963
-114.959 736.306 3972
-105.726 738.16 3982
-96.2039 738.16 3982
-87.0953 741.682 4001
-77.5277 741.682 4001
-67.9601 741.682 4001
-58.3925 741.682 4001
-48.471 736.306 3972
-38.9728 736.306 3972
-29.4745 736.306 3972
-19.7902 729.448 3935
-10.2828 722.589 3898
-0.954827 717.584 3871
8.30191 717.584 3871
17.5178 715.915 3862
26.6907 714.247 3853
35.7366 710.91 3835
44.9073 710.91 3835
53.2178 699.602 3774
61.8302 694.968 3749
70.3231 690.334 3724
78.8667 687.182 3707
87.7312 687.182 3707
96.5958 687.182 3707
105.005 684.216 3691
113.831 684.216 3691
122.658 684.216 3691
130.629 679.767 3667
139.056 678.099 3658
147.48 676.616 3650
156.208 676.616 3650
164.937 676.616 3650
173.665 676.616 3650
182.393 676.616 3650
191.121 676.616 3650
199.85 676.616 3650
207.264 672.352 3627
215.937 672.352 3627
224.61 672.352 3627
233.283 672.352 3627
241.957 672.352 3627
250.63 672.352 3627
259.303 672.352 3627
267.976 672.352 3627
276.65 672.352 3627
285.952 673.835 3635
295.212 675.133 3642
303.921 675.133 3642
312.63 675.133 3642
322.045 676.616 3650
330.773 676.616 3650
339.502 676.616 3650
348.23 676.616 3650
356.958 676.616 3650
364.885 675.133 3642
373.594 675.133 3642
381.568 673.835 3635
386.825 667.903 3603
392.039 662.157 3572
400.58 662.157 3572
408.32 660.859 3565
414.156 656.595 3542
420.001 652.517 3520
425.619 648.254 3497
433.982 648.254 3497
440.573 645.658 3483
445.164 640.283 3454
449.748 635.092 3426
457.941 635.092 3426
462.324 629.902 3398
469.48 628.604 3391
474.632 624.711 3370
482.69 624.711 3370
485.943 618.594 3337
493.923 618.594 3337
502.805 619.706 3343
513.855 623.413 3363
522.984 624.711 3370
531.042 624.711 3370
542.46 628.604 3391
552.842 631.199 3405
564.445 635.092 3426
572.637 635.092 3426
582.017 636.39 3433
591.429 637.687 3440
604.536 642.878 3468
612.829 642.878 3468
622.555 644.361 3476
630.867 644.361 3476
639.18 644.361 3476
647.492 644.361 3476
655.804 644.361 3476
662.588 642.878 3468
670.881 642.878 3468
679.174 642.878 3468
689.053 644.361 3476
697.365 644.361 3476
705.677 644.361 3476
713.989 644.361 3476
720.639 642.878 3468
728.932 642.878 3468
738.926 644.361 3476
747.238 644.361 3476
755.55 644.361 3476
760.566 641.58 3461
768.842 641.58 3461
777.119 641.58 3461
785.395 641.58 3461
792.066 640.283 3454
800.325 640.283 3454
810.224 641.58 3461
818.5 641.58 3461
826.776 641.58 3461
840.361 645.658 3483
850.395 646.956 3490
858.741 646.956 3490
868.826 648.254 3497
880.951 651.034 3512
891.375 652.517 3520
899.792 652.517 3520
913.886 656.595 3542
928.345 660.859 3565
940.812 663.64 3580
949.373 663.64 3580
960.074 665.123 3588
972.704 667.903 3603
985.678 670.869 3619
994.332 670.869 3619
1005.2 672.352 3627
1022.54 678.099 3658
1033.83 679.767 3667
1042.6 679.767 3667
1051.36 679.767 3667
1062.45 681.25 3675
1071.23 681.25 3675
1080.02 681.25 3675
1088.81 681.25 3675
1097.6 681.25 3675
1108.79 682.733 3683
1120.03 684.216 3691
1128.86 684.216 3691
1137.68 684.216 3691
1146.51 684.216 3691
1155.33 684.216 3691
1161.64 682.733 3683
1170.45 682.733 3683
1179.25 682.733 3683
1188.06 682.733 3683
1196.87 682.733 3683
1205.67 682.733 3683
1211.84 681.25 3675
1220.63 681.25 3675
1226.74 679.767 3667
1235.51 679.767 3667
1241.23 678.099 3658
1249.97 678.099 3658
1258.72 678.099 3658
1270.59 679.767 3667
1279.36 679.767 3667
1288.12 679.767 3667
1296.89 679.767 3667
1305.66 679.767 3667
1308.34 676.616 3650
1317.07 676.616 3650
1325.79 676.616 3650
1334.52 676.616 3650
1343.25 676.616 3650
1351.98 676.616 3650
1360.71 676.616 3650
1369.44 676.616 3650
1381.18 678.099 3658
1389.93 678.099 3658
1398.68 678.099 3658
1407.43 678.099 3658
